ply
format ascii 1.0
element vertex 1629
property float x
property float y
property float z
property uchar red
property uchar green
property uchar blue
end_header
-4.55 13.40 3.69 143 142 140
-4.55 13.32 3.69 146 140 140
-0.58 15.56 -0.00 146 138 136
-0.58 15.47 -0.00 146 136 135
-0.58 15.38 -0.00 146 136 134
-0.58 15.29 -0.00 149 139 137
-0.58 15.20 -0.00 149 141 138
-0.58 15.11 -0.00 147 139 136
-0.58 15.02 -0.00 144 139 133
-0.58 14.93 -0.00 147 143 134
-0.76 14.74 0.17 146 142 133
-0.76 14.65 0.17 147 143 134
-0.76 14.56 0.17 147 143 134
-0.76 14.47 0.17 148 141 135
-0.76 14.38 0.17 149 142 136
-0.76 14.29 0.17 151 141 139
-0.76 14.20 0.17 151 141 139
-0.76 14.11 0.17 150 140 138
-0.76 14.02 0.17 147 139 136
-0.76 13.93 0.17 148 143 140
-0.58 13.93 -0.00 147 143 140
-0.58 13.84 -0.00 147 143 142
-0.58 13.75 -0.00 147 143 142
-0.58 13.66 -0.00 148 144 143
-0.58 13.57 -0.00 148 144 143
-0.58 13.48 -0.00 149 146 141
-0.58 13.39 -0.00 149 146 139
-0.58 13.30 -0.00 148 145 136
-0.58 13.21 -0.00 148 146 134
-0.58 13.12 -0.00 147 147 135
-0.58 13.03 -0.00 149 149 139
-0.58 12.94 -0.00 150 150 140
-0.58 12.85 -0.00 149 148 143
-0.58 12.76 -0.00 148 147 143
-0.58 12.67 -0.00 148 147 145
-0.58 12.58 -0.00 149 148 146
-0.58 12.49 -0.00 150 149 147
-0.58 12.40 -0.00 151 150 148
-0.58 12.31 -0.00 151 150 148
-0.58 12.22 -0.00 150 149 147
-0.58 12.12 -0.00 149 148 144
-0.58 12.03 -0.00 149 148 144
-0.58 11.94 -0.00 151 150 145
-0.58 11.85 -0.00 150 149 144
-0.58 11.76 -0.00 150 149 144
-0.58 11.67 -0.00 150 149 144
-0.58 11.58 -0.00 150 150 142
-0.58 11.49 -0.00 151 151 143
-0.76 11.31 0.17 151 151 143
-0.76 11.22 0.17 152 151 146
-0.76 11.13 0.17 154 152 153
-0.76 11.04 0.17 154 152 155
-0.76 10.95 0.17 153 151 152
-0.76 10.86 0.17 151 149 150
-0.76 10.77 0.17 151 150 148
-0.76 10.68 0.17 152 151 149
-0.58 10.68 -0.00 154 153 151
-0.58 10.59 -0.00 155 154 150
-0.58 10.50 -0.00 155 154 150
-0.58 10.41 -0.00 154 155 150
-0.58 10.31 -0.00 155 156 151
-0.58 10.22 -0.00 156 156 154
-0.58 10.13 -0.00 155 155 153
-0.58 10.04 -0.00 153 153 151
-0.58 9.95 -0.00 151 151 149
-0.42 9.93 -0.15 154 154 152
-0.42 9.84 -0.15 154 154 152
-0.42 9.75 -0.15 154 154 154
-0.42 9.66 -0.15 153 153 153
-0.58 9.50 -0.00 152 152 152
-0.58 9.41 -0.00 152 152 152
-0.58 9.32 -0.00 153 153 153
-0.58 9.23 -0.00 155 155 155
-0.58 9.14 -0.00 154 154 152
-0.58 9.05 -0.00 154 154 152
-0.58 8.96 -0.00 155 156 150
-0.58 8.87 -0.00 155 156 150
-0.58 8.78 -0.00 155 157 146
-0.58 8.69 -0.00 155 157 146
-0.58 8.60 -0.00 155 157 144
-0.58 8.50 -0.00 156 156 144
-0.58 8.41 -0.00 158 154 143
-0.58 8.32 -0.00 158 155 146
-0.42 8.30 -0.15 160 157 150
-0.42 8.21 -0.15 161 158 151
-0.42 8.11 -0.15 159 156 151
-0.42 8.02 -0.15 158 155 148
-0.42 7.93 -0.15 159 156 149
-0.42 7.84 -0.15 158 158 148
-0.42 7.75 -0.15 158 158 148
-0.42 7.66 -0.15 159 159 151
-0.42 7.57 -0.15 159 158 153
-0.42 7.48 -0.15 158 159 154
-0.42 7.39 -0.15 159 159 159
-0.42 7.30 -0.15 159 159 161
-0.42 7.21 -0.15 159 158 163
-0.42 7.11 -0.15 159 159 161
-0.42 7.02 -0.15 159 159 161
-0.42 6.93 -0.15 160 160 160
-0.42 6.84 -0.15 160 160 160
-0.42 6.75 -0.15 160 161 156
-0.42 6.66 -0.15 160 161 156
-0.42 6.57 -0.15 160 161 155
-0.42 6.48 -0.15 161 162 156
-0.42 6.39 -0.15 161 162 154
-0.24 6.36 -0.32 163 164 158
-0.24 6.27 -0.32 163 164 159
-0.24 6.18 -0.32 162 163 158
-0.24 6.09 -0.32 162 162 160
-0.42 5.93 -0.15 164 164 164
-0.42 5.84 -0.15 166 166 166
-0.42 5.75 -0.15 163 163 163
-0.42 5.66 -0.15 163 163 163
-0.42 5.57 -0.15 163 163 161
-0.24 5.54 -0.32 164 164 162
-0.24 5.45 -0.32 164 165 160
-0.24 5.36 -0.32 165 166 161
-0.24 5.27 -0.32 165 166 161
-0.24 5.17 -0.32 166 167 162
-0.24 5.08 -0.32 166 167 162
-0.24 4.99 -0.32 166 167 162
-0.24 4.90 -0.32 167 168 163
-0.24 4.81 -0.32 167 168 163
-0.24 4.72 -0.32 167 168 163
-0.24 4.63 -0.32 167 168 163
-0.24 4.54 -0.32 166 166 164
-0.24 4.44 -0.32 165 165 163
-0.24 4.35 -0.32 168 170 167
-0.24 4.26 -0.32 168 170 167
-0.24 4.17 -0.32 167 172 166
-0.24 4.08 -0.32 167 172 165
-0.24 3.99 -0.32 166 171 164
-0.24 3.90 -0.32 165 170 163
-0.24 3.80 -0.32 164 169 162
-0.24 3.71 -0.32 165 172 164
-0.42 3.57 -0.15 165 172 164
-0.42 3.48 -0.15 165 172 165
-0.42 3.39 -0.15 166 172 168
-0.42 3.30 -0.15 166 172 168
-0.42 3.21 -0.15 166 172 170
-0.42 3.12 -0.15 166 172 170
-0.42 3.03 -0.15 166 172 170
-0.42 2.94 -0.15 168 174 172
-0.42 2.84 -0.15 167 173 171
-0.24 2.80 -0.32 167 173 171
-0.24 2.71 -0.32 167 173 171
-0.08 2.66 -0.47 167 173 171
-0.08 2.57 -0.47 168 174 172
-0.08 2.47 -0.47 168 174 172
-0.08 2.38 -0.47 169 175 173
-0.08 2.29 -0.47 166 172 170
-0.08 2.20 -0.47 168 174 172
-0.08 2.11 -0.47 168 174 172
-0.08 2.02 -0.47 166 172 170
-0.08 1.92 -0.47 169 175 173
-0.08 1.83 -0.47 169 175 173
-0.08 1.74 -0.47 166 172 170
-0.08 1.65 -0.47 169 173 172
-0.24 1.52 -0.32 169 173 172
-0.24 1.43 -0.32 169 173 172
-0.08 1.37 -0.47 170 174 173
-0.08 1.28 -0.47 170 174 173
-0.08 1.19 -0.47 171 175 174
-0.08 1.10 -0.47 172 176 175
-0.08 1.01 -0.47 172 176 175
-0.08 0.92 -0.47 170 172 171
-0.08 0.83 -0.47 170 172 171
-0.08 0.73 -0.47 170 172 171
-0.08 0.64 -0.47 171 173 172
-0.24 0.52 -0.32 174 174 174
-0.24 0.43 -0.32 174 174 174
-0.24 0.34 -0.32 173 173 173
-0.24 0.24 -0.32 170 172 171
-0.24 0.15 -0.32 170 174 173
-0.24 0.06 -0.32 170 176 174
-0.24 -0.03 -0.32 172 178 176
-0.24 -0.12 -0.32 172 178 176
-0.24 -0.21 -0.32 171 177 175
-0.24 -0.30 -0.32 170 176 174
-0.24 -0.39 -0.32 169 175 173
-0.08 -0.46 -0.47 171 177 175
-0.08 -0.55 -0.47 171 177 175
-0.08 -0.64 -0.47 170 176 174
-0.08 -0.73 -0.47 171 177 175
-0.08 -0.82 -0.47 172 178 176
-0.08 -0.92 -0.47 173 179 177
-0.08 -1.01 -0.47 173 179 177
-0.08 -1.10 -0.47 173 179 177
-0.08 -1.19 -0.47 174 178 177
-0.08 -1.28 -0.47 175 179 178
-0.08 -1.37 -0.47 176 180 179
-0.08 -1.47 -0.47 177 181 180
-0.08 -1.56 -0.47 176 182 180
-0.08 -1.65 -0.47 176 182 180
-0.08 -1.74 -0.47 177 183 181
-0.08 -1.83 -0.47 178 184 182
-0.08 -1.92 -0.47 174 180 176
-0.08 -2.02 -0.47 175 181 177
-0.08 -2.11 -0.47 175 181 177
-0.08 -2.20 -0.47 176 182 178
-0.08 -2.29 -0.47 174 183 178
-0.08 -2.38 -0.47 174 183 178
-0.08 -2.47 -0.47 174 183 178
-0.08 -2.57 -0.47 174 183 178
0.10 -2.64 -0.64 175 184 179
0.10 -2.73 -0.64 174 185 179
0.10 -2.82 -0.64 175 186 180
0.10 -2.91 -0.64 175 188 181
0.10 -3.00 -0.64 176 189 182
0.10 -3.10 -0.64 176 188 184
0.10 -3.19 -0.64 176 188 184
0.10 -3.28 -0.64 176 187 181
0.10 -3.37 -0.64 176 187 181
0.10 -3.46 -0.64 178 188 180
0.10 -3.56 -0.64 178 188 180
-0.08 -3.67 -0.47 181 188 181
-0.08 -3.76 -0.47 181 188 181
-0.08 -3.85 -0.47 182 187 180
-0.08 -3.94 -0.47 183 188 181
-0.08 -4.03 -0.47 180 187 180
-0.08 -4.12 -0.47 181 188 181
-0.08 -4.22 -0.47 183 189 185
-0.08 -4.31 -0.47 185 191 187
-0.08 -4.40 -0.47 186 192 188
0.10 -4.48 -0.64 186 192 188
0.10 -4.57 -0.64 184 193 188
0.10 -4.66 -0.64 180 191 185
0.10 -4.75 -0.64 182 193 187
0.10 -4.85 -0.64 183 194 190
0.10 -4.94 -0.64 184 195 191
0.10 -5.03 -0.64 183 195 191
0.10 -5.12 -0.64 183 195 191
0.10 -5.21 -0.64 183 195 191
0.10 -5.31 -0.64 184 195 191
0.10 -5.40 -0.64 185 196 192
0.10 -5.49 -0.64 186 195 192
0.10 -5.58 -0.64 187 196 193
0.10 -5.67 -0.64 186 195 192
0.10 -5.77 -0.64 185 194 191
0.10 -5.86 -0.64 185 194 191
0.10 -5.95 -0.64 186 195 192
0.10 -6.04 -0.64 186 195 192
0.10 -6.13 -0.64 187 196 193
0.10 -6.23 -0.64 188 197 194
0.10 -6.32 -0.64 189 198 195
0.10 -6.41 -0.64 190 199 196
0.10 -6.50 -0.64 190 199 196
0.10 -6.60 -0.64 190 199 196
0.10 -6.69 -0.64 190 199 196
0.10 -6.78 -0.64 191 200 197
0.10 -6.87 -0.64 189 198 195
0.10 -6.96 -0.64 190 199 196
0.10 -7.06 -0.64 190 199 196
0.10 -7.15 -0.64 190 199 196
0.10 -7.24 -0.64 191 200 197
0.10 -7.33 -0.64 193 202 199
0.10 -7.42 -0.64 194 203 200
0.10 -7.52 -0.64 194 203 200
0.10 -7.61 -0.64 194 203 200
0.10 -7.70 -0.64 194 203 200
0.10 -7.79 -0.64 194 203 200
0.10 -7.88 -0.64 195 204 201
0.10 -7.98 -0.64 195 204 201
0.10 -8.07 -0.64 195 204 201
0.10 -8.16 -0.64 194 203 200
0.10 -8.25 -0.64 194 203 200
0.10 -8.34 -0.64 194 203 200
0.10 -8.44 -0.64 194 203 200
0.10 -8.53 -0.64 194 203 200
0.10 -8.62 -0.64 193 204 200
0.10 -8.71 -0.64 195 206 202
0.10 -8.81 -0.64 195 207 203
0.10 -8.90 -0.64 196 208 204
0.10 -8.99 -0.64 196 208 204
0.10 -9.08 -0.64 198 209 205
0.10 -9.17 -0.64 198 209 205
0.10 -9.27 -0.64 199 208 205
0.10 -9.36 -0.64 198 207 204
0.10 -9.45 -0.64 198 207 204
0.10 -9.54 -0.64 197 206 203
0.10 -9.63 -0.64 200 209 206
0.10 -9.73 -0.64 200 209 206
0.10 -9.82 -0.64 202 211 208
0.10 -9.91 -0.64 202 211 208
0.10 -10.00 -0.64 202 211 208
0.10 -10.09 -0.64 201 210 207
0.10 -10.19 -0.64 203 209 207
0.10 -10.28 -0.64 202 208 206
0.10 -10.37 -0.64 203 209 207
0.10 -10.46 -0.64 203 209 207
0.10 -10.55 -0.64 202 208 206
0.10 -10.65 -0.64 201 207 205
0.10 -10.74 -0.64 202 206 205
0.10 -10.83 -0.64 203 207 206
0.10 -10.92 -0.64 203 207 206
0.10 -11.01 -0.64 204 208 207
0.10 -11.11 -0.64 204 208 207
0.10 -11.20 -0.64 206 210 209
0.10 -11.29 -0.64 207 211 210
0.10 -11.38 -0.64 205 211 209
0.10 -11.48 -0.64 205 211 209
0.10 -11.57 -0.64 205 211 209
0.10 -11.66 -0.64 206 212 210
0.10 -11.75 -0.64 204 213 210
0.10 -11.84 -0.64 205 214 211
0.10 -11.94 -0.64 205 214 211
0.29 -12.05 -0.81 205 214 211
0.29 -12.14 -0.81 204 213 210
0.29 -12.23 -0.81 204 213 210
0.29 -12.33 -0.81 203 214 210
0.10 -12.40 -0.64 203 214 210
0.10 -12.49 -0.64 202 211 208
0.10 -12.58 -0.64 202 211 208
0.29 -12.70 -0.81 202 211 208
0.29 -12.79 -0.81 201 210 207
0.29 -12.88 -0.81 200 209 206
0.29 -12.97 -0.81 201 210 207
0.29 -13.07 -0.81 203 212 209
0.29 -13.16 -0.81 204 213 210
0.29 -13.25 -0.81 205 211 209
0.29 -13.34 -0.81 205 211 209
0.29 -13.44 -0.81 205 211 209
0.29 -13.53 -0.81 206 212 210
0.29 -13.62 -0.81 206 212 210
0.29 -13.71 -0.81 207 211 210
0.29 -13.81 -0.81 207 211 210
0.29 -13.90 -0.81 208 214 212
0.44 -14.02 -0.96 208 214 212
0.44 -14.11 -0.96 208 214 212
0.44 -14.20 -0.96 208 214 212
0.44 -14.30 -0.96 208 214 212
0.44 -14.39 -0.96 208 214 212
0.44 -14.48 -0.96 209 213 212
0.44 -14.57 -0.96 209 213 212
0.44 -14.67 -0.96 209 213 212
0.44 -14.76 -0.96 210 214 213
0.44 -14.85 -0.96 213 215 214
0.44 -14.95 -0.96 213 215 214
0.29 -15.01 -0.81 212 214 213
0.29 -15.10 -0.81 212 214 213
0.29 -15.19 -0.81 212 214 213
0.29 -15.29 -0.81 213 215 214
0.29 -15.38 -0.81 213 213 213
0.29 -15.47 -0.81 213 213 213
0.29 -15.56 -0.81 213 213 213
0.29 -15.66 -0.81 213 213 213
0.29 -15.75 -0.81 210 214 213
0.29 -15.84 -0.81 209 215 213
0.29 -15.93 -0.81 209 215 213
0.29 -16.03 -0.81 209 215 213
0.29 -16.12 -0.81 208 214 212
0.29 -16.21 -0.81 207 213 211
0.29 -16.30 -0.81 208 214 212
0.29 -16.40 -0.81 210 214 213
0.29 -16.49 -0.81 211 215 214
0.44 -16.62 -0.96 210 214 213
0.44 -16.71 -0.96 211 213 212
0.44 -16.80 -0.96 210 211 213
0.44 -16.90 -0.96 212 212 214
0.44 -16.99 -0.96 213 213 215
0.44 -17.08 -0.96 214 214 216
0.44 -17.17 -0.96 215 215 217
0.44 -17.27 -0.96 215 215 217
0.44 -17.36 -0.96 214 214 214
0.44 -17.45 -0.96 213 213 213
0.44 -17.55 -0.96 213 213 213
0.44 -17.64 -0.96 213 213 213
0.44 -17.73 -0.96 213 213 213
0.44 -17.83 -0.96 213 213 213
0.44 -17.92 -0.96 212 212 210
0.44 -18.01 -0.96 209 209 207
0.44 -18.10 -0.96 207 207 205
0.44 -18.20 -0.96 211 211 211
0.44 -18.29 -0.96 212 212 212
0.44 -18.38 -0.96 213 213 215
0.44 -18.48 -0.96 213 213 215
0.44 -18.57 -0.96 213 213 215
0.44 -18.66 -0.96 212 212 214
0.29 -18.71 -0.81 211 211 213
0.29 -18.80 -0.81 210 210 212
0.44 -18.94 -0.96 209 208 213
0.44 -19.03 -0.96 210 209 214
0.44 -19.13 -0.96 211 210 215
0.44 -19.22 -0.96 211 210 215
0.44 -19.31 -0.96 212 211 216
0.44 -19.40 -0.96 212 211 216
0.44 -19.50 -0.96 212 211 216
0.44 -19.59 -0.96 212 211 216
0.44 -19.68 -0.96 212 212 212
0.44 -19.78 -0.96 212 212 212
0.44 -19.87 -0.96 213 213 213
0.44 -19.96 -0.96 213 213 213
0.44 -20.05 -0.96 213 213 213
0.44 -20.15 -0.96 212 212 212
0.44 -20.24 -0.96 211 211 211
0.44 -20.33 -0.96 212 212 212
0.44 -20.43 -0.96 212 212 212
0.44 -20.52 -0.96 213 213 213
0.44 -20.61 -0.96 212 212 212
0.44 -20.70 -0.96 211 211 211
0.44 -20.80 -0.96 210 210 210
0.44 -20.89 -0.96 210 210 210
0.44 -20.98 -0.96 210 210 210
0.44 -21.08 -0.96 211 211 209
0.44 -21.17 -0.96 211 211 209
0.44 -21.26 -0.96 211 211 209
0.44 -21.35 -0.96 211 211 209
0.44 -21.45 -0.96 212 212 210
0.44 -21.54 -0.96 212 212 210
0.44 -21.63 -0.96 212 212 210
0.44 -21.73 -0.96 212 212 210
0.44 -21.82 -0.96 209 209 207
0.44 -21.91 -0.96 210 210 208
0.44 -22.00 -0.96 211 211 209
0.44 -22.10 -0.96 210 210 208
0.44 -22.19 -0.96 210 210 208
0.44 -22.28 -0.96 211 211 209
0.44 -22.38 -0.96 211 211 209
0.44 -22.47 -0.96 212 212 212
0.44 -22.56 -0.96 212 212 212
0.44 -22.65 -0.96 211 211 211
0.44 -22.75 -0.96 210 210 210
0.44 -22.84 -0.96 210 210 210
0.44 -22.93 -0.96 211 211 211
0.44 -23.03 -0.96 212 212 212
0.44 -23.12 -0.96 212 212 212
0.44 -23.21 -0.96 213 213 213
0.44 -23.30 -0.96 213 213 213
0.44 -23.40 -0.96 213 213 213
0.44 -23.49 -0.96 212 212 212
0.44 -23.58 -0.96 211 211 211
0.44 -23.68 -0.96 211 211 211
0.44 -23.77 -0.96 210 210 210
0.44 -23.86 -0.96 209 209 209
0.63 -24.03 -1.13 209 211 210
0.63 -24.12 -1.13 209 211 210
0.63 -24.22 -1.13 210 212 211
0.63 -24.31 -1.13 210 212 211
0.63 -24.40 -1.13 209 211 210
0.63 -24.50 -1.13 210 212 211
0.63 -24.59 -1.13 211 213 212
0.63 -24.68 -1.13 212 214 213
0.63 -24.78 -1.13 216 218 217
0.63 -24.87 -1.13 212 214 213
0.63 -24.96 -1.13 211 213 212
0.44 -24.98 -0.96 212 214 213
0.29 -25.00 -0.81 215 217 216
0.29 -25.09 -0.81 232 234 233
-6.77 17.00 5.66 0 0 0
-6.77 16.93 5.66 0 0 0
-6.77 16.85 5.66 0 0 0
-6.77 16.77 5.66 0 0 0
-6.77 16.70 5.66 0 0 0
-6.77 16.62 5.66 186 186 178
-6.64 16.64 5.54 186 186 178
-6.64 16.56 5.54 188 187 182
-6.64 16.49 5.54 185 184 179
-6.64 16.41 5.54 177 176 172
-6.64 16.33 5.54 167 170 163
-6.64 16.26 5.54 156 164 151
-6.64 16.18 5.54 141 156 133
-6.64 16.10 5.54 124 151 116
-6.64 16.03 5.54 96 136 84
-6.51 16.04 5.41 82 133 74
-6.51 15.97 5.41 72 133 66
-6.51 15.89 5.41 70 136 72
-6.51 15.81 5.41 70 138 81
-6.40 15.81 5.31 68 136 87
-6.40 15.73 5.31 68 134 96
-6.27 15.74 5.19 69 133 106
-6.14 15.76 5.07 65 129 112
-6.03 15.75 4.97 62 127 121
-6.03 15.67 4.97 58 127 132
-5.90 15.68 4.85 51 130 143
-5.90 15.61 4.85 48 128 151
-5.77 15.62 4.73 46 125 166
-5.64 15.63 4.60 45 122 178
-5.51 15.64 4.48 46 121 186
-5.51 15.56 4.48 40 114 185
-5.38 15.56 4.36 42 116 189
-5.38 15.48 4.36 37 110 189
-5.25 15.49 4.24 31 107 193
-5.11 15.50 4.11 30 107 197
-5.11 15.42 4.11 21 101 186
-5.11 15.34 4.11 25 105 190
-5.11 15.26 4.11 25 105 194
-4.98 15.26 3.99 26 103 195
-4.98 15.18 3.99 23 103 192
-4.98 15.10 3.99 23 103 192
-4.98 15.02 3.99 22 103 194
-4.98 14.94 3.99 21 102 193
-4.98 14.86 3.99 20 99 192
-4.98 14.78 3.99 22 96 191
-4.98 14.70 3.99 26 97 189
-4.98 14.62 3.99 37 98 187
-4.98 14.54 3.99 56 107 188
-4.98 14.46 3.99 83 122 191
-4.98 14.38 3.99 134 151 194
-4.98 14.30 3.99 151 160 189
-4.98 14.22 3.99 163 166 185
-4.98 14.14 3.99 164 167 172
-4.85 14.14 3.87 167 167 167
-4.85 14.06 3.87 167 167 167
-4.85 13.98 3.87 168 164 165
-4.85 13.90 3.87 167 162 166
-4.85 13.81 3.87 165 159 163
-4.85 13.73 3.87 159 155 156
-4.72 13.73 3.74 154 150 151
-4.72 13.65 3.74 138 136 137
-4.72 13.57 3.74 137 135 136
-4.72 13.49 3.74 137 136 134
-4.59 13.49 3.62 137 136 134
-4.59 13.40 3.62 141 137 136
-4.59 13.32 3.62 143 137 137
-0.81 15.46 0.09 143 137 137
-0.63 15.47 -0.08 145 136 137
-0.81 15.28 0.09 145 135 134
-0.81 15.19 0.09 147 137 136
-0.63 15.20 -0.08 148 140 137
-0.63 15.11 -0.08 148 140 137
-0.81 14.92 0.09 147 142 138
-0.81 14.83 0.09 148 143 137
-0.81 14.74 0.09 146 141 135
-0.81 14.65 0.09 148 143 137
-0.81 14.56 0.09 148 143 137
-0.81 14.47 0.09 149 141 138
-0.81 14.38 0.09 149 141 138
-0.81 14.29 0.09 148 140 137
-0.81 14.20 0.09 148 140 137
-0.81 14.11 0.09 149 139 138
-0.81 14.02 0.09 148 140 138
-0.81 13.93 0.09 150 145 142
-0.81 13.83 0.09 149 145 142
-0.81 13.74 0.09 148 144 143
-0.81 13.65 0.09 148 144 143
-0.81 13.56 0.09 148 144 145
-0.81 13.47 0.09 148 144 145
-0.81 13.38 0.09 148 144 141
-0.81 13.29 0.09 148 145 140
-0.81 13.20 0.09 150 147 140
-0.63 13.21 -0.08 151 148 139
-0.63 13.12 -0.08 150 150 138
-0.63 13.03 -0.08 150 150 140
-0.63 12.94 -0.08 148 148 138
-0.63 12.85 -0.08 148 147 142
-0.63 12.76 -0.08 150 149 147
-0.63 12.67 -0.08 149 148 146
-0.63 12.58 -0.08 149 147 148
-0.63 12.49 -0.08 150 149 147
-0.63 12.40 -0.08 150 149 147
-0.63 12.31 -0.08 151 150 148
-0.81 12.12 0.09 150 149 147
-0.81 12.03 0.09 149 148 144
-0.81 11.94 0.09 149 148 144
-0.81 11.85 0.09 149 148 144
-0.81 11.76 0.09 149 148 144
-0.81 11.67 0.09 150 149 144
-0.81 11.58 0.09 151 150 145
-0.81 11.49 0.09 152 151 146
-0.81 11.40 0.09 152 151 146
-0.81 11.31 0.09 152 151 146
-0.81 11.22 0.09 152 151 147
-0.81 11.13 0.09 153 152 150
-0.81 11.04 0.09 153 151 152
-0.81 10.95 0.09 153 151 152
-0.81 10.86 0.09 153 151 152
-0.81 10.77 0.09 152 151 149
-0.81 10.68 0.09 152 151 149
-0.81 10.59 0.09 153 152 148
-0.81 10.50 0.09 153 152 148
-0.81 10.41 0.09 153 152 148
-0.81 10.32 0.09 152 153 148
-0.63 10.31 -0.08 153 154 149
-0.63 10.22 -0.08 155 156 151
-0.63 10.13 -0.08 156 157 152
-0.63 10.04 -0.08 155 155 153
-0.63 9.95 -0.08 155 155 153
-0.63 9.86 -0.08 153 153 151
-0.63 9.77 -0.08 154 154 152
-0.63 9.68 -0.08 155 155 153
-0.63 9.59 -0.08 154 154 152
-0.63 9.50 -0.08 154 154 154
-0.63 9.41 -0.08 153 153 153
-0.63 9.32 -0.08 154 154 152
-0.63 9.23 -0.08 155 155 153
-0.63 9.14 -0.08 155 156 151
-0.63 9.05 -0.08 155 156 151
-0.63 8.96 -0.08 155 156 150
-0.63 8.87 -0.08 155 156 150
-0.63 8.78 -0.08 155 157 146
-0.63 8.69 -0.08 155 157 146
-0.63 8.60 -0.08 156 158 147
-0.63 8.50 -0.08 157 157 147
-0.63 8.41 -0.08 159 155 146
-0.63 8.32 -0.08 159 156 147
-0.63 8.23 -0.08 161 158 151
-0.63 8.14 -0.08 161 158 153
-0.63 8.05 -0.08 160 157 152
-0.63 7.96 -0.08 158 158 150
-0.63 7.87 -0.08 159 159 151
-0.63 7.78 -0.08 159 159 149
-0.63 7.69 -0.08 159 159 149
-0.63 7.60 -0.08 159 161 150
-0.63 7.51 -0.08 159 160 152
-0.63 7.42 -0.08 159 160 154
-0.63 7.33 -0.08 160 160 158
-0.63 7.24 -0.08 160 160 158
-0.63 7.15 -0.08 160 160 160
-0.63 7.06 -0.08 158 158 160
-0.63 6.97 -0.08 160 160 162
-0.63 6.88 -0.08 161 161 159
-0.63 6.79 -0.08 162 162 160
-0.47 6.75 -0.23 163 164 159
-0.47 6.66 -0.23 163 164 159
-0.47 6.57 -0.23 163 164 158
-0.47 6.48 -0.23 164 165 159
-0.47 6.39 -0.23 161 162 154
-0.47 6.30 -0.23 164 165 159
-0.47 6.21 -0.23 164 165 159
-0.47 6.12 -0.23 163 164 159
-0.47 6.02 -0.23 162 163 158
-0.47 5.93 -0.23 163 163 161
-0.47 5.84 -0.23 164 164 162
-0.47 5.75 -0.23 163 163 161
-0.47 5.66 -0.23 163 163 161
-0.47 5.57 -0.23 164 165 160
-0.47 5.48 -0.23 164 165 160
-0.47 5.39 -0.23 164 165 160
-0.47 5.30 -0.23 165 166 161
-0.47 5.21 -0.23 165 166 161
-0.47 5.12 -0.23 166 167 162
-0.47 5.03 -0.23 166 167 162
-0.28 4.99 -0.40 166 167 162
-0.28 4.90 -0.40 167 168 163
-0.28 4.81 -0.40 168 169 164
-0.28 4.72 -0.40 168 168 166
-0.28 4.63 -0.40 167 167 165
-0.28 4.54 -0.40 166 166 164
-0.28 4.44 -0.40 166 166 164
-0.47 4.30 -0.23 166 168 163
-0.47 4.21 -0.23 167 169 164
-0.47 4.12 -0.23 169 171 166
-0.47 4.03 -0.23 168 170 165
-0.47 3.93 -0.23 167 169 164
-0.47 3.84 -0.23 166 171 164
-0.47 3.75 -0.23 167 172 165
-0.47 3.66 -0.23 167 172 166
-0.47 3.57 -0.23 167 172 166
-0.47 3.48 -0.23 167 172 168
-0.47 3.39 -0.23 167 172 168
-0.47 3.30 -0.23 167 172 168
-0.47 3.21 -0.23 167 172 168
-0.47 3.12 -0.23 166 172 170
-0.47 3.03 -0.23 166 172 170
-0.47 2.94 -0.23 166 172 170
-0.47 2.84 -0.23 166 172 170
-0.47 2.75 -0.23 167 173 171
-0.47 2.66 -0.23 167 173 171
-0.28 2.62 -0.40 167 173 171
-0.28 2.53 -0.40 167 173 171
-0.28 2.44 -0.40 167 173 171
-0.28 2.34 -0.40 166 172 170
-0.28 2.25 -0.40 166 172 170
-0.28 2.16 -0.40 167 173 171
-0.28 2.07 -0.40 168 174 172
-0.28 1.98 -0.40 167 173 171
-0.28 1.89 -0.40 169 175 173
-0.28 1.80 -0.40 168 174 172
-0.28 1.71 -0.40 165 171 169
-0.28 1.61 -0.40 167 171 170
-0.28 1.52 -0.40 168 172 171
-0.28 1.43 -0.40 169 173 172
-0.28 1.34 -0.40 170 174 173
-0.28 1.25 -0.40 171 175 174
-0.28 1.16 -0.40 171 175 174
-0.28 1.07 -0.40 173 175 174
-0.28 0.98 -0.40 172 174 173
-0.28 0.88 -0.40 173 175 174
-0.28 0.79 -0.40 172 174 173
-0.28 0.70 -0.40 172 174 173
-0.28 0.61 -0.40 172 174 173
-0.28 0.52 -0.40 173 175 174
-0.28 0.43 -0.40 174 176 175
-0.28 0.34 -0.40 173 175 174
-0.47 0.21 -0.23 172 174 173
-0.47 0.12 -0.23 167 173 171
-0.28 0.06 -0.40 168 174 172
-0.28 -0.03 -0.40 170 176 174
-0.28 -0.12 -0.40 170 176 174
-0.28 -0.21 -0.40 170 176 174
-0.28 -0.30 -0.40 171 177 175
-0.28 -0.39 -0.40 171 177 175
-0.28 -0.49 -0.40 171 177 175
-0.28 -0.58 -0.40 171 177 175
-0.28 -0.67 -0.40 171 177 175
-0.13 -0.73 -0.55 171 177 175
-0.13 -0.82 -0.55 172 178 176
-0.13 -0.92 -0.55 172 178 176
-0.13 -1.01 -0.55 172 178 176
-0.13 -1.10 -0.55 172 178 176
-0.13 -1.19 -0.55 173 179 177
-0.13 -1.28 -0.55 174 180 178
-0.13 -1.37 -0.55 175 181 179
-0.13 -1.47 -0.55 175 181 179
-0.28 -1.58 -0.40 176 182 180
-0.28 -1.67 -0.40 176 182 180
-0.28 -1.76 -0.40 177 183 181
-0.28 -1.85 -0.40 177 183 181
-0.28 -1.95 -0.40 175 184 179
-0.28 -2.04 -0.40 175 184 179
-0.28 -2.13 -0.40 175 184 179
-0.28 -2.22 -0.40 175 184 179
-0.13 -2.29 -0.55 175 184 179
-0.13 -2.38 -0.55 176 185 180
-0.13 -2.47 -0.55 176 185 180
-0.13 -2.57 -0.55 178 188 180
-0.13 -2.66 -0.55 178 188 180
-0.13 -2.75 -0.55 177 188 182
-0.13 -2.84 -0.55 178 189 183
-0.13 -2.93 -0.55 178 189 183
-0.13 -3.02 -0.55 179 190 184
-0.13 -3.12 -0.55 178 190 186
-0.13 -3.21 -0.55 178 190 186
-0.13 -3.30 -0.55 178 189 185
-0.13 -3.39 -0.55 178 189 185
-0.13 -3.48 -0.55 179 188 183
-0.13 -3.57 -0.55 180 189 184
-0.13 -3.67 -0.55 182 189 182
-0.13 -3.76 -0.55 183 190 183
-0.13 -3.85 -0.55 183 190 183
-0.13 -3.94 -0.55 183 190 183
-0.13 -4.03 -0.55 182 189 182
-0.13 -4.12 -0.55 183 190 183
-0.13 -4.22 -0.55 183 189 185
-0.13 -4.31 -0.55 184 190 186
-0.13 -4.40 -0.55 185 191 187
-0.13 -4.49 -0.55 185 191 187
-0.13 -4.58 -0.55 183 192 187
-0.13 -4.67 -0.55 180 191 185
-0.13 -4.77 -0.55 182 193 187
-0.13 -4.86 -0.55 183 194 190
-0.13 -4.95 -0.55 184 195 191
-0.13 -5.04 -0.55 184 195 191
0.06 -5.12 -0.72 184 195 191
0.06 -5.21 -0.72 184 196 192
0.06 -5.31 -0.72 185 196 192
0.06 -5.40 -0.72 185 196 192
0.06 -5.49 -0.72 186 195 192
0.06 -5.58 -0.72 187 196 193
0.06 -5.67 -0.72 187 196 193
0.06 -5.77 -0.72 187 196 193
0.06 -5.86 -0.72 188 197 194
0.06 -5.95 -0.72 189 198 195
0.06 -6.04 -0.72 190 199 196
0.06 -6.13 -0.72 189 198 195
0.06 -6.23 -0.72 189 198 195
0.06 -6.32 -0.72 190 199 196
0.06 -6.41 -0.72 190 199 196
0.06 -6.50 -0.72 189 198 195
-0.13 -6.60 -0.55 190 199 196
-0.13 -6.69 -0.55 191 200 197
-0.13 -6.78 -0.55 192 201 198
-0.13 -6.87 -0.55 190 199 196
-0.13 -6.97 -0.55 190 199 196
-0.13 -7.06 -0.55 190 199 196
-0.13 -7.15 -0.55 190 199 196
-0.13 -7.24 -0.55 191 200 197
-0.13 -7.33 -0.55 193 202 199
0.06 -7.42 -0.72 194 203 200
0.06 -7.52 -0.72 192 201 198
0.06 -7.61 -0.72 192 201 198
0.06 -7.70 -0.72 192 201 198
0.06 -7.79 -0.72 193 202 199
0.06 -7.88 -0.72 194 203 200
0.06 -7.98 -0.72 194 203 200
0.06 -8.07 -0.72 194 203 200
0.06 -8.16 -0.72 193 202 199
0.06 -8.25 -0.72 195 204 201
0.06 -8.34 -0.72 195 204 201
-0.13 -8.43 -0.55 195 204 201
-0.13 -8.52 -0.55 195 204 201
-0.13 -8.62 -0.55 195 206 202
-0.13 -8.71 -0.55 197 208 204
-0.13 -8.80 -0.55 197 209 205
-0.13 -8.89 -0.55 198 210 206
-0.13 -8.98 -0.55 198 210 206
-0.13 -9.07 -0.55 198 209 205
-0.13 -9.17 -0.55 197 208 204
-0.13 -9.26 -0.55 198 207 204
-0.13 -9.35 -0.55 199 208 205
-0.13 -9.44 -0.55 199 208 205
-0.13 -9.53 -0.55 199 208 205
-0.13 -9.62 -0.55 201 210 207
0.06 -9.73 -0.72 200 209 206
0.06 -9.82 -0.72 200 209 206
0.06 -9.91 -0.72 201 210 207
0.06 -10.00 -0.72 204 210 208
0.06 -10.09 -0.72 205 211 209
0.06 -10.19 -0.72 203 209 207
0.06 -10.28 -0.72 202 208 206
0.06 -10.37 -0.72 203 209 207
0.06 -10.46 -0.72 203 209 207
0.06 -10.55 -0.72 205 209 208
0.06 -10.65 -0.72 206 210 209
0.06 -10.74 -0.72 206 210 209
0.06 -10.83 -0.72 205 209 208
0.06 -10.92 -0.72 204 208 207
0.06 -11.01 -0.72 204 208 207
0.06 -11.11 -0.72 205 211 209
0.06 -11.20 -0.72 206 212 210
0.06 -11.29 -0.72 206 212 210
0.06 -11.38 -0.72 205 211 209
0.06 -11.48 -0.72 205 211 209
0.06 -11.57 -0.72 203 212 209
0.06 -11.66 -0.72 204 213 210
0.06 -11.75 -0.72 205 214 211
0.06 -11.84 -0.72 206 215 212
0.06 -11.94 -0.72 206 215 212
0.06 -12.03 -0.72 206 215 212
0.06 -12.12 -0.72 204 215 211
0.06 -12.21 -0.72 203 214 210
0.06 -12.30 -0.72 202 213 209
0.06 -12.40 -0.72 203 214 210
0.06 -12.49 -0.72 206 215 212
0.06 -12.58 -0.72 206 215 212
0.06 -12.67 -0.72 206 215 212
0.06 -12.76 -0.72 206 215 212
0.06 -12.86 -0.72 205 214 211
0.06 -12.95 -0.72 205 214 211
0.06 -13.04 -0.72 207 213 211
0.06 -13.13 -0.72 208 214 212
0.06 -13.22 -0.72 206 212 210
0.24 -13.34 -0.89 206 212 210
0.24 -13.44 -0.89 206 212 210
0.24 -13.53 -0.89 207 213 211
0.24 -13.62 -0.89 207 213 211
0.24 -13.71 -0.89 208 212 211
0.24 -13.81 -0.89 208 212 211
0.24 -13.90 -0.89 208 214 212
0.24 -13.99 -0.89 208 214 212
0.24 -14.08 -0.89 208 214 212
0.24 -14.18 -0.89 208 214 212
0.24 -14.27 -0.89 210 214 213
0.24 -14.36 -0.89 210 214 213
0.24 -14.45 -0.89 210 214 213
0.24 -14.55 -0.89 210 214 213
0.24 -14.64 -0.89 212 216 215
0.24 -14.73 -0.89 212 216 215
0.24 -14.82 -0.89 215 217 216
0.24 -14.92 -0.89 214 216 215
0.24 -15.01 -0.89 213 215 214
0.06 -15.07 -0.72 212 214 213
0.06 -15.16 -0.72 212 214 213
0.06 -15.25 -0.72 213 213 213
0.06 -15.34 -0.72 213 213 213
0.06 -15.43 -0.72 214 212 213
0.06 -15.53 -0.72 213 213 213
0.06 -15.62 -0.72 213 213 213
0.06 -15.71 -0.72 212 214 213
0.06 -15.80 -0.72 210 214 213
0.06 -15.89 -0.72 210 214 213
0.24 -16.03 -0.89 211 215 214
0.24 -16.12 -0.89 210 214 213
0.24 -16.21 -0.89 209 213 212
0.24 -16.30 -0.89 210 214 213
0.24 -16.40 -0.89 211 215 214
0.24 -16.49 -0.89 211 215 214
0.24 -16.58 -0.89 213 215 214
0.24 -16.67 -0.89 212 214 213
0.24 -16.77 -0.89 213 213 215
0.24 -16.86 -0.89 213 213 215
0.24 -16.95 -0.89 214 214 216
0.24 -17.04 -0.89 214 214 216
0.24 -17.14 -0.89 215 215 217
0.24 -17.23 -0.89 215 215 217
0.24 -17.32 -0.89 216 216 216
0.24 -17.41 -0.89 216 216 216
0.24 -17.51 -0.89 214 214 214
0.24 -17.60 -0.89 214 214 214
0.24 -17.69 -0.89 214 214 214
0.24 -17.78 -0.89 213 213 213
0.24 -17.88 -0.89 213 213 211
0.24 -17.97 -0.89 211 211 209
0.24 -18.06 -0.89 211 211 209
0.24 -18.15 -0.89 213 213 213
0.24 -18.25 -0.89 213 213 213
0.24 -18.34 -0.89 213 213 213
0.24 -18.43 -0.89 213 213 213
0.24 -18.52 -0.89 213 213 213
0.24 -18.62 -0.89 213 213 213
0.24 -18.71 -0.89 213 213 215
0.24 -18.80 -0.89 213 213 215
0.24 -18.89 -0.89 212 212 214
0.24 -18.99 -0.89 212 212 214
0.24 -19.08 -0.89 213 213 215
0.24 -19.17 -0.89 214 214 216
0.24 -19.26 -0.89 214 214 216
0.24 -19.36 -0.89 214 214 216
0.24 -19.45 -0.89 214 213 218
0.24 -19.54 -0.89 214 213 218
0.24 -19.63 -0.89 212 212 212
0.40 -19.78 -1.04 212 212 212
0.40 -19.87 -1.04 213 213 213
0.40 -19.96 -1.04 213 213 213
0.40 -20.05 -1.04 213 213 213
0.40 -20.15 -1.04 212 212 212
0.24 -20.19 -0.89 211 211 211
0.24 -20.28 -0.89 213 213 213
0.24 -20.37 -0.89 213 213 213
0.24 -20.47 -0.89 214 214 214
0.24 -20.56 -0.89 213 213 213
0.24 -20.65 -0.89 213 213 213
0.24 -20.74 -0.89 212 212 212
0.24 -20.84 -0.89 212 212 212
0.24 -20.93 -0.89 212 212 212
0.24 -21.02 -0.89 211 211 209
0.24 -21.11 -0.89 211 211 209
0.24 -21.21 -0.89 211 211 209
0.24 -21.30 -0.89 211 211 209
0.24 -21.39 -0.89 211 211 209
0.24 -21.48 -0.89 211 211 209
0.24 -21.58 -0.89 211 211 209
0.24 -21.67 -0.89 211 211 209
0.24 -21.76 -0.89 209 209 207
0.24 -21.85 -0.89 211 211 209
0.24 -21.95 -0.89 211 211 209
0.24 -22.04 -0.89 210 210 208
0.24 -22.13 -0.89 210 210 208
0.24 -22.22 -0.89 211 211 209
0.24 -22.32 -0.89 211 211 209
0.24 -22.41 -0.89 211 211 211
0.24 -22.50 -0.89 211 211 211
0.24 -22.59 -0.89 210 210 210
0.24 -22.69 -0.89 209 209 209
0.24 -22.78 -0.89 209 209 209
0.24 -22.87 -0.89 209 209 209
0.40 -23.03 -1.04 210 210 210
0.24 -23.06 -0.89 210 210 210
0.40 -23.21 -1.04 210 210 210
0.24 -23.24 -0.89 210 210 210
0.24 -23.33 -0.89 210 210 210
0.24 -23.43 -0.89 211 211 211
0.24 -23.52 -0.89 211 211 211
0.24 -23.61 -0.89 211 211 211
0.24 -23.70 -0.89 211 211 211
0.40 -23.86 -1.04 211 211 211
0.40 -23.95 -1.04 210 212 211
0.40 -24.05 -1.04 210 212 211
0.40 -24.14 -1.04 210 212 211
0.40 -24.23 -1.04 210 212 211
0.40 -24.33 -1.04 209 211 210
0.40 -24.42 -1.04 209 211 210
0.40 -24.51 -1.04 210 212 211
0.40 -24.60 -1.04 211 213 212
0.40 -24.70 -1.04 213 215 214
0.40 -24.79 -1.04 212 214 213
0.40 -24.88 -1.04 212 214 213
0.24 -24.91 -0.89 213 215 214
0.24 -25.00 -0.89 212 214 213
0.24 -25.09 -0.89 230 232 231
-6.81 17.00 5.59 0 0 0
-6.81 16.93 5.59 0 0 0
-6.81 16.85 5.59 0 0 0
-6.81 16.77 5.59 0 0 0
-6.81 16.70 5.59 0 0 0
-6.81 16.62 5.59 191 189 174
-6.81 16.54 5.59 191 189 174
-6.67 16.56 5.47 184 185 169
-6.67 16.49 5.47 176 179 162
-6.67 16.41 5.47 166 174 153
-6.67 16.33 5.47 157 172 143
-6.67 16.26 5.47 144 166 128
-6.67 16.18 5.47 120 155 101
-6.67 16.10 5.47 99 144 79
-6.54 16.12 5.35 79 136 57
-6.54 16.04 5.35 71 135 49
-6.54 15.97 5.35 63 136 46
-6.54 15.89 5.35 65 139 52
-6.54 15.81 5.35 64 141 61
-6.44 15.81 5.25 64 140 68
-6.44 15.73 5.25 66 138 75
-6.31 15.74 5.13 65 137 89
-6.18 15.76 5.00 60 130 102
-6.07 15.75 4.90 56 128 116
-6.07 15.67 4.90 52 126 125
-5.94 15.68 4.78 48 128 137
-5.94 15.61 4.78 46 127 146
-5.81 15.62 4.66 42 124 161
-5.68 15.63 4.54 42 122 173
-5.55 15.64 4.41 42 120 182
-5.55 15.56 4.41 35 112 180
-5.42 15.56 4.29 35 112 182
-5.42 15.48 4.29 32 108 184
-5.29 15.49 4.17 31 107 193
-5.15 15.50 4.04 31 106 197
-5.15 15.42 4.04 22 102 187
-5.15 15.34 4.04 24 104 191
-5.15 15.26 4.04 23 100 192
-5.02 15.26 3.92 24 100 196
-5.02 15.18 3.92 25 101 195
-5.02 15.10 3.92 25 101 195
-5.02 15.02 3.92 21 100 192
-5.02 14.94 3.92 19 98 190
-5.02 14.86 3.92 18 97 189
-5.02 14.78 3.92 20 97 189
-5.02 14.70 3.92 28 99 189
-5.02 14.62 3.92 28 92 180
-5.02 14.54 3.92 36 93 174
-5.02 14.46 3.92 57 103 178
-5.02 14.38 3.92 109 134 188
-5.02 14.30 3.92 134 151 197
-5.02 14.22 3.92 155 166 198
-5.02 14.14 3.92 159 165 177
-4.89 14.14 3.80 165 166 170
-4.89 14.06 3.80 165 166 170
-4.89 13.98 3.80 165 163 168
-4.89 13.90 3.80 163 161 164
-4.89 13.81 3.80 162 157 161
-4.89 13.73 3.80 155 151 152
-4.76 13.73 3.67 149 145 146
-4.76 13.65 3.67 143 142 140
-4.76 13.57 3.67 141 140 138
-4.76 13.49 3.67 140 139 137
-4.76 13.41 3.67 139 138 136
-4.76 13.33 3.67 142 138 137
-4.63 13.32 3.55 144 138 138
-0.85 15.46 0.01 144 138 138
-0.85 15.37 0.01 146 137 138
-0.85 15.28 0.01 143 134 135
-0.85 15.19 0.01 144 135 136
-0.85 15.10 0.01 145 137 135
-0.85 15.01 0.01 147 139 137
-0.85 14.92 0.01 150 142 140
-0.85 14.83 0.01 148 143 139
-0.85 14.74 0.01 145 140 136
-0.85 14.65 0.01 148 143 139
-0.85 14.56 0.01 149 144 140
-0.85 14.47 0.01 149 144 141
-1.01 14.29 0.16 148 143 140
-1.01 14.20 0.16 148 140 138
-1.01 14.11 0.16 148 140 138
-1.01 14.02 0.16 150 141 142
-1.01 13.93 0.16 152 143 144
-0.85 13.93 0.01 149 145 144
-0.85 13.83 0.01 149 145 144
-0.85 13.74 0.01 149 145 146
-0.85 13.65 0.01 148 144 145
-0.85 13.56 0.01 148 143 147
-0.85 13.47 0.01 148 143 147
-0.85 13.38 0.01 149 145 144
-0.85 13.29 0.01 149 145 144
-0.85 13.20 0.01 149 146 141
-0.85 13.11 0.01 151 148 143
-0.85 13.02 0.01 150 150 142
-0.85 12.93 0.01 149 149 141
-0.85 12.84 0.01 147 146 141
-0.85 12.75 0.01 146 145 141
-0.85 12.66 0.01 151 150 148
-0.85 12.57 0.01 150 148 149
-0.85 12.48 0.01 149 147 148
-0.85 12.39 0.01 149 147 148
-0.85 12.30 0.01 150 148 149
-0.85 12.21 0.01 151 150 148
-0.85 12.12 0.01 151 150 148
-0.85 12.03 0.01 149 148 146
-0.85 11.94 0.01 148 147 145
-0.85 11.85 0.01 148 147 143
-0.85 11.76 0.01 149 148 144
-0.85 11.67 0.01 151 150 146
-0.85 11.58 0.01 152 151 147
-0.85 11.49 0.01 153 152 148
-0.85 11.40 0.01 152 151 147
-0.85 11.31 0.01 152 151 147
-0.85 11.22 0.01 151 150 146
-0.85 11.13 0.01 153 149 148
-0.85 11.04 0.01 154 150 149
-0.85 10.95 0.01 156 152 149
-0.85 10.86 0.01 156 152 149
-0.85 10.77 0.01 154 153 149
-0.85 10.68 0.01 153 152 148
-0.85 10.59 0.01 153 152 147
-0.85 10.50 0.01 156 155 150
-0.85 10.41 0.01 155 154 149
-0.85 10.32 0.01 154 153 148
-0.85 10.23 0.01 154 153 148
-0.67 10.22 -0.16 153 154 149
-0.67 10.13 -0.16 154 155 150
-0.85 9.96 0.01 154 155 150
-0.85 9.87 0.01 154 155 150
-0.85 9.78 0.01 154 153 151
-0.85 9.69 0.01 155 154 152
-0.85 9.60 0.01 156 155 153
-0.85 9.51 0.01 157 156 154
-0.85 9.42 0.01 156 155 153
-0.85 9.33 0.01 156 155 153
-0.85 9.24 0.01 157 156 154
-0.85 9.15 0.01 157 156 154
-0.85 9.06 0.01 157 156 152
-0.85 8.97 0.01 157 156 152
-0.85 8.88 0.01 156 155 150
-0.85 8.79 0.01 156 155 150
-0.85 8.70 0.01 156 156 148
-0.85 8.61 0.01 157 157 149
-0.85 8.52 0.01 158 158 148
-0.85 8.43 0.01 159 159 149
-0.67 8.41 -0.16 158 155 148
-0.67 8.32 -0.16 158 155 148
-0.67 8.23 -0.16 159 156 151
-0.67 8.14 -0.16 160 156 153
-0.67 8.05 -0.16 159 155 152
-0.67 7.96 -0.16 157 156 151
-0.67 7.87 -0.16 159 158 153
-0.67 7.78 -0.16 160 160 150
-0.67 7.69 -0.16 160 160 150
-0.67 7.60 -0.16 159 161 148
-0.67 7.51 -0.16 159 161 150
-0.67 7.42 -0.16 159 161 150
-0.85 7.26 0.01 160 161 155
-0.85 7.17 0.01 160 161 155
-0.85 7.08 0.01 160 160 158
-0.85 6.99 0.01 157 157 155
-0.85 6.90 0.01 158 158 158
-0.85 6.81 0.01 160 160 158
-0.67 6.79 -0.16 161 161 159
-0.67 6.69 -0.16 161 162 157
-0.67 6.60 -0.16 161 162 157
-0.67 6.51 -0.16 162 163 157
-0.67 6.42 -0.16 162 163 157
-0.67 6.33 -0.16 160 161 153
-0.51 6.30 -0.31 163 164 158
-0.51 6.21 -0.31 164 165 159
-0.51 6.12 -0.31 164 165 160
-0.51 6.02 -0.31 163 164 159
-0.51 5.93 -0.31 163 163 161
-0.67 5.79 -0.16 163 163 161
-0.67 5.70 -0.16 163 164 159
-0.67 5.61 -0.16 163 164 159
-0.67 5.52 -0.16 163 164 159
-0.51 5.48 -0.31 164 165 160
-0.51 5.39 -0.31 164 165 159
-0.51 5.30 -0.31 164 165 159
-0.51 5.21 -0.31 165 166 160
-0.51 5.12 -0.31 165 166 160
-0.51 5.03 -0.31 166 167 162
-0.51 4.93 -0.31 167 168 163
-0.51 4.84 -0.31 167 167 165
-0.51 4.75 -0.31 168 168 166
-0.51 4.66 -0.31 168 168 168
-0.51 4.57 -0.31 167 167 167
-0.51 4.48 -0.31 167 167 167
-0.51 4.39 -0.31 166 166 166
-0.51 4.30 -0.31 166 167 162
-0.51 4.21 -0.31 168 169 164
-0.51 4.12 -0.31 170 171 166
-0.51 4.03 -0.31 166 168 163
-0.51 3.93 -0.31 166 168 163
-0.51 3.84 -0.31 168 170 165
-0.51 3.75 -0.31 170 172 167
-0.51 3.66 -0.31 169 171 166
-0.51 3.57 -0.31 169 171 166
-0.51 3.48 -0.31 169 171 166
-0.51 3.39 -0.31 169 171 166
-0.51 3.30 -0.31 169 171 168
-0.51 3.21 -0.31 169 171 168
-0.51 3.12 -0.31 169 171 170
-0.51 3.03 -0.31 169 171 170
-0.67 2.89 -0.16 165 170 166
-0.67 2.80 -0.16 166 171 167
-0.67 2.71 -0.16 167 172 168
-0.67 2.62 -0.16 168 173 169
-0.51 2.57 -0.31 169 174 170
-0.51 2.48 -0.31 168 173 169
-0.51 2.39 -0.31 168 172 171
-0.51 2.30 -0.31 167 171 170
-0.51 2.21 -0.31 166 170 169
-0.51 2.12 -0.31 168 172 171
-0.51 2.03 -0.31 169 173 172
-0.51 1.94 -0.31 169 173 172
-0.51 1.84 -0.31 169 175 173
-0.33 1.80 -0.48 167 173 171
-0.33 1.71 -0.48 166 170 169
-0.51 1.57 -0.31 166 170 169
-0.51 1.48 -0.31 169 171 170
-0.51 1.39 -0.31 171 173 172
-0.51 1.30 -0.31 172 174 173
-0.51 1.21 -0.31 173 175 174
-0.51 1.12 -0.31 173 175 174
-0.51 1.03 -0.31 170 174 173
-0.51 0.94 -0.31 169 173 172
-0.51 0.85 -0.31 172 176 175
-0.51 0.75 -0.31 171 175 174
-0.51 0.66 -0.31 170 174 173
-0.51 0.57 -0.31 170 174 173
-0.51 0.48 -0.31 171 175 174
-0.51 0.39 -0.31 172 176 175
-0.51 0.30 -0.31 172 176 175
-0.51 0.21 -0.31 172 176 175
-0.51 0.12 -0.31 168 174 172
-0.51 0.03 -0.31 169 175 173
-0.51 -0.06 -0.31 170 176 174
-0.51 -0.15 -0.31 170 176 174
-0.51 -0.25 -0.31 170 176 174
-0.51 -0.34 -0.31 171 177 175
-0.51 -0.43 -0.31 172 178 176
-0.33 -0.49 -0.48 171 177 175
-0.33 -0.58 -0.48 172 178 176
-0.33 -0.67 -0.48 172 178 176
-0.33 -0.76 -0.48 172 178 176
-0.17 -0.82 -0.63 172 178 176
-0.17 -0.92 -0.63 172 178 176
-0.17 -1.01 -0.63 172 178 176
-0.17 -1.10 -0.63 171 177 175
-0.17 -1.19 -0.63 173 179 177
-0.33 -1.31 -0.48 173 179 177
-0.33 -1.40 -0.48 172 181 178
-0.33 -1.49 -0.48 173 182 179
-0.33 -1.58 -0.48 173 182 179
-0.33 -1.67 -0.48 173 182 179
-0.33 -1.76 -0.48 174 183 180
-0.33 -1.85 -0.48 175 184 181
-0.33 -1.95 -0.48 177 186 181
-0.33 -2.04 -0.48 176 185 180
-0.33 -2.13 -0.48 175 186 180
-0.33 -2.22 -0.48 174 185 179
-0.33 -2.31 -0.48 175 186 180
-0.33 -2.40 -0.48 175 186 180
-0.33 -2.49 -0.48 178 189 183
-0.33 -2.59 -0.48 177 187 179
-0.33 -2.68 -0.48 177 187 179
-0.17 -2.75 -0.63 178 187 182
-0.17 -2.84 -0.63 178 187 182
-0.17 -2.93 -0.63 177 188 184
-0.17 -3.02 -0.63 177 188 184
-0.17 -3.12 -0.63 177 188 184
-0.17 -3.21 -0.63 178 189 185
-0.17 -3.30 -0.63 179 190 186
-0.17 -3.39 -0.63 179 190 186
-0.17 -3.48 -0.63 180 189 186
-0.17 -3.57 -0.63 180 189 186
-0.17 -3.67 -0.63 181 190 185
-0.33 -3.77 -0.48 181 190 185
-0.33 -3.86 -0.48 183 189 185
-0.33 -3.95 -0.48 183 189 185
-0.33 -4.05 -0.48 184 191 184
-0.33 -4.14 -0.48 183 190 183
-0.33 -4.23 -0.48 183 189 185
-0.17 -4.31 -0.63 183 189 185
-0.17 -4.40 -0.63 181 190 185
-0.17 -4.49 -0.63 182 191 186
-0.17 -4.58 -0.63 183 192 187
-0.17 -4.67 -0.63 182 191 186
-0.17 -4.77 -0.63 183 192 187
-0.17 -4.86 -0.63 183 194 190
-0.17 -4.95 -0.63 184 195 191
-0.17 -5.04 -0.63 184 195 191
-0.17 -5.13 -0.63 184 195 191
-0.17 -5.22 -0.63 185 196 192
-0.17 -5.32 -0.63 186 197 193
-0.17 -5.41 -0.63 186 195 192
-0.17 -5.50 -0.63 187 196 193
-0.17 -5.59 -0.63 188 197 194
-0.17 -5.68 -0.63 188 197 194
-0.17 -5.77 -0.63 188 197 194
-0.17 -5.87 -0.63 188 197 194
-0.17 -5.96 -0.63 189 198 195
-0.17 -6.05 -0.63 190 199 196
-0.17 -6.14 -0.63 190 199 196
-0.17 -6.23 -0.63 190 199 196
-0.17 -6.32 -0.63 189 198 195
-0.17 -6.42 -0.63 188 197 194
-0.17 -6.51 -0.63 188 197 194
-0.17 -6.60 -0.63 189 198 195
-0.17 -6.69 -0.63 190 199 196
-0.17 -6.78 -0.63 192 201 198
-0.17 -6.87 -0.63 191 200 197
-0.17 -6.97 -0.63 191 200 197
-0.17 -7.06 -0.63 191 200 197
-0.17 -7.15 -0.63 191 200 197
-0.17 -7.24 -0.63 191 200 197
-0.17 -7.33 -0.63 193 202 199
-0.17 -7.42 -0.63 194 203 200
-0.17 -7.52 -0.63 193 202 199
-0.17 -7.61 -0.63 193 202 199
-0.17 -7.70 -0.63 193 202 199
-0.17 -7.79 -0.63 194 203 200
-0.17 -7.88 -0.63 195 204 201
-0.17 -7.97 -0.63 195 204 201
-0.17 -8.07 -0.63 195 204 201
-0.17 -8.16 -0.63 194 203 200
-0.17 -8.25 -0.63 194 203 200
-0.17 -8.34 -0.63 194 203 200
-0.17 -8.43 -0.63 194 203 200
-0.17 -8.52 -0.63 195 204 201
-0.17 -8.62 -0.63 195 206 202
-0.17 -8.71 -0.63 196 207 203
-0.17 -8.80 -0.63 198 209 205
-0.17 -8.89 -0.63 198 209 205
-0.17 -8.98 -0.63 199 210 206
-0.17 -9.07 -0.63 197 208 204
-0.17 -9.17 -0.63 197 208 204
-0.17 -9.26 -0.63 198 207 204
-0.17 -9.35 -0.63 199 208 205
-0.17 -9.44 -0.63 200 209 206
-0.17 -9.53 -0.63 200 209 206
-0.17 -9.62 -0.63 205 211 209
-0.17 -9.72 -0.63 203 209 207
-0.17 -9.81 -0.63 201 207 205
-0.17 -9.90 -0.63 202 208 206
-0.17 -9.99 -0.63 204 210 208
-0.17 -10.08 -0.63 205 211 209
-0.17 -10.17 -0.63 205 209 208
-0.17 -10.26 -0.63 203 207 206
-0.17 -10.36 -0.63 205 209 208
-0.17 -10.45 -0.63 205 209 208
-0.17 -10.54 -0.63 206 210 209
-0.17 -10.63 -0.63 206 210 209
-0.17 -10.72 -0.63 206 210 209
-0.17 -10.81 -0.63 206 210 209
-0.17 -10.91 -0.63 206 210 209
-0.17 -11.00 -0.63 205 209 208
-0.17 -11.09 -0.63 204 213 210
-0.17 -11.18 -0.63 205 214 211
-0.17 -11.27 -0.63 205 214 211
-0.17 -11.36 -0.63 204 213 210
-0.17 -11.46 -0.63 203 212 209
-0.17 -11.55 -0.63 203 212 209
-0.17 -11.64 -0.63 204 213 210
-0.17 -11.73 -0.63 205 214 211
-0.17 -11.82 -0.63 205 214 211
-0.17 -11.91 -0.63 206 215 212
-0.17 -12.01 -0.63 205 214 211
0.01 -12.12 -0.80 203 214 210
0.01 -12.21 -0.80 203 214 210
-0.17 -12.28 -0.63 203 214 210
-0.17 -12.37 -0.63 203 214 210
-0.17 -12.46 -0.63 206 215 212
-0.17 -12.56 -0.63 207 216 213
-0.17 -12.65 -0.63 208 217 214
0.01 -12.76 -0.80 208 217 214
0.01 -12.86 -0.80 209 215 213
0.01 -12.95 -0.80 208 214 212
0.01 -13.04 -0.80 207 213 211
0.01 -13.13 -0.80 206 212 210
0.01 -13.22 -0.80 207 213 211
0.01 -13.32 -0.80 208 214 212
0.01 -13.41 -0.80 208 214 212
0.01 -13.50 -0.80 208 214 212
0.01 -13.59 -0.80 208 214 212
0.01 -13.69 -0.80 208 214 212
0.01 -13.78 -0.80 208 214 212
0.01 -13.87 -0.80 209 215 213
0.01 -13.96 -0.80 209 215 213
0.01 -14.05 -0.80 210 214 213
0.01 -14.15 -0.80 210 214 213
0.01 -14.24 -0.80 210 214 213
0.01 -14.33 -0.80 210 214 213
0.01 -14.42 -0.80 210 214 213
0.01 -14.51 -0.80 210 214 213
0.01 -14.61 -0.80 210 214 213
0.01 -14.70 -0.80 211 215 214
0.01 -14.79 -0.80 211 215 214
0.01 -14.88 -0.80 211 215 214
0.01 -14.97 -0.80 210 214 213
0.01 -15.07 -0.80 209 213 212
0.01 -15.16 -0.80 211 213 212
0.01 -15.25 -0.80 212 212 212
0.01 -15.34 -0.80 213 213 213
0.01 -15.43 -0.80 214 212 213
0.01 -15.53 -0.80 213 213 213
0.01 -15.62 -0.80 213 213 213
0.01 -15.71 -0.80 213 213 213
0.01 -15.80 -0.80 212 214 213
0.01 -15.89 -0.80 212 214 213
0.01 -15.99 -0.80 212 214 213
0.01 -16.08 -0.80 212 214 213
0.01 -16.17 -0.80 212 214 213
0.01 -16.26 -0.80 212 214 213
0.01 -16.36 -0.80 213 215 214
0.01 -16.45 -0.80 213 215 214
0.01 -16.54 -0.80 214 214 214
0.01 -16.63 -0.80 213 213 213
0.01 -16.72 -0.80 213 213 213
0.01 -16.82 -0.80 213 213 213
0.01 -16.91 -0.80 213 213 213
0.01 -17.00 -0.80 213 213 213
0.01 -17.09 -0.80 214 214 214
0.01 -17.18 -0.80 215 215 215
0.01 -17.28 -0.80 216 216 216
0.01 -17.37 -0.80 217 217 217
0.01 -17.46 -0.80 216 216 216
0.01 -17.55 -0.80 215 215 215
0.01 -17.64 -0.80 214 214 214
0.01 -17.74 -0.80 213 213 213
0.01 -17.83 -0.80 212 212 210
0.01 -17.92 -0.80 214 214 212
0.01 -18.01 -0.80 214 214 212
0.01 -18.10 -0.80 213 213 211
0.01 -18.20 -0.80 213 213 211
0.01 -18.29 -0.80 212 212 212
0.01 -18.38 -0.80 212 212 212
0.01 -18.47 -0.80 212 212 212
0.01 -18.57 -0.80 212 212 212
0.01 -18.66 -0.80 213 213 213
0.01 -18.75 -0.80 213 213 213
0.01 -18.84 -0.80 213 213 213
0.01 -18.93 -0.80 213 213 213
0.01 -19.03 -0.80 213 213 213
0.19 -19.17 -0.97 213 213 213
0.19 -19.26 -0.97 214 214 214
0.19 -19.36 -0.97 214 214 214
0.19 -19.45 -0.97 213 213 215
0.19 -19.54 -0.97 213 213 215
0.19 -19.63 -0.97 212 212 212
0.19 -19.73 -0.97 213 213 213
0.19 -19.82 -0.97 213 213 213
0.19 -19.91 -0.97 213 213 213
0.19 -20.00 -0.97 213 213 213
0.19 -20.10 -0.97 212 212 212
0.19 -20.19 -0.97 212 212 212
0.19 -20.28 -0.97 214 214 214
0.19 -20.37 -0.97 214 214 214
0.19 -20.47 -0.97 213 213 213
0.19 -20.56 -0.97 213 213 213
0.19 -20.65 -0.97 213 213 213
0.19 -20.74 -0.97 213 213 213
0.19 -20.84 -0.97 213 213 213
0.19 -20.93 -0.97 213 213 213
0.19 -21.02 -0.97 212 212 212
0.19 -21.11 -0.97 212 212 212
0.19 -21.21 -0.97 212 212 212
0.19 -21.30 -0.97 212 212 212
0.19 -21.39 -0.97 212 212 212
0.19 -21.48 -0.97 212 212 212
0.19 -21.58 -0.97 212 212 212
0.19 -21.67 -0.97 212 212 212
0.19 -21.76 -0.97 210 210 208
0.19 -21.85 -0.97 212 212 210
0.19 -21.95 -0.97 212 212 210
0.19 -22.04 -0.97 210 210 208
0.19 -22.13 -0.97 210 210 208
0.01 -22.16 -0.80 211 211 209
0.01 -22.25 -0.80 210 210 208
0.01 -22.34 -0.80 211 211 211
0.01 -22.43 -0.80 211 211 211
0.01 -22.52 -0.80 210 210 210
0.01 -22.62 -0.80 209 209 209
0.01 -22.71 -0.80 209 209 209
0.19 -22.87 -0.97 209 209 209
0.19 -22.96 -0.97 209 209 209
0.19 -23.06 -0.97 210 210 210
0.19 -23.15 -0.97 210 210 210
0.19 -23.24 -0.97 210 210 210
0.19 -23.33 -0.97 210 210 210
0.19 -23.43 -0.97 210 210 210
0.01 -23.45 -0.80 210 210 210
0.01 -23.54 -0.80 211 211 211
0.01 -23.63 -0.80 212 212 212
0.19 -23.80 -0.97 212 212 212
0.19 -23.89 -0.97 212 212 212
0.19 -23.98 -0.97 212 212 212
0.19 -24.07 -0.97 211 211 211
0.19 -24.17 -0.97 210 210 210
0.19 -24.26 -0.97 210 210 210
0.19 -24.35 -0.97 210 210 210
0.19 -24.44 -0.97 211 211 211
0.19 -24.54 -0.97 213 213 213
0.19 -24.63 -0.97 210 210 210
0.19 -24.72 -0.97 213 213 213
0.19 -24.81 -0.97 212 212 212
0.19 -24.91 -0.97 213 213 213
0.01 -24.92 -0.80 209 209 209
0.01 -25.01 -0.80 224 224 224
-6.84 17.00 5.53 0 0 0
-6.84 16.93 5.53 0 0 0
-6.84 16.85 5.53 0 0 0
-6.84 16.77 5.53 0 0 0
-6.84 16.70 5.53 0 0 0
-6.84 16.62 5.53 187 182 178
-6.84 16.54 5.53 187 182 178
-6.71 16.56 5.40 181 178 173
-6.71 16.49 5.40 169 172 161
-6.71 16.41 5.40 157 168 152
-6.71 16.33 5.40 142 165 137
-6.71 16.26 5.40 124 156 117
-6.71 16.18 5.40 99 143 90
-6.71 16.10 5.40 78 133 66
-6.58 16.12 5.28 73 135 58
-6.58 16.04 5.28 67 136 53
-6.58 15.97 5.28 63 137 50
-6.58 15.89 5.28 64 139 56
-6.58 15.81 5.28 66 140 65
-6.48 15.81 5.18 65 137 71
-6.35 15.82 5.06 66 135 78
-6.35 15.74 5.06 66 135 90
-6.22 15.76 4.93 57 131 96
-6.11 15.75 4.84 56 129 109
-6.11 15.67 4.84 53 129 119
-5.98 15.68 4.71 49 127 131
-5.98 15.61 4.71 46 125 140
-5.85 15.62 4.59 43 122 153
-5.72 15.63 4.47 40 118 166
-5.72 15.55 4.47 36 115 172
-5.59 15.56 4.34 31 109 175
-5.59 15.48 4.34 30 107 175
-5.46 15.48 4.22 30 106 182
-5.33 15.49 4.10 30 106 192
-5.33 15.41 4.10 29 104 195
-5.19 15.42 3.97 25 101 189
-5.19 15.34 3.97 24 99 190
-5.19 15.26 3.97 22 96 191
-5.19 15.18 3.97 23 97 196
-5.06 15.18 3.85 23 97 194
-5.06 15.10 3.85 22 96 193
-5.06 15.02 3.85 20 95 188
-5.06 14.94 3.85 19 94 187
-5.06 14.86 3.85 18 93 184
-5.06 14.78 3.85 19 93 182
-5.06 14.70 3.85 26 96 184
-5.06 14.62 3.85 25 90 174
-5.06 14.54 3.85 30 87 168
-5.06 14.46 3.85 43 91 167
-5.06 14.38 3.85 76 106 170
-5.06 14.30 3.85 104 129 186
-5.06 14.22 3.85 134 151 195
-5.06 14.14 3.85 153 161 180
-4.93 14.14 3.73 161 164 173
-4.93 14.06 3.73 164 164 172
-4.93 13.98 3.73 161 158 167
-4.93 13.90 3.73 156 154 159
-4.93 13.81 3.73 155 150 156
-4.93 13.73 3.73 150 146 147
-4.80 13.73 3.60 146 142 143
-4.80 13.65 3.60 140 139 137
-4.80 13.57 3.60 139 138 136
-0.90 15.82 -0.07 137 136 134
-0.90 15.73 -0.07 136 135 133
-0.90 15.64 -0.07 138 134 133
-0.90 15.55 -0.07 140 134 134
-0.90 15.46 -0.07 139 133 133
-0.90 15.37 -0.07 141 132 133
-0.90 15.28 -0.07 142 133 136
-0.90 15.19 -0.07 143 134 137
-0.90 15.10 -0.07 144 135 136
-0.90 15.01 -0.07 146 137 138
-0.90 14.92 -0.07 148 139 140
-0.90 14.83 -0.07 147 142 139
-0.90 14.74 -0.07 145 140 137
-0.90 14.65 -0.07 146 141 138
-1.06 14.47 0.08 146 141 138
-1.06 14.38 0.08 147 141 141
-1.06 14.29 0.08 147 141 141
-1.06 14.20 0.08 147 141 141
-1.06 14.11 0.08 148 142 142
-1.06 14.02 0.08 149 143 145
-1.06 13.93 0.08 151 145 147
-1.06 13.84 0.08 148 144 143
-1.06 13.75 0.08 148 144 143
-1.06 13.66 0.08 148 144 145
-1.06 13.57 0.08 148 144 145
-1.06 13.48 0.08 148 143 147
-1.06 13.39 0.08 149 144 148
-1.06 13.30 0.08 149 145 146
-1.06 13.21 0.08 150 146 147
-1.06 13.12 0.08 147 143 140
-1.06 13.03 0.08 149 145 142
-0.90 13.02 -0.07 148 147 142
-0.90 12.93 -0.07 147 146 141
-0.90 12.84 -0.07 146 145 141
-0.90 12.75 -0.07 147 146 144
-0.90 12.66 -0.07 149 147 148
-0.90 12.57 -0.07 151 149 150
-0.90 12.48 -0.07 149 147 148
-0.90 12.39 -0.07 149 147 148
-0.90 12.30 -0.07 149 147 148
-0.90 12.21 -0.07 151 149 150
-0.90 12.12 -0.07 151 149 150
-0.90 12.03 -0.07 150 149 147
-1.06 11.87 0.08 148 147 145
-1.06 11.78 0.08 149 148 146
-1.06 11.69 0.08 150 149 147
-1.06 11.60 0.08 151 150 148
-1.06 11.51 0.08 152 151 149
-1.06 11.42 0.08 152 151 147
-1.06 11.33 0.08 152 151 147
-1.06 11.24 0.08 152 151 147
-1.06 11.15 0.08 152 151 147
-1.06 11.06 0.08 153 149 146
-1.06 10.97 0.08 154 150 147
-1.06 10.88 0.08 156 153 148
-1.06 10.79 0.08 157 154 149
-1.06 10.70 0.08 156 153 148
-1.06 10.61 0.08 156 153 148
-1.06 10.52 0.08 153 153 145
-1.06 10.43 0.08 156 156 148
-0.90 10.41 -0.07 155 155 147
-0.90 10.32 -0.07 155 154 149
-0.90 10.23 -0.07 154 153 148
-0.90 10.14 -0.07 154 153 148
-0.90 10.05 -0.07 154 153 148
-0.90 9.96 -0.07 154 153 149
-0.90 9.87 -0.07 154 153 149
-0.90 9.78 -0.07 154 153 149
-0.90 9.69 -0.07 155 154 150
-0.90 9.60 -0.07 156 155 151
-0.90 9.51 -0.07 156 155 151
-0.90 9.42 -0.07 156 155 151
-0.90 9.33 -0.07 156 155 151
-0.90 9.24 -0.07 157 156 152
-0.90 9.15 -0.07 157 156 152
-0.90 9.06 -0.07 157 156 151
-0.90 8.97 -0.07 157 156 151
-0.90 8.88 -0.07 157 156 151
-0.90 8.79 -0.07 157 156 151
-0.90 8.70 -0.07 157 157 149
-0.90 8.61 -0.07 158 158 150
-0.90 8.52 -0.07 158 158 150
-0.90 8.43 -0.07 158 158 150
-0.90 8.34 -0.07 158 155 150
-0.90 8.25 -0.07 158 155 150
-0.90 8.16 -0.07 158 154 151
-0.90 8.07 -0.07 158 154 153
-0.90 7.98 -0.07 159 155 154
-0.90 7.89 -0.07 158 157 152
-0.90 7.80 -0.07 158 157 152
-0.90 7.71 -0.07 158 160 149
-0.90 7.62 -0.07 158 160 149
-0.90 7.53 -0.07 158 160 147
-0.90 7.44 -0.07 158 160 147
-0.90 7.35 -0.07 158 160 149
