ply
format ascii 1.0
element vertex 1659
property float x
property float y
property float z
property uchar red
property uchar green
property uchar blue
end_header
1.89 2.88 -0.42 169 174 168
1.89 2.79 -0.42 169 174 170
1.89 2.69 -0.42 170 175 171
1.89 2.60 -0.42 167 172 168
1.89 2.50 -0.42 168 173 169
1.89 2.41 -0.42 168 172 171
1.89 2.32 -0.42 168 172 171
1.89 2.22 -0.42 168 172 173
1.89 2.13 -0.42 168 172 173
1.89 2.03 -0.42 168 172 173
1.89 1.94 -0.42 169 173 172
1.70 1.80 -0.25 171 175 174
1.70 1.71 -0.25 171 175 174
1.89 1.65 -0.42 170 174 173
1.89 1.56 -0.42 168 172 171
1.89 1.46 -0.42 167 171 170
1.89 1.37 -0.42 169 173 172
1.89 1.28 -0.42 171 175 174
1.89 1.18 -0.42 169 173 172
1.89 1.09 -0.42 170 174 173
1.89 0.99 -0.42 170 174 173
1.89 0.90 -0.42 169 173 172
2.08 0.84 -0.58 169 173 172
2.08 0.74 -0.58 170 174 173
2.08 0.65 -0.58 172 176 175
1.89 0.52 -0.42 173 177 176
1.89 0.42 -0.42 171 175 174
1.89 0.33 -0.42 172 176 175
1.89 0.23 -0.42 171 177 175
1.89 0.14 -0.42 172 178 176
1.89 0.05 -0.42 173 179 177
1.89 -0.05 -0.42 172 181 178
1.89 -0.14 -0.42 172 181 178
1.70 -0.27 -0.25 170 179 176
1.70 -0.36 -0.25 171 180 177
1.89 -0.43 -0.42 171 182 178
1.89 -0.52 -0.42 172 183 179
1.89 -0.62 -0.42 172 183 179
1.89 -0.71 -0.42 171 182 178
1.89 -0.81 -0.42 169 181 177
1.89 -0.90 -0.42 169 180 176
2.08 -0.97 -0.58 168 179 175
2.08 -1.06 -0.58 172 181 178
2.08 -1.16 -0.58 173 182 179
2.08 -1.25 -0.58 172 181 178
2.08 -1.35 -0.58 173 182 179
2.08 -1.44 -0.58 175 184 181
2.08 -1.54 -0.58 175 184 181
2.08 -1.63 -0.58 173 182 179
2.08 -1.73 -0.58 174 183 180
2.08 -1.82 -0.58 175 184 181
2.08 -1.92 -0.58 176 185 182
2.08 -2.01 -0.58 175 184 181
2.08 -2.11 -0.58 175 184 181
2.08 -2.20 -0.58 175 184 181
2.08 -2.30 -0.58 178 187 184
2.08 -2.39 -0.58 176 187 183
2.08 -2.49 -0.58 176 187 183
2.08 -2.58 -0.58 177 188 184
2.08 -2.68 -0.58 176 187 183
2.08 -2.77 -0.58 175 186 182
2.08 -2.87 -0.58 176 187 183
2.08 -2.96 -0.58 177 188 184
2.08 -3.06 -0.58 179 190 186
2.08 -3.15 -0.58 179 190 186
2.08 -3.25 -0.58 179 190 186
2.08 -3.34 -0.58 178 189 185
2.08 -3.44 -0.58 179 190 186
2.08 -3.53 -0.58 180 191 187
2.08 -3.63 -0.58 180 191 187
2.08 -3.72 -0.58 178 189 185
2.08 -3.82 -0.58 177 188 184
2.08 -3.91 -0.58 182 191 188
2.08 -4.01 -0.58 182 191 188
2.08 -4.10 -0.58 182 191 188
2.08 -4.20 -0.58 182 191 188
2.08 -4.29 -0.58 184 190 188
2.26 -4.37 -0.75 184 190 188
2.26 -4.47 -0.75 185 191 189
2.26 -4.56 -0.75 185 191 189
2.26 -4.66 -0.75 184 190 188
2.26 -4.75 -0.75 184 188 187
2.26 -4.85 -0.75 185 189 188
2.26 -4.94 -0.75 186 190 189
2.26 -5.04 -0.75 187 191 190
2.26 -5.14 -0.75 187 191 190
2.26 -5.23 -0.75 185 191 189
2.08 -5.34 -0.58 182 191 186
2.08 -5.43 -0.58 182 193 187
2.26 -5.52 -0.75 185 194 189
2.26 -5.61 -0.75 186 195 190
2.26 -5.71 -0.75 186 195 190
2.26 -5.80 -0.75 186 195 190
2.26 -5.90 -0.75 188 194 190
2.26 -5.99 -0.75 188 194 190
2.26 -6.09 -0.75 187 193 189
2.26 -6.18 -0.75 188 194 190
2.26 -6.28 -0.75 187 196 191
2.26 -6.38 -0.75 187 196 191
2.26 -6.47 -0.75 188 197 192
2.26 -6.57 -0.75 189 198 193
2.26 -6.66 -0.75 188 199 193
2.26 -6.76 -0.75 188 199 193
2.26 -6.85 -0.75 190 199 196
2.26 -6.95 -0.75 191 200 197
2.26 -7.04 -0.75 190 199 196
2.26 -7.14 -0.75 189 198 195
2.26 -7.23 -0.75 188 197 194
2.26 -7.33 -0.75 189 198 195
2.26 -7.42 -0.75 190 199 196
2.26 -7.52 -0.75 190 199 196
2.26 -7.62 -0.75 190 199 196
2.26 -7.71 -0.75 190 199 196
2.26 -7.81 -0.75 190 199 196
2.26 -7.90 -0.75 189 198 195
2.26 -8.00 -0.75 190 199 196
2.26 -8.09 -0.75 191 200 197
2.26 -8.19 -0.75 192 201 198
2.26 -8.28 -0.75 193 199 197
2.26 -8.38 -0.75 194 200 198
2.26 -8.47 -0.75 195 201 199
2.26 -8.57 -0.75 195 201 199
2.26 -8.67 -0.75 194 200 198
2.26 -8.76 -0.75 195 201 199
2.26 -8.86 -0.75 196 202 200
2.26 -8.95 -0.75 197 203 201
2.26 -9.05 -0.75 198 204 202
2.26 -9.14 -0.75 198 202 201
2.26 -9.24 -0.75 199 203 202
2.26 -9.33 -0.75 201 205 204
2.26 -9.43 -0.75 202 206 205
2.26 -9.52 -0.75 201 205 204
2.26 -9.62 -0.75 200 204 203
2.26 -9.71 -0.75 204 206 205
2.26 -9.81 -0.75 204 206 205
2.26 -9.91 -0.75 204 206 205
2.26 -10.00 -0.75 204 206 205
2.26 -10.10 -0.75 201 207 205
2.26 -10.19 -0.75 202 208 206
2.26 -10.29 -0.75 201 210 207
2.45 -10.40 -0.91 201 210 207
2.45 -10.49 -0.91 200 209 206
2.45 -10.59 -0.91 199 208 205
2.45 -10.68 -0.91 199 208 205
2.45 -10.78 -0.91 200 209 206
2.45 -10.88 -0.91 202 208 206
2.45 -10.97 -0.91 200 206 204
2.45 -11.07 -0.91 200 206 204
2.45 -11.16 -0.91 201 207 205
2.45 -11.26 -0.91 201 207 205
2.45 -11.35 -0.91 202 208 206
2.45 -11.45 -0.91 204 210 208
2.45 -11.55 -0.91 204 210 208
2.45 -11.64 -0.91 204 210 208
2.45 -11.74 -0.91 204 213 210
2.45 -11.83 -0.91 206 215 212
2.45 -11.93 -0.91 203 212 209
2.26 -12.00 -0.75 202 211 208
2.26 -12.10 -0.75 201 212 208
2.26 -12.20 -0.75 201 212 208
2.26 -12.29 -0.75 202 213 209
2.26 -12.39 -0.75 203 214 210
2.26 -12.48 -0.75 202 214 210
2.26 -12.58 -0.75 201 213 209
2.26 -12.67 -0.75 201 213 209
2.26 -12.77 -0.75 202 214 210
2.26 -12.86 -0.75 203 215 211
2.26 -12.96 -0.75 204 216 212
2.26 -13.05 -0.75 205 216 212
2.26 -13.15 -0.75 205 216 212
2.26 -13.25 -0.75 205 216 212
2.26 -13.34 -0.75 206 217 213
2.26 -13.44 -0.75 204 213 210
2.26 -13.53 -0.75 204 213 210
2.26 -13.63 -0.75 205 214 211
2.26 -13.72 -0.75 206 212 210
2.26 -13.82 -0.75 206 212 210
2.26 -13.91 -0.75 207 213 211
2.26 -14.01 -0.75 207 213 211
2.26 -14.10 -0.75 208 212 211
2.45 -14.23 -0.91 208 212 211
2.45 -14.33 -0.91 208 212 211
2.45 -14.42 -0.91 207 211 210
2.45 -14.52 -0.91 206 212 210
2.45 -14.61 -0.91 206 212 210
2.45 -14.71 -0.91 205 211 209
2.45 -14.80 -0.91 205 211 209
2.45 -14.90 -0.91 207 213 211
2.45 -15.00 -0.91 208 214 212
2.45 -15.09 -0.91 206 215 212
2.45 -15.19 -0.91 205 214 211
2.45 -15.28 -0.91 204 213 210
2.45 -15.38 -0.91 203 212 209
2.45 -15.48 -0.91 204 213 210
2.45 -15.57 -0.91 205 214 211
2.45 -15.67 -0.91 208 214 212
2.45 -15.76 -0.91 207 213 211
2.26 -15.82 -0.75 206 212 210
2.26 -15.92 -0.75 205 211 209
2.45 -16.05 -0.91 206 212 210
2.45 -16.15 -0.91 207 213 211
2.45 -16.24 -0.91 208 214 212
2.45 -16.34 -0.91 208 214 212
2.45 -16.43 -0.91 208 214 212
2.45 -16.53 -0.91 208 212 211
2.45 -16.63 -0.91 209 213 212
2.45 -16.72 -0.91 209 213 212
2.45 -16.82 -0.91 210 214 213
2.45 -16.91 -0.91 210 214 213
2.45 -17.01 -0.91 212 214 213
2.45 -17.10 -0.91 213 213 213
2.45 -17.20 -0.91 215 213 214
2.67 -17.35 -1.10 215 213 214
2.67 -17.44 -1.10 214 212 213
2.67 -17.54 -1.10 213 211 212
2.67 -17.64 -1.10 212 210 211
2.45 -17.68 -0.91 212 212 212
2.45 -17.78 -0.91 213 213 213
2.45 -17.87 -0.91 211 211 211
2.45 -17.97 -0.91 211 211 211
2.45 -18.06 -0.91 211 211 211
2.45 -18.16 -0.91 211 211 211
2.45 -18.25 -0.91 211 213 212
2.45 -18.35 -0.91 212 214 213
2.45 -18.45 -0.91 213 215 214
2.45 -18.54 -0.91 214 214 214
2.67 -18.69 -1.10 213 213 213
2.67 -18.79 -1.10 212 212 212
2.67 -18.89 -1.10 211 211 211
2.67 -18.98 -1.10 212 212 212
2.67 -19.08 -1.10 212 212 212
2.67 -19.18 -1.10 212 212 212
2.67 -19.27 -1.10 211 211 211
2.67 -19.37 -1.10 212 212 212
2.67 -19.47 -1.10 213 213 213
2.67 -19.56 -1.10 213 213 213
2.45 -19.60 -0.91 212 212 212
2.45 -19.69 -0.91 211 211 211
2.45 -19.79 -0.91 210 210 210
2.45 -19.88 -0.91 211 211 211
2.45 -19.98 -0.91 212 212 212
2.45 -20.08 -0.91 214 214 214
2.45 -20.17 -0.91 214 214 214
2.45 -20.27 -0.91 213 213 213
2.45 -20.36 -0.91 212 212 212
2.67 -20.52 -1.10 211 211 211
2.67 -20.62 -1.10 212 212 212
2.67 -20.72 -1.10 213 213 213
2.67 -20.81 -1.10 210 210 210
2.67 -20.91 -1.10 211 211 211
2.67 -21.01 -1.10 212 212 212
2.67 -21.10 -1.10 212 212 212
2.67 -21.20 -1.10 211 211 211
2.67 -21.30 -1.10 210 210 210
2.45 -21.32 -0.91 211 211 211
2.45 -21.42 -0.91 211 211 211
2.45 -21.51 -0.91 212 212 212
2.45 -21.61 -0.91 212 212 212
2.45 -21.70 -0.91 211 211 211
2.45 -21.80 -0.91 211 211 211
2.45 -21.90 -0.91 210 210 210
2.45 -21.99 -0.91 210 210 210
2.45 -22.09 -0.91 210 210 210
2.45 -22.18 -0.91 209 209 209
2.45 -22.28 -0.91 211 211 211
2.45 -22.38 -0.91 211 211 211
2.45 -22.47 -0.91 211 211 211
2.45 -22.57 -0.91 212 212 212
2.45 -22.66 -0.91 211 211 211
2.45 -22.76 -0.91 211 211 211
2.45 -22.85 -0.91 211 211 211
2.67 -23.03 -1.10 209 210 205
2.67 -23.13 -1.10 210 211 206
2.67 -23.22 -1.10 210 211 206
2.67 -23.32 -1.10 210 211 206
2.67 -23.41 -1.10 211 211 209
2.67 -23.51 -1.10 212 212 210
2.67 -23.61 -1.10 213 213 211
2.67 -23.70 -1.10 215 215 213
2.67 -23.80 -1.10 210 210 210
2.67 -23.90 -1.10 210 210 210
2.67 -23.99 -1.10 210 210 210
2.67 -24.09 -1.10 210 210 210
2.67 -24.19 -1.10 211 211 213
2.67 -24.28 -1.10 211 211 213
2.67 -24.38 -1.10 211 211 213
2.67 -24.47 -1.10 210 210 212
2.67 -24.57 -1.10 210 210 212
2.67 -24.67 -1.10 209 209 211
2.67 -24.76 -1.10 208 208 208
2.45 -24.77 -0.91 208 208 208
2.45 -24.87 -0.91 208 210 207
2.45 -24.96 -0.91 208 210 207
2.45 -25.06 -0.91 208 210 207
2.45 -25.15 -0.91 208 210 207
2.45 -25.25 -0.91 211 211 211
2.45 -25.35 -0.91 223 221 224
2.45 -25.44 -0.91 182 179 186
2.45 -25.54 -0.91 39 34 41
1.09 22.29 0.17 0 0 0
1.09 22.20 0.17 0 0 0
1.09 22.11 0.17 0 0 0
1.09 22.01 0.17 0 0 0
1.28 22.06 0.00 0 0 0
1.28 21.96 0.00 135 126 121
1.28 21.87 0.00 135 126 121
1.28 21.78 0.00 136 127 122
1.28 21.68 0.00 136 127 122
1.28 21.59 0.00 136 127 122
1.28 21.50 0.00 136 129 123
1.28 21.40 0.00 136 129 123
1.28 21.31 0.00 137 130 124
1.28 21.22 0.00 137 130 124
1.28 21.12 0.00 134 129 123
1.28 21.03 0.00 134 129 123
1.28 20.94 0.00 135 130 124
1.28 20.84 0.00 135 130 124
1.28 20.75 0.00 133 130 123
1.28 20.66 0.00 133 130 123
1.09 20.44 0.17 134 131 124
1.09 20.34 0.17 136 131 125
1.09 20.25 0.17 135 131 120
1.09 20.16 0.17 137 130 120
1.09 20.06 0.17 140 133 125
1.09 19.97 0.17 154 147 139
1.09 19.88 0.17 162 155 147
1.09 19.79 0.17 169 162 156
1.09 19.69 0.17 175 168 162
1.09 19.60 0.17 176 171 167
1.28 19.63 0.00 183 178 174
1.28 19.54 0.00 192 187 184
-5.55 14.98 6.08 199 194 191
-5.55 14.90 6.08 203 197 197
-5.69 14.74 6.20 206 200 200
-5.69 14.66 6.20 210 204 206
-5.69 14.58 6.20 213 207 209
-5.55 14.59 6.08 215 209 211
-5.55 14.51 6.08 214 210 211
-5.55 14.43 6.08 212 212 210
-5.55 14.36 6.08 212 214 211
-5.55 14.28 6.08 211 211 209
-5.55 14.20 6.08 207 206 204
-5.55 14.12 6.08 202 198 195
-5.55 14.05 6.08 198 193 190
-5.55 13.97 6.08 186 185 180
-5.55 13.89 6.08 177 178 170
-5.45 13.88 5.98 164 171 155
-5.45 13.80 5.98 157 162 140
-5.45 13.72 5.98 152 141 113
-5.45 13.64 5.98 150 127 95
-5.45 13.57 5.98 154 113 81
-5.45 13.49 5.98 164 98 63
-5.45 13.41 5.98 176 92 58
-5.31 13.41 5.87 183 84 53
-5.31 13.33 5.87 192 76 51
-5.05 13.42 5.63 201 69 48
-5.05 13.34 5.63 212 62 47
-4.91 13.34 5.51 221 57 45
-4.78 13.34 5.39 227 55 45
-4.51 13.42 5.15 230 52 42
-4.38 13.41 5.03 232 51 42
-4.11 13.49 4.80 232 51 40
-3.98 13.49 4.68 231 50 39
-3.82 13.50 4.54 231 49 38
-3.82 13.42 4.54 230 48 37
-3.69 13.41 4.42 231 47 35
-3.69 13.33 4.42 231 47 37
-3.69 13.25 4.42 231 47 39
-3.55 13.24 4.30 225 42 36
-3.55 13.16 4.30 223 49 42
-3.55 13.08 4.30 223 54 47
-3.55 12.99 4.30 214 57 48
-3.55 12.91 4.30 206 72 61
-3.55 12.83 4.30 193 70 62
-3.42 12.82 4.18 193 85 75
-3.42 12.74 4.18 188 91 85
-3.42 12.66 4.18 181 98 92
-3.42 12.57 4.18 176 105 101
-3.42 12.49 4.18 167 112 109
-3.42 12.41 4.18 163 118 115
-3.42 12.33 4.18 161 123 120
-3.26 12.33 4.04 158 128 126
-3.26 12.25 4.04 158 137 134
-3.26 12.16 4.04 153 138 135
-3.26 12.08 4.04 152 138 135
-3.26 12.00 4.04 149 140 135
-3.12 11.99 3.92 147 144 139
1.09 14.12 0.17 146 145 140
1.09 14.03 0.17 145 146 140
1.09 13.93 0.17 145 146 140
1.09 13.84 0.17 144 143 139
1.09 13.75 0.17 144 143 139
1.09 13.66 0.17 147 143 142
1.09 13.56 0.17 148 144 143
1.28 13.57 0.00 149 145 146
1.28 13.47 0.00 149 145 146
1.28 13.38 0.00 147 143 142
1.28 13.29 0.00 148 145 136
1.28 13.19 0.00 149 147 135
1.28 13.10 0.00 150 147 138
1.28 13.01 0.00 150 147 138
1.28 12.91 0.00 149 146 139
1.28 12.82 0.00 149 146 139
1.28 12.73 0.00 149 146 141
1.28 12.63 0.00 150 147 142
1.28 12.54 0.00 151 148 143
1.28 12.45 0.00 152 149 144
1.28 12.35 0.00 153 150 145
1.47 12.35 -0.17 152 149 144
1.47 12.26 -0.17 151 148 141
1.47 12.16 -0.17 151 148 141
1.28 11.98 0.00 152 149 142
1.28 11.89 0.00 153 150 145
1.28 11.79 0.00 154 149 145
1.28 11.70 0.00 154 149 146
1.28 11.61 0.00 153 149 148
1.28 11.51 0.00 153 149 148
1.28 11.42 0.00 152 150 151
1.28 11.33 0.00 152 150 151
1.28 11.23 0.00 152 152 152
1.28 11.14 0.00 152 152 152
1.28 11.05 0.00 152 152 152
1.28 10.95 0.00 152 153 148
1.28 10.86 0.00 152 153 148
1.28 10.77 0.00 153 153 145
1.28 10.67 0.00 154 154 146
1.28 10.58 0.00 154 154 144
1.28 10.49 0.00 155 155 145
1.28 10.39 0.00 158 155 148
1.28 10.30 0.00 157 154 147
1.47 10.29 -0.17 157 154 147
1.47 10.19 -0.17 158 155 148
1.47 10.10 -0.17 157 157 149
1.47 10.01 -0.17 158 158 150
1.47 9.91 -0.17 157 157 149
1.47 9.82 -0.17 156 156 148
1.47 9.73 -0.17 156 156 148
1.47 9.63 -0.17 157 157 149
1.47 9.54 -0.17 157 157 149
1.47 9.44 -0.17 156 156 148
1.47 9.35 -0.17 156 157 149
1.47 9.26 -0.17 158 159 151
1.47 9.16 -0.17 157 158 150
1.47 9.07 -0.17 155 156 150
1.47 8.98 -0.17 158 156 157
1.47 8.88 -0.17 158 156 157
1.47 8.79 -0.17 158 156 157
1.47 8.69 -0.17 159 157 158
1.47 8.60 -0.17 159 157 158
1.47 8.51 -0.17 158 158 156
1.47 8.41 -0.17 158 158 156
1.47 8.32 -0.17 158 158 156
1.47 8.23 -0.17 159 159 157
1.47 8.13 -0.17 159 160 155
1.66 8.11 -0.33 159 160 155
1.66 8.01 -0.33 157 159 154
1.66 7.92 -0.33 158 160 155
1.66 7.83 -0.33 159 161 156
1.66 7.73 -0.33 159 161 156
1.66 7.64 -0.33 162 163 157
1.66 7.54 -0.33 161 162 156
1.66 7.45 -0.33 161 162 154
1.66 7.36 -0.33 161 162 154
1.66 7.26 -0.33 161 162 154
1.66 7.17 -0.33 160 161 153
1.66 7.07 -0.33 160 162 151
1.66 6.98 -0.33 160 162 151
1.66 6.88 -0.33 161 163 152
1.66 6.79 -0.33 162 164 153
1.66 6.70 -0.33 162 164 153
1.66 6.60 -0.33 163 164 156
1.66 6.51 -0.33 163 164 156
1.47 6.35 -0.17 164 165 157
1.47 6.26 -0.17 165 166 158
1.47 6.16 -0.17 161 166 159
1.66 6.13 -0.33 161 166 159
1.66 6.04 -0.33 162 167 160
1.66 5.94 -0.33 162 167 160
1.66 5.85 -0.33 162 167 161
1.66 5.75 -0.33 162 167 161
1.66 5.66 -0.33 163 168 164
1.66 5.57 -0.33 164 169 165
1.66 5.47 -0.33 163 168 164
1.66 5.38 -0.33 163 168 164
1.66 5.28 -0.33 163 168 164
1.66 5.19 -0.33 164 169 165
1.66 5.10 -0.33 164 169 163
1.66 5.00 -0.33 165 170 164
1.66 4.91 -0.33 165 170 164
1.66 4.81 -0.33 165 170 164
1.66 4.72 -0.33 164 170 166
1.66 4.63 -0.33 165 171 167
1.66 4.53 -0.33 168 173 169
1.66 4.44 -0.33 168 173 169
1.84 4.40 -0.50 168 173 169
1.84 4.30 -0.50 168 173 167
1.84 4.21 -0.50 169 174 168
1.84 4.11 -0.50 169 171 166
1.66 3.97 -0.33 169 171 166
1.66 3.87 -0.33 169 171 166
1.84 3.83 -0.50 169 171 166
1.84 3.73 -0.50 170 172 167
1.84 3.64 -0.50 170 172 167
1.66 3.50 -0.33 170 173 166
1.66 3.40 -0.33 171 174 167
1.66 3.31 -0.33 168 173 167
1.66 3.21 -0.33 168 173 167
1.66 3.12 -0.33 168 173 167
1.84 3.07 -0.50 168 173 167
1.84 2.98 -0.50 168 173 167
1.66 2.84 -0.33 168 173 167
1.66 2.74 -0.33 168 173 169
1.66 2.65 -0.33 168 173 169
1.66 2.55 -0.33 168 173 169
1.66 2.46 -0.33 168 173 169
1.66 2.37 -0.33 168 172 171
1.66 2.27 -0.33 169 173 172
1.66 2.18 -0.33 168 172 171
1.66 2.08 -0.33 168 172 173
1.66 1.99 -0.33 168 172 173
1.66 1.90 -0.33 169 173 172
1.66 1.80 -0.33 170 174 173
1.66 1.71 -0.33 170 174 173
1.66 1.61 -0.33 170 174 173
1.66 1.52 -0.33 169 173 172
1.66 1.42 -0.33 169 173 172
1.84 1.37 -0.50 170 174 173
1.84 1.28 -0.50 171 175 174
1.84 1.18 -0.50 170 176 174
1.84 1.09 -0.50 169 175 173
1.84 0.99 -0.50 168 174 172
1.84 0.90 -0.50 168 174 172
1.84 0.80 -0.50 169 175 173
1.84 0.71 -0.50 171 177 175
1.84 0.61 -0.50 171 177 175
1.84 0.52 -0.50 171 177 175
1.84 0.42 -0.50 172 176 175
1.84 0.33 -0.50 172 176 175
1.84 0.23 -0.50 173 177 176
1.84 0.14 -0.50 173 177 176
1.84 0.05 -0.50 172 178 176
1.84 -0.05 -0.50 173 179 177
1.66 -0.18 -0.33 173 179 177
1.66 -0.27 -0.33 169 178 175
1.66 -0.36 -0.33 170 179 176
1.66 -0.46 -0.33 171 180 177
1.66 -0.55 -0.33 171 180 177
1.84 -0.62 -0.50 170 181 177
1.84 -0.71 -0.50 170 181 177
1.84 -0.81 -0.50 169 180 176
1.84 -0.90 -0.50 168 179 175
1.84 -0.99 -0.50 172 181 178
1.84 -1.09 -0.50 173 182 179
2.03 -1.16 -0.66 173 182 179
2.03 -1.25 -0.66 172 181 178
2.03 -1.35 -0.66 172 181 178
2.03 -1.44 -0.66 174 183 180
2.03 -1.54 -0.66 175 184 181
2.03 -1.63 -0.66 174 183 180
2.03 -1.73 -0.66 172 181 178
2.03 -1.82 -0.66 174 183 180
2.03 -1.92 -0.66 175 184 181
2.03 -2.01 -0.66 175 184 181
2.03 -2.11 -0.66 175 184 181
2.03 -2.20 -0.66 175 184 181
2.03 -2.30 -0.66 176 185 182
2.03 -2.39 -0.66 176 187 183
2.03 -2.49 -0.66 177 188 184
1.84 -2.60 -0.50 177 188 184
1.84 -2.70 -0.50 177 188 184
2.03 -2.77 -0.66 176 187 183
2.03 -2.87 -0.66 177 188 184
2.03 -2.96 -0.66 178 189 185
2.03 -3.06 -0.66 180 191 187
2.03 -3.15 -0.66 179 190 186
2.03 -3.25 -0.66 179 190 186
2.03 -3.34 -0.66 178 189 185
2.03 -3.44 -0.66 179 190 186
2.03 -3.53 -0.66 180 191 187
2.03 -3.63 -0.66 180 191 187
2.03 -3.72 -0.66 179 190 186
2.03 -3.82 -0.66 178 189 185
2.03 -3.91 -0.66 182 191 188
2.03 -4.01 -0.66 182 191 188
2.03 -4.10 -0.66 181 190 187
2.03 -4.20 -0.66 181 190 187
2.03 -4.29 -0.66 183 189 187
2.03 -4.39 -0.66 184 190 188
2.03 -4.48 -0.66 184 190 188
2.03 -4.58 -0.66 184 190 188
2.03 -4.67 -0.66 184 190 188
2.03 -4.77 -0.66 184 188 187
2.03 -4.86 -0.66 185 189 188
2.03 -4.96 -0.66 187 191 190
2.03 -5.05 -0.66 188 192 191
2.03 -5.15 -0.66 188 192 191
2.03 -5.24 -0.66 187 193 191
2.03 -5.34 -0.66 184 193 188
2.03 -5.43 -0.66 184 195 189
2.03 -5.53 -0.66 186 195 190
2.03 -5.62 -0.66 187 196 191
2.03 -5.72 -0.66 187 196 191
2.03 -5.81 -0.66 187 196 191
2.22 -5.90 -0.83 189 195 191
2.22 -5.99 -0.83 190 196 192
2.22 -6.09 -0.83 188 194 190
2.22 -6.18 -0.83 189 195 191
2.22 -6.28 -0.83 187 196 191
2.22 -6.38 -0.83 188 197 192
2.22 -6.47 -0.83 188 197 192
2.03 -6.57 -0.66 189 198 193
2.03 -6.66 -0.66 188 199 193
2.03 -6.76 -0.66 188 199 193
2.03 -6.85 -0.66 189 198 195
2.03 -6.95 -0.66 190 199 196
2.03 -7.04 -0.66 189 198 195
2.03 -7.14 -0.66 189 198 195
2.03 -7.23 -0.66 189 198 195
2.03 -7.33 -0.66 189 198 195
2.03 -7.42 -0.66 190 199 196
2.03 -7.52 -0.66 189 198 195
2.03 -7.61 -0.66 190 199 196
2.03 -7.71 -0.66 190 199 196
2.03 -7.80 -0.66 190 199 196
2.03 -7.90 -0.66 190 199 196
2.03 -7.99 -0.66 191 200 197
2.03 -8.09 -0.66 192 201 198
2.03 -8.18 -0.66 193 202 199
2.03 -8.28 -0.66 194 200 198
2.03 -8.37 -0.66 194 200 198
2.22 -8.47 -0.83 195 201 199
2.22 -8.57 -0.83 195 201 199
2.22 -8.67 -0.83 194 200 198
2.22 -8.76 -0.83 194 200 198
2.03 -8.85 -0.66 196 202 200
2.03 -8.94 -0.66 197 203 201
2.03 -9.04 -0.66 197 203 201
2.03 -9.13 -0.66 198 202 201
2.03 -9.23 -0.66 199 203 202
2.03 -9.32 -0.66 200 204 203
2.03 -9.42 -0.66 201 205 204
2.03 -9.51 -0.66 200 204 203
2.03 -9.61 -0.66 199 203 202
2.03 -9.70 -0.66 201 203 202
2.03 -9.80 -0.66 201 203 202
2.03 -9.89 -0.66 199 203 202
2.03 -9.99 -0.66 200 204 203
2.22 -10.10 -0.83 199 205 203
2.22 -10.19 -0.83 201 207 205
2.22 -10.29 -0.83 202 208 206
2.22 -10.38 -0.83 202 208 206
2.22 -10.48 -0.83 201 210 207
2.22 -10.57 -0.83 200 209 206
2.22 -10.67 -0.83 201 210 207
2.22 -10.76 -0.83 203 212 209
2.22 -10.86 -0.83 205 211 209
2.22 -10.96 -0.83 204 210 208
2.22 -11.05 -0.83 203 209 207
2.40 -11.16 -1.00 204 210 208
2.40 -11.26 -1.00 204 210 208
2.22 -11.34 -0.83 204 210 208
2.22 -11.43 -0.83 205 211 209
2.22 -11.53 -0.83 205 211 209
2.22 -11.62 -0.83 205 211 209
2.22 -11.72 -0.83 204 213 210
2.22 -11.81 -0.83 205 214 211
2.22 -11.91 -0.83 203 212 209
2.22 -12.00 -0.83 203 212 209
2.22 -12.10 -0.83 201 212 208
2.22 -12.20 -0.83 202 213 209
2.22 -12.29 -0.83 203 214 210
2.22 -12.39 -0.83 203 214 210
2.22 -12.48 -0.83 203 214 210
2.22 -12.58 -0.83 203 214 210
2.03 -12.65 -0.66 201 213 209
2.03 -12.74 -0.66 201 213 209
2.03 -12.84 -0.66 202 214 210
2.03 -12.93 -0.66 202 214 210
2.03 -13.03 -0.66 203 214 210
2.03 -13.12 -0.66 204 215 211
2.22 -13.25 -0.83 205 216 212
2.22 -13.34 -0.83 206 217 213
2.22 -13.44 -0.83 204 213 210
2.22 -13.53 -0.83 204 213 210
2.22 -13.63 -0.83 205 214 211
2.22 -13.72 -0.83 206 212 210
2.22 -13.82 -0.83 206 212 210
2.22 -13.91 -0.83 207 213 211
2.22 -14.01 -0.83 207 213 211
2.22 -14.10 -0.83 208 212 211
2.22 -14.20 -0.83 208 212 211
2.22 -14.29 -0.83 208 212 211
2.22 -14.39 -0.83 208 212 211
2.22 -14.49 -0.83 207 213 211
2.22 -14.58 -0.83 207 213 211
2.22 -14.68 -0.83 207 213 211
2.22 -14.77 -0.83 207 213 211
2.22 -14.87 -0.83 205 211 209
2.22 -14.96 -0.83 205 211 209
2.22 -15.06 -0.83 206 212 210
2.22 -15.15 -0.83 206 212 210
2.22 -15.25 -0.83 203 212 209
2.22 -15.34 -0.83 203 212 209
2.22 -15.44 -0.83 204 213 210
2.22 -15.53 -0.83 205 214 211
2.22 -15.63 -0.83 208 214 212
2.22 -15.73 -0.83 208 214 212
2.22 -15.82 -0.83 208 214 212
2.22 -15.92 -0.83 207 213 211
2.22 -16.01 -0.83 208 214 212
2.22 -16.11 -0.83 209 213 212
2.22 -16.20 -0.83 209 213 212
2.22 -16.30 -0.83 207 211 210
2.22 -16.39 -0.83 207 211 210
2.22 -16.49 -0.83 207 211 210
2.22 -16.58 -0.83 207 211 210
2.22 -16.68 -0.83 208 212 211
2.22 -16.78 -0.83 209 213 212
2.22 -16.87 -0.83 211 213 212
2.22 -16.97 -0.83 212 212 212
2.22 -17.06 -0.83 212 212 212
2.40 -17.20 -1.00 214 212 213
2.40 -17.30 -1.00 214 212 213
2.40 -17.39 -1.00 214 212 213
2.40 -17.49 -1.00 213 211 212
2.40 -17.58 -1.00 213 211 212
2.40 -17.68 -1.00 213 213 213
2.40 -17.78 -1.00 214 214 214
2.40 -17.87 -1.00 212 212 212
2.40 -17.97 -1.00 212 212 212
2.40 -18.06 -1.00 211 211 211
2.40 -18.16 -1.00 211 211 211
2.40 -18.25 -1.00 211 213 212
2.40 -18.35 -1.00 212 214 213
2.40 -18.45 -1.00 212 214 213
2.40 -18.54 -1.00 214 214 214
2.40 -18.64 -1.00 213 213 213
2.40 -18.73 -1.00 212 212 212
2.40 -18.83 -1.00 211 211 211
2.40 -18.93 -1.00 212 212 212
2.40 -19.02 -1.00 212 212 212
2.40 -19.12 -1.00 212 212 212
2.40 -19.21 -1.00 211 211 211
2.40 -19.31 -1.00 212 212 212
2.40 -19.40 -1.00 213 213 213
2.40 -19.50 -1.00 214 214 214
2.40 -19.60 -1.00 213 213 213
2.40 -19.69 -1.00 213 213 213
2.40 -19.79 -1.00 212 212 212
2.40 -19.88 -1.00 213 213 213
2.40 -19.98 -1.00 214 214 214
2.40 -20.08 -1.00 213 213 213
2.40 -20.17 -1.00 212 212 212
2.40 -20.27 -1.00 211 211 211
2.40 -20.36 -1.00 210 210 210
2.40 -20.46 -1.00 210 210 210
2.40 -20.55 -1.00 209 209 209
2.40 -20.65 -1.00 210 210 210
2.40 -20.75 -1.00 212 212 212
2.40 -20.84 -1.00 212 212 212
2.40 -20.94 -1.00 212 212 212
2.40 -21.03 -1.00 211 211 211
2.40 -21.13 -1.00 210 210 210
2.40 -21.23 -1.00 210 210 210
2.40 -21.32 -1.00 211 211 211
2.40 -21.42 -1.00 212 212 212
2.40 -21.51 -1.00 211 211 211
2.40 -21.61 -1.00 211 211 211
2.40 -21.70 -1.00 211 211 211
2.40 -21.80 -1.00 210 210 210
2.40 -21.90 -1.00 210 210 210
2.40 -21.99 -1.00 210 210 210
2.40 -22.09 -1.00 210 210 210
2.40 -22.18 -1.00 209 209 209
2.40 -22.28 -1.00 210 210 210
2.40 -22.38 -1.00 210 210 210
2.40 -22.47 -1.00 210 210 210
2.22 -22.50 -0.83 210 210 210
2.22 -22.60 -0.83 210 210 210
2.40 -22.76 -1.00 210 210 210
2.40 -22.85 -1.00 210 210 210
2.40 -22.95 -1.00 211 212 207
2.40 -23.05 -1.00 211 212 207
2.40 -23.14 -1.00 211 212 207
2.40 -23.24 -1.00 211 212 207
2.40 -23.33 -1.00 210 210 208
2.40 -23.43 -1.00 210 210 208
2.40 -23.53 -1.00 211 211 209
2.40 -23.62 -1.00 212 212 210
2.62 -23.80 -1.19 213 213 213
2.62 -23.90 -1.19 212 212 212
2.62 -23.99 -1.19 212 212 212
2.62 -24.09 -1.19 211 211 211
2.62 -24.19 -1.19 211 211 213
2.62 -24.28 -1.19 211 211 213
2.40 -24.29 -1.00 211 211 213
2.40 -24.39 -1.00 210 210 212
2.40 -24.48 -1.00 211 211 211
2.40 -24.58 -1.00 210 210 210
2.40 -24.68 -1.00 209 209 209
2.40 -24.77 -1.00 209 209 209
2.40 -24.87 -1.00 208 210 207
2.40 -24.96 -1.00 208 210 207
2.40 -25.06 -1.00 208 210 207
2.40 -25.15 -1.00 208 210 207
2.40 -25.25 -1.00 212 212 212
2.40 -25.35 -1.00 221 219 222
2.40 -25.44 -1.00 196 194 199
2.40 -25.54 -1.00 67 62 68
1.05 22.29 0.09 0 0 0
1.05 22.20 0.09 0 0 0
1.05 22.11 0.09 0 0 0
1.05 22.01 0.09 0 0 0
1.05 21.92 0.09 0 0 0
1.05 21.83 0.09 137 128 123
1.24 21.87 -0.08 137 128 123
1.24 21.78 -0.08 137 128 123
1.24 21.68 -0.08 137 128 123
1.24 21.59 -0.08 137 128 123
1.24 21.50 -0.08 136 129 123
1.05 21.27 0.09 137 130 124
1.05 21.18 0.09 138 131 125
1.05 21.09 0.09 139 132 126
1.05 20.99 0.09 135 130 124
1.05 20.90 0.09 135 130 124
1.05 20.81 0.09 135 130 124
1.05 20.71 0.09 134 129 123
1.05 20.62 0.09 133 130 123
1.05 20.53 0.09 133 130 123
1.05 20.44 0.09 133 130 123
1.05 20.34 0.09 135 130 124
1.05 20.25 0.09 138 134 123
1.05 20.16 0.09 140 133 123
1.05 20.06 0.09 142 138 129
0.89 19.86 0.23 156 151 145
0.89 19.77 0.23 163 158 152
0.89 19.68 0.23 170 165 161
-5.59 14.98 6.01 197 191 191
-5.59 14.90 6.01 200 194 194
-5.59 14.82 6.01 204 198 198
-5.73 14.66 6.13 208 202 204
-5.73 14.58 6.13 212 206 208
-5.73 14.50 6.13 214 210 211
-5.59 14.51 6.01 212 210 211
-5.59 14.43 6.01 211 211 209
-5.59 14.36 6.01 211 213 210
-5.59 14.28 6.01 209 211 208
-5.59 14.20 6.01 204 204 202
-5.59 14.12 6.01 197 196 194
-5.59 14.05 6.01 193 189 188
-5.59 13.97 6.01 182 183 177
-5.59 13.89 6.01 173 176 165
-5.49 13.88 5.92 162 170 149
-5.49 13.80 5.92 155 161 133
-5.49 13.72 5.92 146 139 97
-5.49 13.64 5.92 143 124 81
-5.49 13.57 5.92 150 112 67
-5.49 13.49 5.92 159 95 49
-5.49 13.41 5.92 172 88 44
-5.35 13.41 5.80 180 81 42
-5.35 13.33 5.80 189 75 41
-5.22 13.34 5.68 201 67 40
-5.09 13.34 5.56 212 63 41
-4.95 13.34 5.44 222 59 42
-4.95 13.26 5.44 228 56 42
-4.69 13.34 5.20 233 55 43
-4.42 13.41 4.97 234 53 42
-4.29 13.41 4.85 233 52 41
-4.15 13.41 4.73 232 51 40
-4.02 13.40 4.61 230 49 38
-3.86 13.42 4.47 230 49 38
-3.86 13.33 4.47 229 48 37
-3.86 13.25 4.47 230 47 39
-3.73 13.25 4.35 228 45 37
-3.73 13.17 4.35 223 42 35
-3.73 13.08 4.35 221 47 40
-3.59 13.08 4.23 220 53 45
-3.59 12.99 4.23 212 58 48
-3.59 12.91 4.23 204 71 62
-3.59 12.83 4.23 194 73 65
-3.59 12.75 4.23 190 81 74
-3.59 12.66 4.23 185 87 84
-3.46 12.66 4.11 177 96 92
-3.46 12.57 4.11 173 103 101
-3.46 12.49 4.11 168 110 109
-3.46 12.41 4.11 164 116 116
-3.46 12.33 4.11 161 121 121
-3.46 12.24 4.11 157 125 126
-3.30 12.25 3.97 157 131 130
-3.30 12.16 3.97 153 133 132
-3.30 12.08 3.97 150 135 132
0.89 14.22 0.23 148 137 133
0.89 14.13 0.23 148 141 135
1.05 14.12 0.09 147 142 136
1.05 14.03 0.09 145 144 139
1.05 13.93 0.09 144 143 138
1.05 13.84 0.09 144 140 137
1.05 13.75 0.09 145 141 138
1.05 13.66 0.09 148 142 142
1.05 13.56 0.09 149 143 143
1.05 13.47 0.09 149 145 144
1.05 13.38 0.09 149 145 144
1.05 13.28 0.09 148 147 145
1.05 13.19 0.09 149 146 141
1.05 13.10 0.09 150 147 140
1.24 13.10 -0.08 151 148 141
1.24 13.01 -0.08 151 148 141
1.24 12.91 -0.08 150 147 142
1.24 12.82 -0.08 150 147 142
1.24 12.73 -0.08 150 146 143
1.24 12.63 -0.08 151 147 144
1.24 12.54 -0.08 150 146 143
1.24 12.45 -0.08 151 147 144
1.24 12.35 -0.08 152 148 145
1.24 12.26 -0.08 151 147 144
1.24 12.17 -0.08 151 147 144
1.24 12.07 -0.08 151 147 144
1.24 11.98 -0.08 153 150 145
1.24 11.89 -0.08 154 151 146
1.24 11.79 -0.08 153 148 145
1.24 11.70 -0.08 153 148 145
1.24 11.61 -0.08 152 148 147
1.24 11.51 -0.08 153 149 148
1.24 11.42 -0.08 152 150 151
1.24 11.33 -0.08 153 151 152
1.24 11.23 -0.08 153 153 153
1.24 11.14 -0.08 154 154 154
1.24 11.05 -0.08 153 153 153
1.24 10.95 -0.08 153 154 149
1.24 10.86 -0.08 153 154 149
1.24 10.77 -0.08 155 154 149
1.24 10.67 -0.08 156 155 150
1.24 10.58 -0.08 157 157 149
1.24 10.49 -0.08 158 157 152
1.24 10.39 -0.08 157 154 149
1.24 10.30 -0.08 156 152 149
1.24 10.21 -0.08 156 152 149
1.24 10.11 -0.08 157 153 150
1.42 10.10 -0.25 157 156 152
1.42 10.01 -0.25 158 157 153
1.42 9.91 -0.25 158 157 152
1.42 9.82 -0.25 158 157 152
1.42 9.73 -0.25 155 154 149
1.42 9.63 -0.25 156 155 150
1.24 9.46 -0.08 157 157 149
1.24 9.37 -0.08 157 157 149
1.24 9.27 -0.08 157 158 150
1.24 9.18 -0.08 158 159 151
1.24 9.09 -0.08 157 158 150
1.24 8.99 -0.08 155 156 150
1.24 8.90 -0.08 157 157 155
1.42 8.88 -0.25 157 157 155
1.42 8.79 -0.25 157 157 155
1.42 8.69 -0.25 158 158 156
1.42 8.60 -0.25 159 159 157
1.42 8.51 -0.25 158 158 156
1.42 8.41 -0.25 158 158 156
1.42 8.32 -0.25 160 160 158
1.42 8.23 -0.25 159 159 157
1.42 8.13 -0.25 157 157 155
1.42 8.04 -0.25 157 157 155
1.42 7.94 -0.25 157 159 156
1.61 7.92 -0.41 158 160 157
1.61 7.83 -0.41 159 161 158
1.61 7.73 -0.41 159 161 156
1.61 7.64 -0.41 163 164 158
1.61 7.54 -0.41 162 163 155
1.61 7.45 -0.41 161 163 152
1.61 7.36 -0.41 160 162 151
1.61 7.26 -0.41 160 162 151
1.61 7.17 -0.41 161 163 152
1.42 7.01 -0.25 161 163 152
1.42 6.91 -0.25 162 164 153
1.42 6.82 -0.25 163 165 154
1.42 6.73 -0.25 162 164 153
1.42 6.63 -0.25 162 164 153
1.42 6.54 -0.25 163 164 156
1.42 6.45 -0.25 164 165 157
1.42 6.35 -0.25 164 165 159
1.42 6.26 -0.25 164 165 159
1.42 6.16 -0.25 162 167 161
1.42 6.07 -0.25 162 167 161
1.42 5.98 -0.25 163 168 162
1.42 5.88 -0.25 163 168 162
1.42 5.79 -0.25 163 168 164
1.42 5.70 -0.25 163 168 164
1.42 5.60 -0.25 164 169 165
1.42 5.51 -0.25 165 170 166
1.61 5.47 -0.41 164 169 165
1.61 5.38 -0.41 164 169 165
1.61 5.28 -0.41 164 169 163
1.42 5.13 -0.25 164 169 163
1.42 5.04 -0.25 165 170 164
1.61 5.00 -0.41 166 171 165
1.61 4.91 -0.41 166 171 164
1.61 4.81 -0.41 166 171 165
1.61 4.72 -0.41 168 170 167
1.61 4.63 -0.41 169 171 170
1.61 4.53 -0.41 170 172 171
1.61 4.44 -0.41 170 172 169
1.61 4.34 -0.41 169 171 168
1.61 4.25 -0.41 169 171 168
1.61 4.15 -0.41 169 171 168
1.61 4.06 -0.41 170 172 169
1.61 3.97 -0.41 170 172 169
1.61 3.87 -0.41 170 172 169
1.61 3.78 -0.41 169 171 168
1.61 3.68 -0.41 170 172 169
1.61 3.59 -0.41 170 172 169
1.61 3.50 -0.41 171 171 169
1.61 3.40 -0.41 171 171 169
1.61 3.31 -0.41 168 173 167
1.61 3.21 -0.41 168 173 167
1.61 3.12 -0.41 168 173 167
1.61 3.02 -0.41 168 173 167
1.61 2.93 -0.41 168 173 167
1.61 2.84 -0.41 168 173 167
1.61 2.74 -0.41 168 173 169
1.61 2.65 -0.41 168 173 169
1.61 2.55 -0.41 167 172 168
1.61 2.46 -0.41 168 173 169
1.61 2.37 -0.41 168 172 171
1.61 2.27 -0.41 169 173 172
1.61 2.18 -0.41 169 173 172
1.61 2.08 -0.41 169 173 172
1.61 1.99 -0.41 169 173 172
1.61 1.90 -0.41 170 175 171
1.61 1.80 -0.41 170 175 171
1.61 1.71 -0.41 170 175 171
1.61 1.61 -0.41 170 175 171
1.61 1.52 -0.41 169 175 171
1.61 1.42 -0.41 169 175 171
1.61 1.33 -0.41 170 176 174
1.61 1.24 -0.41 170 176 174
1.61 1.14 -0.41 172 178 176
1.61 1.05 -0.41 169 175 173
1.61 0.95 -0.41 165 174 171
1.61 0.86 -0.41 166 175 172
1.80 0.80 -0.58 168 177 174
1.80 0.71 -0.58 170 179 176
1.80 0.61 -0.58 169 178 175
1.80 0.52 -0.58 169 175 173
1.80 0.42 -0.58 171 177 175
1.61 0.29 -0.41 172 176 175
1.61 0.20 -0.41 172 176 175
1.61 0.11 -0.41 173 177 176
1.61 0.01 -0.41 173 177 176
1.61 -0.08 -0.41 171 177 175
1.61 -0.18 -0.41 171 177 175
1.61 -0.27 -0.41 173 179 177
1.61 -0.36 -0.41 173 179 177
1.61 -0.46 -0.41 171 180 177
1.61 -0.55 -0.41 171 180 177
1.61 -0.65 -0.41 172 181 178
1.80 -0.71 -0.58 172 181 178
1.80 -0.81 -0.58 171 180 177
1.80 -0.90 -0.58 171 180 177
1.80 -0.99 -0.58 174 183 180
1.80 -1.09 -0.58 174 183 180
1.80 -1.18 -0.58 173 182 179
1.80 -1.28 -0.58 172 181 178
1.98 -1.35 -0.75 172 181 178
1.98 -1.44 -0.75 173 182 179
1.98 -1.54 -0.75 174 183 180
1.98 -1.63 -0.75 174 183 180
1.98 -1.73 -0.75 172 181 178
1.98 -1.82 -0.75 173 182 179
1.98 -1.92 -0.75 175 184 181
1.98 -2.01 -0.75 176 185 182
1.98 -2.11 -0.75 176 185 182
1.98 -2.20 -0.75 175 184 181
1.98 -2.30 -0.75 175 184 181
1.80 -2.41 -0.58 176 185 182
1.80 -2.51 -0.58 177 186 183
1.80 -2.60 -0.58 177 186 183
1.80 -2.70 -0.58 177 186 183
1.80 -2.79 -0.58 177 186 183
1.80 -2.89 -0.58 178 187 184
1.80 -2.98 -0.58 179 188 185
1.80 -3.07 -0.58 180 189 186
1.80 -3.17 -0.58 180 189 186
1.80 -3.26 -0.58 179 188 185
1.80 -3.36 -0.58 180 189 186
1.80 -3.45 -0.58 180 189 186
1.98 -3.53 -0.75 181 190 187
1.98 -3.63 -0.75 181 190 187
1.98 -3.72 -0.75 181 190 187
1.98 -3.82 -0.75 180 189 186
1.98 -3.91 -0.75 182 191 188
1.98 -4.01 -0.75 181 190 187
1.98 -4.10 -0.75 181 190 187
1.98 -4.20 -0.75 180 189 186
1.98 -4.29 -0.75 183 189 187
1.98 -4.39 -0.75 184 190 188
1.98 -4.48 -0.75 185 191 189
1.98 -4.58 -0.75 186 192 190
1.98 -4.67 -0.75 185 191 189
1.98 -4.77 -0.75 185 191 189
1.98 -4.86 -0.75 186 192 190
1.98 -4.96 -0.75 187 193 191
1.98 -5.05 -0.75 188 194 192
1.98 -5.15 -0.75 188 194 192
1.98 -5.24 -0.75 187 193 191
1.98 -5.34 -0.75 185 196 190
1.98 -5.43 -0.75 185 196 190
1.98 -5.53 -0.75 187 196 191
1.98 -5.62 -0.75 187 196 191
1.98 -5.72 -0.75 187 196 191
1.98 -5.81 -0.75 187 196 191
1.98 -5.91 -0.75 189 195 191
1.98 -6.00 -0.75 190 196 192
1.98 -6.09 -0.75 189 195 191
1.98 -6.19 -0.75 190 196 192
1.98 -6.28 -0.75 188 197 192
1.98 -6.38 -0.75 189 198 193
1.98 -6.47 -0.75 189 198 193
1.98 -6.57 -0.75 189 198 193
1.98 -6.66 -0.75 188 199 193
1.98 -6.76 -0.75 188 199 193
1.98 -6.85 -0.75 188 197 194
1.98 -6.95 -0.75 189 198 195
1.98 -7.04 -0.75 189 198 195
1.98 -7.14 -0.75 189 198 195
1.98 -7.23 -0.75 189 198 195
1.98 -7.33 -0.75 190 199 196
1.98 -7.42 -0.75 191 200 197
1.98 -7.52 -0.75 190 199 196
1.98 -7.61 -0.75 190 199 196
1.98 -7.71 -0.75 191 200 197
1.98 -7.80 -0.75 191 200 197
1.98 -7.90 -0.75 191 200 197
1.98 -7.99 -0.75 192 201 198
1.98 -8.09 -0.75 193 202 199
1.98 -8.18 -0.75 194 203 200
1.98 -8.28 -0.75 195 201 199
1.98 -8.37 -0.75 195 201 199
1.98 -8.47 -0.75 195 201 199
1.98 -8.56 -0.75 195 201 199
1.98 -8.66 -0.75 195 201 199
1.98 -8.75 -0.75 195 201 199
1.98 -8.85 -0.75 195 201 199
1.98 -8.94 -0.75 196 202 200
1.98 -9.04 -0.75 197 203 201
1.98 -9.13 -0.75 197 201 200
1.98 -9.23 -0.75 198 202 201
1.98 -9.32 -0.75 199 203 202
1.98 -9.42 -0.75 200 204 203
1.98 -9.51 -0.75 199 203 202
1.98 -9.61 -0.75 199 203 202
1.98 -9.70 -0.75 198 202 201
1.98 -9.80 -0.75 198 202 201
1.98 -9.89 -0.75 199 203 202
1.98 -9.99 -0.75 199 203 202
1.98 -10.08 -0.75 199 205 203
1.98 -10.18 -0.75 200 206 204
2.17 -10.29 -0.91 201 207 205
2.17 -10.38 -0.91 202 208 206
2.17 -10.48 -0.91 203 209 207
2.17 -10.57 -0.91 202 208 206
2.17 -10.67 -0.91 203 209 207
2.17 -10.76 -0.91 205 211 209
2.17 -10.86 -0.91 205 211 209
2.17 -10.96 -0.91 204 210 208
2.17 -11.05 -0.91 203 209 207
2.17 -11.15 -0.91 204 210 208
2.17 -11.24 -0.91 206 212 210
2.17 -11.34 -0.91 206 212 210
2.17 -11.43 -0.91 205 211 209
2.17 -11.53 -0.91 206 212 210
2.17 -11.62 -0.91 206 212 210
2.17 -11.72 -0.91 204 213 210
2.17 -11.81 -0.91 203 212 209
1.98 -11.89 -0.75 204 213 210
1.98 -11.98 -0.75 204 213 210
1.98 -12.08 -0.75 202 213 209
1.98 -12.17 -0.75 203 214 210
1.98 -12.27 -0.75 204 215 211
1.98 -12.36 -0.75 204 215 211
1.98 -12.46 -0.75 204 215 211
1.98 -12.55 -0.75 203 214 210
1.98 -12.65 -0.75 201 213 209
1.98 -12.74 -0.75 201 213 209
1.98 -12.84 -0.75 202 213 209
1.98 -12.93 -0.75 201 212 208
1.98 -13.03 -0.75 201 212 208
1.98 -13.12 -0.75 202 213 209
1.98 -13.22 -0.75 204 215 211
1.98 -13.31 -0.75 206 217 213
1.98 -13.41 -0.75 204 213 210
1.98 -13.50 -0.75 204 213 210
1.98 -13.60 -0.75 207 213 211
2.17 -13.72 -0.91 206 212 210
2.17 -13.82 -0.91 206 212 210
2.17 -13.91 -0.91 207 213 211
2.17 -14.01 -0.91 207 213 211
2.17 -14.10 -0.91 208 212 211
2.17 -14.20 -0.91 208 212 211
2.17 -14.29 -0.91 208 212 211
2.17 -14.39 -0.91 209 213 212
2.17 -14.49 -0.91 209 213 212
2.17 -14.58 -0.91 209 213 212
2.17 -14.68 -0.91 208 214 212
2.17 -14.77 -0.91 208 214 212
2.17 -14.87 -0.91 206 212 210
2.17 -14.96 -0.91 207 213 211
2.17 -15.06 -0.91 207 213 211
2.17 -15.15 -0.91 207 213 211
2.17 -15.25 -0.91 207 213 211
2.17 -15.34 -0.91 207 213 211
2.17 -15.44 -0.91 208 214 212
2.17 -15.53 -0.91 208 214 212
2.17 -15.63 -0.91 209 213 212
2.17 -15.73 -0.91 209 213 212
2.17 -15.82 -0.91 210 214 213
2.17 -15.92 -0.91 210 214 213
2.17 -16.01 -0.91 209 213 212
2.17 -16.11 -0.91 210 212 211
2.17 -16.20 -0.91 210 212 211
2.17 -16.30 -0.91 210 212 211
2.17 -16.39 -0.91 209 211 210
2.17 -16.49 -0.91 209 211 210
2.17 -16.58 -0.91 210 212 211
2.17 -16.68 -0.91 211 213 212
2.17 -16.78 -0.91 212 214 213
2.17 -16.87 -0.91 212 214 213
2.17 -16.97 -0.91 212 214 213
2.17 -17.06 -0.91 212 212 212
2.17 -17.16 -0.91 212 212 212
2.17 -17.25 -0.91 212 212 212
2.17 -17.35 -0.91 212 212 212
2.17 -17.44 -0.91 212 212 212
2.17 -17.54 -0.91 212 212 212
2.17 -17.63 -0.91 213 213 213
2.17 -17.73 -0.91 213 213 213
2.17 -17.82 -0.91 213 213 213
2.17 -17.92 -0.91 213 213 213
2.17 -18.02 -0.91 212 212 212
2.17 -18.11 -0.91 211 211 211
2.17 -18.21 -0.91 210 212 211
2.17 -18.30 -0.91 211 213 212
2.17 -18.40 -0.91 212 214 213
2.17 -18.49 -0.91 214 214 214
2.17 -18.59 -0.91 213 213 213
2.17 -18.68 -0.91 212 212 212
2.17 -18.78 -0.91 211 211 211
2.17 -18.87 -0.91 212 212 212
2.17 -18.97 -0.91 212 212 212
2.17 -19.07 -0.91 211 211 211
2.17 -19.16 -0.91 211 211 211
2.17 -19.26 -0.91 211 211 211
2.17 -19.35 -0.91 212 212 212
2.17 -19.45 -0.91 213 213 213
2.17 -19.54 -0.91 214 214 214
2.17 -19.64 -0.91 214 214 214
2.17 -19.73 -0.91 213 213 213
2.17 -19.83 -0.91 214 214 214
2.17 -19.92 -0.91 214 214 214
2.17 -20.02 -0.91 213 213 213
2.17 -20.11 -0.91 212 212 212
2.17 -20.21 -0.91 212 212 212
2.17 -20.31 -0.91 211 211 211
2.17 -20.40 -0.91 210 210 210
2.36 -20.55 -1.08 210 210 210
2.36 -20.65 -1.08 211 211 211
2.36 -20.75 -1.08 215 215 215
2.36 -20.84 -1.08 214 214 214
2.36 -20.94 -1.08 213 213 213
2.36 -21.03 -1.08 211 211 211
2.36 -21.13 -1.08 210 210 210
2.17 -21.16 -0.91 210 210 210
2.17 -21.26 -0.91 211 211 211
2.17 -21.36 -0.91 212 212 212
2.17 -21.45 -0.91 210 210 210
2.17 -21.55 -0.91 210 210 210
2.17 -21.64 -0.91 210 210 210
2.17 -21.74 -0.91 210 210 210
2.17 -21.83 -0.91 210 210 210
2.17 -21.93 -0.91 210 210 210
2.17 -22.02 -0.91 210 210 210
2.17 -22.12 -0.91 210 210 210
2.17 -22.21 -0.91 211 211 211
2.17 -22.31 -0.91 210 210 210
2.17 -22.40 -0.91 210 210 210
2.17 -22.50 -0.91 210 210 210
2.17 -22.60 -0.91 210 210 210
2.17 -22.69 -0.91 210 210 210
2.17 -22.79 -0.91 211 211 211
2.17 -22.88 -0.91 212 213 208
2.17 -22.98 -0.91 212 213 208
2.17 -23.07 -0.91 212 213 208
2.17 -23.17 -0.91 211 212 207
2.36 -23.33 -1.08 210 210 208
2.36 -23.43 -1.08 210 210 208
2.36 -23.53 -1.08 210 210 208
2.36 -23.62 -1.08 211 211 209
2.36 -23.72 -1.08 214 214 214
2.36 -23.81 -1.08 213 213 213
2.36 -23.91 -1.08 212 212 212
2.36 -24.00 -1.08 211 211 211
2.36 -24.10 -1.08 211 211 213
2.36 -24.20 -1.08 212 212 214
2.36 -24.29 -1.08 211 211 213
2.36 -24.39 -1.08 211 211 213
2.36 -24.48 -1.08 212 212 212
2.36 -24.58 -1.08 212 212 212
2.36 -24.68 -1.08 211 211 211
2.36 -24.77 -1.08 210 210 210
2.36 -24.87 -1.08 210 210 208
2.36 -24.96 -1.08 210 210 208
2.36 -25.06 -1.08 209 209 207
2.36 -25.15 -1.08 209 209 207
2.36 -25.25 -1.08 213 213 213
2.17 -25.27 -0.91 224 222 225
2.17 -25.36 -0.91 217 215 220
2.36 -25.54 -1.08 98 93 99
0.84 22.18 0.15 0 0 0
0.66 21.95 0.32 0 0 0
0.84 21.99 0.15 0 0 0
0.84 21.90 0.15 0 0 0
0.84 21.81 0.15 0 0 0
0.84 21.71 0.15 137 128 123
0.84 21.62 0.15 137 128 123
0.84 21.53 0.15 137 128 123
0.84 21.44 0.15 136 127 122
1.00 21.46 0.01 136 127 122
1.00 21.36 0.01 136 127 122
0.84 21.16 0.15 136 127 122
0.84 21.07 0.15 136 129 123
0.84 20.97 0.15 137 130 124
0.84 20.88 0.15 138 131 125
0.84 20.79 0.15 137 130 124
0.84 20.70 0.15 135 130 124
1.00 20.71 0.01 134 129 123
1.00 20.62 0.01 134 129 123
1.00 20.53 0.01 134 129 123
0.84 20.33 0.15 135 130 124
0.84 20.23 0.15 136 131 125
0.84 20.14 0.15 139 135 126
0.84 20.05 0.15 140 136 127
0.84 19.96 0.15 143 138 132
0.84 19.86 0.15 156 153 148
0.84 19.77 0.15 162 158 155
0.84 19.68 0.15 168 164 161
-5.63 14.98 5.95 194 190 191
-5.63 14.90 5.95 198 194 195
-5.63 14.82 5.95 201 197 198
-5.77 14.66 6.06 205 201 200
-5.77 14.58 6.06 208 204 203
-5.77 14.50 6.06 211 207 206
-5.77 14.43 6.06 210 209 207
-5.63 14.43 5.95 209 211 208
-5.63 14.36 5.95 206 211 207
-5.63 14.28 5.95 203 205 204
-5.63 14.20 5.95 197 197 197
-5.63 14.12 5.95 190 190 188
-5.63 14.05 5.95 186 185 181
-5.53 14.03 5.85 174 177 168
-5.53 13.96 5.85 167 174 158
-5.53 13.88 5.85 157 170 142
-5.53 13.80 5.85 150 162 124
-5.53 13.72 5.85 136 135 81
-5.53 13.64 5.85 134 122 64
-5.53 13.57 5.85 143 111 54
-5.53 13.49 5.85 160 97 43
-5.53 13.41 5.85 174 91 41
-5.39 13.41 5.73 183 85 40
-5.39 13.33 5.73 193 80 40
-5.26 13.34 5.61 205 72 41
-5.13 13.34 5.49 215 67 41
-5.13 13.26 5.49 224 61 42
-4.99 13.26 5.37 231 60 43
-4.73 13.34 5.13 235 57 45
-4.59 13.34 5.01 235 54 43
-4.46 13.33 4.90 233 52 41
-4.33 13.33 4.78 231 50 39
-4.19 13.33 4.66 231 48 40
-4.06 13.32 4.54 231 48 40
-3.90 13.33 4.39 230 47 41
-3.90 13.25 4.39 230 47 41
-3.90 13.17 4.39 225 44 37
-3.90 13.09 4.39 220 43 35
-3.77 13.08 4.28 219 48 40
-3.77 13.00 4.28 217 54 45
-3.77 12.92 4.28 212 61 52
-3.77 12.84 4.28 202 74 65
-3.77 12.76 4.28 195 78 71
-3.63 12.75 4.16 186 81 75
-3.63 12.66 4.16 182 88 86
-3.63 12.58 4.16 177 98 94
-3.63 12.50 4.16 172 104 103
-3.63 12.42 4.16 166 110 111
-3.50 12.41 4.04 163 117 119
-3.50 12.33 4.04 161 122 123
-3.50 12.24 4.04 157 125 126
-3.50 12.16 4.04 155 131 129
-3.34 12.16 3.89 152 133 129
-3.34 12.08 3.89 152 134 132
0.84 14.22 0.15 150 136 133
0.84 14.13 0.15 148 139 134
0.84 14.04 0.15 147 140 134
0.84 13.94 0.15 145 142 137
0.84 13.85 0.15 145 142 137
0.84 13.76 0.15 144 140 137
0.84 13.67 0.15 146 142 139
0.84 13.57 0.15 149 143 143
0.84 13.48 0.15 149 143 143
1.00 13.47 0.01 148 144 143
1.00 13.38 0.01 148 144 143
1.00 13.28 0.01 148 147 145
1.00 13.19 0.01 149 146 141
1.00 13.10 0.01 149 146 141
1.00 13.01 0.01 150 147 142
1.00 12.91 0.01 150 147 142
1.00 12.82 0.01 150 146 143
1.00 12.73 0.01 150 146 143
1.00 12.63 0.01 150 146 143
1.00 12.54 0.01 151 147 144
1.00 12.45 0.01 148 144 143
1.00 12.36 0.01 149 145 144
1.00 12.26 0.01 151 147 146
1.19 12.26 -0.16 151 147 146
1.19 12.17 -0.16 151 147 146
1.19 12.07 -0.16 152 148 147
1.19 11.98 -0.16 154 150 149
1.19 11.89 -0.16 155 151 150
1.19 11.79 -0.16 156 151 148
1.19 11.70 -0.16 155 150 147
1.19 11.61 -0.16 154 150 149
1.19 11.51 -0.16 154 150 149
1.19 11.42 -0.16 153 152 150
1.19 11.33 -0.16 153 152 150
1.19 11.23 -0.16 153 153 153
1.19 11.14 -0.16 154 154 152
1.19 11.05 -0.16 153 153 151
1.19 10.95 -0.16 153 154 149
1.19 10.86 -0.16 153 154 149
1.19 10.77 -0.16 155 154 149
1.00 10.59 0.01 157 156 151
1.00 10.50 0.01 158 158 150
1.19 10.49 -0.16 159 158 153
1.19 10.39 -0.16 158 154 151
1.19 10.30 -0.16 158 154 153
1.19 10.21 -0.16 157 153 152
1.19 10.11 -0.16 157 153 152
1.19 10.02 -0.16 156 155 151
1.19 9.93 -0.16 156 155 151
1.19 9.83 -0.16 157 156 152
1.19 9.74 -0.16 157 156 152
1.19 9.65 -0.16 155 154 149
1.19 9.55 -0.16 155 154 149
1.19 9.46 -0.16 156 156 148
1.19 9.37 -0.16 156 156 148
1.19 9.27 -0.16 157 158 150
1.19 9.18 -0.16 158 159 151
1.19 9.09 -0.16 157 158 150
1.19 8.99 -0.16 156 157 151
1.19 8.90 -0.16 157 158 153
1.19 8.81 -0.16 157 158 153
1.19 8.71 -0.16 157 158 153
1.19 8.62 -0.16 158 159 154
1.37 8.60 -0.33 159 160 155
1.37 8.51 -0.33 159 160 155
1.37 8.41 -0.33 158 159 154
1.37 8.32 -0.33 161 161 159
1.37 8.23 -0.33 159 159 157
1.37 8.13 -0.33 157 157 155
1.37 8.04 -0.33 157 157 155
1.37 7.94 -0.33 158 160 157
1.37 7.85 -0.33 159 161 158
1.37 7.76 -0.33 159 161 158
1.37 7.66 -0.33 158 160 155
1.37 7.57 -0.33 161 162 154
1.37 7.48 -0.33 160 162 151
1.37 7.38 -0.33 160 162 151
1.37 7.29 -0.33 160 162 151
1.37 7.20 -0.33 160 162 149
1.37 7.10 -0.33 162 164 151
1.37 7.01 -0.33 163 165 152
1.37 6.91 -0.33 164 166 153
1.37 6.82 -0.33 165 167 156
1.37 6.73 -0.33 162 163 155
1.37 6.63 -0.33 162 163 155
1.37 6.54 -0.33 164 165 159
1.37 6.45 -0.33 164 165 159
1.37 6.35 -0.33 164 165 159
1.37 6.26 -0.33 163 164 159
1.37 6.16 -0.33 163 165 160
1.37 6.07 -0.33 163 165 162
1.37 5.98 -0.33 164 166 163
1.37 5.88 -0.33 164 166 163
1.37 5.79 -0.33 164 166 165
1.37 5.70 -0.33 164 166 165
1.37 5.60 -0.33 165 167 166
1.37 5.51 -0.33 166 168 167
1.37 5.41 -0.33 167 169 166
1.37 5.32 -0.33 167 169 166
1.37 5.23 -0.33 167 169 164
1.37 5.13 -0.33 167 169 164
1.37 5.04 -0.33 167 170 163
1.37 4.95 -0.33 168 171 164
1.56 4.91 -0.50 169 172 165
1.56 4.81 -0.50 170 172 167
1.56 4.72 -0.50 170 170 168
1.37 4.57 -0.33 170 170 170
1.37 4.48 -0.33 171 171 171
1.37 4.38 -0.33 171 171 171
1.56 4.34 -0.50 170 170 170
1.56 4.25 -0.50 170 170 170
1.56 4.15 -0.50 170 170 170
1.56 4.06 -0.50 172 172 172
1.56 3.97 -0.50 172 172 172
1.56 3.87 -0.50 170 172 171
1.56 3.78 -0.50 170 172 171
1.56 3.68 -0.50 170 172 171
1.56 3.59 -0.50 169 171 170
1.56 3.50 -0.50 170 172 171
1.37 3.35 -0.33 170 172 171
1.37 3.26 -0.33 167 172 166
1.37 3.17 -0.33 167 172 166
1.37 3.07 -0.33 167 172 166
1.37 2.98 -0.33 167 172 166
1.37 2.88 -0.33 168 173 169
1.37 2.79 -0.33 169 174 170
1.37 2.70 -0.33 169 174 170
1.37 2.60 -0.33 169 174 170
1.37 2.51 -0.33 167 172 168
1.37 2.42 -0.33 167 172 168
1.37 2.32 -0.33 168 172 171
1.37 2.23 -0.33 169 173 172
1.37 2.13 -0.33 170 174 173
1.37 2.04 -0.33 171 175 174
1.37 1.95 -0.33 171 175 174
1.37 1.85 -0.33 170 175 171
1.37 1.76 -0.33 170 175 171
1.37 1.67 -0.33 168 174 170
1.37 1.57 -0.33 169 175 171
1.56 1.52 -0.50 170 176 172
1.56 1.42 -0.50 170 176 172
1.56 1.33 -0.50 170 176 172
1.37 1.20 -0.33 170 176 172
1.37 1.10 -0.33 170 179 174
1.37 1.01 -0.33 168 177 172
1.37 0.92 -0.33 167 176 173
1.56 0.86 -0.50 167 176 173
1.56 0.77 -0.50 167 178 174
1.56 0.67 -0.50 168 179 175
1.56 0.58 -0.50 167 178 174
1.56 0.48 -0.50 167 176 173
1.56 0.39 -0.50 170 176 174
1.56 0.29 -0.50 171 175 174
1.56 0.20 -0.50 172 176 175
1.56 0.11 -0.50 172 176 175
1.56 0.01 -0.50 172 176 175
1.56 -0.08 -0.50 171 177 175
1.56 -0.18 -0.50 171 177 175
1.56 -0.27 -0.50 174 180 178
1.56 -0.36 -0.50 174 180 178
1.56 -0.46 -0.50 174 180 178
1.56 -0.55 -0.50 173 179 177
1.56 -0.65 -0.50 172 181 178
1.56 -0.74 -0.50 172 181 178
1.56 -0.83 -0.50 173 182 179
1.56 -0.93 -0.50 173 182 179
1.75 -0.99 -0.66 174 183 180
1.75 -1.09 -0.66 174 183 180
1.75 -1.18 -0.66 173 182 179
1.75 -1.28 -0.66 172 181 178
1.75 -1.37 -0.66 173 182 179
1.75 -1.47 -0.66 173 182 179
1.75 -1.56 -0.66 174 183 180
1.75 -1.66 -0.66 174 183 180
1.75 -1.75 -0.66 173 182 179
1.75 -1.85 -0.66 174 183 180
1.75 -1.94 -0.66 175 184 181
1.75 -2.03 -0.66 176 185 182
1.75 -2.13 -0.66 176 185 182
1.75 -2.22 -0.66 175 184 181
1.75 -2.32 -0.66 175 184 181
1.75 -2.41 -0.66 175 184 181
1.75 -2.51 -0.66 175 184 181
1.75 -2.60 -0.66 175 184 181
1.75 -2.70 -0.66 175 184 181
1.75 -2.79 -0.66 176 185 182
1.75 -2.89 -0.66 177 186 183
1.75 -2.98 -0.66 178 187 184
1.75 -3.07 -0.66 179 188 185
1.75 -3.17 -0.66 179 188 185
1.75 -3.26 -0.66 179 188 185
1.75 -3.36 -0.66 179 188 185
1.75 -3.45 -0.66 180 189 186
1.75 -3.55 -0.66 181 190 187
1.75 -3.64 -0.66 181 190 187
1.75 -3.74 -0.66 181 190 187
1.75 -3.83 -0.66 181 190 187
1.75 -3.93 -0.66 180 189 186
1.75 -4.02 -0.66 180 189 186
1.75 -4.11 -0.66 180 189 186
1.75 -4.21 -0.66 180 189 186
1.93 -4.29 -0.83 183 189 187
1.93 -4.39 -0.83 184 190 188
1.93 -4.48 -0.83 185 191 189
1.93 -4.58 -0.83 187 193 191
1.93 -4.67 -0.83 187 193 191
1.93 -4.77 -0.83 187 193 191
1.93 -4.86 -0.83 187 193 191
1.93 -4.96 -0.83 187 193 191
1.93 -5.05 -0.83 187 193 191
1.93 -5.15 -0.83 187 193 191
1.75 -5.25 -0.66 186 192 190
1.75 -5.34 -0.66 185 196 190
1.75 -5.44 -0.66 185 196 190
1.75 -5.53 -0.66 187 196 191
1.75 -5.63 -0.66 186 195 190
1.75 -5.72 -0.66 186 195 190
1.93 -5.81 -0.83 186 195 190
1.93 -5.91 -0.83 189 195 191
1.93 -6.00 -0.83 189 195 191
1.93 -6.09 -0.83 190 196 192
1.93 -6.19 -0.83 191 197 193
1.93 -6.28 -0.83 189 198 193
1.93 -6.38 -0.83 189 198 193
1.93 -6.47 -0.83 189 198 193
1.93 -6.57 -0.83 189 198 193
1.93 -6.66 -0.83 188 199 193
1.93 -6.76 -0.83 188 199 193
1.93 -6.85 -0.83 189 198 195
1.93 -6.95 -0.83 189 198 195
1.93 -7.04 -0.83 190 199 196
1.93 -7.14 -0.83 190 199 196
1.93 -7.23 -0.83 190 199 196
1.93 -7.33 -0.83 190 199 196
1.93 -7.42 -0.83 191 200 197
1.75 -7.52 -0.66 191 200 197
1.75 -7.61 -0.66 191 200 197
1.75 -7.71 -0.66 192 201 198
1.75 -7.80 -0.66 192 201 198
1.75 -7.90 -0.66 192 201 198
1.75 -7.99 -0.66 192 201 198
1.75 -8.09 -0.66 193 202 199
1.75 -8.18 -0.66 194 203 200
1.75 -8.28 -0.66 195 201 199
1.75 -8.37 -0.66 195 201 199
1.93 -8.47 -0.83 195 201 199
1.93 -8.56 -0.83 195 201 199
1.93 -8.66 -0.83 195 201 199
1.93 -8.75 -0.83 196 202 200
1.93 -8.85 -0.83 196 202 200
1.93 -8.94 -0.83 197 203 201
1.93 -9.04 -0.83 197 203 201
1.75 -9.13 -0.66 198 202 201
1.75 -9.22 -0.66 198 202 201
1.75 -9.32 -0.66 199 203 202
1.75 -9.41 -0.66 199 203 202
1.75 -9.51 -0.66 199 203 202
1.75 -9.60 -0.66 199 203 202
1.75 -9.69 -0.66 200 204 203
1.75 -9.79 -0.66 200 204 203
1.93 -9.89 -0.83 200 204 203
1.93 -9.99 -0.83 200 204 203
