ply
format ascii 1.0
element vertex 1606
property float x
property float y
property float z
property uchar red
property uchar green
property uchar blue
end_header
-3.29 -3.26 -0.36 180 184 183
-3.29 -3.35 -0.36 179 183 182
-3.29 -3.43 -0.36 179 183 182
-3.29 -3.52 -0.36 179 183 182
-3.29 -3.61 -0.36 181 185 184
-3.29 -3.69 -0.36 183 187 186
-3.29 -3.78 -0.36 183 187 186
-3.29 -3.87 -0.36 184 186 185
-3.29 -3.95 -0.36 184 186 185
-3.29 -4.04 -0.36 186 188 187
-3.29 -4.13 -0.36 188 190 189
-3.29 -4.21 -0.36 188 190 189
-3.29 -4.30 -0.36 187 189 188
-3.14 -4.37 -0.52 188 190 189
-3.14 -4.46 -0.52 188 190 189
-3.14 -4.55 -0.52 187 191 190
-3.14 -4.63 -0.52 187 191 190
-3.14 -4.72 -0.52 186 190 189
-3.14 -4.81 -0.52 187 191 190
-3.14 -4.90 -0.52 187 191 190
-3.14 -4.98 -0.52 188 192 191
-3.14 -5.07 -0.52 188 192 191
-3.14 -5.16 -0.52 188 192 191
-3.14 -5.24 -0.52 188 192 191
-3.14 -5.33 -0.52 189 193 192
-3.14 -5.42 -0.52 190 194 193
-3.14 -5.51 -0.52 189 193 192
-3.14 -5.59 -0.52 190 194 193
-3.14 -5.68 -0.52 191 195 194
-3.14 -5.77 -0.52 192 196 195
-3.14 -5.85 -0.52 192 196 195
-3.14 -5.94 -0.52 192 196 195
-3.14 -6.03 -0.52 193 197 196
-3.14 -6.12 -0.52 194 198 197
-3.14 -6.20 -0.52 192 196 195
-3.14 -6.29 -0.52 193 197 196
-3.14 -6.38 -0.52 193 197 196
-3.14 -6.46 -0.52 194 198 197
-3.14 -6.55 -0.52 195 199 198
-3.14 -6.64 -0.52 195 199 198
-3.14 -6.73 -0.52 195 199 198
-3.14 -6.81 -0.52 196 200 199
-3.14 -6.90 -0.52 196 200 199
-3.14 -6.99 -0.52 197 201 200
-3.14 -7.07 -0.52 197 201 200
-3.14 -7.16 -0.52 199 203 202
-3.14 -7.25 -0.52 200 204 203
-3.14 -7.34 -0.52 200 206 204
-3.14 -7.42 -0.52 201 207 205
-2.99 -7.51 -0.67 198 204 202
-2.99 -7.60 -0.67 199 205 203
-2.99 -7.68 -0.67 198 207 204
-3.14 -7.77 -0.52 199 208 205
-3.14 -7.86 -0.52 199 208 205
-3.14 -7.94 -0.52 198 207 204
-3.14 -8.03 -0.52 198 207 204
-3.14 -8.12 -0.52 198 207 204
-3.14 -8.21 -0.52 201 210 207
-3.14 -8.29 -0.52 201 210 207
-3.14 -8.38 -0.52 201 210 207
-3.14 -8.47 -0.52 202 211 208
-3.14 -8.55 -0.52 205 211 209
-3.14 -8.64 -0.52 205 211 209
-3.14 -8.73 -0.52 206 212 210
-2.99 -8.82 -0.67 206 212 210
-2.99 -8.91 -0.67 206 212 210
-2.99 -9.00 -0.67 204 208 207
-2.99 -9.08 -0.67 206 210 209
-2.99 -9.17 -0.67 207 211 210
-2.99 -9.26 -0.67 206 210 209
-3.14 -9.34 -0.52 206 210 209
-3.14 -9.43 -0.52 207 211 210
-3.14 -9.51 -0.52 207 211 210
-3.14 -9.60 -0.52 207 211 210
-3.14 -9.69 -0.52 207 211 210
-3.14 -9.77 -0.52 207 211 210
-3.14 -9.86 -0.52 208 212 211
-3.14 -9.95 -0.52 208 212 211
-3.14 -10.04 -0.52 208 212 211
-3.14 -10.12 -0.52 208 212 211
-3.14 -10.21 -0.52 208 212 211
-3.14 -10.30 -0.52 208 212 211
-3.14 -10.38 -0.52 208 212 211
-3.14 -10.47 -0.52 209 213 212
-3.14 -10.56 -0.52 209 213 212
-3.14 -10.65 -0.52 210 214 213
-3.14 -10.73 -0.52 210 214 213
-3.14 -10.82 -0.52 210 214 213
-2.99 -10.92 -0.67 208 214 212
-2.99 -11.01 -0.67 208 214 212
-2.99 -11.10 -0.67 208 214 212
-2.99 -11.18 -0.67 208 214 212
-2.99 -11.27 -0.67 207 213 211
-2.99 -11.36 -0.67 209 213 212
-2.99 -11.45 -0.67 210 214 213
-2.99 -11.53 -0.67 211 215 214
-2.99 -11.62 -0.67 211 215 214
-2.99 -11.71 -0.67 210 214 213
-2.99 -11.80 -0.67 210 214 213
-2.99 -11.88 -0.67 210 214 213
-2.99 -11.97 -0.67 211 215 214
-2.99 -12.06 -0.67 212 216 215
-3.14 -12.13 -0.52 212 216 215
-3.14 -12.21 -0.52 212 218 216
-2.99 -12.32 -0.67 211 217 215
-2.99 -12.41 -0.67 211 217 215
-2.99 -12.50 -0.67 211 217 215
-2.99 -12.58 -0.67 212 216 215
-2.99 -12.67 -0.67 212 216 215
-2.99 -12.76 -0.67 214 216 215
-2.99 -12.85 -0.67 213 215 214
-2.99 -12.93 -0.67 213 215 214
-2.99 -13.02 -0.67 213 215 214
-2.99 -13.11 -0.67 214 216 215
-2.99 -13.20 -0.67 212 216 215
-2.99 -13.28 -0.67 212 216 215
-2.99 -13.37 -0.67 211 215 214
-2.99 -13.46 -0.67 211 215 214
-2.99 -13.55 -0.67 215 217 216
-2.99 -13.63 -0.67 215 217 216
-2.99 -13.72 -0.67 216 218 217
-2.99 -13.81 -0.67 216 218 217
-2.99 -13.90 -0.67 216 218 217
-2.99 -13.98 -0.67 215 217 216
-2.99 -14.07 -0.67 215 217 216
-2.99 -14.16 -0.67 215 217 216
-2.99 -14.25 -0.67 215 217 216
-2.99 -14.33 -0.67 215 217 216
-2.99 -14.42 -0.67 215 217 216
-2.99 -14.51 -0.67 215 217 216
-2.99 -14.59 -0.67 214 216 215
-2.99 -14.68 -0.67 214 216 215
-2.99 -14.77 -0.67 215 217 216
-2.99 -14.86 -0.67 216 218 217
-2.99 -14.94 -0.67 217 217 217
-2.99 -15.03 -0.67 216 216 216
-3.14 -15.09 -0.52 217 217 217
-3.14 -15.17 -0.52 217 217 217
-2.99 -15.29 -0.67 218 218 218
-2.99 -15.38 -0.67 217 217 217
-2.99 -15.47 -0.67 216 216 216
-2.99 -15.56 -0.67 217 217 217
-2.99 -15.64 -0.67 215 215 215
-2.99 -15.73 -0.67 214 214 214
-2.99 -15.82 -0.67 214 214 214
-2.99 -15.91 -0.67 214 214 214
-2.99 -15.99 -0.67 214 214 214
-2.99 -16.08 -0.67 216 216 216
-2.99 -16.17 -0.67 219 219 219
-2.99 -16.26 -0.67 217 217 217
-2.99 -16.34 -0.67 217 217 217
-2.99 -16.43 -0.67 216 216 216
-2.99 -16.52 -0.67 217 217 217
-2.99 -16.61 -0.67 217 217 217
-2.99 -16.69 -0.67 218 218 218
-2.99 -16.78 -0.67 217 217 217
-2.99 -16.87 -0.67 217 217 217
-2.99 -16.96 -0.67 218 218 218
-2.99 -17.04 -0.67 218 218 218
-2.99 -17.13 -0.67 218 218 218
-2.99 -17.22 -0.67 218 218 218
-2.83 -17.35 -0.83 217 217 217
-2.83 -17.44 -0.83 217 217 217
-2.83 -17.52 -0.83 217 217 217
-2.83 -17.61 -0.83 217 217 215
-2.83 -17.70 -0.83 217 217 215
-2.83 -17.79 -0.83 218 218 216
-2.83 -17.87 -0.83 218 218 216
-2.99 -17.92 -0.67 218 218 216
-2.99 -18.01 -0.67 218 218 216
-2.99 -18.09 -0.67 216 216 214
-2.99 -18.18 -0.67 215 215 213
-2.99 -18.27 -0.67 216 216 216
-2.99 -18.36 -0.67 215 215 215
-2.99 -18.44 -0.67 214 214 214
-2.99 -18.53 -0.67 215 215 215
-2.99 -18.62 -0.67 215 215 215
-2.83 -18.75 -0.83 216 216 216
-2.83 -18.84 -0.83 215 215 215
-2.83 -18.93 -0.83 215 215 215
-2.83 -19.02 -0.83 215 215 215
-2.83 -19.10 -0.83 215 215 215
-2.83 -19.19 -0.83 215 215 215
-2.83 -19.28 -0.83 216 216 216
-2.83 -19.37 -0.83 216 216 216
-2.83 -19.46 -0.83 215 215 215
-2.83 -19.54 -0.83 212 212 212
-2.83 -19.63 -0.83 213 213 213
-2.83 -19.72 -0.83 215 215 215
-2.83 -19.81 -0.83 217 217 219
-2.83 -19.89 -0.83 216 216 218
-2.83 -19.98 -0.83 214 214 216
-2.68 -20.12 -0.98 213 213 215
-2.68 -20.21 -0.98 215 215 217
-2.68 -20.30 -0.98 217 217 219
-2.68 -20.39 -0.98 216 216 216
-2.83 -20.42 -0.83 216 216 216
-2.83 -20.51 -0.83 215 215 215
-2.68 -20.65 -0.98 215 215 215
-2.68 -20.74 -0.98 215 215 215
-2.68 -20.83 -0.98 214 214 214
-2.68 -20.92 -0.98 214 214 214
-2.68 -21.01 -0.98 213 213 213
-2.68 -21.09 -0.98 212 212 212
-2.83 -21.12 -0.83 212 212 212
-2.83 -21.21 -0.83 213 213 213
-2.83 -21.30 -0.83 212 212 212
-2.83 -21.39 -0.83 212 212 212
-2.83 -21.48 -0.83 212 212 212
-2.83 -21.56 -0.83 213 213 213
-2.83 -21.65 -0.83 214 212 213
-2.83 -21.74 -0.83 216 212 213
-2.83 -21.83 -0.83 216 212 213
-2.83 -21.92 -0.83 215 211 212
-2.83 -22.00 -0.83 215 211 212
-2.83 -22.09 -0.83 216 212 213
-2.83 -22.18 -0.83 216 214 215
-2.83 -22.27 -0.83 217 215 216
-2.83 -22.35 -0.83 217 215 216
-2.83 -22.44 -0.83 216 214 215
-2.83 -22.53 -0.83 216 214 215
-2.83 -22.62 -0.83 216 214 215
-2.83 -22.71 -0.83 215 213 214
-2.83 -22.79 -0.83 214 212 213
-2.83 -22.88 -0.83 213 211 212
-2.83 -22.97 -0.83 212 210 211
-2.83 -23.06 -0.83 214 212 213
-2.83 -23.14 -0.83 215 213 214
-2.83 -23.23 -0.83 215 213 214
-2.83 -23.32 -0.83 216 214 215
-2.68 -23.47 -0.98 216 214 215
-2.68 -23.56 -0.98 215 213 214
-2.68 -23.65 -0.98 215 213 214
-2.68 -23.74 -0.98 214 212 213
-2.68 -23.83 -0.98 214 212 213
-2.68 -23.92 -0.98 214 212 213
-2.68 -24.00 -0.98 216 214 215
-2.68 -24.09 -0.98 217 215 216
-2.68 -24.18 -0.98 216 214 215
-2.83 -24.20 -0.83 215 213 214
-2.83 -24.29 -0.83 215 213 214
-2.83 -24.37 -0.83 219 217 218
-2.83 -24.46 -0.83 216 214 215
-2.83 -24.55 -0.83 217 215 216
-2.83 -24.64 -0.83 228 226 227
-2.83 -24.73 -0.83 228 224 223
-2.83 -24.81 -0.83 148 144 143
-2.83 -24.90 -0.83 83 77 77
-4.23 19.66 0.46 0 0 0
-4.23 19.57 0.46 0 0 0
-4.23 19.49 0.46 0 0 0
-4.23 19.40 0.46 0 0 0
-4.23 19.32 0.46 0 0 0
-4.23 19.23 0.46 140 133 125
-4.23 19.15 0.46 140 133 125
-4.23 19.07 0.46 140 133 125
-4.23 18.98 0.46 140 133 125
-4.23 18.90 0.46 139 132 124
-4.23 18.81 0.46 139 132 124
-4.23 18.73 0.46 138 131 123
-4.23 18.64 0.46 138 131 125
-4.23 18.56 0.46 138 131 125
-4.23 18.47 0.46 139 132 126
-4.23 18.39 0.46 139 132 126
-4.23 18.30 0.46 139 132 126
-4.23 18.22 0.46 139 132 126
-4.23 18.13 0.46 139 131 128
-4.23 18.05 0.46 139 131 128
-4.23 17.96 0.46 140 132 129
-4.23 17.88 0.46 140 132 129
-4.23 17.80 0.46 140 133 125
-4.23 17.71 0.46 139 132 124
-4.23 17.63 0.46 139 132 124
-4.23 17.54 0.46 140 133 125
-4.23 17.46 0.46 141 134 126
-4.23 17.37 0.46 141 134 128
-4.23 17.29 0.46 141 134 128
-4.23 17.20 0.46 140 133 127
-4.23 17.12 0.46 140 133 127
-4.23 17.03 0.46 140 133 127
-4.23 16.95 0.46 140 133 127
-4.23 16.86 0.46 140 132 129
-4.23 16.78 0.46 140 132 129
-4.23 16.70 0.46 141 133 130
-4.23 16.61 0.46 141 133 130
-4.23 16.53 0.46 140 132 130
-4.23 16.44 0.46 139 131 129
-4.23 16.36 0.46 139 131 129
-4.23 16.27 0.46 139 131 129
-4.23 16.19 0.46 140 131 132
-4.23 16.10 0.46 140 131 132
-4.08 16.12 0.31 140 131 134
-4.08 16.03 0.31 139 130 133
-4.08 15.95 0.31 140 131 134
-4.08 15.86 0.31 139 130 133
-4.08 15.78 0.31 139 130 131
-4.08 15.69 0.31 139 130 131
-4.08 15.61 0.31 139 130 131
-4.08 15.52 0.31 139 131 129
-4.08 15.44 0.31 139 131 129
-4.08 15.35 0.31 133 130 123
-4.08 15.27 0.31 133 130 123
-4.08 15.18 0.31 132 129 122
-4.08 15.10 0.31 132 129 122
-4.08 15.01 0.31 133 128 124
-4.08 14.93 0.31 133 128 124
-4.08 14.84 0.31 133 128 125
-4.08 14.76 0.31 133 128 125
-4.08 14.67 0.31 130 125 122
-4.08 14.59 0.31 131 126 123
-3.92 14.60 0.15 133 124 125
-3.92 14.51 0.15 133 124 125
-3.92 14.43 0.15 133 124 127
-3.92 14.34 0.15 133 124 127
-3.92 14.26 0.15 132 123 126
-3.92 14.17 0.15 132 123 128
-3.92 14.09 0.15 133 121 131
-3.92 14.00 0.15 135 125 136
-3.92 13.92 0.15 129 127 132
-3.92 13.83 0.15 113 113 121
-3.92 13.74 0.15 77 86 95
-4.08 13.57 0.31 54 66 92
-4.08 13.48 0.31 102 113 145
-4.08 13.40 0.31 165 176 206
-4.08 13.31 0.31 187 194 220
-4.08 13.23 0.31 194 201 217
-4.08 13.14 0.31 189 193 202
-3.92 13.15 0.15 189 192 199
-6.63 11.36 2.89 196 194 208
-6.63 11.29 2.89 200 201 205
-6.63 11.21 2.89 201 201 203
-6.63 11.13 2.89 202 202 204
-6.63 11.05 2.89 203 201 204
-6.63 10.97 2.89 205 201 202
-6.63 10.89 2.89 202 201 197
-6.63 10.81 2.89 199 200 194
-6.63 10.73 2.89 195 200 194
-6.63 10.65 2.89 190 199 196
-6.63 10.57 2.89 191 200 205
-6.63 10.50 2.89 156 166 178
-6.63 10.42 2.89 102 109 125
-6.63 10.34 2.89 111 119 132
-6.63 10.26 2.89 110 114 123
-6.50 10.25 2.77 125 126 120
-6.50 10.17 2.77 129 125 122
-6.50 10.09 2.77 131 126 123
-3.77 11.26 -0.00 135 130 127
-3.77 11.18 -0.00 135 130 127
-3.92 11.01 0.15 135 131 130
-3.92 10.93 0.15 136 132 131
-3.77 10.92 -0.00 135 131 130
-3.77 10.83 -0.00 135 131 130
-3.77 10.75 -0.00 133 132 130
-3.77 10.66 -0.00 134 133 131
-3.92 10.50 0.15 135 134 132
-3.92 10.42 0.15 137 136 134
-3.92 10.33 0.15 137 136 134
-3.92 10.25 0.15 138 137 135
-3.92 10.16 0.15 137 134 129
-3.92 10.07 0.15 138 135 130
-3.92 9.99 0.15 139 135 132
-3.92 9.90 0.15 140 136 133
-3.92 9.82 0.15 139 135 132
-3.92 9.73 0.15 139 135 132
-3.92 9.65 0.15 140 136 133
-3.92 9.56 0.15 137 133 132
-3.92 9.48 0.15 139 135 134
-3.77 9.46 -0.00 139 135 134
-3.77 9.38 -0.00 138 134 133
-3.77 9.29 -0.00 138 134 133
-3.77 9.21 -0.00 139 135 134
-3.77 9.12 -0.00 140 136 135
-3.77 9.04 -0.00 139 135 132
-3.77 8.95 -0.00 140 141 135
-3.77 8.86 -0.00 138 139 131
-3.77 8.78 -0.00 139 139 131
-3.77 8.69 -0.00 140 140 132
-3.77 8.61 -0.00 141 140 135
-3.77 8.52 -0.00 140 139 134
-3.77 8.44 -0.00 142 139 134
-3.77 8.35 -0.00 144 141 136
-3.77 8.26 -0.00 143 139 136
-3.77 8.18 -0.00 143 139 136
-3.77 8.09 -0.00 141 140 138
-3.77 8.01 -0.00 141 140 138
-3.77 7.92 -0.00 140 139 137
-3.77 7.84 -0.00 139 138 136
-3.77 7.75 -0.00 139 139 137
-3.77 7.66 -0.00 142 142 140
-3.77 7.58 -0.00 148 148 146
-3.77 7.49 -0.00 152 152 150
-3.77 7.41 -0.00 155 155 153
-3.77 7.32 -0.00 157 156 152
-3.77 7.24 -0.00 158 157 153
-3.77 7.15 -0.00 161 157 154
-3.77 7.06 -0.00 161 157 154
-3.77 6.98 -0.00 161 158 153
-3.77 6.89 -0.00 162 159 154
-3.77 6.81 -0.00 162 159 154
-3.77 6.72 -0.00 163 160 155
-3.77 6.64 -0.00 161 161 153
-3.77 6.55 -0.00 161 161 153
-3.77 6.46 -0.00 162 162 154
-3.77 6.38 -0.00 162 162 154
-3.77 6.29 -0.00 162 162 154
-3.77 6.21 -0.00 162 162 154
-3.77 6.12 -0.00 162 161 156
-3.77 6.04 -0.00 162 161 156
-3.77 5.95 -0.00 161 160 156
-3.77 5.86 -0.00 161 160 156
-3.77 5.78 -0.00 162 161 157
-3.77 5.69 -0.00 163 162 158
-3.77 5.61 -0.00 160 161 156
-3.77 5.52 -0.00 162 163 158
-3.77 5.44 -0.00 162 163 158
-3.77 5.35 -0.00 163 164 158
-3.77 5.26 -0.00 163 164 158
-3.77 5.18 -0.00 163 166 157
-3.77 5.09 -0.00 163 166 159
-3.77 5.01 -0.00 163 164 159
-3.77 4.92 -0.00 163 163 161
-3.77 4.84 -0.00 163 163 161
-3.77 4.75 -0.00 164 164 162
-3.77 4.66 -0.00 163 163 161
-3.64 4.62 -0.13 162 162 160
-3.64 4.53 -0.13 163 163 161
-3.64 4.45 -0.13 165 165 163
-3.64 4.36 -0.13 164 165 160
-3.64 4.28 -0.13 163 164 159
-3.64 4.19 -0.13 163 164 159
-3.64 4.10 -0.13 163 164 159
-3.64 4.02 -0.13 164 165 160
-3.64 3.93 -0.13 165 166 161
-3.64 3.85 -0.13 166 167 162
-3.64 3.76 -0.13 166 167 162
-3.64 3.67 -0.13 164 165 160
-3.64 3.59 -0.13 164 165 160
-3.64 3.50 -0.13 164 165 160
-3.64 3.42 -0.13 165 166 161
-3.64 3.33 -0.13 165 166 161
-3.64 3.24 -0.13 166 167 162
-3.64 3.16 -0.13 167 168 163
-3.64 3.07 -0.13 167 168 162
-3.64 2.99 -0.13 167 168 162
-3.64 2.90 -0.13 167 168 162
-3.64 2.81 -0.13 167 168 162
-3.64 2.73 -0.13 167 168 160
-3.77 2.61 -0.00 167 168 160
-3.77 2.52 -0.00 167 168 160
-3.77 2.44 -0.00 167 168 160
-3.77 2.35 -0.00 171 172 166
-3.64 2.30 -0.13 170 171 165
-3.64 2.21 -0.13 169 170 164
-3.64 2.13 -0.13 169 170 164
-3.64 2.04 -0.13 170 171 166
-3.64 1.95 -0.13 170 171 166
-3.64 1.87 -0.13 170 170 168
-3.64 1.78 -0.13 170 170 168
-3.64 1.70 -0.13 169 169 167
-3.64 1.61 -0.13 169 169 167
-3.64 1.52 -0.13 168 168 166
-3.64 1.44 -0.13 169 169 167
-3.64 1.35 -0.13 171 171 169
-3.64 1.27 -0.13 171 172 167
-3.64 1.18 -0.13 170 171 166
-3.64 1.09 -0.13 169 170 164
-3.64 1.01 -0.13 171 172 166
-3.64 0.92 -0.13 172 173 167
-3.64 0.84 -0.13 171 172 166
-3.64 0.75 -0.13 169 170 165
-3.64 0.66 -0.13 168 169 164
-3.64 0.58 -0.13 170 171 166
-3.64 0.49 -0.13 172 173 168
-3.64 0.41 -0.13 173 175 172
-3.64 0.32 -0.13 173 175 172
-3.64 0.23 -0.13 173 175 172
-3.64 0.15 -0.13 172 174 171
-3.64 0.06 -0.13 172 174 173
-3.64 -0.02 -0.13 171 173 172
-3.64 -0.11 -0.13 171 173 172
-3.49 -0.17 -0.28 171 173 172
-3.49 -0.25 -0.28 168 172 171
-3.49 -0.34 -0.28 169 173 172
-3.49 -0.43 -0.28 170 174 173
-3.49 -0.51 -0.28 170 174 173
-3.49 -0.60 -0.28 170 174 173
-3.49 -0.68 -0.28 170 174 173
-3.49 -0.77 -0.28 171 175 174
-3.49 -0.86 -0.28 171 175 174
-3.49 -0.94 -0.28 172 176 175
-3.49 -1.03 -0.28 171 175 174
-3.49 -1.12 -0.28 171 175 174
-3.49 -1.20 -0.28 171 176 172
-3.49 -1.29 -0.28 171 176 172
-3.49 -1.38 -0.28 173 178 174
-3.49 -1.46 -0.28 174 179 175
-3.64 -1.57 -0.13 171 177 175
-3.64 -1.66 -0.13 171 177 175
-3.64 -1.74 -0.13 172 178 176
-3.64 -1.83 -0.13 173 179 177
-3.64 -1.92 -0.13 174 180 178
-3.49 -1.98 -0.28 175 181 179
-3.49 -2.07 -0.28 175 181 179
-3.49 -2.15 -0.28 175 181 179
-3.49 -2.24 -0.28 174 180 178
-3.49 -2.33 -0.28 174 180 178
-3.49 -2.41 -0.28 175 181 179
-3.49 -2.50 -0.28 176 182 180
-3.49 -2.58 -0.28 178 184 182
-3.49 -2.67 -0.28 178 184 182
-3.49 -2.76 -0.28 176 182 180
-3.49 -2.84 -0.28 176 182 180
-3.49 -2.93 -0.28 177 183 181
-3.49 -3.02 -0.28 179 185 183
-3.49 -3.10 -0.28 179 185 183
-3.49 -3.19 -0.28 179 185 183
-3.34 -3.26 -0.44 178 184 182
-3.34 -3.35 -0.44 179 183 182
-3.34 -3.43 -0.44 178 182 181
-3.34 -3.52 -0.44 179 183 182
-3.34 -3.61 -0.44 180 184 183
-3.34 -3.69 -0.44 181 185 184
-3.34 -3.78 -0.44 181 185 184
-3.34 -3.87 -0.44 181 185 184
-3.34 -3.95 -0.44 181 185 184
-3.34 -4.04 -0.44 183 187 186
-3.34 -4.13 -0.44 184 188 187
-3.34 -4.21 -0.44 183 187 186
-3.34 -4.30 -0.44 183 187 186
-3.34 -4.39 -0.44 182 188 186
-3.34 -4.47 -0.44 183 189 187
-3.34 -4.56 -0.44 185 191 189
-3.34 -4.65 -0.44 186 192 190
-3.34 -4.73 -0.44 185 191 189
-3.34 -4.82 -0.44 184 190 188
-3.34 -4.91 -0.44 185 191 189
-3.34 -4.99 -0.44 185 191 189
-3.34 -5.08 -0.44 186 192 190
-3.34 -5.17 -0.44 187 193 191
-3.34 -5.25 -0.44 188 194 192
-3.34 -5.34 -0.44 189 195 193
-3.34 -5.43 -0.44 190 196 194
-3.34 -5.51 -0.44 191 195 194
-3.34 -5.60 -0.44 191 195 194
-3.34 -5.69 -0.44 192 196 195
-3.34 -5.77 -0.44 193 197 196
-3.34 -5.86 -0.44 193 197 196
-3.34 -5.95 -0.44 193 197 196
-3.34 -6.03 -0.44 194 198 197
-3.34 -6.12 -0.44 195 199 198
-3.34 -6.21 -0.44 193 197 196
-3.34 -6.29 -0.44 194 198 197
-3.34 -6.38 -0.44 195 199 198
-3.34 -6.47 -0.44 196 200 199
-3.34 -6.55 -0.44 196 200 199
-3.34 -6.64 -0.44 197 201 200
-3.34 -6.73 -0.44 196 200 199
-3.34 -6.81 -0.44 196 200 199
-3.34 -6.90 -0.44 197 201 200
-3.34 -6.99 -0.44 197 201 200
-3.18 -7.07 -0.59 197 201 200
-3.18 -7.16 -0.59 198 202 201
-3.18 -7.25 -0.59 198 202 201
-3.18 -7.34 -0.59 198 204 202
-3.18 -7.42 -0.59 198 204 202
-3.18 -7.51 -0.59 197 203 201
-3.18 -7.60 -0.59 198 204 202
-3.18 -7.68 -0.59 200 206 204
-3.18 -7.77 -0.59 200 206 204
-3.18 -7.86 -0.59 199 208 205
-3.18 -7.94 -0.59 199 208 205
-3.18 -8.03 -0.59 199 208 205
-3.18 -8.12 -0.59 200 209 206
-3.18 -8.21 -0.59 201 210 207
-3.18 -8.29 -0.59 202 211 208
-3.18 -8.38 -0.59 202 211 208
-3.18 -8.47 -0.59 203 212 209
-3.18 -8.55 -0.59 204 213 210
-3.18 -8.64 -0.59 205 214 211
-3.18 -8.73 -0.59 208 214 212
-3.18 -8.82 -0.59 208 214 212
-3.18 -8.90 -0.59 207 211 210
-3.18 -8.99 -0.59 207 209 208
-3.18 -9.08 -0.59 208 210 209
-3.18 -9.16 -0.59 209 211 210
-3.18 -9.25 -0.59 209 211 210
-3.18 -9.34 -0.59 209 211 210
-3.18 -9.43 -0.59 210 212 211
-3.18 -9.51 -0.59 210 212 211
-3.18 -9.60 -0.59 210 212 211
-3.18 -9.69 -0.59 210 212 211
-3.18 -9.77 -0.59 211 213 212
-3.18 -9.86 -0.59 211 213 212
-3.34 -9.94 -0.44 210 212 211
-3.34 -10.02 -0.44 210 212 211
-3.34 -10.11 -0.44 210 212 211
-3.34 -10.20 -0.44 209 211 210
-3.18 -10.30 -0.59 210 212 211
-3.18 -10.38 -0.59 211 213 212
-3.18 -10.47 -0.59 211 213 212
-3.18 -10.56 -0.59 212 214 213
-3.18 -10.65 -0.59 212 214 213
-3.18 -10.73 -0.59 213 213 213
-3.18 -10.82 -0.59 212 214 213
-3.18 -10.91 -0.59 209 213 212
-3.18 -10.99 -0.59 209 215 213
-3.18 -11.08 -0.59 208 214 212
-3.03 -11.18 -0.75 209 213 212
-3.03 -11.27 -0.75 209 213 212
-3.03 -11.36 -0.75 210 214 213
-3.18 -11.43 -0.59 210 214 213
-3.18 -11.52 -0.59 211 215 214
-3.18 -11.60 -0.59 211 215 214
-3.18 -11.69 -0.59 210 214 213
-3.18 -11.78 -0.59 210 214 213
-3.18 -11.86 -0.59 210 214 213
-3.18 -11.95 -0.59 211 215 214
-3.18 -12.04 -0.59 211 215 214
-3.18 -12.13 -0.59 212 216 215
-3.18 -12.21 -0.59 211 217 215
-3.18 -12.30 -0.59 211 217 215
-3.18 -12.39 -0.59 211 217 215
-3.18 -12.47 -0.59 212 218 216
-3.18 -12.56 -0.59 213 217 216
-3.18 -12.65 -0.59 213 217 216
-3.18 -12.74 -0.59 211 215 214
-3.18 -12.82 -0.59 210 214 213
-3.18 -12.91 -0.59 212 216 215
-3.18 -13.00 -0.59 212 216 215
-3.18 -13.08 -0.59 213 217 216
-3.18 -13.17 -0.59 212 218 216
-3.18 -13.26 -0.59 212 218 216
-3.18 -13.35 -0.59 211 217 215
-3.18 -13.43 -0.59 212 216 215
-3.03 -13.55 -0.75 213 217 216
-3.03 -13.63 -0.75 215 217 216
-3.03 -13.72 -0.75 215 217 216
-3.03 -13.81 -0.75 214 216 215
-3.03 -13.90 -0.75 212 214 213
-3.03 -13.98 -0.75 213 215 214
-3.03 -14.07 -0.75 215 217 216
-3.03 -14.16 -0.75 217 219 218
-3.03 -14.25 -0.75 216 218 217
-3.03 -14.33 -0.75 217 219 218
-3.03 -14.42 -0.75 217 219 218
-3.18 -14.48 -0.59 216 218 217
-3.18 -14.57 -0.59 214 216 215
-3.18 -14.65 -0.59 213 215 214
-3.18 -14.74 -0.59 214 216 215
-3.18 -14.83 -0.59 215 217 216
-3.18 -14.91 -0.59 215 215 215
-3.18 -15.00 -0.59 215 215 215
-3.18 -15.09 -0.59 216 216 216
-3.18 -15.17 -0.59 216 216 216
-3.18 -15.26 -0.59 217 217 217
-3.18 -15.35 -0.59 217 217 217
-3.18 -15.44 -0.59 216 216 216
-3.18 -15.52 -0.59 216 216 216
-3.18 -15.61 -0.59 215 215 215
-3.18 -15.70 -0.59 215 215 215
-3.18 -15.78 -0.59 215 215 215
-3.18 -15.87 -0.59 215 215 215
-3.18 -15.96 -0.59 215 215 215
-3.18 -16.05 -0.59 217 217 217
-3.18 -16.13 -0.59 219 219 219
-3.18 -16.22 -0.59 217 217 217
-3.18 -16.31 -0.59 216 216 216
-3.18 -16.39 -0.59 215 215 215
-3.18 -16.48 -0.59 216 216 216
-3.18 -16.57 -0.59 217 217 217
-3.18 -16.66 -0.59 218 218 218
-3.18 -16.74 -0.59 217 217 217
-3.03 -16.87 -0.75 216 216 216
-3.03 -16.96 -0.75 217 217 217
-3.03 -17.04 -0.75 217 217 217
-3.03 -17.13 -0.75 217 217 217
-3.03 -17.22 -0.75 217 217 217
-3.03 -17.31 -0.75 217 217 217
-3.03 -17.39 -0.75 216 216 216
-3.03 -17.48 -0.75 216 216 216
-3.03 -17.57 -0.75 216 216 214
-3.03 -17.66 -0.75 216 216 214
-3.03 -17.74 -0.75 217 217 215
-3.03 -17.83 -0.75 217 217 215
-3.03 -17.92 -0.75 218 218 216
-3.03 -18.01 -0.75 217 217 215
-3.03 -18.09 -0.75 217 217 215
-3.03 -18.18 -0.75 216 216 214
-3.18 -18.22 -0.59 215 215 215
-3.18 -18.31 -0.59 214 214 214
-3.18 -18.40 -0.59 214 214 214
-3.03 -18.53 -0.75 214 214 214
-3.03 -18.62 -0.75 215 215 215
-3.03 -18.71 -0.75 216 216 216
-3.03 -18.79 -0.75 216 216 216
-3.03 -18.88 -0.75 216 216 216
-3.03 -18.97 -0.75 214 214 214
-3.03 -19.06 -0.75 214 214 214
-3.03 -19.14 -0.75 214 214 214
-3.03 -19.23 -0.75 215 215 215
-3.03 -19.32 -0.75 216 216 216
-3.03 -19.41 -0.75 215 215 215
-3.03 -19.49 -0.75 213 213 213
-2.88 -19.63 -0.91 213 213 213
-2.88 -19.72 -0.91 214 214 214
-2.88 -19.81 -0.91 215 215 215
-2.88 -19.89 -0.91 216 216 216
-2.88 -19.98 -0.91 215 215 215
-2.88 -20.07 -0.91 215 215 215
-2.88 -20.16 -0.91 217 217 217
-2.88 -20.25 -0.91 218 218 218
-2.88 -20.33 -0.91 216 216 216
-2.88 -20.42 -0.91 215 215 215
-2.88 -20.51 -0.91 215 215 215
-2.88 -20.60 -0.91 214 214 214
-2.88 -20.69 -0.91 215 215 215
-2.88 -20.77 -0.91 215 215 215
-2.88 -20.86 -0.91 214 214 214
-2.88 -20.95 -0.91 214 214 214
-2.88 -21.04 -0.91 213 213 213
-2.88 -21.12 -0.91 213 213 213
-2.88 -21.21 -0.91 213 213 213
-2.88 -21.30 -0.91 213 213 213
-2.88 -21.39 -0.91 213 213 213
-2.88 -21.48 -0.91 213 213 213
-2.88 -21.56 -0.91 214 214 214
-2.88 -21.65 -0.91 214 212 213
-3.03 -21.68 -0.75 217 213 214
-3.03 -21.77 -0.75 217 213 214
-3.03 -21.86 -0.75 216 212 213
-2.88 -22.00 -0.91 216 212 213
-2.88 -22.09 -0.91 217 213 214
-2.88 -22.18 -0.91 216 214 215
-2.88 -22.27 -0.91 217 215 216
-2.88 -22.35 -0.91 215 213 214
-2.88 -22.44 -0.91 215 213 214
-2.88 -22.53 -0.91 215 213 214
-2.88 -22.62 -0.91 215 213 214
-3.03 -22.64 -0.75 215 213 214
-3.03 -22.73 -0.75 215 213 214
-3.03 -22.82 -0.75 215 213 214
-3.03 -22.90 -0.75 215 213 214
-3.03 -22.99 -0.75 214 212 213
-3.03 -23.08 -0.75 215 213 214
-2.88 -23.23 -0.91 216 214 215
-2.88 -23.32 -0.91 217 215 216
-2.88 -23.41 -0.91 217 215 216
-2.88 -23.50 -0.91 217 215 216
-2.88 -23.58 -0.91 217 215 216
-2.88 -23.67 -0.91 217 215 216
-2.73 -23.83 -1.06 215 213 214
-2.73 -23.92 -1.06 215 213 214
-2.73 -24.00 -1.06 215 213 214
-2.73 -24.09 -1.06 216 214 215
-2.88 -24.11 -0.91 216 214 215
-2.88 -24.20 -0.91 216 214 215
-2.88 -24.29 -0.91 216 214 215
-2.88 -24.37 -0.91 213 211 212
-2.88 -24.46 -0.91 214 212 213
-2.88 -24.55 -0.91 215 214 212
-2.88 -24.64 -0.91 219 218 216
-2.88 -24.73 -0.91 230 226 225
-3.03 -24.74 -0.75 166 162 161
-2.88 -24.90 -0.91 89 83 83
-4.27 19.66 0.39 0 0 0
-4.27 19.57 0.39 0 0 0
-4.27 19.49 0.39 0 0 0
-4.27 19.40 0.39 0 0 0
-4.27 19.32 0.39 0 0 0
-4.27 19.23 0.39 142 135 127
-4.27 19.15 0.39 142 135 127
-4.27 19.07 0.39 141 134 126
-4.27 18.98 0.39 140 133 125
-4.27 18.90 0.39 140 133 125
-4.27 18.81 0.39 140 133 125
-4.27 18.73 0.39 140 133 125
-4.27 18.64 0.39 140 133 127
-4.27 18.56 0.39 139 132 126
-4.27 18.47 0.39 139 132 126
-4.27 18.39 0.39 138 131 125
-4.27 18.30 0.39 138 131 125
-4.27 18.22 0.39 138 131 125
-4.27 18.13 0.39 139 132 126
-4.27 18.05 0.39 139 132 126
-4.27 17.96 0.39 139 132 126
-4.27 17.88 0.39 139 132 126
-4.27 17.80 0.39 136 129 121
-4.27 17.71 0.39 137 130 122
-4.27 17.63 0.39 138 131 123
-4.27 17.54 0.39 139 132 124
-4.27 17.46 0.39 139 132 124
-4.27 17.37 0.39 139 132 126
-4.27 17.29 0.39 139 132 126
-4.27 17.20 0.39 136 131 125
-4.27 17.12 0.39 137 132 126
-4.27 17.03 0.39 138 133 127
-4.27 16.95 0.39 138 133 127
-4.27 16.86 0.39 139 134 128
-4.40 16.69 0.52 138 133 127
-4.40 16.61 0.52 138 133 127
-4.40 16.53 0.52 138 133 127
-4.40 16.44 0.52 140 133 125
-4.40 16.36 0.52 140 133 125
-4.40 16.27 0.52 141 134 126
-4.27 16.27 0.39 140 133 125
-4.27 16.19 0.39 140 133 127
-4.27 16.10 0.39 140 133 127
-4.27 16.02 0.39 141 133 130
-4.27 15.93 0.39 142 134 131
-4.27 15.85 0.39 141 133 130
-4.27 15.76 0.39 140 132 129
-4.12 15.78 0.24 139 131 128
-4.12 15.69 0.24 139 131 128
-4.12 15.61 0.24 141 133 130
-4.27 15.43 0.39 140 133 127
-4.27 15.34 0.39 140 133 127
-4.27 15.26 0.39 135 130 124
-4.27 15.17 0.39 134 129 123
-4.27 15.09 0.39 134 129 123
-4.27 15.00 0.39 134 129 123
-4.27 14.92 0.39 134 129 123
-4.27 14.83 0.39 134 129 123
-4.27 14.75 0.39 134 129 125
-4.12 14.76 0.24 135 130 126
-4.12 14.67 0.24 133 128 125
-4.12 14.59 0.24 133 128 125
-4.12 14.50 0.24 136 128 126
-4.12 14.42 0.24 136 128 126
-4.12 14.33 0.24 136 127 128
-3.97 14.34 0.08 135 126 127
-3.97 14.26 0.08 135 126 127
-3.97 14.17 0.08 134 125 126
-3.97 14.09 0.08 125 121 118
-3.97 14.00 0.08 131 130 126
-3.97 13.92 0.08 136 137 131
-4.12 13.74 0.24 102 107 101
-4.12 13.65 0.24 75 81 77
-4.12 13.57 0.24 107 117 119
-4.12 13.48 0.24 181 188 194
-4.27 13.31 0.39 181 189 191
-4.27 13.23 0.39 186 190 191
-4.27 13.14 0.39 181 186 179
-4.12 13.14 0.24 182 185 176
-4.12 13.06 0.24 191 192 184
-6.66 11.21 2.83 203 201 204
-6.66 11.13 2.83 205 200 206
-6.66 11.05 2.83 205 200 207
-6.66 10.97 2.83 202 200 203
-6.66 10.89 2.83 200 198 199
-6.66 10.81 2.83 197 198 193
-6.66 10.73 2.83 195 196 191
-6.66 10.65 2.83 195 200 196
-6.66 10.57 2.83 195 199 202
-6.66 10.50 2.83 170 174 183
-6.66 10.42 2.83 116 120 132
-6.66 10.34 2.83 113 115 127
-6.66 10.26 2.83 112 115 122
-6.66 10.18 2.83 119 120 115
-4.12 11.28 0.24 133 127 127
-4.12 11.19 0.24 135 129 129
-4.12 11.11 0.24 135 129 129
-3.97 11.10 0.08 135 129 129
-3.97 11.01 0.08 135 131 130
-3.97 10.93 0.08 136 132 131
-3.97 10.84 0.08 137 133 132
-3.97 10.76 0.08 136 132 131
-3.97 10.67 0.08 136 132 131
-3.97 10.59 0.08 137 133 132
-3.97 10.50 0.08 138 134 133
-3.97 10.42 0.08 139 135 134
-3.97 10.33 0.08 137 136 134
-3.97 10.25 0.08 137 136 134
-3.97 10.16 0.08 138 134 131
-3.97 10.07 0.08 138 134 131
-3.97 9.99 0.08 139 135 132
-3.97 9.90 0.08 139 135 132
-3.97 9.82 0.08 139 135 132
-3.97 9.73 0.08 139 135 132
-3.97 9.65 0.08 139 135 132
-3.97 9.56 0.08 137 133 130
-3.97 9.48 0.08 140 136 133
-3.97 9.39 0.08 140 136 135
-3.97 9.31 0.08 139 135 134
-3.97 9.22 0.08 139 135 134
-3.97 9.14 0.08 140 136 135
-3.97 9.05 0.08 141 137 136
-3.97 8.97 0.08 141 137 134
-3.97 8.88 0.08 142 143 137
-3.97 8.79 0.08 140 141 133
-3.97 8.71 0.08 138 139 131
-3.97 8.62 0.08 139 140 132
-3.97 8.54 0.08 140 139 134
-3.97 8.45 0.08 140 139 134
-3.97 8.37 0.08 143 140 135
-3.97 8.28 0.08 145 142 137
-3.97 8.20 0.08 143 139 136
-3.97 8.11 0.08 142 138 135
-3.97 8.03 0.08 141 140 138
-3.97 7.94 0.08 142 141 139
-3.97 7.86 0.08 140 140 138
-3.97 7.77 0.08 139 139 137
-3.97 7.69 0.08 140 140 138
-3.97 7.60 0.08 143 143 141
-3.97 7.51 0.08 146 147 142
-3.81 7.49 -0.07 149 150 145
-3.81 7.41 -0.07 153 154 149
-3.81 7.32 -0.07 156 155 151
-3.81 7.24 -0.07 157 156 152
-3.81 7.15 -0.07 160 157 152
-3.81 7.06 -0.07 160 157 152
-3.81 6.98 -0.07 160 157 152
-3.81 6.89 -0.07 161 158 153
-3.81 6.81 -0.07 162 159 152
-3.81 6.72 -0.07 162 159 152
-3.81 6.64 -0.07 160 160 152
-3.81 6.55 -0.07 160 160 152
-3.81 6.46 -0.07 161 161 153
-3.81 6.38 -0.07 161 161 153
-3.81 6.29 -0.07 161 161 153
-3.81 6.21 -0.07 162 162 154
-3.81 6.12 -0.07 161 160 155
-3.81 6.04 -0.07 161 160 155
-3.81 5.95 -0.07 159 160 155
-3.81 5.86 -0.07 159 160 155
-3.81 5.78 -0.07 160 161 156
-3.81 5.69 -0.07 161 162 157
-3.81 5.61 -0.07 162 163 158
-3.81 5.52 -0.07 162 163 158
-3.81 5.44 -0.07 161 162 157
-3.81 5.35 -0.07 161 162 156
-3.81 5.26 -0.07 162 163 157
-3.81 5.18 -0.07 163 164 156
-3.81 5.09 -0.07 164 165 159
-3.81 5.01 -0.07 163 164 159
-3.81 4.92 -0.07 162 162 160
-3.81 4.84 -0.07 162 162 160
-3.81 4.75 -0.07 164 164 162
-3.81 4.66 -0.07 163 163 161
-3.81 4.58 -0.07 162 162 160
-3.81 4.49 -0.07 163 164 159
-3.81 4.41 -0.07 165 166 161
-3.81 4.32 -0.07 164 165 160
-3.81 4.24 -0.07 164 165 160
-3.81 4.15 -0.07 164 165 160
-3.81 4.06 -0.07 164 165 160
-3.81 3.98 -0.07 164 165 160
-3.69 3.93 -0.20 164 165 160
-3.69 3.85 -0.20 165 166 160
-3.69 3.76 -0.20 166 167 161
-3.69 3.67 -0.20 165 166 161
-3.69 3.59 -0.20 165 166 161
-3.69 3.50 -0.20 164 165 160
-3.69 3.42 -0.20 164 165 160
-3.69 3.33 -0.20 165 166 161
-3.69 3.24 -0.20 165 166 161
-3.69 3.16 -0.20 166 167 162
-3.69 3.07 -0.20 166 167 161
-3.69 2.99 -0.20 166 167 161
-3.81 2.86 -0.07 166 167 161
-3.81 2.78 -0.07 167 168 162
-3.81 2.69 -0.07 167 168 160
-3.81 2.61 -0.07 167 168 160
-3.81 2.52 -0.07 168 169 161
-3.81 2.44 -0.07 168 169 161
-3.81 2.35 -0.07 170 171 165
-3.81 2.26 -0.07 170 171 165
-3.81 2.18 -0.07 169 170 164
-3.81 2.09 -0.07 169 170 164
-3.81 2.01 -0.07 170 171 166
-3.81 1.92 -0.07 170 171 166
-3.81 1.84 -0.07 170 170 168
-3.81 1.75 -0.07 170 170 168
-3.81 1.66 -0.07 168 168 166
-3.81 1.58 -0.07 169 169 167
-3.69 1.52 -0.20 169 169 167
-3.69 1.44 -0.20 169 169 167
-3.69 1.35 -0.20 169 169 167
-3.69 1.27 -0.20 170 171 166
-3.69 1.18 -0.20 171 172 167
-3.69 1.09 -0.20 169 170 165
-3.69 1.01 -0.20 170 171 166
-3.69 0.92 -0.20 172 173 168
-3.69 0.84 -0.20 171 172 167
-3.69 0.75 -0.20 169 170 165
-3.69 0.66 -0.20 168 169 164
-3.69 0.58 -0.20 170 170 168
-3.69 0.49 -0.20 172 172 170
-3.69 0.41 -0.20 174 176 173
-3.69 0.32 -0.20 173 175 172
-3.69 0.23 -0.20 172 174 173
-3.69 0.15 -0.20 171 173 172
-3.69 0.06 -0.20 171 173 172
-3.69 -0.02 -0.20 171 173 172
-3.69 -0.11 -0.20 172 174 173
-3.69 -0.20 -0.20 172 174 173
-3.69 -0.28 -0.20 169 174 170
-3.69 -0.37 -0.20 170 175 171
-3.69 -0.45 -0.20 170 175 171
-3.69 -0.54 -0.20 169 174 170
-3.69 -0.63 -0.20 169 174 170
-3.69 -0.71 -0.20 171 176 172
-3.69 -0.80 -0.20 172 177 173
-3.69 -0.88 -0.20 171 176 172
-3.69 -0.97 -0.20 172 177 173
-3.69 -1.06 -0.20 172 176 175
-3.69 -1.14 -0.20 171 175 174
-3.69 -1.23 -0.20 171 175 174
-3.69 -1.31 -0.20 172 176 175
-3.69 -1.40 -0.20 173 177 176
-3.69 -1.49 -0.20 175 179 178
-3.69 -1.57 -0.20 173 179 177
-3.69 -1.66 -0.20 173 179 177
-3.69 -1.74 -0.20 173 179 177
-3.69 -1.83 -0.20 174 180 178
-3.69 -1.92 -0.20 175 181 179
-3.69 -2.00 -0.20 176 182 180
-3.69 -2.09 -0.20 175 181 179
-3.69 -2.17 -0.20 175 181 179
-3.69 -2.26 -0.20 173 179 177
-3.69 -2.35 -0.20 175 181 179
-3.69 -2.43 -0.20 177 183 181
-3.69 -2.52 -0.20 177 183 181
-3.53 -2.58 -0.36 177 183 181
-3.53 -2.67 -0.36 177 183 181
-3.53 -2.76 -0.36 177 183 181
-3.53 -2.84 -0.36 178 184 182
-3.53 -2.93 -0.36 178 184 182
-3.53 -3.02 -0.36 179 185 183
-3.53 -3.10 -0.36 179 185 183
-3.53 -3.19 -0.36 178 184 182
-3.53 -3.28 -0.36 178 184 182
-3.53 -3.36 -0.36 179 185 183
-3.53 -3.45 -0.36 179 185 183
-3.53 -3.53 -0.36 181 185 184
-3.53 -3.62 -0.36 180 184 183
-3.53 -3.71 -0.36 179 183 182
-3.53 -3.79 -0.36 180 184 183
-3.53 -3.88 -0.36 182 186 185
-3.53 -3.97 -0.36 183 187 186
-3.53 -4.05 -0.36 183 187 186
-3.53 -4.14 -0.36 183 187 186
-3.53 -4.23 -0.36 182 188 186
-3.53 -4.31 -0.36 181 187 185
-3.38 -4.39 -0.51 181 187 185
-3.38 -4.47 -0.51 181 187 185
-3.38 -4.56 -0.51 183 189 187
-3.38 -4.65 -0.51 184 190 188
-3.38 -4.73 -0.51 185 191 189
-3.38 -4.82 -0.51 185 191 189
-3.38 -4.91 -0.51 185 191 189
-3.38 -4.99 -0.51 185 191 189
-3.38 -5.08 -0.51 186 192 190
-3.38 -5.17 -0.51 187 193 191
-3.38 -5.25 -0.51 188 194 192
-3.38 -5.34 -0.51 189 195 193
-3.38 -5.43 -0.51 189 195 193
-3.38 -5.51 -0.51 191 195 194
-3.38 -5.60 -0.51 192 196 195
-3.38 -5.69 -0.51 192 196 195
-3.38 -5.77 -0.51 192 196 195
-3.38 -5.86 -0.51 192 196 195
-3.38 -5.95 -0.51 192 196 195
-3.38 -6.03 -0.51 193 197 196
-3.38 -6.12 -0.51 194 198 197
-3.38 -6.21 -0.51 194 198 197
-3.38 -6.29 -0.51 194 198 197
-3.38 -6.38 -0.51 195 199 198
-3.38 -6.47 -0.51 196 200 199
-3.38 -6.55 -0.51 197 201 200
-3.38 -6.64 -0.51 197 201 200
-3.38 -6.73 -0.51 196 200 199
-3.38 -6.81 -0.51 196 200 199
-3.38 -6.90 -0.51 197 201 200
-3.38 -6.99 -0.51 197 201 200
-3.38 -7.08 -0.51 198 202 201
-3.38 -7.16 -0.51 198 202 201
-3.38 -7.25 -0.51 198 202 201
-3.38 -7.34 -0.51 198 204 202
-3.38 -7.42 -0.51 198 204 202
-3.38 -7.51 -0.51 198 204 202
-3.38 -7.60 -0.51 199 205 203
-3.38 -7.68 -0.51 200 206 204
-3.38 -7.77 -0.51 201 207 205
-3.38 -7.86 -0.51 201 207 205
-3.38 -7.94 -0.51 201 207 205
-3.38 -8.03 -0.51 202 208 206
-3.38 -8.12 -0.51 202 208 206
-3.38 -8.20 -0.51 202 211 208
-3.38 -8.29 -0.51 202 211 208
-3.38 -8.38 -0.51 203 212 209
-3.38 -8.46 -0.51 203 212 209
-3.38 -8.55 -0.51 206 212 210
-3.38 -8.64 -0.51 206 212 210
-3.38 -8.72 -0.51 207 213 211
-3.23 -8.82 -0.67 207 213 211
-3.23 -8.90 -0.67 208 212 211
-3.23 -8.99 -0.67 208 210 209
-3.23 -9.08 -0.67 209 211 210
-3.23 -9.16 -0.67 210 212 211
-3.23 -9.25 -0.67 210 212 211
-3.23 -9.34 -0.67 211 211 211
-3.23 -9.43 -0.67 212 212 212
-3.38 -9.50 -0.51 210 214 213
-3.38 -9.59 -0.51 210 214 213
-3.38 -9.68 -0.51 212 214 213
-3.38 -9.76 -0.51 212 214 213
-3.38 -9.85 -0.51 212 214 213
-3.38 -9.94 -0.51 211 213 212
-3.38 -10.02 -0.51 211 213 212
-3.38 -10.11 -0.51 210 212 211
-3.38 -10.20 -0.51 209 211 210
-3.38 -10.28 -0.51 210 212 211
-3.38 -10.37 -0.51 212 212 212
-3.38 -10.46 -0.51 213 213 213
-3.38 -10.54 -0.51 214 214 214
-3.38 -10.63 -0.51 214 214 214
-3.38 -10.72 -0.51 213 213 213
-3.23 -10.82 -0.67 212 212 212
-3.23 -10.91 -0.67 210 214 213
-3.23 -10.99 -0.67 210 214 213
-3.23 -11.08 -0.67 210 214 213
-3.23 -11.17 -0.67 210 214 213
-3.23 -11.25 -0.67 210 214 213
-3.23 -11.34 -0.67 211 215 214
-3.23 -11.43 -0.67 212 216 215
-3.23 -11.52 -0.67 210 214 213
-3.23 -11.60 -0.67 211 215 214
-3.23 -11.69 -0.67 211 215 214
-3.23 -11.78 -0.67 212 216 215
-3.23 -11.86 -0.67 211 217 215
-3.23 -11.95 -0.67 211 217 215
-3.23 -12.04 -0.67 210 216 214
-3.23 -12.13 -0.67 210 216 214
-3.23 -12.21 -0.67 210 216 214
-3.23 -12.30 -0.67 210 216 214
-3.23 -12.39 -0.67 211 217 215
-3.23 -12.47 -0.67 212 218 216
-3.23 -12.56 -0.67 213 217 216
-3.23 -12.65 -0.67 213 217 216
-3.23 -12.74 -0.67 211 215 214
-3.23 -12.82 -0.67 210 214 213
-3.23 -12.91 -0.67 210 214 213
-3.23 -13.00 -0.67 210 214 213
-3.23 -13.08 -0.67 210 214 213
-3.23 -13.17 -0.67 209 215 213
-3.23 -13.26 -0.67 209 215 213
-3.23 -13.35 -0.67 209 215 213
-3.23 -13.43 -0.67 210 214 213
-3.23 -13.52 -0.67 212 216 215
-3.23 -13.61 -0.67 215 217 216
-3.23 -13.69 -0.67 216 218 217
-3.23 -13.78 -0.67 215 217 216
-3.23 -13.87 -0.67 215 217 216
-3.23 -13.96 -0.67 214 216 215
-3.23 -14.04 -0.67 216 218 217
-3.23 -14.13 -0.67 217 219 218
-3.23 -14.22 -0.67 217 219 218
-3.23 -14.30 -0.67 217 219 218
-3.23 -14.39 -0.67 217 219 218
-3.23 -14.48 -0.67 216 218 217
-3.23 -14.57 -0.67 214 216 215
-3.23 -14.65 -0.67 213 215 214
-3.23 -14.74 -0.67 214 216 215
-3.23 -14.83 -0.67 216 218 217
-3.23 -14.91 -0.67 216 216 216
-3.23 -15.00 -0.67 216 216 216
-3.23 -15.09 -0.67 215 215 215
-3.23 -15.17 -0.67 215 215 215
-3.23 -15.26 -0.67 216 216 216
-3.23 -15.35 -0.67 217 217 217
-3.23 -15.44 -0.67 217 217 217
-3.23 -15.52 -0.67 214 214 214
-3.23 -15.61 -0.67 215 215 215
-3.23 -15.70 -0.67 216 216 216
-3.23 -15.78 -0.67 216 216 216
-3.23 -15.87 -0.67 216 216 216
-3.23 -15.96 -0.67 216 216 216
-3.23 -16.05 -0.67 217 217 217
-3.23 -16.13 -0.67 217 217 217
-3.23 -16.22 -0.67 217 217 217
-3.23 -16.31 -0.67 216 216 216
-3.23 -16.39 -0.67 215 215 215
-3.23 -16.48 -0.67 216 216 216
-3.23 -16.57 -0.67 217 217 217
-3.23 -16.66 -0.67 218 218 218
-3.23 -16.74 -0.67 217 217 217
-3.23 -16.83 -0.67 216 216 216
-3.23 -16.92 -0.67 217 217 217
-3.23 -17.00 -0.67 217 217 217
-3.23 -17.09 -0.67 217 217 217
-3.07 -17.22 -0.83 217 217 217
-3.07 -17.31 -0.83 216 216 216
-3.07 -17.39 -0.83 216 216 216
-3.07 -17.48 -0.83 216 216 216
-3.07 -17.57 -0.83 215 215 215
-3.07 -17.66 -0.83 215 215 215
-3.07 -17.74 -0.83 216 216 216
-3.07 -17.83 -0.83 216 216 216
-3.07 -17.92 -0.83 216 216 216
-3.07 -18.01 -0.83 216 216 216
-3.23 -18.05 -0.67 217 217 217
-3.23 -18.14 -0.67 218 218 218
-3.23 -18.22 -0.67 216 216 214
-3.23 -18.31 -0.67 215 215 213
-3.23 -18.40 -0.67 214 214 212
-3.23 -18.48 -0.67 213 213 211
-3.23 -18.57 -0.67 214 214 212
-3.07 -18.71 -0.83 215 215 213
-3.07 -18.79 -0.83 216 216 214
-3.07 -18.88 -0.83 216 216 214
-3.07 -18.97 -0.83 214 214 214
-3.07 -19.06 -0.83 214 214 214
-3.07 -19.14 -0.83 213 213 213
-3.07 -19.23 -0.83 214 214 214
-3.07 -19.32 -0.83 215 215 215
-3.07 -19.41 -0.83 215 215 215
-3.07 -19.49 -0.83 215 215 215
-3.07 -19.58 -0.83 215 215 215
-3.07 -19.67 -0.83 214 214 214
-3.07 -19.76 -0.83 214 214 214
-3.07 -19.84 -0.83 215 215 215
-3.07 -19.93 -0.83 216 216 216
-3.07 -20.02 -0.83 217 217 217
-3.07 -20.11 -0.83 217 217 217
-2.92 -20.25 -0.98 216 216 216
-2.92 -20.33 -0.98 216 216 216
-3.07 -20.37 -0.83 215 215 215
-3.07 -20.46 -0.83 214 214 214
-3.07 -20.54 -0.83 214 214 214
-3.07 -20.63 -0.83 215 215 215
-3.07 -20.72 -0.83 215 215 215
-3.07 -20.81 -0.83 215 215 215
-3.07 -20.89 -0.83 215 215 215
-3.07 -20.98 -0.83 215 215 215
-3.07 -21.07 -0.83 214 214 214
-3.07 -21.16 -0.83 214 214 214
-3.07 -21.24 -0.83 214 214 214
-3.07 -21.33 -0.83 214 214 214
-3.07 -21.42 -0.83 215 215 215
-3.07 -21.51 -0.83 215 215 215
-3.07 -21.59 -0.83 214 212 213
-3.07 -21.68 -0.83 215 213 214
-3.07 -21.77 -0.83 216 214 215
-3.07 -21.86 -0.83 216 214 215
-3.07 -21.94 -0.83 215 213 214
-3.07 -22.03 -0.83 215 213 214
-3.07 -22.12 -0.83 216 214 215
-3.07 -22.20 -0.83 216 214 215
-3.07 -22.29 -0.83 215 213 214
-3.07 -22.38 -0.83 215 213 214
-3.07 -22.47 -0.83 218 214 215
-3.07 -22.55 -0.83 218 214 215
-3.07 -22.64 -0.83 218 214 215
-3.07 -22.73 -0.83 219 215 216
-3.07 -22.82 -0.83 218 214 215
-3.07 -22.90 -0.83 218 214 215
-3.07 -22.99 -0.83 216 214 215
-3.07 -23.08 -0.83 216 214 215
-3.07 -23.17 -0.83 216 214 215
-3.07 -23.25 -0.83 216 214 215
-3.07 -23.34 -0.83 216 214 215
-3.07 -23.43 -0.83 217 215 216
-2.92 -23.58 -0.98 218 216 217
-2.92 -23.67 -0.98 218 216 217
-2.92 -23.76 -0.98 218 216 217
-2.92 -23.85 -0.98 217 215 216
-2.92 -23.94 -0.98 216 214 215
-2.92 -24.02 -0.98 216 214 215
-2.92 -24.11 -0.98 217 215 216
-2.92 -24.20 -0.98 219 217 218
-2.92 -24.29 -0.98 220 218 219
-3.07 -24.30 -0.83 219 218 216
-3.07 -24.39 -0.83 218 217 215
-3.07 -24.48 -0.83 214 213 211
-3.07 -24.57 -0.83 213 212 210
-3.07 -24.65 -0.83 230 226 225
-3.07 -24.74 -0.83 192 188 187
-3.07 -24.83 -0.83 110 104 104
-4.31 19.66 0.32 0 0 0
-4.44 19.48 0.45 0 0 0
-4.44 19.39 0.45 0 0 0
-4.44 19.31 0.45 0 0 0
-4.44 19.22 0.45 0 0 0
-4.44 19.14 0.45 142 135 129
-4.44 19.05 0.45 142 135 129
-4.44 18.97 0.45 141 134 128
-4.44 18.89 0.45 140 133 127
-4.44 18.80 0.45 139 132 126
-4.44 18.72 0.45 140 133 127
-4.44 18.63 0.45 140 133 127
-4.44 18.55 0.45 140 133 127
-4.44 18.46 0.45 140 133 127
-4.44 18.38 0.45 140 133 127
-4.44 18.30 0.45 139 132 126
-4.31 18.30 0.32 139 132 126
-4.31 18.22 0.32 139 132 126
-4.31 18.13 0.32 139 132 126
-4.44 17.96 0.45 139 132 126
-4.44 17.87 0.45 138 131 125
-4.44 17.79 0.45 138 131 125
-4.44 17.71 0.45 137 130 122
-4.44 17.62 0.45 138 131 123
-4.44 17.54 0.45 139 132 124
-4.44 17.45 0.45 140 133 125
-4.44 17.37 0.45 139 132 124
-4.44 17.28 0.45 137 133 124
-4.44 17.20 0.45 137 133 124
-4.44 17.12 0.45 136 132 123
-4.44 17.03 0.45 137 133 124
-4.44 16.95 0.45 138 134 125
-4.44 16.86 0.45 139 135 126
-4.44 16.78 0.45 138 133 127
-4.44 16.69 0.45 138 133 127
-4.44 16.61 0.45 136 131 125
-4.44 16.53 0.45 136 131 125
-4.44 16.44 0.45 139 132 122
-4.44 16.36 0.45 140 133 123
-4.44 16.27 0.45 141 134 126
-4.44 16.19 0.45 141 134 126
-4.31 16.19 0.32 140 133 125
-4.31 16.10 0.32 140 133 125
-4.31 16.02 0.32 141 134 128
-4.31 15.93 0.32 143 136 130
-4.31 15.85 0.32 143 136 130
-4.31 15.76 0.32 142 135 129
-4.31 15.68 0.32 140 133 127
-4.31 15.60 0.32 140 133 127
-4.31 15.51 0.32 141 134 126
-4.31 15.43 0.32 140 133 125
-4.31 15.34 0.32 139 132 124
-4.31 15.26 0.32 138 131 123
-4.31 15.17 0.32 138 131 123
-4.31 15.09 0.32 138 131 123
-4.31 15.00 0.32 138 131 123
-4.31 14.92 0.32 137 130 124
-4.31 14.83 0.32 137 130 124
-4.31 14.75 0.32 137 130 124
-4.31 14.66 0.32 136 129 123
-4.31 14.58 0.32 138 130 127
-4.31 14.50 0.32 138 130 127
-4.31 14.41 0.32 138 130 127
-4.16 14.42 0.16 138 130 127
-4.16 14.33 0.16 138 130 127
-4.16 14.25 0.16 138 130 127
-4.16 14.16 0.16 138 130 128
-4.16 14.08 0.16 138 129 130
-4.16 13.99 0.16 133 128 134
-4.16 13.91 0.16 126 123 132
-4.16 13.82 0.16 135 134 142
-4.16 13.74 0.16 106 106 118
-4.16 13.65 0.16 82 86 97
-4.16 13.57 0.16 158 161 176
-4.31 13.40 0.32 192 194 209
-4.31 13.31 0.32 173 175 187
-4.31 13.23 0.32 179 179 191
-4.31 13.14 0.32 183 182 190
-4.31 13.06 0.32 187 186 194
-4.31 12.97 0.32 194 191 200
-6.70 11.21 2.76 197 192 196
-6.70 11.13 2.76 196 193 200
-6.70 11.05 2.76 199 196 205
-6.70 10.97 2.76 201 199 204
-6.70 10.89 2.76 200 198 201
-6.70 10.81 2.76 197 198 193
-6.70 10.73 2.76 196 197 192
-6.70 10.65 2.76 189 191 186
-6.70 10.57 2.76 190 191 193
-6.70 10.50 2.76 176 176 184
-6.70 10.42 2.76 129 129 141
-6.70 10.34 2.76 114 114 124
-6.70 10.26 2.76 116 116 124
-6.70 10.18 2.76 123 125 122
-4.16 11.28 0.16 132 128 127
-4.16 11.19 0.16 133 129 128
-4.16 11.11 0.16 134 128 128
-4.16 11.02 0.16 134 128 128
-4.16 10.94 0.16 135 129 129
-4.16 10.85 0.16 136 130 130
-4.16 10.77 0.16 140 134 134
-4.16 10.68 0.16 139 133 133
-4.16 10.60 0.16 138 132 132
-4.01 10.59 0.01 138 132 132
-4.01 10.50 0.01 139 133 133
-4.01 10.42 0.01 140 134 134
-4.01 10.33 0.01 139 133 133
-4.16 10.17 0.16 138 132 132
-4.16 10.09 0.16 138 134 131
-4.01 10.07 0.01 138 134 131
-4.01 9.99 0.01 139 135 132
-4.16 9.83 0.16 138 134 131
-4.16 9.75 0.16 137 133 130
-4.16 9.66 0.16 137 133 130
-4.16 9.58 0.16 138 134 131
-4.16 9.49 0.16 137 133 130
-4.01 9.48 0.01 140 136 133
-4.01 9.39 0.01 139 138 134
-4.01 9.31 0.01 138 137 133
-4.01 9.22 0.01 138 137 135
-4.01 9.14 0.01 139 138 136
-4.01 9.05 0.01 140 139 137
-4.01 8.97 0.01 139 138 136
-4.01 8.88 0.01 139 140 134
-4.01 8.79 0.01 137 138 132
-4.01 8.71 0.01 137 136 131
-4.01 8.62 0.01 138 137 132
-4.01 8.54 0.01 138 137 132
-4.01 8.45 0.01 137 136 131
-4.01 8.37 0.01 141 137 134
-4.01 8.28 0.01 143 139 136
-4.01 8.20 0.01 141 137 134
-4.01 8.11 0.01 140 136 133
-4.01 8.03 0.01 139 138 136
-4.01 7.94 0.01 141 140 138
-4.01 7.86 0.01 141 140 138
-4.01 7.77 0.01 141 140 138
-4.01 7.69 0.01 142 142 140
-4.01 7.60 0.01 144 144 142
-4.01 7.51 0.01 145 146 140
-4.01 7.43 0.01 149 150 144
-4.01 7.34 0.01 152 153 147
-3.86 7.32 -0.15 155 154 149
-3.86 7.24 -0.15 157 156 151
-3.86 7.15 -0.15 160 157 152
-3.86 7.06 -0.15 161 158 153
-3.86 6.98 -0.15 160 157 150
-4.01 6.83 0.01 161 158 151
-4.01 6.75 0.01 162 159 152
-4.01 6.66 0.01 162 159 152
-4.01 6.58 0.01 159 159 151
-4.01 6.49 0.01 159 159 151
-4.01 6.40 0.01 160 160 152
-4.01 6.32 0.01 161 161 153
-4.01 6.23 0.01 160 161 155
-4.01 6.15 0.01 160 161 155
-3.86 6.12 -0.15 159 160 154
-3.86 6.04 -0.15 159 160 154
-3.86 5.95 -0.15 158 159 154
-3.86 5.86 -0.15 159 160 155
-3.86 5.78 -0.15 160 160 158
-3.86 5.69 -0.15 161 161 159
-3.86 5.61 -0.15 162 162 160
-3.86 5.52 -0.15 161 162 157
-3.86 5.44 -0.15 161 162 157
-4.01 5.30 0.01 160 161 155
-4.01 5.21 0.01 161 162 156
-4.01 5.12 0.01 163 164 158
-4.01 5.04 0.01 164 165 160
-4.01 4.95 0.01 163 164 159
-4.01 4.87 0.01 162 162 160
-3.86 4.84 -0.15 162 162 160
-3.86 4.75 -0.15 163 163 161
-3.86 4.66 -0.15 164 164 162
-3.86 4.58 -0.15 163 163 161
-3.86 4.49 -0.15 163 164 159
-3.86 4.41 -0.15 165 166 161
-3.86 4.32 -0.15 163 164 159
-3.86 4.24 -0.15 164 165 160
-3.86 4.15 -0.15 164 165 159
-3.86 4.06 -0.15 164 165 159
-3.86 3.98 -0.15 163 164 158
-3.86 3.89 -0.15 163 164 158
-3.86 3.81 -0.15 164 165 159
-3.86 3.72 -0.15 165 166 160
-3.86 3.64 -0.15 166 167 162
-3.73 3.59 -0.28 166 167 162
-3.73 3.50 -0.28 165 166 161
-3.73 3.42 -0.28 164 165 160
-3.73 3.33 -0.28 165 166 161
-3.86 3.21 -0.15 165 166 160
-3.86 3.12 -0.15 165 166 160
-3.86 3.04 -0.15 166 167 161
-3.86 2.95 -0.15 166 167 161
-3.86 2.86 -0.15 166 167 161
-3.86 2.78 -0.15 166 167 161
-3.86 2.69 -0.15 167 168 162
-3.86 2.61 -0.15 167 168 162
-4.01 2.48 0.01 168 169 163
-4.01 2.39 0.01 168 169 163
-3.86 2.35 -0.15 169 170 164
-3.86 2.26 -0.15 168 169 163
-3.86 2.18 -0.15 167 168 162
-3.86 2.09 -0.15 168 169 163
-3.86 2.01 -0.15 168 169 164
-3.86 1.92 -0.15 169 170 165
-3.86 1.84 -0.15 169 169 167
-3.86 1.75 -0.15 169 169 167
-3.86 1.66 -0.15 168 168 166
-3.86 1.58 -0.15 169 169 167
-3.86 1.49 -0.15 170 170 168
-3.86 1.41 -0.15 169 169 167
-3.86 1.32 -0.15 168 168 166
-3.86 1.24 -0.15 170 171 166
-3.86 1.15 -0.15 172 173 168
-3.73 1.09 -0.28 170 171 166
-3.73 1.01 -0.28 171 172 167
-3.73 0.92 -0.28 171 172 167
-3.73 0.84 -0.28 171 172 167
-3.86 0.72 -0.15 169 170 165
-3.86 0.64 -0.15 169 170 165
-3.86 0.55 -0.15 170 170 168
-3.86 0.46 -0.15 171 171 169
-3.86 0.38 -0.15 173 175 172
-3.86 0.29 -0.15 172 174 171
-3.86 0.21 -0.15 172 174 173
-3.86 0.12 -0.15 171 173 172
-3.73 0.06 -0.28 172 174 173
-3.73 -0.02 -0.28 173 175 174
-3.73 -0.11 -0.28 174 175 177
-3.73 -0.20 -0.28 175 176 178
-3.73 -0.28 -0.28 170 175 171
-3.73 -0.37 -0.28 171 176 172
-3.73 -0.45 -0.28 170 175 171
-3.73 -0.54 -0.28 169 174 170
-3.73 -0.63 -0.28 169 174 170
-3.73 -0.71 -0.28 172 177 173
-3.73 -0.80 -0.28 173 178 174
-3.73 -0.88 -0.28 171 176 172
-3.73 -0.97 -0.28 172 177 173
-3.73 -1.06 -0.28 173 178 174
-3.73 -1.14 -0.28 173 178 174
-3.73 -1.23 -0.28 173 177 176
-3.73 -1.31 -0.28 173 177 176
-3.73 -1.40 -0.28 174 178 177
-3.73 -1.49 -0.28 175 179 178
-3.73 -1.57 -0.28 175 181 179
-3.73 -1.66 -0.28 175 181 179
-3.73 -1.74 -0.28 175 181 179
-3.73 -1.83 -0.28 175 181 179
-3.73 -1.92 -0.28 176 182 180
-3.73 -2.00 -0.28 176 182 180
-3.73 -2.09 -0.28 176 182 180
-3.73 -2.17 -0.28 175 181 179
-3.73 -2.26 -0.28 174 180 178
-3.73 -2.35 -0.28 176 182 180
-3.73 -2.43 -0.28 178 184 182
-3.73 -2.52 -0.28 177 183 181
-3.73 -2.61 -0.28 176 182 180
-3.73 -2.69 -0.28 177 183 181
-3.73 -2.78 -0.28 179 185 183
-3.73 -2.86 -0.28 180 186 184
-3.73 -2.95 -0.28 180 186 184
-3.73 -3.04 -0.28 180 186 184
-3.73 -3.12 -0.28 180 186 184
-3.73 -3.21 -0.28 179 185 183
-3.73 -3.29 -0.28 179 185 183
-3.58 -3.36 -0.43 180 186 184
-3.58 -3.45 -0.43 181 187 185
-3.58 -3.53 -0.43 183 189 187
-3.58 -3.62 -0.43 180 186 184
-3.58 -3.71 -0.43 180 184 183
-3.58 -3.79 -0.43 181 185 184
-3.58 -3.88 -0.43 183 187 186
-3.58 -3.97 -0.43 185 189 188
-3.58 -4.05 -0.43 185 189 188
-3.58 -4.14 -0.43 183 187 186
-3.58 -4.23 -0.43 184 190 188
-3.58 -4.31 -0.43 183 189 187
-3.58 -4.40 -0.43 182 188 186
-3.58 -4.49 -0.43 182 188 186
-3.58 -4.57 -0.43 183 189 187
-3.58 -4.66 -0.43 184 190 188
-3.58 -4.74 -0.43 185 191 189
-3.58 -4.83 -0.43 187 193 191
-3.58 -4.92 -0.43 186 192 190
-3.58 -5.00 -0.43 187 191 190
-3.58 -5.09 -0.43 187 191 190
-3.58 -5.18 -0.43 188 192 191
-3.58 -5.26 -0.43 189 193 192
-3.58 -5.35 -0.43 189 193 192
-3.58 -5.44 -0.43 189 193 192
-3.58 -5.52 -0.43 190 194 193
-3.58 -5.61 -0.43 191 195 194
-3.58 -5.69 -0.43 191 195 194
-3.58 -5.78 -0.43 192 196 195
-3.58 -5.87 -0.43 191 195 194
-3.58 -5.95 -0.43 191 195 194
-3.58 -6.04 -0.43 192 196 195
-3.58 -6.13 -0.43 193 197 196
-3.58 -6.21 -0.43 194 198 197
-3.58 -6.30 -0.43 194 198 197
-3.58 -6.39 -0.43 194 198 197
-3.58 -6.47 -0.43 195 199 198
-3.58 -6.56 -0.43 195 199 198
-3.58 -6.64 -0.43 196 200 199
-3.58 -6.73 -0.43 196 200 199
-3.58 -6.82 -0.43 196 200 199
-3.58 -6.90 -0.43 198 202 201
-3.58 -6.99 -0.43 198 202 201
-3.58 -7.08 -0.43 199 203 202
-3.42 -7.16 -0.59 200 204 203
-3.42 -7.25 -0.59 200 204 203
-3.42 -7.34 -0.59 201 205 204
-3.42 -7.42 -0.59 202 206 205
-3.42 -7.51 -0.59 202 206 205
-3.42 -7.60 -0.59 202 206 205
-3.42 -7.68 -0.59 203 207 206
-3.42 -7.77 -0.59 202 206 205
-3.42 -7.86 -0.59 202 206 205
-3.42 -7.94 -0.59 202 206 205
-3.42 -8.03 -0.59 202 206 205
-3.42 -8.12 -0.59 203 207 206
-3.58 -8.20 -0.43 204 210 208
-3.58 -8.29 -0.43 204 210 208
-3.58 -8.37 -0.43 204 210 208
-3.42 -8.46 -0.59 204 210 208
-3.42 -8.55 -0.59 204 210 208
