ply
format ascii 1.0
element vertex 1674
property float x
property float y
property float z
property uchar red
property uchar green
property uchar blue
end_header
14.40 12.41 -2.75 35 81 133
14.40 12.29 -2.75 35 81 133
14.40 12.18 -2.75 35 81 131
14.40 12.06 -2.75 35 81 131
14.40 11.95 -2.75 37 83 133
14.40 11.83 -2.75 35 81 131
14.40 11.72 -2.75 33 81 130
14.12 11.50 -2.54 34 82 131
14.12 11.39 -2.54 36 84 133
14.12 11.27 -2.54 35 83 132
14.12 11.16 -2.54 35 82 134
14.12 11.04 -2.54 35 82 134
14.12 10.93 -2.54 33 84 131
14.12 10.81 -2.54 33 84 131
14.12 10.70 -2.54 33 83 132
14.12 10.58 -2.54 34 84 133
14.12 10.47 -2.54 34 84 133
14.12 10.35 -2.54 35 85 134
13.81 10.14 -2.32 35 85 134
13.81 10.02 -2.32 35 85 134
13.81 9.91 -2.32 36 84 133
13.81 9.80 -2.32 35 83 131
13.81 9.68 -2.32 36 84 132
13.81 9.57 -2.32 36 84 130
13.81 9.45 -2.32 34 82 128
13.81 9.34 -2.32 35 84 127
13.81 9.22 -2.32 37 86 129
13.81 9.11 -2.32 33 86 128
13.81 9.00 -2.32 32 83 126
13.81 8.88 -2.32 32 79 125
13.81 8.77 -2.32 30 77 121
13.52 8.57 -2.11 27 79 118
13.52 8.46 -2.11 28 81 121
13.52 8.34 -2.11 31 83 130
13.52 8.23 -2.11 34 84 135
13.52 8.12 -2.11 34 82 131
13.52 8.00 -2.11 38 86 135
13.52 7.89 -2.11 32 86 133
13.52 7.77 -2.11 46 98 146
13.52 7.66 -2.11 64 112 158
13.52 7.55 -2.11 43 79 115
13.52 7.43 -2.11 40 58 70
13.52 7.32 -2.11 56 66 65
13.52 7.21 -2.11 54 63 60
13.52 7.09 -2.11 56 65 62
13.52 6.98 -2.11 55 64 61
11.04 3.39 -0.31 70 93 101
11.04 3.28 -0.31 71 116 139
10.79 3.12 -0.13 57 111 145
10.79 3.01 -0.13 51 110 142
10.79 2.91 -0.13 53 113 149
10.79 2.80 -0.13 54 117 152
10.79 2.69 -0.13 51 115 151
10.79 2.58 -0.13 48 112 150
10.79 2.48 -0.13 47 111 149
10.79 2.37 -0.13 50 112 151
10.79 2.26 -0.13 50 112 151
10.79 2.15 -0.13 49 111 148
10.79 2.04 -0.13 49 111 148
10.79 1.94 -0.13 48 114 149
10.79 1.83 -0.13 49 115 150
10.79 1.72 -0.13 48 118 154
10.79 1.61 -0.13 50 118 155
10.79 1.51 -0.13 50 114 152
10.79 1.40 -0.13 52 114 153
10.79 1.29 -0.13 53 115 154
10.79 1.18 -0.13 53 115 154
10.79 1.08 -0.13 54 116 155
10.79 0.97 -0.13 54 116 155
11.04 0.90 -0.31 55 117 156
11.04 0.79 -0.31 53 115 154
11.04 0.69 -0.31 54 116 155
11.04 0.58 -0.31 55 117 156
11.04 0.47 -0.31 56 118 157
11.04 0.36 -0.31 56 118 155
11.04 0.25 -0.31 56 118 155
11.04 0.15 -0.31 57 119 156
11.04 0.04 -0.31 58 120 157
11.04 -0.07 -0.31 55 117 154
11.04 -0.18 -0.31 56 118 155
11.33 -0.25 -0.52 56 118 155
11.33 -0.36 -0.52 55 117 154
11.04 -0.50 -0.31 55 118 153
11.04 -0.61 -0.31 55 118 153
11.33 -0.68 -0.52 55 118 153
11.33 -0.79 -0.52 53 116 151
11.33 -0.90 -0.52 56 119 154
11.33 -1.01 -0.52 55 118 153
11.33 -1.12 -0.52 55 117 154
11.33 -1.23 -0.52 56 118 155
11.33 -1.34 -0.52 55 117 156
11.33 -1.44 -0.52 53 115 154
11.33 -1.55 -0.52 53 115 152
11.33 -1.66 -0.52 56 116 152
11.33 -1.77 -0.52 56 116 150
11.33 -1.88 -0.52 56 116 150
11.33 -1.99 -0.52 56 116 150
11.33 -2.10 -0.52 57 117 151
11.33 -2.21 -0.52 57 117 151
11.33 -2.32 -0.52 56 116 152
11.33 -2.42 -0.52 56 116 152
11.33 -2.53 -0.52 55 118 153
11.33 -2.64 -0.52 55 118 153
11.33 -2.75 -0.52 55 118 153
11.33 -2.86 -0.52 55 118 153
11.33 -2.97 -0.52 55 117 154
11.33 -3.08 -0.52 55 117 154
11.33 -3.19 -0.52 54 116 153
11.33 -3.29 -0.52 54 116 153
11.33 -3.40 -0.52 56 116 153
11.33 -3.51 -0.52 56 116 153
11.33 -3.62 -0.52 54 117 152
11.33 -3.73 -0.52 54 117 152
11.33 -3.84 -0.52 55 118 153
11.33 -3.95 -0.52 55 118 153
11.33 -4.06 -0.52 54 118 153
11.33 -4.17 -0.52 52 118 152
11.33 -4.27 -0.52 52 118 152
11.33 -4.38 -0.52 53 119 154
11.33 -4.49 -0.52 53 119 154
11.33 -4.60 -0.52 53 119 154
11.33 -4.71 -0.52 52 118 153
11.33 -4.82 -0.52 52 117 155
11.33 -4.93 -0.52 53 117 155
11.33 -5.04 -0.52 55 118 159
11.33 -5.14 -0.52 57 119 160
11.33 -5.25 -0.52 56 118 159
11.33 -5.36 -0.52 54 116 157
11.33 -5.47 -0.52 53 117 155
11.33 -5.58 -0.52 55 119 157
11.33 -5.69 -0.52 57 121 159
11.33 -5.80 -0.52 57 121 159
11.33 -5.91 -0.52 55 119 157
11.33 -6.01 -0.52 55 119 157
11.33 -6.12 -0.52 55 120 158
11.33 -6.23 -0.52 56 121 159
11.33 -6.34 -0.52 56 121 159
11.33 -6.45 -0.52 56 121 159
11.04 -6.56 -0.31 55 120 158
11.04 -6.67 -0.31 52 120 157
11.04 -6.78 -0.31 49 121 159
11.04 -6.89 -0.31 50 122 160
11.04 -7.00 -0.31 50 122 160
11.04 -7.10 -0.31 52 122 158
11.04 -7.21 -0.31 51 121 157
11.04 -7.32 -0.31 51 121 157
11.04 -7.43 -0.31 52 122 158
11.33 -7.54 -0.52 53 121 158
11.33 -7.65 -0.52 53 121 158
11.33 -7.76 -0.52 55 121 156
11.33 -7.86 -0.52 54 120 155
11.33 -7.97 -0.52 55 119 155
11.04 -8.08 -0.31 55 119 155
11.04 -8.19 -0.31 55 119 155
11.04 -8.29 -0.31 55 119 155
11.04 -8.40 -0.31 56 118 155
10.79 -8.51 -0.13 56 118 155
10.79 -8.61 -0.13 57 119 156
10.79 -8.72 -0.13 57 119 156
10.79 -8.83 -0.13 58 120 157
10.79 -8.94 -0.13 57 119 156
10.79 -9.04 -0.13 56 120 156
10.79 -9.15 -0.13 55 119 155
10.79 -9.26 -0.13 56 122 157
10.79 -9.37 -0.13 55 121 156
10.79 -9.47 -0.13 54 120 155
10.79 -9.58 -0.13 54 120 155
10.79 -9.69 -0.13 55 121 156
10.79 -9.80 -0.13 54 122 157
10.53 -9.89 0.06 54 122 157
10.53 -10.00 0.06 51 121 155
10.53 -10.11 0.06 51 121 155
10.53 -10.21 0.06 51 121 155
10.53 -10.32 0.06 51 121 155
10.53 -10.43 0.06 52 120 155
10.27 -10.52 0.24 51 119 154
10.27 -10.63 0.24 51 119 154
10.27 -10.73 0.24 51 119 154
10.27 -10.84 0.24 56 122 157
10.27 -10.95 0.24 54 120 155
10.27 -11.05 0.24 53 119 154
10.27 -11.16 0.24 52 118 153
10.27 -11.26 0.24 52 118 153
10.27 -11.37 0.24 52 118 153
10.02 -11.46 0.43 51 117 152
10.02 -11.56 0.43 49 115 150
10.02 -11.67 0.43 50 116 150
10.02 -11.78 0.43 50 114 152
10.02 -11.88 0.43 49 112 156
10.02 -11.99 0.43 49 118 157
9.76 -12.07 0.62 48 117 156
9.76 -12.17 0.62 53 116 157
9.76 -12.28 0.62 68 120 159
9.76 -12.39 0.62 97 131 156
9.76 -12.49 0.62 71 92 113
9.76 -12.60 0.62 59 74 93
9.96 25.65 0.34 125 121 112
9.96 25.54 0.34 124 120 111
10.22 25.61 0.15 122 120 107
10.22 25.50 0.15 123 121 108
10.48 25.56 -0.03 121 119 107
10.48 25.45 -0.03 117 114 105
10.73 25.51 -0.22 122 118 109
10.73 25.41 -0.22 122 117 111
10.73 25.30 -0.22 125 118 112
10.73 25.19 -0.22 126 119 113
10.73 25.08 -0.22 128 119 112
10.73 24.98 -0.22 128 119 112
10.99 25.03 -0.41 128 120 109
10.99 24.92 -0.41 127 119 108
10.99 24.82 -0.41 124 120 108
10.99 24.71 -0.41 126 122 110
10.99 24.60 -0.41 129 125 114
10.73 24.33 -0.22 132 129 120
10.73 24.22 -0.22 131 128 119
10.73 24.11 -0.22 128 125 118
10.73 24.01 -0.22 126 123 116
10.73 23.90 -0.22 124 124 114
10.73 23.79 -0.22 125 125 115
10.73 23.68 -0.22 127 127 115
10.73 23.58 -0.22 128 128 116
10.73 23.47 -0.22 129 131 117
10.73 23.36 -0.22 129 131 117
10.73 23.25 -0.22 128 131 114
10.73 23.15 -0.22 125 127 113
10.73 23.04 -0.22 130 130 120
10.73 22.93 -0.22 130 130 122
10.73 22.82 -0.22 130 131 125
10.73 22.71 -0.22 133 134 128
10.73 22.61 -0.22 134 139 133
10.73 22.50 -0.22 136 141 135
10.73 22.39 -0.22 133 142 137
10.99 22.43 -0.41 132 141 138
10.99 22.33 -0.41 141 152 148
10.73 22.07 -0.22 140 150 149
10.73 21.96 -0.22 139 151 151
10.99 22.00 -0.41 139 151 151
10.99 21.89 -0.41 134 148 149
10.99 21.79 -0.41 131 145 146
10.99 21.68 -0.41 129 143 146
10.99 21.57 -0.41 127 145 149
10.99 21.46 -0.41 120 137 144
10.99 21.35 -0.41 111 128 135
10.99 21.24 -0.41 102 119 126
11.27 21.30 -0.61 93 110 117
11.27 21.19 -0.61 84 101 108
11.27 21.08 -0.61 76 90 99
11.27 20.97 -0.61 69 83 94
11.27 20.86 -0.61 53 69 82
11.27 20.75 -0.61 46 62 78
11.27 20.64 -0.61 37 54 72
11.27 20.53 -0.61 33 49 72
11.27 20.43 -0.61 32 49 75
11.27 20.32 -0.61 35 52 82
11.27 20.21 -0.61 36 52 85
11.27 20.10 -0.61 33 53 90
11.27 19.99 -0.61 36 64 104
11.27 19.88 -0.61 29 60 104
11.27 19.77 -0.61 25 58 103
11.27 19.66 -0.61 27 60 105
11.27 19.56 -0.61 31 63 110
11.27 19.45 -0.61 35 66 112
11.27 19.34 -0.61 33 64 110
11.27 19.23 -0.61 39 68 112
11.53 19.25 -0.80 43 72 116
11.53 19.14 -0.80 44 77 122
11.53 18.82 -0.80 36 77 129
11.53 18.71 -0.80 35 78 133
11.53 18.60 -0.80 36 77 129
11.79 18.62 -0.99 31 70 111
12.07 18.65 -1.19 35 71 107
11.79 18.40 -0.99 37 73 109
12.07 18.43 -1.19 39 75 111
12.61 18.59 -1.59 37 75 112
12.61 18.47 -1.59 35 73 110
12.61 18.36 -1.59 36 74 113
12.61 18.25 -1.59 38 76 115
12.61 18.14 -1.59 36 74 113
12.61 18.03 -1.59 37 75 114
12.61 17.92 -1.59 36 73 115
12.61 17.80 -1.59 33 70 112
12.61 17.69 -1.59 31 68 112
12.90 17.72 -1.79 32 69 113
12.90 17.60 -1.79 35 72 116
13.18 17.63 -2.00 37 74 118
13.46 17.65 -2.21 35 72 116
13.46 17.31 -2.21 32 69 111
13.75 17.32 -2.42 33 70 112
13.75 17.21 -2.42 35 72 114
13.75 17.10 -2.42 36 73 115
13.75 16.98 -2.42 36 75 118
13.75 16.87 -2.42 34 73 116
13.75 16.75 -2.42 33 71 116
13.75 16.64 -2.42 33 71 116
13.75 16.53 -2.42 33 74 120
13.75 16.41 -2.42 34 75 121
13.75 16.30 -2.42 32 75 120
13.75 16.18 -2.42 31 74 119
13.75 16.07 -2.42 31 74 119
13.75 15.96 -2.42 30 73 118
13.75 15.84 -2.42 32 73 117
13.75 15.73 -2.42 33 74 118
13.75 15.61 -2.42 32 73 117
13.75 15.50 -2.42 31 72 116
13.75 15.39 -2.42 34 72 117
14.06 15.40 -2.64 34 72 117
14.06 15.29 -2.64 35 73 118
14.06 15.17 -2.64 32 73 119
14.06 15.06 -2.64 31 72 118
14.35 15.06 -2.85 32 72 121
14.35 14.95 -2.85 35 75 124
14.35 14.83 -2.85 35 77 127
14.35 14.72 -2.85 34 76 126
14.35 14.60 -2.85 36 76 125
14.35 14.49 -2.85 35 75 124
14.35 14.37 -2.85 34 75 121
14.35 14.26 -2.85 35 76 122
14.06 14.03 -2.64 35 78 123
14.06 13.91 -2.64 37 80 125
14.06 13.80 -2.64 36 81 123
14.06 13.68 -2.64 35 80 122
14.06 13.57 -2.64 37 81 126
14.06 13.45 -2.64 35 79 124
14.06 13.34 -2.64 32 79 125
14.06 13.22 -2.64 33 79 128
14.06 13.11 -2.64 34 82 130
14.06 12.99 -2.64 35 83 132
14.35 12.99 -2.85 32 79 131
14.35 12.87 -2.85 30 77 129
14.35 12.76 -2.85 33 80 132
14.35 12.64 -2.85 35 81 131
14.35 12.52 -2.85 35 81 131
14.35 12.41 -2.85 35 81 130
14.35 12.29 -2.85 35 81 130
14.35 12.18 -2.85 37 81 130
14.35 12.06 -2.85 38 82 131
14.35 11.95 -2.85 38 82 131
14.35 11.83 -2.85 37 81 130
14.35 11.72 -2.85 34 80 130
14.06 11.50 -2.64 35 81 131
14.06 11.39 -2.64 35 81 131
14.06 11.27 -2.64 36 82 132
14.06 11.16 -2.64 35 82 134
14.06 11.04 -2.64 35 82 134
14.06 10.93 -2.64 31 82 129
14.06 10.81 -2.64 31 82 129
14.06 10.70 -2.64 32 83 130
14.06 10.58 -2.64 32 83 130
14.06 10.47 -2.64 33 83 132
14.06 10.35 -2.64 33 83 132
14.06 10.24 -2.64 36 84 133
14.06 10.13 -2.64 36 84 133
13.75 9.91 -2.42 35 83 132
13.75 9.80 -2.42 36 84 132
13.75 9.68 -2.42 36 84 132
13.75 9.57 -2.42 33 81 127
13.75 9.45 -2.42 31 79 125
13.75 9.34 -2.42 32 80 126
13.75 9.22 -2.42 35 83 129
13.75 9.11 -2.42 31 84 126
13.75 9.00 -2.42 31 82 125
13.75 8.88 -2.42 33 80 126
13.75 8.77 -2.42 31 78 122
13.46 8.57 -2.21 30 79 119
13.46 8.46 -2.21 28 80 120
13.46 8.34 -2.21 28 79 126
13.46 8.23 -2.21 31 78 130
13.46 8.12 -2.21 36 82 132
13.46 8.00 -2.21 38 84 134
13.46 7.89 -2.21 31 85 132
13.46 7.77 -2.21 40 92 140
13.46 7.66 -2.21 55 103 149
13.46 7.55 -2.21 44 80 116
13.46 7.43 -2.21 41 61 72
13.46 7.32 -2.21 58 68 67
13.46 7.21 -2.21 59 70 66
13.46 7.09 -2.21 59 68 65
13.46 6.98 -2.21 57 66 63
10.99 3.39 -0.41 74 97 105
10.99 3.28 -0.41 72 118 142
10.99 3.17 -0.41 59 115 148
10.99 3.07 -0.41 53 114 145
10.73 2.91 -0.22 54 117 150
10.73 2.80 -0.22 55 120 152
10.73 2.69 -0.22 51 117 151
10.73 2.58 -0.22 47 113 148
10.73 2.48 -0.22 46 112 147
10.73 2.37 -0.22 48 112 150
10.73 2.26 -0.22 48 112 150
10.73 2.15 -0.22 48 112 150
10.73 2.04 -0.22 48 112 150
10.73 1.94 -0.22 48 113 151
10.73 1.83 -0.22 48 116 153
10.73 1.72 -0.22 49 119 153
10.73 1.61 -0.22 50 120 154
10.73 1.51 -0.22 49 114 152
10.73 1.40 -0.22 51 115 153
10.73 1.29 -0.22 53 117 155
10.73 1.18 -0.22 53 117 155
10.73 1.08 -0.22 53 117 155
10.99 1.01 -0.41 53 117 155
10.99 0.90 -0.41 53 117 155
10.99 0.79 -0.41 55 117 156
10.99 0.69 -0.41 55 117 156
10.99 0.58 -0.41 56 118 155
10.99 0.47 -0.41 55 117 154
10.99 0.36 -0.41 55 117 154
10.99 0.25 -0.41 55 117 154
10.99 0.15 -0.41 55 118 153
10.99 0.04 -0.41 56 119 154
10.99 -0.07 -0.41 55 118 153
11.27 -0.14 -0.61 56 119 154
11.27 -0.25 -0.61 56 119 154
11.27 -0.36 -0.61 55 118 153
11.27 -0.47 -0.61 55 118 151
11.27 -0.57 -0.61 56 119 152
11.27 -0.68 -0.61 55 118 151
11.27 -0.79 -0.61 52 115 148
11.27 -0.90 -0.61 54 117 150
11.27 -1.01 -0.61 53 116 149
11.27 -1.12 -0.61 54 117 152
11.27 -1.23 -0.61 56 119 154
11.27 -1.34 -0.61 56 118 155
11.27 -1.44 -0.61 54 116 153
11.27 -1.55 -0.61 54 116 153
11.27 -1.66 -0.61 58 118 152
11.27 -1.77 -0.61 57 117 151
11.27 -1.88 -0.61 57 117 151
11.27 -1.99 -0.61 57 117 151
11.27 -2.10 -0.61 55 118 151
11.27 -2.21 -0.61 56 119 152
11.27 -2.32 -0.61 55 118 153
11.27 -2.42 -0.61 55 118 153
11.27 -2.53 -0.61 55 118 153
11.27 -2.64 -0.61 55 118 153
11.27 -2.75 -0.61 56 118 155
11.27 -2.86 -0.61 56 118 155
11.27 -2.97 -0.61 58 118 155
11.27 -3.08 -0.61 57 117 154
11.27 -3.19 -0.61 57 117 154
11.27 -3.29 -0.61 56 116 153
11.27 -3.40 -0.61 57 117 153
11.27 -3.51 -0.61 57 117 153
11.27 -3.62 -0.61 55 118 153
11.27 -3.73 -0.61 55 118 153
11.27 -3.84 -0.61 54 119 151
11.27 -3.95 -0.61 54 119 151
11.27 -4.06 -0.61 54 119 151
11.27 -4.17 -0.61 53 119 151
11.27 -4.27 -0.61 53 119 151
11.27 -4.38 -0.61 53 119 153
11.27 -4.49 -0.61 53 119 153
11.27 -4.60 -0.61 52 118 153
11.27 -4.71 -0.61 52 118 153
11.27 -4.82 -0.61 53 117 153
11.27 -4.93 -0.61 52 116 152
11.27 -5.04 -0.61 56 118 157
11.27 -5.14 -0.61 57 119 158
11.27 -5.25 -0.61 56 118 157
11.27 -5.36 -0.61 54 116 155
11.27 -5.47 -0.61 53 117 155
11.27 -5.58 -0.61 55 119 157
11.27 -5.69 -0.61 57 121 159
11.27 -5.80 -0.61 57 121 159
11.27 -5.91 -0.61 54 119 157
11.27 -6.01 -0.61 54 119 157
11.27 -6.12 -0.61 55 120 158
11.27 -6.23 -0.61 56 121 159
11.27 -6.34 -0.61 56 121 159
11.27 -6.45 -0.61 55 120 158
10.99 -6.56 -0.41 51 119 156
10.99 -6.67 -0.41 50 118 155
10.99 -6.78 -0.41 49 121 159
10.99 -6.89 -0.41 52 121 160
10.99 -7.00 -0.41 52 121 160
10.99 -7.10 -0.41 52 121 160
10.99 -7.21 -0.41 51 120 159
10.99 -7.32 -0.41 52 120 157
10.99 -7.43 -0.41 52 120 157
10.99 -7.54 -0.41 54 119 157
11.27 -7.65 -0.61 54 119 157
11.27 -7.76 -0.61 56 120 156
11.27 -7.86 -0.61 56 120 156
10.99 -7.97 -0.41 56 118 155
10.99 -8.08 -0.41 56 118 155
10.99 -8.19 -0.41 56 118 155
10.99 -8.29 -0.41 57 119 156
10.99 -8.40 -0.41 57 119 156
10.99 -8.51 -0.41 57 119 156
10.73 -8.61 -0.22 58 120 157
10.73 -8.72 -0.22 59 121 158
10.73 -8.83 -0.22 58 120 157
10.73 -8.94 -0.22 57 119 156
10.73 -9.04 -0.22 55 119 155
10.73 -9.15 -0.22 54 118 154
10.73 -9.26 -0.22 57 121 157
10.73 -9.37 -0.22 54 120 154
10.73 -9.47 -0.22 54 120 154
10.73 -9.58 -0.22 54 120 154
10.73 -9.69 -0.22 55 121 155
10.73 -9.80 -0.22 56 122 156
10.48 -9.89 -0.03 56 122 156
10.48 -10.00 -0.03 53 121 156
10.48 -10.11 -0.03 53 121 156
10.48 -10.21 -0.03 53 121 156
10.48 -10.32 -0.03 53 121 156
10.48 -10.43 -0.03 53 121 156
10.22 -10.52 0.15 52 120 155
10.22 -10.63 0.15 51 119 156
10.22 -10.73 0.15 51 119 156
10.22 -10.84 0.15 55 120 158
10.22 -10.95 0.15 54 119 157
10.22 -11.05 0.15 53 119 154
10.22 -11.16 0.15 54 120 155
10.22 -11.26 0.15 53 119 154
10.22 -11.37 0.15 52 118 153
9.96 -11.46 0.34 49 115 150
9.96 -11.56 0.34 47 113 148
9.96 -11.67 0.34 48 117 150
9.96 -11.78 0.34 50 115 153
9.96 -11.88 0.34 50 112 159
9.71 -11.96 0.52 49 118 159
9.71 -12.07 0.52 48 117 158
9.71 -12.17 0.52 54 117 160
9.71 -12.28 0.52 71 123 163
9.71 -12.39 0.52 90 126 152
9.71 -12.49 0.52 65 87 110
9.71 -12.60 0.52 60 75 96
9.66 25.69 0.43 122 119 112
9.66 25.59 0.43 125 122 115
9.91 25.65 0.25 127 125 113
9.91 25.54 0.25 124 122 110
9.91 25.44 0.25 122 120 107
10.17 25.50 0.06 123 121 108
10.42 25.56 -0.13 127 125 113
10.42 25.45 -0.13 129 126 117
10.68 25.51 -0.31 120 117 108
10.68 25.41 -0.31 124 121 114
10.68 25.30 -0.31 128 123 119
10.68 25.19 -0.31 128 123 119
10.68 25.08 -0.31 127 120 112
10.68 24.98 -0.31 127 120 112
10.68 24.87 -0.31 131 123 112
10.68 24.76 -0.31 135 127 116
10.68 24.65 -0.31 133 129 117
10.68 24.54 -0.31 130 126 114
10.68 24.44 -0.31 126 122 111
10.68 24.33 -0.31 125 121 112
10.68 24.22 -0.31 128 124 115
10.68 24.11 -0.31 130 127 120
10.68 24.01 -0.31 132 129 122
10.68 23.90 -0.31 127 124 115
10.68 23.79 -0.31 129 126 117
10.68 23.68 -0.31 129 129 117
10.68 23.58 -0.31 129 129 117
10.68 23.47 -0.31 130 131 115
10.68 23.36 -0.31 132 133 117
10.68 23.25 -0.31 131 134 115
10.68 23.15 -0.31 130 131 115
10.68 23.04 -0.31 138 131 121
10.68 22.93 -0.31 138 129 122
10.68 22.82 -0.31 135 128 122
10.68 22.71 -0.31 133 126 120
10.68 22.61 -0.31 130 125 119
10.68 22.50 -0.31 132 127 123
10.68 22.39 -0.31 133 130 125
10.68 22.28 -0.31 135 131 128
10.68 22.18 -0.31 130 129 127
10.68 22.07 -0.31 131 130 128
10.68 21.96 -0.31 133 131 132
10.68 21.85 -0.31 136 134 137
10.68 21.75 -0.31 139 137 142
10.68 21.64 -0.31 141 136 142
10.68 21.53 -0.31 140 135 139
10.68 21.42 -0.31 137 137 137
10.68 21.32 -0.31 139 139 137
10.68 21.21 -0.31 143 144 139
10.68 21.10 -0.31 149 150 145
10.68 20.99 -0.31 155 154 149
10.68 20.88 -0.31 156 155 150
10.93 20.92 -0.50 154 154 146
10.93 20.81 -0.50 151 151 143
10.93 20.70 -0.50 163 162 157
10.93 20.60 -0.50 160 159 155
10.93 20.49 -0.50 154 154 152
10.93 20.38 -0.50 149 149 151
10.93 20.27 -0.50 143 143 145
10.93 20.16 -0.50 134 133 139
10.93 20.05 -0.50 124 125 130
10.93 19.95 -0.50 117 118 122
10.93 19.84 -0.50 97 104 97
10.93 19.73 -0.50 88 95 87
10.93 19.62 -0.50 75 85 76
10.93 19.51 -0.50 67 76 71
10.93 19.40 -0.50 62 71 66
10.93 19.30 -0.50 48 54 50
10.93 19.19 -0.50 41 47 43
10.93 19.08 -0.50 41 48 41
11.22 19.12 -0.71 37 43 39
11.22 19.01 -0.71 29 40 34
11.22 18.90 -0.71 25 37 37
11.22 18.79 -0.71 22 40 42
11.22 18.68 -0.71 24 44 53
11.22 18.58 -0.71 25 49 61
11.22 18.47 -0.71 23 52 70
11.22 18.36 -0.71 29 63 90
11.22 18.25 -0.71 26 63 92
11.22 18.14 -0.71 27 63 95
11.22 18.03 -0.71 31 67 99
11.22 17.92 -0.71 33 69 103
10.93 17.67 -0.50 34 70 104
10.93 17.57 -0.50 36 72 108
11.73 17.85 -1.08 39 75 111
11.73 17.74 -1.08 35 73 110
10.68 17.12 -0.31 36 74 113
10.68 17.01 -0.31 35 73 112
10.68 16.90 -0.31 32 69 111
10.68 16.79 -0.31 31 68 112
10.68 16.69 -0.31 34 71 115
10.68 16.58 -0.31 39 76 120
14.01 15.52 -2.74 34 73 116
14.01 15.40 -2.74 34 73 116
14.01 15.29 -2.74 35 74 117
14.01 15.17 -2.74 32 73 117
14.29 15.18 -2.95 32 73 117
14.29 15.06 -2.95 33 74 120
14.29 14.95 -2.95 36 77 123
14.29 14.83 -2.95 35 78 123
14.29 14.72 -2.95 33 76 121
14.29 14.60 -2.95 36 77 123
14.29 14.49 -2.95 34 75 121
14.29 14.37 -2.95 33 74 118
14.29 14.26 -2.95 34 75 119
14.29 14.14 -2.95 35 78 120
14.01 13.91 -2.74 36 79 121
14.01 13.80 -2.74 36 79 121
14.01 13.68 -2.74 35 78 120
14.01 13.57 -2.74 35 80 121
14.01 13.45 -2.74 34 79 121
14.01 13.34 -2.74 32 79 121
14.01 13.22 -2.74 33 80 126
14.01 13.11 -2.74 33 81 127
14.01 12.99 -2.74 33 81 129
14.29 12.99 -2.95 31 79 128
14.29 12.87 -2.95 29 77 126
14.29 12.76 -2.95 32 80 126
14.29 12.64 -2.95 34 81 127
14.29 12.52 -2.95 34 81 127
14.29 12.41 -2.95 34 81 127
14.29 12.29 -2.95 34 81 127
14.29 12.18 -2.95 37 81 128
14.29 12.06 -2.95 38 82 129
14.29 11.95 -2.95 35 79 126
14.29 11.83 -2.95 35 79 126
14.29 11.72 -2.95 36 80 129
14.01 11.50 -2.74 36 80 129
14.01 11.39 -2.74 34 80 130
14.01 11.27 -2.74 35 81 131
14.01 11.16 -2.74 35 82 134
14.01 11.04 -2.74 35 83 132
14.01 10.93 -2.74 32 83 130
14.01 10.81 -2.74 31 82 127
14.01 10.70 -2.74 31 82 129
14.01 10.58 -2.74 31 82 129
14.01 10.47 -2.74 33 81 129
14.01 10.35 -2.74 34 82 130
14.01 10.24 -2.74 34 82 131
14.01 10.13 -2.74 34 82 131
14.01 10.01 -2.74 35 83 132
14.01 9.90 -2.74 33 81 130
14.01 9.78 -2.74 34 82 131
13.69 9.57 -2.51 34 80 129
13.69 9.45 -2.51 32 78 127
13.69 9.34 -2.51 32 78 127
13.69 9.22 -2.51 33 81 129
13.69 9.11 -2.51 32 83 126
13.69 9.00 -2.51 31 82 125
13.69 8.88 -2.51 33 80 126
13.69 8.77 -2.51 32 79 123
13.41 8.57 -2.31 30 79 119
13.41 8.46 -2.31 27 79 119
13.41 8.34 -2.31 26 77 124
13.41 8.23 -2.31 27 74 126
13.69 8.20 -2.51 38 84 134
13.41 8.00 -2.31 35 81 131
13.41 7.89 -2.31 28 82 128
13.41 7.77 -2.31 34 88 134
13.41 7.66 -2.31 46 94 140
13.41 7.55 -2.31 43 81 117
13.41 7.43 -2.31 42 62 71
13.41 7.32 -2.31 54 64 63
13.41 7.21 -2.31 60 71 65
13.69 7.17 -2.51 59 68 65
13.69 7.06 -2.51 59 68 65
13.69 6.94 -2.51 63 68 71
13.69 6.83 -2.51 63 68 71
10.93 3.39 -0.50 79 104 111
10.93 3.28 -0.50 70 118 141
10.93 3.17 -0.50 56 117 148
10.93 3.07 -0.50 51 116 146
10.68 2.91 -0.31 53 118 148
10.68 2.80 -0.31 51 118 147
10.68 2.69 -0.31 48 114 146
10.68 2.58 -0.31 46 112 144
10.68 2.48 -0.31 47 113 148
10.68 2.37 -0.31 46 110 146
10.68 2.26 -0.31 47 111 149
10.68 2.15 -0.31 48 111 152
10.68 2.04 -0.31 49 112 153
10.68 1.94 -0.31 47 115 152
10.68 1.83 -0.31 48 116 153
10.68 1.72 -0.31 45 118 151
10.68 1.61 -0.31 48 118 152
10.68 1.51 -0.31 47 117 151
10.68 1.40 -0.31 49 117 152
10.68 1.29 -0.31 50 118 153
10.68 1.18 -0.31 50 118 153
10.93 1.12 -0.50 49 117 154
10.93 1.01 -0.50 52 117 155
10.93 0.90 -0.50 52 117 155
10.93 0.79 -0.50 52 116 154
10.93 0.69 -0.50 53 117 155
10.93 0.58 -0.50 54 116 153
10.93 0.47 -0.50 54 116 153
10.93 0.36 -0.50 53 116 151
10.93 0.25 -0.50 53 116 151
10.93 0.15 -0.50 53 116 149
10.93 0.04 -0.50 54 117 150
10.93 -0.07 -0.50 54 117 150
10.93 -0.18 -0.50 54 117 150
11.22 -0.25 -0.71 53 116 149
11.22 -0.36 -0.71 53 116 149
11.22 -0.47 -0.71 54 117 148
11.22 -0.57 -0.71 55 118 149
11.22 -0.68 -0.71 55 118 149
11.22 -0.79 -0.71 53 116 147
11.22 -0.90 -0.71 53 116 147
11.22 -1.01 -0.71 52 115 146
11.22 -1.12 -0.71 52 115 148
11.22 -1.23 -0.71 54 117 150
11.22 -1.34 -0.71 54 117 152
11.22 -1.44 -0.71 54 117 152
11.22 -1.55 -0.71 56 119 154
11.22 -1.66 -0.71 58 118 152
11.22 -1.77 -0.71 58 118 152
11.22 -1.88 -0.71 55 118 151
11.22 -1.99 -0.71 55 118 151
11.22 -2.10 -0.71 55 118 153
11.22 -2.21 -0.71 55 118 153
11.22 -2.32 -0.71 54 118 153
11.22 -2.42 -0.71 54 118 153
11.22 -2.53 -0.71 53 117 153
11.22 -2.64 -0.71 54 118 154
11.22 -2.75 -0.71 55 117 154
11.22 -2.86 -0.71 56 118 155
11.22 -2.97 -0.71 58 117 157
11.22 -3.08 -0.71 57 116 156
11.22 -3.19 -0.71 56 115 155
11.22 -3.29 -0.71 56 115 155
11.22 -3.40 -0.71 56 119 154
11.22 -3.51 -0.71 56 119 154
11.22 -3.62 -0.71 56 119 152
11.22 -3.73 -0.71 55 118 151
11.22 -3.84 -0.71 54 119 151
11.22 -3.95 -0.71 54 119 151
11.22 -4.06 -0.71 53 119 151
11.22 -4.17 -0.71 53 119 151
11.22 -4.27 -0.71 53 119 151
11.22 -4.38 -0.71 53 119 153
11.22 -4.49 -0.71 53 119 153
11.22 -4.60 -0.71 54 118 154
11.22 -4.71 -0.71 54 118 154
11.22 -4.82 -0.71 55 117 154
11.22 -4.93 -0.71 55 117 154
11.22 -5.04 -0.71 54 116 155
11.22 -5.14 -0.71 56 118 157
11.22 -5.25 -0.71 57 119 158
11.22 -5.36 -0.71 55 117 156
11.22 -5.47 -0.71 54 118 156
11.22 -5.58 -0.71 55 119 157
11.22 -5.69 -0.71 56 120 158
11.22 -5.80 -0.71 56 120 158
11.22 -5.91 -0.71 54 119 157
11.22 -6.01 -0.71 53 118 156
11.22 -6.12 -0.71 54 119 157
11.22 -6.23 -0.71 54 119 157
11.22 -6.34 -0.71 52 120 157
11.22 -6.45 -0.71 52 120 157
10.93 -6.56 -0.50 51 119 156
10.93 -6.67 -0.50 49 117 154
10.93 -6.78 -0.50 52 120 159
10.93 -6.89 -0.50 53 121 160
10.93 -7.00 -0.50 54 122 161
10.93 -7.10 -0.50 53 121 160
10.93 -7.21 -0.50 53 121 160
10.93 -7.32 -0.50 54 119 157
10.93 -7.43 -0.50 55 120 158
10.93 -7.54 -0.50 54 118 156
10.93 -7.65 -0.50 55 119 157
10.93 -7.75 -0.50 56 120 156
10.93 -7.86 -0.50 56 120 156
10.93 -7.97 -0.50 57 119 156
10.93 -8.08 -0.50 56 118 155
10.93 -8.19 -0.50 57 120 155
10.93 -8.29 -0.50 58 121 156
10.93 -8.40 -0.50 56 118 155
10.93 -8.51 -0.50 57 119 156
10.68 -8.61 -0.31 58 120 157
10.68 -8.72 -0.31 58 120 157
10.68 -8.83 -0.31 56 120 156
10.68 -8.94 -0.31 56 120 156
10.68 -9.04 -0.31 56 120 156
10.68 -9.15 -0.31 56 120 156
10.68 -9.26 -0.31 56 120 155
10.68 -9.37 -0.31 55 119 154
10.68 -9.47 -0.31 55 119 154
10.68 -9.58 -0.31 55 119 154
10.68 -9.69 -0.31 56 120 155
10.42 -9.79 -0.13 56 120 155
10.42 -9.89 -0.13 57 121 156
10.42 -10.00 -0.13 56 122 156
10.42 -10.11 -0.13 56 122 156
10.42 -10.21 -0.13 56 122 157
10.42 -10.32 -0.13 56 122 157
10.42 -10.43 -0.13 56 121 159
10.17 -10.52 0.06 55 120 158
10.17 -10.63 0.06 55 120 158
10.17 -10.73 0.06 55 120 158
10.17 -10.84 0.06 54 119 157
10.17 -10.95 0.06 54 119 157
10.17 -11.05 0.06 54 119 157
10.17 -11.16 0.06 54 119 157
9.91 -11.25 0.25 54 120 155
9.91 -11.35 0.25 53 119 154
9.91 -11.46 0.25 50 116 150
9.91 -11.56 0.25 47 113 147
9.91 -11.67 0.25 46 114 149
9.91 -11.78 0.25 49 114 154
9.66 -11.86 0.43 48 112 158
9.66 -11.96 0.43 45 116 158
9.66 -12.07 0.43 44 115 157
9.66 -12.17 0.43 53 117 161
9.66 -12.28 0.43 71 124 166
9.66 -12.39 0.43 89 124 152
9.66 -12.49 0.43 66 88 111
9.66 -12.60 0.43 69 85 108
9.91 -12.73 0.25 82 95 111
10.17 -12.86 0.06 69 88 92
9.60 25.69 0.34 122 119 110
9.60 25.59 0.34 121 118 109
9.60 25.48 0.34 119 119 107
9.86 25.54 0.15 120 120 108
9.86 25.44 0.15 123 124 110
10.11 25.50 -0.03 125 126 112
10.37 25.56 -0.22 124 124 112
10.37 25.45 -0.22 121 121 111
10.37 25.35 -0.22 129 126 117
10.62 25.41 -0.41 126 123 116
10.62 25.30 -0.41 125 120 116
10.62 25.19 -0.41 126 121 117
10.62 25.08 -0.41 131 124 116
10.62 24.98 -0.41 132 125 117
10.62 24.87 -0.41 131 123 112
10.37 24.60 -0.22 129 121 110
10.37 24.49 -0.22 132 125 115
10.37 24.38 -0.22 132 125 115
10.37 24.28 -0.22 132 125 117
10.37 24.17 -0.22 132 127 121
10.37 24.06 -0.22 133 128 122
10.37 23.95 -0.22 132 127 123
10.62 24.01 -0.41 130 125 121
10.62 23.90 -0.41 127 124 117
10.62 23.79 -0.41 129 126 119
10.62 23.68 -0.41 129 126 117
10.62 23.58 -0.41 128 125 116
10.62 23.47 -0.41 128 129 115
10.62 23.36 -0.41 130 131 117
10.62 23.25 -0.41 130 133 116
10.62 23.15 -0.41 129 132 115
10.62 23.04 -0.41 126 130 115
10.62 22.93 -0.41 128 132 117
10.62 22.82 -0.41 130 134 119
10.62 22.71 -0.41 130 134 119
10.62 22.61 -0.41 128 134 120
10.62 22.50 -0.41 127 133 121
10.62 22.39 -0.41 127 133 121
10.62 22.28 -0.41 127 132 125
10.62 22.18 -0.41 130 135 128
10.62 22.07 -0.41 129 134 130
10.37 21.81 -0.22 128 133 129
10.37 21.71 -0.22 127 131 132
10.37 21.60 -0.22 129 130 134
10.37 21.49 -0.22 130 131 136
10.37 21.38 -0.22 130 131 136
10.37 21.28 -0.22 131 134 141
10.37 21.17 -0.22 129 132 139
10.37 21.06 -0.22 127 131 134
10.37 20.96 -0.22 126 130 131
10.62 20.99 -0.41 129 131 130
10.62 20.88 -0.41 130 132 129
10.62 20.78 -0.41 133 134 128
10.62 20.67 -0.41 134 135 129
10.62 20.56 -0.41 133 134 126
10.62 20.45 -0.41 135 136 128
10.62 20.35 -0.41 136 139 132
10.62 20.24 -0.41 139 141 136
10.62 20.13 -0.41 142 144 139
10.62 20.02 -0.41 143 145 142
10.62 19.92 -0.41 141 145 144
10.62 19.81 -0.41 141 145 144
10.62 19.70 -0.41 153 155 152
10.62 19.59 -0.41 155 157 156
10.62 19.49 -0.41 157 161 160
10.62 19.38 -0.41 160 164 167
10.62 19.27 -0.41 163 166 171
10.62 19.16 -0.41 165 168 173
10.62 19.05 -0.41 166 169 174
10.62 18.95 -0.41 157 161 164
10.62 18.84 -0.41 152 157 161
10.62 18.73 -0.41 144 151 157
10.62 18.62 -0.41 135 145 155
10.62 18.52 -0.41 120 136 151
10.88 18.54 -0.59 102 120 142
10.88 18.43 -0.59 80 101 128
10.62 18.19 -0.41 63 88 118
10.62 18.09 -0.41 33 67 94
10.62 17.98 -0.41 25 61 87
10.62 17.87 -0.41 16 51 79
10.62 17.76 -0.41 9 44 72
10.62 17.66 -0.41 2 39 68
10.62 17.55 -0.41 0 32 64
10.88 17.57 -0.59 0 31 63
10.88 17.46 -0.59 0 32 68
10.88 17.35 -0.59 0 35 71
10.62 17.12 -0.41 2 37 75
10.62 17.01 -0.41 2 40 79
10.62 16.90 -0.41 2 40 79
10.62 16.79 -0.41 6 43 85
10.62 16.69 -0.41 13 50 92
10.62 16.58 -0.41 24 61 105
13.95 15.52 -2.84 35 74 117
13.95 15.40 -2.84 34 73 116
13.95 15.29 -2.84 35 74 117
14.23 15.29 -3.05 35 74 117
14.23 15.18 -3.05 35 74 117
14.23 15.06 -3.05 35 76 120
14.23 14.95 -3.05 37 78 122
14.23 14.83 -3.05 35 78 121
14.23 14.72 -3.05 33 74 118
14.23 14.60 -3.05 37 78 122
14.23 14.49 -3.05 37 75 120
14.23 14.37 -3.05 33 75 117
14.23 14.26 -3.05 34 76 118
14.23 14.14 -3.05 35 77 117
14.23 14.02 -3.05 36 78 118
14.23 13.91 -3.05 35 79 118
14.23 13.79 -3.05 34 78 117
14.23 13.68 -3.05 31 76 115
14.23 13.56 -3.05 32 77 118
13.95 13.34 -2.84 31 79 119
13.95 13.22 -2.84 32 79 123
14.23 13.22 -3.05 31 80 123
14.23 13.10 -3.05 31 79 125
14.23 12.99 -3.05 30 78 126
14.23 12.87 -3.05 30 78 126
14.23 12.76 -3.05 31 80 123
14.23 12.64 -3.05 32 81 124
14.23 12.52 -3.05 33 80 124
14.23 12.41 -3.05 33 80 124
14.23 12.29 -3.05 35 79 124
14.23 12.18 -3.05 36 80 125
14.23 12.06 -3.05 37 81 126
14.23 11.95 -3.05 32 76 123
14.23 11.83 -3.05 34 78 125
14.23 11.72 -3.05 35 79 128
13.95 11.50 -2.84 35 79 128
13.95 11.39 -2.84 33 79 129
13.95 11.27 -2.84 34 80 130
13.95 11.16 -2.84 35 82 134
13.95 11.04 -2.84 36 84 133
13.95 10.93 -2.84 33 84 131
13.95 10.81 -2.84 33 84 129
13.95 10.70 -2.84 32 83 128
13.95 10.58 -2.84 32 83 128
13.95 10.47 -2.84 33 81 129
13.95 10.35 -2.84 33 81 129
13.95 10.24 -2.84 33 81 130
13.95 10.13 -2.84 33 81 130
13.95 10.01 -2.84 34 81 133
13.95 9.90 -2.84 31 77 129
13.95 9.78 -2.84 33 79 131
13.95 9.67 -2.84 34 80 130
13.64 9.45 -2.61 33 79 129
13.64 9.34 -2.61 33 79 129
13.64 9.22 -2.61 32 80 129
13.64 9.11 -2.61 30 81 126
13.64 9.00 -2.61 29 80 125
13.64 8.88 -2.61 31 78 124
13.64 8.77 -2.61 30 77 121
13.35 8.57 -2.40 30 79 119
13.35 8.46 -2.40 29 81 121
13.35 8.34 -2.40 29 80 127
13.64 8.31 -2.61 31 78 130
13.64 8.20 -2.61 34 80 130
13.64 8.08 -2.61 30 76 126
13.35 7.89 -2.40 26 80 126
13.35 7.77 -2.40 34 88 134
13.35 7.66 -2.40 45 94 137
13.35 7.55 -2.40 48 87 120
13.35 7.43 -2.40 45 68 76
13.35 7.32 -2.40 52 64 62
13.64 7.29 -2.61 41 52 46
13.64 7.17 -2.61 42 51 48
13.64 7.06 -2.61 46 55 52
13.35 6.87 -2.40 56 61 64
13.64 6.83 -2.61 55 60 63
10.88 3.39 -0.59 81 106 113
10.62 3.23 -0.41 65 115 140
10.62 3.12 -0.41 53 116 149
10.62 3.01 -0.41 50 117 146
10.62 2.91 -0.41 50 117 146
10.62 2.80 -0.41 46 116 142
10.62 2.69 -0.41 42 111 140
10.62 2.58 -0.41 42 111 140
10.37 2.43 -0.22 46 115 148
10.37 2.32 -0.22 45 111 146
10.37 2.21 -0.22 46 111 149
10.37 2.10 -0.22 47 112 152
10.62 2.04 -0.41 49 114 154
10.62 1.94 -0.41 46 116 152
10.62 1.83 -0.41 46 116 152
10.62 1.72 -0.41 42 117 149
10.62 1.61 -0.41 41 116 148
10.62 1.51 -0.41 44 117 149
10.62 1.40 -0.41 44 117 149
10.62 1.29 -0.41 46 117 149
10.88 1.23 -0.59 45 116 148
10.88 1.12 -0.59 44 114 148
10.88 1.01 -0.59 47 115 152
10.88 0.90 -0.59 48 116 153
10.88 0.79 -0.59 50 116 151
10.88 0.69 -0.59 51 117 152
10.88 0.58 -0.59 52 116 151
10.88 0.47 -0.59 52 116 151
10.88 0.36 -0.59 53 116 149
10.88 0.25 -0.59 53 116 149
10.88 0.15 -0.59 56 116 150
10.88 0.04 -0.59 57 117 151
10.88 -0.07 -0.59 52 115 146
10.88 -0.18 -0.59 51 114 145
10.88 -0.29 -0.59 50 113 144
10.88 -0.40 -0.59 49 112 143
11.16 -0.47 -0.80 51 115 143
11.16 -0.57 -0.80 54 118 146
11.16 -0.68 -0.80 54 118 146
11.16 -0.79 -0.80 53 117 145
11.16 -0.90 -0.80 57 120 151
11.16 -1.01 -0.80 54 117 148
11.16 -1.12 -0.80 53 116 147
11.16 -1.23 -0.80 53 116 147
11.16 -1.34 -0.80 52 115 148
11.16 -1.44 -0.80 51 114 147
11.16 -1.55 -0.80 53 116 151
11.16 -1.66 -0.80 53 116 149
11.16 -1.77 -0.80 52 115 148
11.16 -1.88 -0.80 52 115 148
11.16 -1.99 -0.80 51 114 147
11.16 -2.10 -0.80 51 115 150
11.16 -2.21 -0.80 51 115 150
11.16 -2.32 -0.80 50 116 151
11.16 -2.42 -0.80 49 115 150
11.16 -2.53 -0.80 52 116 152
11.16 -2.64 -0.80 52 116 152
11.16 -2.75 -0.80 53 117 155
11.16 -2.86 -0.80 54 118 156
11.16 -2.97 -0.80 55 117 156
11.16 -3.08 -0.80 54 116 155
11.16 -3.19 -0.80 55 114 156
11.16 -3.29 -0.80 54 113 153
11.16 -3.40 -0.80 52 114 151
11.16 -3.51 -0.80 52 115 150
11.16 -3.62 -0.80 51 116 148
11.16 -3.73 -0.80 51 116 148
11.16 -3.84 -0.80 50 116 148
11.16 -3.95 -0.80 50 116 148
11.16 -4.06 -0.80 50 117 146
11.16 -4.17 -0.80 49 115 147
11.16 -4.27 -0.80 49 115 147
11.16 -4.38 -0.80 51 116 148
11.16 -4.49 -0.80 52 117 149
11.16 -4.60 -0.80 54 117 152
11.16 -4.71 -0.80 55 118 153
11.16 -4.82 -0.80 55 117 154
11.16 -4.93 -0.80 55 117 154
11.16 -5.04 -0.80 52 114 151
11.16 -5.14 -0.80 55 117 154
11.16 -5.25 -0.80 57 119 156
11.16 -5.36 -0.80 56 118 155
11.16 -5.47 -0.80 55 119 155
11.16 -5.58 -0.80 55 119 155
11.16 -5.69 -0.80 55 119 157
11.16 -5.80 -0.80 54 118 156
11.16 -5.91 -0.80 53 118 156
11.16 -6.01 -0.80 52 117 155
11.16 -6.12 -0.80 50 118 155
11.16 -6.23 -0.80 50 118 155
11.16 -6.34 -0.80 51 119 156
11.16 -6.45 -0.80 51 119 156
10.88 -6.56 -0.59 51 119 156
10.88 -6.67 -0.59 50 118 157
10.88 -6.78 -0.59 54 119 161
10.88 -6.89 -0.59 56 121 161
10.88 -7.00 -0.59 56 121 161
10.88 -7.10 -0.59 56 121 161
10.88 -7.21 -0.59 55 120 160
10.88 -7.32 -0.59 56 120 158
10.88 -7.43 -0.59 56 120 158
10.88 -7.54 -0.59 54 118 156
10.88 -7.65 -0.59 55 119 157
10.88 -7.75 -0.59 57 119 156
10.88 -7.86 -0.59 58 120 157
10.88 -7.97 -0.59 57 119 156
10.88 -8.08 -0.59 57 119 156
10.88 -8.19 -0.59 59 119 155
10.88 -8.29 -0.59 60 120 156
10.88 -8.40 -0.59 53 117 153
10.88 -8.51 -0.59 54 118 154
10.62 -8.61 -0.41 54 118 154
10.62 -8.72 -0.41 54 118 154
10.62 -8.83 -0.41 55 119 155
10.62 -8.94 -0.41 55 119 155
10.62 -9.04 -0.41 57 121 157
10.62 -9.15 -0.41 58 122 158
10.62 -9.26 -0.41 55 119 154
10.62 -9.37 -0.41 56 120 155
10.62 -9.47 -0.41 56 120 155
10.62 -9.58 -0.41 56 120 155
10.62 -9.69 -0.41 56 120 155
10.37 -9.79 -0.22 56 121 153
10.37 -9.89 -0.22 56 121 153
10.37 -10.00 -0.22 57 120 155
10.37 -10.11 -0.22 57 120 155
10.37 -10.21 -0.22 55 119 155
10.37 -10.32 -0.22 55 119 155
10.37 -10.43 -0.22 55 119 157
10.37 -10.53 -0.22 55 119 157
10.11 -10.63 -0.03 56 120 158
10.11 -10.73 -0.03 57 121 159
10.11 -10.84 -0.03 56 121 159
10.11 -10.95 -0.03 54 119 157
10.11 -11.05 -0.03 53 118 156
9.86 -11.14 0.15 53 118 156
9.86 -11.25 0.15 51 119 154
9.86 -11.35 0.15 51 119 154
9.86 -11.46 0.15 49 118 151
9.86 -11.56 0.15 48 117 150
9.86 -11.67 0.15 44 114 148
9.86 -11.78 0.15 47 115 154
9.60 -11.86 0.34 47 113 161
9.60 -11.96 0.34 44 117 158
9.60 -12.07 0.34 44 115 157
9.60 -12.17 0.34 51 118 161
9.60 -12.28 0.34 72 125 167
9.60 -12.39 0.34 89 126 153
9.60 -12.49 0.34 61 86 108
9.86 -12.62 0.15 65 81 104
9.86 -12.73 0.15 76 92 107
10.11 -12.86 -0.03 66 85 89
9.32 25.96 0.42 0 0 0
9.32 25.85 0.42 0 0 0
9.55 25.90 0.25 0 0 0
9.55 25.80 0.25 129 121 118
9.55 25.69 0.25 129 121 118
9.55 25.59 0.25 130 122 119
9.55 25.48 0.25 130 123 117
9.80 25.54 0.06 129 122 116
9.80 25.44 0.06 125 122 115
10.06 25.50 -0.12 125 122 115
10.06 25.39 -0.12 126 123 114
10.32 25.45 -0.31 127 124 115
10.32 25.35 -0.31 124 124 114
10.32 25.24 -0.31 125 125 115
10.57 25.30 -0.50 127 124 115
10.57 25.19 -0.50 128 125 116
10.57 25.08 -0.50 129 126 119
10.32 24.81 -0.31 131 128 121
10.32 24.70 -0.31 131 126 120
10.32 24.60 -0.31 128 123 119
10.32 24.49 -0.31 127 126 121
10.32 24.38 -0.31 126 125 121
10.32 24.28 -0.31 126 125 121
10.32 24.17 -0.31 127 126 122
10.32 24.06 -0.31 128 127 123
10.32 23.95 -0.31 129 128 124
10.32 23.85 -0.31 130 129 125
10.32 23.74 -0.31 128 127 122
10.32 23.63 -0.31 129 128 123
10.32 23.53 -0.31 130 130 122
10.32 23.42 -0.31 131 131 123
10.32 23.31 -0.31 131 131 121
10.32 23.20 -0.31 131 131 121
10.32 23.10 -0.31 131 131 119
10.57 23.15 -0.50 132 132 120
10.57 23.04 -0.50 133 130 121
10.57 22.93 -0.50 133 130 121
10.57 22.82 -0.50 134 131 122
10.57 22.71 -0.50 134 131 122
10.57 22.61 -0.50 132 132 122
10.57 22.50 -0.50 131 131 121
10.57 22.39 -0.50 131 131 121
10.32 22.13 -0.31 130 130 122
10.32 22.03 -0.31 132 133 125
10.32 21.92 -0.31 131 132 127
10.32 21.81 -0.31 131 132 127
10.32 21.71 -0.31 130 130 130
10.32 21.60 -0.31 130 129 134
10.06 21.34 -0.12 129 128 134
10.06 21.24 -0.12 129 128 134
10.32 21.28 -0.31 132 130 133
10.32 21.17 -0.31 131 129 132
10.32 21.06 -0.31 132 130 133
10.32 20.96 -0.31 132 130 133
10.32 20.85 -0.31 133 133 135
10.32 20.74 -0.31 134 134 136
10.32 20.63 -0.31 134 134 134
10.32 20.53 -0.31 134 134 134
10.32 20.42 -0.31 129 129 129
10.32 20.31 -0.31 131 131 131
10.57 20.35 -0.50 132 132 132
10.57 20.24 -0.50 134 134 134
10.57 20.13 -0.50 133 135 132
10.57 20.02 -0.50 133 135 132
10.57 19.92 -0.50 132 134 131
10.57 19.81 -0.50 131 133 130
10.57 19.70 -0.50 132 133 128
10.57 19.59 -0.50 133 134 129
10.57 19.49 -0.50 133 134 129
10.57 19.38 -0.50 133 134 129
10.57 19.27 -0.50 133 133 131
10.57 19.16 -0.50 135 135 133
10.57 19.05 -0.50 136 136 134
10.57 18.95 -0.50 140 140 140
10.57 18.84 -0.50 140 140 140
10.57 18.73 -0.50 140 140 140
10.57 18.62 -0.50 143 143 143
10.57 18.52 -0.50 148 148 150
10.32 18.28 -0.31 153 153 155
10.32 18.17 -0.31 157 157 159
10.32 18.06 -0.31 159 159 161
10.32 17.96 -0.31 165 166 168
10.32 17.85 -0.31 166 167 169
10.32 17.74 -0.31 168 169 173
10.32 17.64 -0.31 171 172 176
10.32 17.53 -0.31 172 173 178
10.32 17.42 -0.31 171 172 177
10.32 17.31 -0.31 168 168 176
10.32 17.21 -0.31 165 165 173
10.32 17.10 -0.31 150 155 161
10.32 16.99 -0.31 139 144 150
10.32 16.89 -0.31 123 132 137
10.32 16.78 -0.31 113 122 127
10.32 16.67 -0.31 101 112 116
10.32 16.56 -0.31 81 92 96
10.32 16.46 -0.31 32 46 47
10.32 16.35 -0.31 17 31 31
10.32 16.24 -0.31 13 25 25
10.32 16.14 -0.31 8 19 21
10.32 16.03 -0.31 7 18 22
10.06 15.80 -0.12 8 23 26
10.06 15.70 -0.12 12 27 34
10.06 15.59 -0.12 12 29 37
10.06 15.48 -0.12 12 28 41
10.06 15.38 -0.12 14 33 47
10.06 15.27 -0.12 17 36 53
10.06 15.16 -0.12 19 41 62
10.06 15.06 -0.12 24 46 70
10.06 14.95 -0.12 26 50 76
10.06 14.84 -0.12 30 53 84
14.17 14.02 -3.15 38 76 121
14.17 13.91 -3.15 39 76 120
14.17 12.87 -3.15 29 77 117
14.49 12.87 -3.38 37 80 125
14.49 12.76 -3.38 33 80 124
14.49 12.64 -3.38 34 81 127
14.49 12.52 -3.38 33 81 129
14.49 12.41 -3.38 32 80 128
13.89 11.39 -2.94 33 84 131
13.89 11.27 -2.94 30 82 132
13.89 11.16 -2.94 28 81 133
13.89 11.04 -2.94 27 83 134
13.89 10.93 -2.94 32 86 133
13.89 10.81 -2.94 31 85 131
13.89 10.70 -2.94 31 85 132
13.89 10.58 -2.94 32 86 133
13.89 10.47 -2.94 32 84 132
13.89 10.35 -2.94 30 82 130
13.89 10.24 -2.94 29 81 131
13.89 10.13 -2.94 30 82 132
13.89 10.01 -2.94 32 82 131
13.89 9.90 -2.94 33 81 127
13.89 9.78 -2.94 33 81 127
13.89 9.67 -2.94 32 81 122
13.58 9.45 -2.71 32 81 122
13.58 9.34 -2.71 34 82 122
13.58 9.22 -2.71 34 81 123
13.58 9.11 -2.71 33 81 129
13.58 9.00 -2.71 31 79 127
13.58 8.88 -2.71 28 75 119
13.58 8.77 -2.71 26 75 118
13.58 8.65 -2.71 25 79 123
13.29 8.46 -2.50 26 83 128
13.58 8.43 -2.71 24 83 125
13.58 8.31 -2.71 22 80 120
13.58 8.20 -2.71 33 85 124
13.58 8.08 -2.71 26 78 117
13.29 7.89 -2.50 22 77 116
13.29 7.77 -2.50 37 93 130
13.29 7.66 -2.50 51 102 133
13.29 7.55 -2.50 74 115 135
13.29 7.43 -2.50 105 129 131
13.58 7.40 -2.71 101 113 109
13.58 7.29 -2.71 92 103 95
13.58 7.17 -2.71 71 81 73
13.58 7.06 -2.71 50 56 52
13.58 6.94 -2.71 46 52 50
13.58 6.83 -2.71 46 52 50
13.58 6.72 -2.71 51 55 56
13.29 6.53 -2.50 60 64 65
13.58 6.49 -2.71 63 67 70
13.58 6.37 -2.71 70 74 77
10.83 3.39 -0.69 80 104 116
10.57 3.23 -0.50 62 112 135
10.57 3.12 -0.50 53 114 143
10.57 3.01 -0.50 50 113 144
10.57 2.91 -0.50 52 115 146
10.57 2.80 -0.50 53 118 150
10.57 2.69 -0.50 52 117 149
10.32 2.53 -0.31 47 113 147
10.32 2.43 -0.31 44 110 144
10.32 2.32 -0.31 47 116 149
10.32 2.21 -0.31 47 116 149
10.32 2.10 -0.31 45 116 148
10.57 2.04 -0.50 44 115 147
10.57 1.94 -0.50 44 115 145
10.57 1.83 -0.50 44 115 145
10.57 1.72 -0.50 46 117 147
10.57 1.61 -0.50 48 117 150
10.57 1.51 -0.50 50 116 150
10.57 1.40 -0.50 50 114 150
10.83 1.34 -0.69 50 114 150
10.83 1.23 -0.69 51 115 151
10.83 1.12 -0.69 51 115 151
10.83 1.01 -0.69 51 113 150
10.83 0.90 -0.69 53 115 152
10.83 0.79 -0.69 53 116 151
10.83 0.69 -0.69 56 119 154
10.83 0.58 -0.69 56 119 154
10.83 0.47 -0.69 52 115 150
10.83 0.36 -0.69 54 114 150
10.83 0.25 -0.69 57 117 153
10.83 0.15 -0.69 57 117 153
10.83 0.04 -0.69 55 115 151
10.83 -0.07 -0.69 52 117 147
10.83 -0.18 -0.69 52 117 147
10.83 -0.29 -0.69 53 116 147
11.11 -0.36 -0.90 51 114 145
11.11 -0.47 -0.90 54 115 146
11.11 -0.57 -0.90 58 117 149
11.11 -0.68 -0.90 57 116 150
11.11 -0.79 -0.90 57 113 148
11.11 -0.90 -0.90 58 114 149
11.11 -1.01 -0.90 57 113 148
11.11 -1.12 -0.90 52 112 146
11.11 -1.23 -0.90 51 111 145
11.11 -1.34 -0.90 50 113 148
11.11 -1.44 -0.90 51 114 149
11.11 -1.55 -0.90 52 116 151
11.11 -1.66 -0.90 53 116 149
11.11 -1.77 -0.90 53 116 149
11.11 -1.88 -0.90 54 117 150
11.11 -1.99 -0.90 53 116 149
11.11 -2.10 -0.90 51 114 149
11.11 -2.21 -0.90 51 114 149
11.11 -2.32 -0.90 52 114 151
11.11 -2.42 -0.90 53 115 152
11.11 -2.53 -0.90 53 117 153
11.11 -2.64 -0.90 52 116 152
11.11 -2.75 -0.90 51 115 151
11.11 -2.86 -0.90 51 115 151
11.11 -2.97 -0.90 51 115 150
11.11 -3.08 -0.90 52 116 151
11.11 -3.19 -0.90 53 118 150
11.11 -3.29 -0.90 54 118 153
11.11 -3.40 -0.90 49 118 151
11.11 -3.51 -0.90 50 118 153
11.11 -3.62 -0.90 52 118 153
11.11 -3.73 -0.90 52 118 153
11.11 -3.84 -0.90 52 118 153
11.11 -3.95 -0.90 53 119 154
11.11 -4.06 -0.90 52 118 152
11.11 -4.17 -0.90 55 119 154
11.11 -4.27 -0.90 52 116 151
11.11 -4.38 -0.90 51 115 150
11.11 -4.49 -0.90 53 117 152
11.11 -4.60 -0.90 54 118 153
11.11 -4.71 -0.90 52 116 151
11.11 -4.82 -0.90 52 116 151
11.11 -4.93 -0.90 53 117 152
11.11 -5.04 -0.90 54 118 154
11.11 -5.14 -0.90 55 119 155
11.11 -5.25 -0.90 55 119 155
11.11 -5.36 -0.90 55 119 155
11.11 -5.47 -0.90 54 118 154
11.11 -5.58 -0.90 53 117 153
11.11 -5.69 -0.90 54 118 154
11.11 -5.80 -0.90 55 119 155
11.11 -5.91 -0.90 56 120 155
11.11 -6.01 -0.90 56 120 155
11.11 -6.12 -0.90 54 118 153
11.11 -6.23 -0.90 53 117 152
11.11 -6.34 -0.90 54 118 153
11.11 -6.45 -0.90 56 120 155
10.83 -6.56 -0.69 55 120 152
10.83 -6.67 -0.69 52 116 151
10.83 -6.78 -0.69 54 117 158
10.83 -6.89 -0.69 54 118 156
10.83 -7.00 -0.69 53 117 155
10.83 -7.10 -0.69 53 117 155
10.83 -7.21 -0.69 54 118 156
10.83 -7.32 -0.69 54 118 154
10.83 -7.43 -0.69 55 119 155
10.83 -7.54 -0.69 55 119 154
10.83 -7.65 -0.69 55 119 154
10.83 -7.75 -0.69 55 119 154
10.83 -7.86 -0.69 56 120 155
10.83 -7.97 -0.69 56 120 156
10.83 -8.08 -0.69 56 120 156
10.83 -8.19 -0.69 56 120 156
10.83 -8.29 -0.69 57 121 159
10.83 -8.40 -0.69 56 120 158
10.83 -8.51 -0.69 57 120 161
10.57 -8.61 -0.50 57 120 161
10.57 -8.72 -0.50 57 120 161
10.57 -8.83 -0.50 55 119 157
10.57 -8.94 -0.50 55 119 157
10.57 -9.04 -0.50 57 121 157
10.57 -9.15 -0.50 58 122 158
10.57 -9.26 -0.50 57 121 157
10.57 -9.37 -0.50 57 121 159
10.57 -9.47 -0.50 57 121 159
10.57 -9.58 -0.50 58 120 161
10.57 -9.69 -0.50 57 119 160
10.57 -9.80 -0.50 56 118 159
10.32 -9.89 -0.31 55 117 156
10.32 -10.00 -0.31 58 122 157
10.32 -10.11 -0.31 57 122 154
10.32 -10.21 -0.31 55 119 154
10.32 -10.32 -0.31 53 117 152
10.32 -10.43 -0.31 52 116 152
10.32 -10.53 -0.31 53 117 153
10.32 -10.64 -0.31 53 118 156
10.06 -10.73 -0.12 54 119 157
10.06 -10.84 -0.12 56 121 159
10.06 -10.95 -0.12 55 120 158
10.06 -11.05 -0.12 52 120 157
9.80 -11.14 0.06 51 119 156
9.80 -11.25 0.06 51 119 154
9.80 -11.35 0.06 50 118 153
9.80 -11.46 0.06 49 118 151
9.80 -11.56 0.06 48 117 150
9.80 -11.67 0.06 41 111 145
9.55 -11.75 0.25 41 114 147
9.55 -11.86 0.25 45 121 153
9.55 -11.96 0.25 42 120 156
9.55 -12.07 0.25 45 118 159
9.55 -12.17 0.25 59 122 163
9.55 -12.28 0.25 75 129 165
9.55 -12.39 0.25 87 129 151
9.55 -12.49 0.25 61 93 106
9.55 -12.60 0.25 64 87 95
9.80 -12.73 0.06 71 86 93
9.80 -12.84 0.06 76 89 95
9.27 25.96 0.33 0 0 0
9.27 25.85 0.33 0 0 0
9.27 25.75 0.33 0 0 0
9.27 25.64 0.33 129 121 119
9.50 25.69 0.16 129 121 119
9.50 25.59 0.16 129 121 119
9.50 25.48 0.16 127 122 118
9.50 25.37 0.16 127 122 118
9.75 25.44 -0.03 126 121 115
10.01 25.50 -0.22 126 121 115
10.01 25.39 -0.22 127 124 115
10.26 25.45 -0.41 129 126 117
10.26 25.35 -0.41 125 125 115
10.26 25.24 -0.41 125 125 115
10.26 25.13 -0.41 127 124 115
10.52 25.19 -0.59 127 124 115
10.26 24.92 -0.41 128 125 116
10.26 24.81 -0.41 131 128 119
10.26 24.70 -0.41 131 126 120
10.26 24.60 -0.41 129 124 118
10.26 24.49 -0.41 127 126 121
10.26 24.38 -0.41 127 126 121
10.26 24.28 -0.41 127 126 121
10.26 24.17 -0.41 127 126 121
10.26 24.06 -0.41 128 127 122
10.26 23.95 -0.41 129 128 123
10.26 23.85 -0.41 130 129 124
10.26 23.74 -0.41 129 128 123
10.26 23.63 -0.41 129 128 123
10.26 23.53 -0.41 130 130 122
10.26 23.42 -0.41 130 130 122
10.26 23.31 -0.41 130 130 120
10.26 23.20 -0.41 130 130 120
10.26 23.10 -0.41 130 130 118
10.26 22.99 -0.41 131 131 119
10.26 22.88 -0.41 133 130 121
10.26 22.78 -0.41 133 130 121
10.26 22.67 -0.41 132 132 122
10.26 22.56 -0.41 132 132 122
10.26 22.46 -0.41 132 132 120
10.26 22.35 -0.41 132 132 120
10.26 22.24 -0.41 131 131 121
10.26 22.13 -0.41 131 131 121
10.26 22.03 -0.41 131 131 123
10.26 21.92 -0.41 131 130 125
10.01 21.66 -0.22 130 131 126
10.01 21.56 -0.22 130 130 130
10.01 21.45 -0.22 130 129 134
10.01 21.34 -0.22 131 130 135
10.01 21.24 -0.22 132 131 137
10.01 21.13 -0.22 134 132 135
10.01 21.02 -0.22 133 131 134
10.26 21.06 -0.41 133 131 134
10.26 20.96 -0.41 133 131 134
10.26 20.85 -0.41 133 133 135
10.26 20.74 -0.41 133 133 135
10.26 20.63 -0.41 132 132 132
10.26 20.53 -0.41 132 132 132
10.26 20.42 -0.41 131 131 131
10.26 20.31 -0.41 132 132 132
10.26 20.21 -0.41 133 133 133
10.26 20.10 -0.41 133 133 133
10.26 19.99 -0.41 133 135 132
10.26 19.88 -0.41 133 135 132
10.26 19.78 -0.41 132 134 131
10.26 19.67 -0.41 132 134 131
10.26 19.56 -0.41 133 134 129
10.26 19.46 -0.41 133 134 129
10.26 19.35 -0.41 134 135 130
10.26 19.24 -0.41 133 134 129
10.26 19.13 -0.41 133 133 131
10.26 19.03 -0.41 134 134 132
10.26 18.92 -0.41 135 135 133
10.26 18.81 -0.41 135 135 135
10.26 18.71 -0.41 134 134 134
10.26 18.60 -0.41 133 133 133
10.26 18.49 -0.41 133 133 133
10.26 18.38 -0.41 135 135 137
10.26 18.28 -0.41 136 136 138
10.26 18.17 -0.41 136 136 138
10.26 18.06 -0.41 137 137 139
10.01 17.83 -0.22 136 137 139
10.01 17.72 -0.22 136 137 139
10.26 17.74 -0.41 136 137 141
10.26 17.64 -0.41 138 139 143
10.26 17.53 -0.41 139 140 145
10.26 17.42 -0.41 139 140 145
10.26 17.31 -0.41 137 138 143
10.26 17.21 -0.41 136 137 142
10.26 17.10 -0.41 138 141 148
10.26 16.99 -0.41 143 146 153
10.26 16.89 -0.41 148 153 159
10.26 16.78 -0.41 150 155 161
10.26 16.67 -0.41 148 158 160
10.01 16.44 -0.22 151 161 163
10.01 16.34 -0.22 166 176 177
10.01 16.23 -0.22 168 177 176
10.01 16.12 -0.22 168 174 172
10.01 16.02 -0.22 165 171 169
10.26 16.03 -0.41 160 166 166
10.26 15.92 -0.41 151 160 159
10.01 15.70 -0.22 142 150 153
10.01 15.59 -0.22 130 141 143
10.01 15.48 -0.22 123 134 140
10.01 15.38 -0.22 103 116 124
10.01 15.27 -0.22 93 105 117
10.01 15.16 -0.22 79 93 106
10.01 15.06 -0.22 70 83 100
10.01 14.95 -0.22 60 76 92
10.01 14.84 -0.22 51 66 87
14.43 14.15 -3.48 39 81 123
14.43 14.03 -3.48 39 81 123
14.43 12.99 -3.48 26 79 123
14.43 12.87 -3.48 37 82 121
14.43 12.76 -3.48 34 84 121
14.43 12.64 -3.48 34 83 124
14.43 12.52 -3.48 34 83 124
14.43 12.41 -3.48 32 81 124
13.83 11.39 -3.04 35 79 126
13.83 11.27 -3.04 34 77 128
13.83 11.16 -3.04 31 78 130
13.83 11.04 -3.04 33 80 134
13.83 10.93 -3.04 36 81 136
13.83 10.81 -3.04 34 79 134
13.83 10.70 -3.04 32 77 134
13.83 10.58 -3.04 31 76 133
13.83 10.47 -3.04 29 74 131
13.83 10.35 -3.04 29 74 131
13.83 10.24 -3.04 34 76 134
13.83 10.13 -3.04 38 80 138
13.83 10.01 -3.04 35 76 132
13.83 9.90 -3.04 36 77 129
13.83 9.78 -3.04 37 79 129
13.83 9.67 -3.04 38 79 125
13.83 9.55 -3.04 38 79 125
13.83 9.44 -3.04 37 78 122
13.83 9.32 -3.04 37 78 122
13.83 9.21 -3.04 37 76 119
13.52 9.00 -2.81 38 77 118
13.52 8.88 -2.81 37 75 112
13.52 8.77 -2.81 33 73 109
13.52 8.65 -2.81 28 74 110
13.52 8.54 -2.81 28 76 114
13.52 8.43 -2.81 30 78 114
13.52 8.31 -2.81 33 79 113
13.52 8.20 -2.81 39 80 110
13.52 8.08 -2.81 40 81 111
13.52 7.97 -2.81 37 82 113
13.24 7.77 -2.60 41 86 115
13.24 7.66 -2.60 55 95 120
13.24 7.55 -2.60 79 108 122
13.52 7.51 -2.81 115 130 125
13.52 7.40 -2.81 119 125 113
13.52 7.29 -2.81 118 126 115
13.52 7.17 -2.81 118 126 115
13.52 7.06 -2.81 127 135 124
13.52 6.94 -2.81 91 96 89
13.52 6.83 -2.81 60 65 58
13.24 6.64 -2.60 49 54 48
13.24 6.53 -2.60 43 48 42
13.24 6.41 -2.60 48 53 49
13.52 6.37 -2.81 58 63 59
10.77 3.39 -0.78 83 105 118
10.52 3.23 -0.59 61 108 134
10.52 3.12 -0.59 53 112 144
10.52 3.01 -0.59 53 113 147
10.52 2.91 -0.59 54 114 148
10.52 2.80 -0.59 52 115 150
10.52 2.69 -0.59 51 114 149
10.26 2.53 -0.41 47 113 147
10.26 2.43 -0.41 45 111 145
10.26 2.32 -0.41 44 113 146
10.26 2.21 -0.41 44 113 146
10.26 2.10 -0.41 44 113 146
10.52 2.04 -0.59 44 113 146
10.52 1.94 -0.59 45 114 145
10.52 1.83 -0.59 45 114 145
10.52 1.72 -0.59 46 115 146
10.52 1.61 -0.59 48 114 148
10.52 1.51 -0.59 50 116 150
10.52 1.40 -0.59 49 113 149
10.77 1.34 -0.78 49 113 149
10.77 1.23 -0.78 50 114 150
10.77 1.12 -0.78 50 114 149
10.77 1.01 -0.78 50 113 148
10.77 0.90 -0.78 51 114 149
10.77 0.79 -0.78 46 109 144
10.77 0.69 -0.78 50 113 148
10.77 0.58 -0.78 52 115 150
10.77 0.47 -0.78 49 112 147
10.77 0.36 -0.78 48 111 144
10.77 0.25 -0.78 52 115 148
