ply
format ascii 1.0
element vertex 1564
property float x
property float y
property float z
property uchar red
property uchar green
property uchar blue
end_header
-10.63 6.12 0.24 158 153 159
-10.63 6.05 0.24 159 154 160
-10.72 5.93 0.35 159 154 160
-10.72 5.85 0.35 158 153 159
-10.72 5.78 0.35 157 152 158
-10.72 5.70 0.35 158 153 159
-10.72 5.63 0.35 158 153 157
-10.72 5.55 0.35 158 153 157
-10.63 5.52 0.24 158 153 157
-10.72 5.40 0.35 159 154 158
-10.72 5.33 0.35 158 153 157
-10.72 5.25 0.35 158 153 157
-10.72 5.18 0.35 157 153 154
-10.72 5.10 0.35 158 154 155
-10.72 5.03 0.35 157 153 154
-10.72 4.95 0.35 155 151 152
-10.72 4.88 0.35 158 154 155
-10.72 4.80 0.35 162 158 159
-10.72 4.73 0.35 161 157 158
-10.72 4.65 0.35 156 152 153
-10.72 4.58 0.35 158 157 153
-10.72 4.50 0.35 158 157 153
-10.72 4.43 0.35 157 156 152
-10.72 4.35 0.35 157 156 152
-10.72 4.28 0.35 157 156 154
-10.72 4.20 0.35 158 157 155
-10.72 4.13 0.35 158 157 155
-10.63 4.09 0.24 158 157 155
-10.63 4.02 0.24 157 155 156
-10.63 3.94 0.24 160 158 159
-10.63 3.87 0.24 160 158 159
-10.63 3.79 0.24 159 157 160
-10.63 3.71 0.24 158 156 159
-10.63 3.64 0.24 159 157 160
-10.63 3.56 0.24 160 158 161
-10.63 3.49 0.24 161 156 160
-10.63 3.41 0.24 160 155 159
-10.63 3.34 0.24 161 156 160
-10.63 3.26 0.24 163 158 162
-10.63 3.19 0.24 165 160 164
-10.63 3.11 0.24 164 159 163
-10.63 3.04 0.24 163 158 162
-10.51 3.00 0.09 163 158 162
-10.51 2.93 0.09 166 161 165
-10.51 2.85 0.09 165 160 164
-10.51 2.78 0.09 162 157 161
-10.51 2.70 0.09 159 154 158
-10.51 2.63 0.09 160 155 159
-10.51 2.55 0.09 162 157 161
-10.51 2.48 0.09 163 158 162
-10.51 2.40 0.09 160 158 161
-10.51 2.32 0.09 160 159 164
-10.51 2.25 0.09 160 161 165
-10.51 2.17 0.09 161 162 164
-10.51 2.10 0.09 160 161 163
-10.51 2.02 0.09 159 160 162
-10.51 1.95 0.09 160 161 163
-10.51 1.87 0.09 160 161 163
-10.51 1.80 0.09 161 163 162
-10.51 1.72 0.09 161 163 162
-10.51 1.64 0.09 162 164 163
-10.51 1.57 0.09 162 164 163
-10.51 1.49 0.09 163 165 164
-10.51 1.42 0.09 163 165 164
-10.51 1.34 0.09 163 165 164
-10.51 1.27 0.09 164 164 164
-10.51 1.19 0.09 168 162 162
-10.51 1.12 0.09 170 161 162
-10.51 1.04 0.09 168 162 162
-10.51 0.97 0.09 168 162 162
-10.51 0.89 0.09 168 164 163
-10.51 0.81 0.09 168 164 163
-10.51 0.74 0.09 165 163 164
-10.51 0.66 0.09 165 163 164
-10.51 0.59 0.09 166 166 168
-10.51 0.51 0.09 166 166 168
-10.51 0.44 0.09 166 166 168
-10.51 0.36 0.09 165 165 167
-10.51 0.29 0.09 165 164 169
-10.51 0.21 0.09 164 163 168
-10.51 0.13 0.09 165 163 166
-10.51 0.06 0.09 168 164 165
-10.41 0.01 -0.03 170 164 164
-10.41 -0.07 -0.03 169 165 166
-10.41 -0.14 -0.03 169 165 166
-10.41 -0.22 -0.03 171 167 168
-10.41 -0.30 -0.03 173 169 170
-10.41 -0.37 -0.03 170 168 171
-10.41 -0.45 -0.03 167 165 168
-10.41 -0.52 -0.03 170 168 171
-10.41 -0.60 -0.03 171 169 172
-10.41 -0.67 -0.03 170 169 174
-10.51 -0.77 0.09 170 169 174
-10.51 -0.85 0.09 169 170 174
-10.51 -0.92 0.09 169 170 174
-10.51 -1.00 0.09 169 170 175
-10.51 -1.07 0.09 169 170 175
-10.51 -1.15 0.09 168 169 173
-10.51 -1.23 0.09 168 169 173
-10.51 -1.30 0.09 168 169 173
-10.41 -1.36 -0.03 168 169 173
-10.41 -1.43 -0.03 168 169 171
-10.41 -1.51 -0.03 169 170 172
-10.41 -1.58 -0.03 169 170 172
-10.41 -1.66 -0.03 170 170 172
-10.41 -1.74 -0.03 170 170 172
-10.41 -1.81 -0.03 169 169 169
-10.41 -1.89 -0.03 169 169 169
-10.41 -1.96 -0.03 169 169 169
-10.41 -2.04 -0.03 170 170 170
-10.51 -2.13 0.09 171 171 171
-10.51 -2.21 0.09 171 171 171
-10.41 -2.27 -0.03 175 175 173
-10.41 -2.34 -0.03 174 174 172
-10.41 -2.42 -0.03 173 173 171
-10.41 -2.49 -0.03 172 172 170
-10.41 -2.57 -0.03 173 173 171
-10.41 -2.65 -0.03 174 174 172
-10.41 -2.72 -0.03 175 175 175
-10.41 -2.80 -0.03 176 176 176
-10.41 -2.87 -0.03 173 173 173
-10.41 -2.95 -0.03 172 172 172
-10.41 -3.02 -0.03 172 172 172
-10.41 -3.10 -0.03 174 174 174
-10.41 -3.18 -0.03 176 176 176
-10.41 -3.25 -0.03 178 178 178
-10.41 -3.33 -0.03 178 178 180
-10.41 -3.40 -0.03 178 178 180
-10.41 -3.48 -0.03 178 178 180
-10.41 -3.55 -0.03 178 178 180
-10.41 -3.63 -0.03 178 178 180
-10.41 -3.71 -0.03 178 178 178
-10.41 -3.78 -0.03 179 179 179
-10.41 -3.86 -0.03 180 180 180
-10.41 -3.93 -0.03 180 180 180
-10.41 -4.01 -0.03 180 180 180
-10.41 -4.08 -0.03 179 179 179
-10.41 -4.16 -0.03 177 177 179
-10.41 -4.24 -0.03 178 178 180
-10.41 -4.31 -0.03 180 179 184
-10.41 -4.39 -0.03 181 180 185
-10.41 -4.46 -0.03 180 179 184
-10.41 -4.54 -0.03 179 178 183
-10.41 -4.62 -0.03 181 180 186
-10.41 -4.69 -0.03 180 179 185
-10.41 -4.77 -0.03 180 179 185
-10.41 -4.84 -0.03 180 179 185
-10.41 -4.92 -0.03 181 180 186
-10.41 -4.99 -0.03 182 181 187
-10.41 -5.07 -0.03 183 182 188
-10.41 -5.15 -0.03 185 184 189
-10.41 -5.22 -0.03 186 185 190
-10.41 -5.30 -0.03 187 186 191
-10.41 -5.37 -0.03 186 185 190
-10.41 -5.45 -0.03 185 184 189
-10.41 -5.52 -0.03 186 185 190
-10.41 -5.60 -0.03 188 187 192
-10.41 -5.68 -0.03 191 190 195
-10.41 -5.75 -0.03 191 190 196
-10.41 -5.83 -0.03 191 190 196
-10.41 -5.90 -0.03 190 189 195
-10.41 -5.98 -0.03 190 189 195
-10.41 -6.05 -0.03 191 190 195
-10.41 -6.13 -0.03 192 191 196
-10.41 -6.21 -0.03 194 194 196
-10.41 -6.28 -0.03 195 195 197
-10.41 -6.36 -0.03 194 194 196
-10.41 -6.43 -0.03 193 193 195
-10.41 -6.51 -0.03 193 192 197
-10.41 -6.59 -0.03 193 192 197
-10.41 -6.66 -0.03 195 194 200
-10.41 -6.74 -0.03 195 194 200
-10.41 -6.81 -0.03 195 194 200
-10.41 -6.89 -0.03 194 193 199
-10.41 -6.96 -0.03 198 197 202
-10.41 -7.04 -0.03 196 195 200
-10.41 -7.12 -0.03 195 194 199
-10.41 -7.19 -0.03 196 195 200
-10.30 -7.27 -0.17 199 198 203
-10.30 -7.34 -0.17 200 199 204
-10.30 -7.42 -0.17 199 198 203
-10.30 -7.49 -0.17 200 199 204
-10.30 -7.57 -0.17 198 197 202
-10.30 -7.65 -0.17 203 202 207
-10.30 -7.72 -0.17 201 200 205
-10.30 -7.80 -0.17 201 201 203
-10.30 -7.88 -0.17 204 204 206
-10.30 -7.95 -0.17 201 201 203
-10.30 -8.03 -0.17 204 204 206
-10.30 -8.10 -0.17 205 204 209
-10.30 -8.18 -0.17 204 203 208
-10.30 -8.26 -0.17 203 202 207
-10.30 -8.33 -0.17 203 202 207
-10.30 -8.41 -0.17 204 203 208
-10.30 -8.48 -0.17 205 204 209
-10.30 -8.56 -0.17 204 203 208
-10.30 -8.64 -0.17 203 202 207
-10.30 -8.71 -0.17 207 206 211
-10.30 -8.79 -0.17 206 205 210
-10.30 -8.86 -0.17 207 206 211
-10.30 -8.94 -0.17 208 207 212
-10.30 -9.02 -0.17 209 208 213
-10.30 -9.09 -0.17 208 207 212
-10.30 -9.17 -0.17 207 206 211
-10.30 -9.24 -0.17 206 205 210
-10.30 -9.32 -0.17 206 205 210
-10.30 -9.40 -0.17 208 207 212
-10.30 -9.47 -0.17 209 208 213
-10.41 -9.54 -0.03 208 207 212
-10.41 -9.62 -0.03 206 205 210
-10.41 -9.69 -0.03 207 206 211
-10.41 -9.77 -0.03 210 209 214
-10.41 -9.84 -0.03 207 206 211
-10.41 -9.92 -0.03 206 205 210
-10.41 -9.99 -0.03 206 205 210
-10.41 -10.07 -0.03 207 206 211
-10.41 -10.15 -0.03 209 208 213
-10.41 -10.22 -0.03 210 209 214
-10.41 -10.30 -0.03 211 210 215
-10.41 -10.37 -0.03 210 209 214
-10.30 -10.46 -0.17 209 209 211
-10.30 -10.54 -0.17 209 209 211
-10.30 -10.61 -0.17 210 210 212
-10.30 -10.69 -0.17 211 211 213
-10.30 -10.77 -0.17 213 213 215
-10.30 -10.84 -0.17 214 214 216
-10.30 -10.92 -0.17 216 216 218
-10.30 -10.99 -0.17 214 214 216
-10.30 -11.07 -0.17 212 212 214
-10.30 -11.15 -0.17 209 209 211
-10.30 -11.22 -0.17 208 208 210
-10.30 -11.30 -0.17 208 208 210
-10.30 -11.37 -0.17 209 209 211
-10.30 -11.45 -0.17 210 210 212
-10.30 -11.53 -0.17 211 210 215
-10.30 -11.60 -0.17 211 210 215
-10.30 -11.68 -0.17 212 211 217
-10.30 -11.75 -0.17 213 212 217
-10.30 -11.83 -0.17 213 212 217
-10.30 -11.91 -0.17 212 212 212
-10.30 -11.98 -0.17 211 211 211
-10.30 -12.06 -0.17 212 212 210
-10.30 -12.14 -0.17 213 213 211
-10.30 -12.21 -0.17 211 211 209
-10.30 -12.29 -0.17 211 211 209
-10.30 -12.36 -0.17 211 211 211
-10.30 -12.44 -0.17 211 211 213
-10.30 -12.52 -0.17 210 209 214
-10.30 -12.59 -0.17 210 209 215
-10.20 -12.68 -0.29 209 208 214
-10.20 -12.76 -0.29 212 211 216
-10.20 -12.84 -0.29 213 212 217
-10.20 -12.91 -0.29 215 215 217
-10.20 -12.99 -0.29 217 217 219
-10.20 -13.07 -0.29 218 218 218
-10.20 -13.14 -0.29 219 219 219
-10.20 -13.22 -0.29 219 219 217
-10.20 -13.30 -0.29 219 219 217
-10.20 -13.37 -0.29 218 218 216
-10.20 -13.45 -0.29 216 216 214
-10.20 -13.52 -0.29 215 215 215
-10.20 -13.60 -0.29 215 215 215
-10.20 -13.68 -0.29 216 216 218
-10.20 -13.75 -0.29 217 217 219
-10.20 -13.83 -0.29 218 217 222
-10.20 -13.91 -0.29 219 218 223
-10.20 -13.98 -0.29 214 214 216
-10.20 -14.06 -0.29 216 216 218
-10.20 -14.13 -0.29 217 217 219
-10.20 -14.21 -0.29 214 214 216
-10.20 -14.29 -0.29 215 215 217
-10.20 -14.36 -0.29 216 216 218
-10.20 -14.44 -0.29 216 216 218
-10.20 -14.52 -0.29 214 214 216
-10.20 -14.59 -0.29 215 215 217
-10.20 -14.67 -0.29 217 217 219
-10.20 -14.75 -0.29 219 219 221
-10.30 -14.80 -0.17 220 220 222
-10.30 -14.87 -0.17 221 221 223
-10.30 -14.95 -0.17 221 221 223
-10.30 -15.03 -0.17 221 221 223
-10.30 -15.10 -0.17 221 220 225
-10.20 -15.20 -0.29 221 220 225
-10.20 -15.28 -0.29 220 219 224
-10.20 -15.36 -0.29 218 217 222
-10.20 -15.43 -0.29 217 216 221
-10.20 -15.51 -0.29 217 216 221
-10.20 -15.58 -0.29 216 215 220
-10.20 -15.66 -0.29 216 215 220
-10.20 -15.74 -0.29 215 214 219
-10.20 -15.81 -0.29 217 216 221
-10.20 -15.89 -0.29 220 220 222
-10.20 -15.97 -0.29 221 221 223
-10.20 -16.04 -0.29 220 220 222
-10.20 -16.12 -0.29 217 217 219
-10.20 -16.20 -0.29 216 215 220
-10.20 -16.27 -0.29 220 219 224
-10.20 -16.35 -0.29 220 219 225
-10.20 -16.42 -0.29 220 219 224
-10.20 -16.50 -0.29 221 220 225
-10.20 -16.58 -0.29 221 220 225
-10.30 -16.62 -0.17 221 220 225
-10.30 -16.70 -0.17 220 220 222
-10.30 -16.78 -0.17 219 219 221
-10.30 -16.85 -0.17 218 218 220
-10.30 -16.93 -0.17 218 218 220
-10.20 -17.03 -0.29 219 219 219
-10.20 -17.11 -0.29 220 220 220
-10.20 -17.19 -0.29 220 220 220
-10.20 -17.26 -0.29 219 219 219
-10.08 -17.38 -0.44 218 218 216
-10.08 -17.46 -0.44 217 217 215
-10.08 -17.53 -0.44 221 220 218
-10.08 -17.61 -0.44 219 218 216
-10.08 -17.69 -0.44 217 216 214
-10.08 -17.76 -0.44 217 216 214
-10.08 -17.84 -0.44 219 217 218
-10.08 -17.92 -0.44 221 219 220
-10.08 -17.99 -0.44 220 218 219
-10.08 -18.07 -0.44 215 213 216
-10.08 -18.15 -0.44 217 215 218
-10.08 -18.22 -0.44 218 216 221
-10.08 -18.30 -0.44 219 217 222
-10.08 -18.38 -0.44 218 216 221
-10.08 -18.45 -0.44 217 215 220
-10.08 -18.53 -0.44 217 215 220
-10.08 -18.61 -0.44 218 216 221
-10.08 -18.68 -0.44 219 217 222
-10.08 -18.76 -0.44 217 215 220
-10.08 -18.84 -0.44 216 214 219
-10.08 -18.91 -0.44 216 214 219
-10.08 -18.99 -0.44 215 214 219
-10.08 -19.07 -0.44 216 215 220
-10.08 -19.14 -0.44 216 215 220
-10.08 -19.22 -0.44 215 214 219
-10.08 -19.30 -0.44 213 213 215
-10.08 -19.37 -0.44 215 215 217
-10.08 -19.45 -0.44 218 216 219
-10.08 -19.52 -0.44 219 217 220
-10.08 -19.60 -0.44 220 215 219
-10.08 -19.68 -0.44 220 215 219
-10.08 -19.75 -0.44 221 215 217
-10.08 -19.83 -0.44 219 217 218
-10.08 -19.91 -0.44 217 215 216
-10.08 -19.98 -0.44 216 214 215
-10.08 -20.06 -0.44 218 216 217
-10.08 -20.14 -0.44 217 215 216
-9.97 -20.27 -0.58 216 214 215
-9.97 -20.34 -0.58 216 214 215
-9.97 -20.42 -0.58 218 216 217
-9.97 -20.50 -0.58 216 214 215
-10.08 -20.52 -0.44 216 214 215
-10.08 -20.60 -0.44 216 214 215
-10.08 -20.67 -0.44 216 214 215
-10.08 -20.75 -0.44 216 214 215
-10.08 -20.83 -0.44 218 216 217
-9.97 -20.96 -0.58 220 218 219
-9.97 -21.03 -0.58 222 220 221
-9.97 -21.11 -0.58 223 219 220
-9.97 -21.19 -0.58 223 219 220
-9.97 -21.27 -0.58 223 219 220
-9.97 -21.34 -0.58 223 219 220
-9.97 -21.42 -0.58 224 220 221
-9.97 -21.50 -0.58 223 219 220
-9.97 -21.57 -0.58 223 219 220
-9.97 -21.65 -0.58 222 218 219
-10.08 -21.67 -0.44 222 218 219
-10.08 -21.75 -0.44 220 216 217
-10.08 -21.82 -0.44 219 215 216
-10.08 -21.90 -0.44 220 216 217
-10.08 -21.98 -0.44 221 217 218
-10.08 -22.05 -0.44 221 217 218
-10.08 -22.13 -0.44 221 217 218
-10.08 -22.21 -0.44 220 216 217
-9.97 -22.34 -0.58 222 218 219
-9.97 -22.42 -0.58 224 220 221
-9.97 -22.50 -0.58 225 221 222
-10.08 -22.51 -0.44 225 221 222
-10.08 -22.59 -0.44 225 221 222
-10.08 -22.67 -0.44 225 221 222
-10.08 -22.74 -0.44 226 222 223
-10.08 -22.82 -0.44 224 220 221
-10.08 -22.90 -0.44 227 223 224
-10.08 -22.97 -0.44 227 223 224
-10.08 -23.05 -0.44 224 220 221
-10.08 -23.13 -0.44 224 220 221
-9.97 -23.27 -0.58 227 223 224
-9.97 -23.34 -0.58 227 223 224
-9.97 -23.42 -0.58 223 219 218
-9.97 -23.50 -0.58 221 220 216
-9.97 -23.57 -0.58 220 219 215
-9.97 -23.65 -0.58 252 251 249
-9.97 -23.73 -0.58 217 216 214
-9.97 -23.80 -0.58 106 104 107
-9.87 -23.93 -0.70 28 26 29
-9.87 -24.01 -0.70 75 73 78
-10.87 16.48 0.44 0 0 0
-10.87 16.40 0.44 0 0 0
-10.97 16.25 0.55 0 0 0
-10.97 16.18 0.55 0 0 0
-11.06 16.03 0.67 0 0 0
-11.06 15.95 0.67 133 132 128
-11.18 15.78 0.82 133 132 128
-11.18 15.71 0.82 132 131 127
-11.18 15.64 0.82 133 132 128
-11.18 15.56 0.82 133 132 128
-11.18 15.49 0.82 133 132 127
-11.18 15.41 0.82 134 133 128
-11.18 15.34 0.82 134 133 129
-11.18 15.27 0.82 134 133 129
-11.18 15.19 0.82 134 133 129
-11.18 15.12 0.82 135 134 130
-11.18 15.05 0.82 135 134 132
-11.18 14.97 0.82 136 134 135
-11.18 14.90 0.82 136 134 135
-11.18 14.82 0.82 137 135 138
-11.18 14.75 0.82 137 135 138
-11.18 14.68 0.82 140 136 137
-11.18 14.60 0.82 138 132 132
-11.18 14.53 0.82 140 132 130
-11.06 14.54 0.67 140 132 130
-11.06 14.47 0.67 142 133 134
-10.97 14.47 0.55 143 134 135
-10.97 14.39 0.55 142 136 136
-10.97 14.32 0.55 142 136 136
-10.97 14.24 0.55 139 133 135
-10.97 14.17 0.55 140 134 136
-10.97 14.09 0.55 141 135 137
-10.87 14.09 0.44 142 136 138
-10.87 14.01 0.44 142 138 139
-10.97 13.87 0.55 143 139 140
-10.97 13.80 0.55 143 139 140
-10.97 13.72 0.55 144 138 140
-10.97 13.65 0.55 144 138 138
-10.97 13.57 0.55 144 135 136
-10.97 13.50 0.55 144 135 136
-10.97 13.42 0.55 144 135 136
-10.97 13.35 0.55 147 137 138
-10.97 13.28 0.55 148 138 139
-10.97 13.20 0.55 148 138 139
-10.97 13.13 0.55 148 138 139
-10.97 13.05 0.55 149 137 139
-10.97 12.98 0.55 150 138 140
-10.97 12.90 0.55 151 139 141
-10.97 12.83 0.55 152 140 142
-10.97 12.75 0.55 154 139 142
-10.87 12.75 0.44 154 139 142
-10.87 12.67 0.44 155 140 143
-10.87 12.60 0.44 150 139 143
-10.87 12.52 0.44 150 139 143
-10.87 12.45 0.44 150 140 141
-10.87 12.37 0.44 151 141 142
-10.87 12.30 0.44 151 141 140
-10.87 12.22 0.44 151 141 140
-10.87 12.15 0.44 150 140 138
-10.87 12.07 0.44 150 140 138
-10.87 12.00 0.44 151 141 139
-10.87 11.92 0.44 151 141 139
-10.87 11.85 0.44 152 142 141
-10.87 11.77 0.44 152 142 141
-10.87 11.70 0.44 153 143 142
-10.87 11.63 0.44 152 142 141
-10.87 11.55 0.44 152 142 141
-10.87 11.48 0.44 152 142 143
-10.87 11.40 0.44 153 142 146
-10.87 11.33 0.44 152 141 147
-10.87 11.25 0.44 152 141 147
-10.87 11.18 0.44 151 140 146
-10.87 11.10 0.44 150 141 146
-10.87 11.03 0.44 150 140 148
-10.87 10.95 0.44 150 140 148
-10.87 10.88 0.44 151 141 149
-10.87 10.80 0.44 151 141 149
-10.87 10.73 0.44 149 142 149
-10.87 10.65 0.44 150 143 150
-10.87 10.58 0.44 150 143 150
-10.76 10.58 0.29 150 143 150
-10.76 10.50 0.29 150 143 151
-10.76 10.43 0.29 150 143 151
-10.76 10.35 0.29 150 143 151
-10.76 10.28 0.29 150 143 151
-10.76 10.20 0.29 151 144 151
-10.76 10.13 0.29 151 144 151
-10.76 10.05 0.29 151 144 151
-10.76 9.98 0.29 151 144 151
-10.76 9.90 0.29 151 145 149
-10.87 9.76 0.44 152 146 150
-10.87 9.68 0.44 152 146 150
-10.87 9.61 0.44 151 145 149
-10.87 9.53 0.44 151 145 147
-10.87 9.46 0.44 152 146 148
-10.87 9.38 0.44 154 148 150
-10.87 9.31 0.44 154 148 150
-10.76 9.30 0.29 151 145 145
-10.76 9.23 0.29 151 145 147
-10.76 9.15 0.29 151 145 147
-10.76 9.08 0.29 151 145 147
-10.76 9.00 0.29 152 146 148
-10.76 8.93 0.29 152 146 148
-10.76 8.85 0.29 152 146 148
-10.76 8.78 0.29 150 146 147
-10.76 8.70 0.29 150 146 147
-10.76 8.63 0.29 150 146 147
-10.76 8.55 0.29 151 147 148
-10.87 8.41 0.44 150 148 151
-10.87 8.34 0.44 150 148 151
-10.87 8.26 0.44 150 148 151
-10.87 8.19 0.44 149 147 150
-10.87 8.12 0.44 148 148 150
-10.87 8.04 0.44 149 149 151
-10.87 7.97 0.44 151 149 150
-10.87 7.89 0.44 151 149 150
-10.87 7.82 0.44 151 149 150
-10.87 7.74 0.44 151 149 150
-10.87 7.67 0.44 152 151 149
-10.87 7.59 0.44 152 151 149
-10.76 7.58 0.29 152 151 149
-10.76 7.50 0.29 150 149 147
-10.76 7.43 0.29 151 150 148
-10.76 7.35 0.29 152 150 151
-10.76 7.28 0.29 152 150 151
-10.76 7.20 0.29 151 149 152
-10.76 7.13 0.29 150 148 151
-10.76 7.05 0.29 150 148 153
-10.76 6.98 0.29 153 148 154
-10.76 6.90 0.29 158 153 159
-10.76 6.83 0.29 158 151 158
-10.76 6.75 0.29 157 150 157
-10.76 6.68 0.29 157 150 157
-10.76 6.60 0.29 157 150 157
-10.76 6.53 0.29 157 150 157
-10.76 6.45 0.29 157 152 156
-10.76 6.38 0.29 158 153 157
-10.76 6.30 0.29 156 151 155
-10.76 6.23 0.29 157 152 156
-10.76 6.15 0.29 158 153 157
-10.76 6.08 0.29 158 153 157
-10.76 6.00 0.29 158 153 157
-10.76 5.93 0.29 158 153 157
-10.76 5.85 0.29 157 155 158
-10.76 5.78 0.29 157 155 160
-10.76 5.70 0.29 156 153 160
-10.76 5.63 0.29 156 153 160
-10.76 5.55 0.29 155 152 159
-10.76 5.48 0.29 155 153 158
-10.76 5.40 0.29 155 153 158
-10.76 5.33 0.29 155 153 156
-10.76 5.25 0.29 155 153 156
-10.76 5.18 0.29 155 153 154
-10.76 5.10 0.29 155 153 154
-10.76 5.03 0.29 156 154 155
-10.76 4.95 0.29 157 155 156
-10.76 4.88 0.29 157 156 154
-10.76 4.80 0.29 156 155 153
-10.76 4.73 0.29 156 155 153
-10.76 4.65 0.29 155 154 152
-10.76 4.58 0.29 156 152 153
-10.76 4.50 0.29 157 153 154
-10.76 4.43 0.29 158 154 155
-10.76 4.35 0.29 159 155 156
-10.76 4.28 0.29 160 156 157
-10.76 4.20 0.29 160 156 157
-10.76 4.13 0.29 160 156 157
-10.76 4.05 0.29 159 155 156
-10.76 3.98 0.29 160 156 157
-10.76 3.90 0.29 160 155 159
-10.66 3.87 0.17 160 155 161
-10.66 3.79 0.17 161 156 163
-10.66 3.71 0.17 162 157 164
-10.66 3.64 0.17 163 157 167
-10.66 3.56 0.17 163 157 167
-10.66 3.49 0.17 164 159 165
-10.66 3.41 0.17 164 159 165
-10.66 3.34 0.17 163 158 164
-10.66 3.26 0.17 163 158 164
-10.66 3.19 0.17 161 159 164
-10.66 3.11 0.17 161 159 164
-10.66 3.04 0.17 162 160 163
-10.66 2.96 0.17 161 159 162
-10.66 2.89 0.17 160 160 162
-10.66 2.81 0.17 159 159 161
-10.66 2.74 0.17 159 159 161
-10.66 2.66 0.17 158 158 160
-10.55 2.63 0.03 157 159 158
-10.55 2.55 0.03 158 160 159
-10.66 2.44 0.17 159 161 160
-10.66 2.36 0.17 161 161 163
-10.66 2.29 0.17 160 160 162
-10.66 2.21 0.17 162 160 165
-10.66 2.14 0.17 162 160 165
-10.66 2.06 0.17 161 159 162
-10.66 1.98 0.17 160 158 161
-10.66 1.91 0.17 159 159 161
-10.66 1.83 0.17 159 159 161
-10.66 1.76 0.17 163 163 165
-10.66 1.68 0.17 162 162 164
-10.66 1.61 0.17 162 162 164
-10.66 1.53 0.17 162 162 164
-10.66 1.46 0.17 161 162 164
-10.66 1.38 0.17 161 162 164
-10.66 1.31 0.17 161 163 162
-10.66 1.23 0.17 162 162 162
-10.66 1.16 0.17 164 162 163
-10.66 1.08 0.17 165 161 162
-10.66 1.01 0.17 164 160 161
-10.66 0.93 0.17 163 159 160
-10.66 0.86 0.17 162 160 163
-10.66 0.78 0.17 163 161 164
-10.66 0.71 0.17 165 163 166
-10.66 0.63 0.17 166 164 167
-10.66 0.56 0.17 169 167 170
-10.55 0.51 0.03 166 164 167
-10.55 0.44 0.03 165 163 166
-10.55 0.36 0.03 167 165 168
-10.55 0.29 0.03 165 164 169
-10.55 0.21 0.03 164 163 168
-10.55 0.13 0.03 166 164 169
-10.55 0.06 0.03 167 165 170
-10.55 -0.02 0.03 170 165 171
-10.55 -0.09 0.03 170 165 171
-10.55 -0.17 0.03 171 166 172
-10.55 -0.24 0.03 169 166 173
-10.55 -0.32 0.03 168 165 172
-10.55 -0.39 0.03 167 164 171
-10.55 -0.47 0.03 167 164 171
-10.55 -0.55 0.03 167 164 171
-10.55 -0.62 0.03 167 164 171
-10.55 -0.70 0.03 168 165 172
-10.55 -0.77 0.03 168 165 172
-10.55 -0.85 0.03 167 166 172
-10.55 -0.92 0.03 168 167 173
-10.55 -1.00 0.03 169 168 174
-10.55 -1.07 0.03 170 169 175
-10.55 -1.15 0.03 166 167 171
-10.55 -1.23 0.03 166 167 171
-10.55 -1.30 0.03 166 167 171
-10.55 -1.38 0.03 167 168 172
-10.55 -1.45 0.03 167 168 172
-10.55 -1.53 0.03 167 168 172
-10.55 -1.60 0.03 167 168 172
-10.45 -1.66 -0.09 169 170 172
-10.55 -1.75 0.03 169 170 172
-10.55 -1.83 0.03 169 170 172
-10.55 -1.90 0.03 170 171 173
-10.55 -1.98 0.03 169 170 172
-10.55 -2.06 0.03 169 170 172
-10.55 -2.13 0.03 169 170 172
-10.55 -2.21 0.03 169 170 172
-10.55 -2.28 0.03 171 171 173
-10.55 -2.36 0.03 171 171 173
-10.55 -2.43 0.03 172 171 176
-10.55 -2.51 0.03 173 172 177
-10.55 -2.58 0.03 174 173 178
-10.55 -2.66 0.03 174 173 178
-10.55 -2.74 0.03 173 172 177
-10.55 -2.81 0.03 173 172 177
-10.55 -2.89 0.03 172 171 176
-10.45 -2.95 -0.09 173 172 177
-10.45 -3.02 -0.09 174 173 178
-10.45 -3.10 -0.09 175 174 179
-10.45 -3.18 -0.09 176 176 178
-10.45 -3.25 -0.09 177 177 179
-10.45 -3.33 -0.09 177 177 177
-10.45 -3.40 -0.09 178 178 180
-10.45 -3.48 -0.09 177 177 179
-10.45 -3.55 -0.09 177 177 179
-10.45 -3.63 -0.09 176 176 178
-10.45 -3.71 -0.09 176 176 178
-10.45 -3.78 -0.09 177 177 179
-10.45 -3.86 -0.09 178 177 182
-10.45 -3.93 -0.09 179 178 183
-10.45 -4.01 -0.09 179 178 183
-10.45 -4.08 -0.09 178 177 182
-10.45 -4.16 -0.09 178 177 182
-10.45 -4.24 -0.09 178 177 182
-10.45 -4.31 -0.09 178 177 182
-10.45 -4.39 -0.09 178 177 182
-10.45 -4.46 -0.09 178 177 183
-10.45 -4.54 -0.09 177 176 182
-10.45 -4.62 -0.09 182 182 184
-10.45 -4.69 -0.09 182 182 184
-10.45 -4.77 -0.09 183 183 185
-10.45 -4.84 -0.09 183 183 185
-10.45 -4.92 -0.09 183 183 185
-10.45 -4.99 -0.09 183 183 185
-10.45 -5.07 -0.09 183 183 185
-10.45 -5.15 -0.09 185 184 189
-10.45 -5.22 -0.09 186 185 190
-10.45 -5.30 -0.09 187 186 191
-10.45 -5.37 -0.09 188 187 192
-10.45 -5.45 -0.09 189 188 193
-10.45 -5.52 -0.09 190 189 194
-10.45 -5.60 -0.09 190 189 194
-10.45 -5.68 -0.09 190 189 194
-10.45 -5.75 -0.09 186 186 188
-10.45 -5.83 -0.09 191 191 193
-10.45 -5.90 -0.09 191 191 193
-10.45 -5.98 -0.09 190 190 192
-10.45 -6.05 -0.09 191 191 193
-10.45 -6.13 -0.09 191 191 193
-10.45 -6.21 -0.09 191 191 193
-10.45 -6.28 -0.09 197 197 199
-10.45 -6.36 -0.09 192 191 196
-10.45 -6.43 -0.09 191 190 195
-10.45 -6.51 -0.09 192 191 196
-10.45 -6.59 -0.09 195 194 199
-10.45 -6.66 -0.09 195 194 199
-10.45 -6.74 -0.09 193 192 197
-10.45 -6.81 -0.09 192 191 196
-10.45 -6.89 -0.09 194 193 198
-10.45 -6.96 -0.09 197 197 199
-10.45 -7.04 -0.09 199 199 201
-10.45 -7.12 -0.09 199 199 201
-10.45 -7.19 -0.09 199 199 201
-10.45 -7.27 -0.09 199 199 201
-10.45 -7.34 -0.09 199 199 201
-10.45 -7.42 -0.09 199 199 201
-10.45 -7.49 -0.09 199 199 201
-10.33 -7.57 -0.24 198 198 200
-10.33 -7.65 -0.24 199 199 201
-10.33 -7.72 -0.24 201 201 203
-10.33 -7.80 -0.24 202 202 204
-10.33 -7.88 -0.24 200 200 202
-10.33 -7.95 -0.24 200 200 202
-10.33 -8.03 -0.24 202 202 204
-10.33 -8.10 -0.24 199 200 204
-10.33 -8.18 -0.24 199 200 204
-10.33 -8.26 -0.24 199 200 204
-10.33 -8.33 -0.24 200 201 205
-10.45 -8.40 -0.09 202 203 207
-10.45 -8.48 -0.09 202 203 207
-10.45 -8.56 -0.09 201 202 206
-10.45 -8.63 -0.09 200 201 205
-10.45 -8.71 -0.09 206 207 211
-10.45 -8.78 -0.09 206 207 211
-10.45 -8.86 -0.09 206 207 211
-10.45 -8.93 -0.09 206 207 211
-10.45 -9.01 -0.09 206 207 211
-10.45 -9.09 -0.09 206 207 211
-10.45 -9.16 -0.09 207 208 212
-10.45 -9.24 -0.09 208 208 210
-10.45 -9.31 -0.09 208 208 210
-10.45 -9.39 -0.09 208 208 210
-10.45 -9.46 -0.09 208 208 210
-10.45 -9.54 -0.09 207 207 209
-10.45 -9.62 -0.09 207 207 209
-10.45 -9.69 -0.09 207 207 209
-10.45 -9.77 -0.09 207 207 209
-10.45 -9.84 -0.09 205 205 207
-10.45 -9.92 -0.09 206 206 208
-10.45 -9.99 -0.09 207 207 209
-10.45 -10.07 -0.09 208 208 210
-10.45 -10.15 -0.09 209 209 211
-10.45 -10.22 -0.09 209 209 211
-10.45 -10.30 -0.09 209 209 211
-10.45 -10.37 -0.09 208 208 210
-10.45 -10.45 -0.09 210 211 215
-10.45 -10.53 -0.09 210 211 215
-10.45 -10.60 -0.09 208 209 213
-10.45 -10.68 -0.09 208 209 213
-10.45 -10.75 -0.09 208 209 213
-10.45 -10.83 -0.09 209 210 214
-10.33 -10.92 -0.24 209 210 214
-10.33 -10.99 -0.24 209 210 214
-10.33 -11.07 -0.24 207 208 212
-10.33 -11.15 -0.24 208 209 213
-10.33 -11.22 -0.24 209 210 214
-10.33 -11.30 -0.24 207 208 212
-10.33 -11.37 -0.24 205 206 210
-10.33 -11.45 -0.24 206 207 211
-10.33 -11.53 -0.24 209 210 214
-10.33 -11.60 -0.24 212 212 214
-10.33 -11.68 -0.24 211 211 213
-10.33 -11.75 -0.24 211 211 213
-10.33 -11.83 -0.24 211 211 213
-10.33 -11.91 -0.24 212 212 214
-10.33 -11.98 -0.24 214 214 216
-10.33 -12.06 -0.24 214 214 216
-10.33 -12.14 -0.24 214 214 216
-10.33 -12.21 -0.24 214 214 216
-10.33 -12.29 -0.24 214 214 216
-10.33 -12.36 -0.24 214 214 216
-10.33 -12.44 -0.24 213 213 215
-10.33 -12.52 -0.24 212 212 214
-10.33 -12.59 -0.24 212 212 214
-10.33 -12.67 -0.24 212 212 214
-10.33 -12.74 -0.24 213 213 213
-10.33 -12.82 -0.24 213 213 213
-10.33 -12.90 -0.24 212 212 212
-10.33 -12.97 -0.24 210 210 210
-10.33 -13.05 -0.24 211 211 213
-10.33 -13.12 -0.24 214 214 216
-10.33 -13.20 -0.24 215 214 219
-10.33 -13.28 -0.24 215 214 219
-10.33 -13.35 -0.24 218 217 222
-10.33 -13.43 -0.24 217 216 221
-10.33 -13.50 -0.24 217 216 221
-10.33 -13.58 -0.24 218 217 222
-10.33 -13.66 -0.24 218 217 222
-10.33 -13.73 -0.24 217 216 221
-10.33 -13.81 -0.24 214 213 218
-10.33 -13.89 -0.24 212 211 216
-10.33 -13.96 -0.24 214 214 216
-10.33 -14.04 -0.24 216 216 218
-10.33 -14.11 -0.24 216 216 218
-10.33 -14.19 -0.24 214 214 216
-10.33 -14.27 -0.24 217 217 219
-10.33 -14.34 -0.24 218 218 220
-10.33 -14.42 -0.24 218 218 220
-10.33 -14.49 -0.24 219 219 221
-10.33 -14.57 -0.24 219 219 221
-10.33 -14.65 -0.24 219 219 221
-10.33 -14.72 -0.24 218 218 220
-10.33 -14.80 -0.24 218 218 220
-10.33 -14.87 -0.24 219 219 221
-10.33 -14.95 -0.24 219 219 221
-10.33 -15.03 -0.24 219 219 221
-10.33 -15.10 -0.24 217 217 219
-10.33 -15.18 -0.24 218 218 220
-10.33 -15.25 -0.24 218 218 220
-10.33 -15.33 -0.24 216 216 218
-10.33 -15.41 -0.24 216 216 218
-10.33 -15.48 -0.24 218 218 220
-10.33 -15.56 -0.24 218 218 220
-10.33 -15.63 -0.24 216 216 218
-10.33 -15.71 -0.24 217 217 219
-10.33 -15.79 -0.24 217 217 219
-10.24 -15.89 -0.36 217 217 219
-10.24 -15.97 -0.36 219 219 221
-10.33 -16.02 -0.24 220 220 222
-10.33 -16.09 -0.24 219 219 221
-10.24 -16.20 -0.36 217 217 219
-10.24 -16.27 -0.36 215 219 220
-10.33 -16.32 -0.24 215 219 220
-10.33 -16.40 -0.24 215 219 220
-10.33 -16.47 -0.24 215 219 220
-10.33 -16.55 -0.24 217 218 220
-10.33 -16.62 -0.24 216 217 219
-10.33 -16.70 -0.24 216 217 219
-10.33 -16.78 -0.24 215 216 218
-10.33 -16.85 -0.24 217 217 219
-10.33 -16.93 -0.24 217 217 219
-10.33 -17.00 -0.24 218 218 220
-10.33 -17.08 -0.24 219 219 221
-10.24 -17.19 -0.36 220 218 221
-10.24 -17.26 -0.36 221 219 222
-10.24 -17.34 -0.36 221 219 222
-10.24 -17.42 -0.36 221 219 222
-10.24 -17.49 -0.36 215 214 219
-10.12 -17.61 -0.50 217 216 221
-10.12 -17.69 -0.50 219 217 222
-10.12 -17.76 -0.50 219 217 222
-10.12 -17.84 -0.50 220 215 221
-10.12 -17.92 -0.50 220 215 221
-10.24 -17.95 -0.36 222 215 222
-10.24 -18.03 -0.36 222 215 222
-10.24 -18.10 -0.36 221 214 221
-10.24 -18.18 -0.36 219 212 219
-10.24 -18.26 -0.36 217 210 217
-10.24 -18.33 -0.36 215 210 216
-10.24 -18.41 -0.36 215 210 216
-10.24 -18.48 -0.36 216 211 217
-10.24 -18.56 -0.36 216 211 217
-10.12 -18.68 -0.50 213 211 216
-10.12 -18.76 -0.50 214 212 217
-10.12 -18.84 -0.50 215 213 218
-10.12 -18.91 -0.50 215 213 218
-10.12 -18.99 -0.50 215 214 219
-10.12 -19.07 -0.50 215 214 219
-10.24 -19.10 -0.36 215 215 217
-10.24 -19.17 -0.36 215 215 217
-10.24 -19.25 -0.36 214 214 216
-10.24 -19.32 -0.36 215 215 217
-10.24 -19.40 -0.36 217 215 218
-10.24 -19.48 -0.36 216 214 217
-10.12 -19.60 -0.50 217 213 214
-10.12 -19.68 -0.50 217 213 214
-10.12 -19.75 -0.50 220 214 216
-10.12 -19.83 -0.50 219 215 214
-10.12 -19.91 -0.50 218 214 213
-10.12 -19.98 -0.50 217 213 214
-10.12 -20.06 -0.50 217 213 214
-10.12 -20.14 -0.50 219 214 218
-10.12 -20.21 -0.50 219 214 218
-10.12 -20.29 -0.50 218 213 219
-10.12 -20.37 -0.50 217 212 218
-10.12 -20.44 -0.50 219 214 220
-10.12 -20.52 -0.50 219 214 220
-10.12 -20.60 -0.50 219 214 218
-10.12 -20.67 -0.50 219 214 218
-10.12 -20.75 -0.50 219 215 216
-10.12 -20.83 -0.50 219 215 216
-10.12 -20.90 -0.50 219 215 214
-10.12 -20.98 -0.50 220 216 217
-10.01 -21.11 -0.65 221 217 218
-10.01 -21.19 -0.65 220 215 219
-10.01 -21.27 -0.65 220 215 219
-10.01 -21.34 -0.65 222 217 221
-10.01 -21.42 -0.65 223 219 220
-10.12 -21.44 -0.50 223 219 220
-10.12 -21.52 -0.50 221 217 218
-10.12 -21.59 -0.50 220 216 217
-10.12 -21.67 -0.50 219 215 216
-10.24 -21.69 -0.36 220 216 215
-10.24 -21.77 -0.36 222 218 217
-10.24 -21.84 -0.36 223 219 218
-10.24 -21.92 -0.36 223 219 218
-10.24 -22.00 -0.36 223 219 218
-10.24 -22.07 -0.36 223 219 218
-10.12 -22.21 -0.50 221 217 218
-10.12 -22.28 -0.50 220 216 217
-10.12 -22.36 -0.50 220 216 217
-10.12 -22.44 -0.50 221 217 218
-10.12 -22.51 -0.50 223 219 220
-10.12 -22.59 -0.50 225 221 222
-10.24 -22.61 -0.36 226 222 221
-10.24 -22.68 -0.36 225 221 220
-10.24 -22.76 -0.36 223 219 218
-10.24 -22.83 -0.36 224 220 219
-10.24 -22.91 -0.36 224 220 219
-10.24 -22.99 -0.36 223 219 218
-10.24 -23.06 -0.36 223 219 218
-10.24 -23.14 -0.36 224 220 219
-10.24 -23.22 -0.36 225 221 220
-10.24 -23.29 -0.36 224 220 221
-10.12 -23.43 -0.50 218 216 217
-10.12 -23.51 -0.50 221 217 218
-10.12 -23.59 -0.50 248 242 244
-10.12 -23.66 -0.50 226 220 220
-10.01 -23.80 -0.65 139 130 131
-10.01 -23.88 -0.65 35 24 28
-9.91 -24.01 -0.77 77 66 72
-11.10 16.32 0.61 0 0 0
-11.01 16.33 0.49 0 0 0
-11.01 16.25 0.49 0 0 0
-11.10 16.10 0.61 0 0 0
-11.10 16.03 0.61 0 0 0
-11.22 15.86 0.75 137 133 130
-11.22 15.78 0.75 137 133 130
-11.22 15.71 0.75 137 133 130
-11.22 15.64 0.75 136 132 129
-11.22 15.56 0.75 136 132 129
-11.22 15.49 0.75 136 132 129
-11.22 15.41 0.75 135 131 128
-11.22 15.34 0.75 136 132 129
-11.22 15.27 0.75 136 132 129
-11.22 15.19 0.75 133 129 126
-11.22 15.12 0.75 133 129 126
-11.22 15.05 0.75 134 130 129
-11.22 14.97 0.75 135 131 130
-11.22 14.90 0.75 136 132 133
-11.22 14.82 0.75 137 133 134
-11.22 14.75 0.75 137 132 136
-11.22 14.68 0.75 139 133 135
-11.22 14.60 0.75 139 133 133
-11.22 14.53 0.75 141 133 131
-11.22 14.45 0.75 141 133 131
-11.10 14.47 0.61 142 133 134
-11.10 14.40 0.61 142 133 134
-11.10 14.32 0.61 140 134 134
-11.10 14.25 0.61 141 135 135
-11.01 14.24 0.49 140 134 134
-11.01 14.17 0.49 140 134 134
-11.01 14.09 0.49 141 135 137
-11.01 14.02 0.49 142 136 138
-11.01 13.95 0.49 143 137 139
-11.01 13.87 0.49 143 137 139
-11.10 13.73 0.61 142 138 139
-11.10 13.65 0.61 143 137 139
-11.10 13.58 0.61 142 136 136
-11.10 13.50 0.61 143 134 135
-11.10 13.43 0.61 142 133 134
-11.10 13.36 0.61 143 134 135
-11.10 13.28 0.61 144 135 136
-11.10 13.21 0.61 146 137 138
-11.10 13.13 0.61 147 137 138
-11.10 13.06 0.61 147 137 138
-11.10 12.99 0.61 148 136 138
-11.10 12.91 0.61 148 136 138
-11.10 12.84 0.61 150 138 140
-11.01 12.83 0.49 150 138 140
-11.01 12.75 0.49 152 137 140
-11.01 12.68 0.49 153 138 141
-11.01 12.61 0.49 153 138 141
-11.01 12.53 0.49 151 140 144
-11.01 12.46 0.49 151 140 144
-11.01 12.38 0.49 151 140 144
-11.01 12.31 0.49 151 140 144
-11.01 12.23 0.49 150 140 141
-11.01 12.16 0.49 150 140 141
-11.01 12.08 0.49 149 139 138
-11.01 12.01 0.49 149 139 138
-11.01 11.94 0.49 150 140 139
-11.01 11.86 0.49 150 140 139
-11.01 11.79 0.49 150 140 139
-11.01 11.71 0.49 149 139 138
-11.01 11.64 0.49 150 140 139
-11.01 11.56 0.49 150 140 139
-11.01 11.49 0.49 151 141 140
-10.91 11.48 0.37 151 141 142
-10.91 11.40 0.37 149 140 143
-10.91 11.33 0.37 149 140 145
-10.91 11.25 0.37 150 141 146
-10.91 11.18 0.37 150 141 146
-10.91 11.10 0.37 150 141 146
-10.91 11.03 0.37 151 142 147
-10.91 10.95 0.37 152 143 148
-10.91 10.88 0.37 150 144 148
-10.91 10.80 0.37 150 144 148
-10.91 10.73 0.37 150 143 150
-10.91 10.65 0.37 150 143 150
-10.91 10.58 0.37 151 144 151
-10.91 10.50 0.37 151 144 151
-10.91 10.43 0.37 152 145 152
-10.91 10.36 0.37 152 145 152
-10.91 10.28 0.37 150 143 151
-10.91 10.21 0.37 150 143 151
-10.91 10.13 0.37 150 143 150
-10.91 10.06 0.37 151 144 151
-10.91 9.98 0.37 151 144 151
-10.91 9.91 0.37 151 144 151
-10.91 9.83 0.37 151 145 149
-10.91 9.76 0.37 151 145 149
-10.91 9.68 0.37 149 143 147
-10.91 9.61 0.37 150 144 148
-10.91 9.53 0.37 151 145 147
-10.91 9.46 0.37 152 146 148
-10.91 9.38 0.37 152 146 148
-10.91 9.31 0.37 152 146 148
-10.91 9.24 0.37 152 146 148
-10.91 9.16 0.37 151 145 147
-10.91 9.09 0.37 151 145 147
-10.91 9.01 0.37 152 146 148
-10.91 8.94 0.37 153 147 149
-10.91 8.86 0.37 153 147 149
-10.91 8.79 0.37 154 148 150
-10.91 8.71 0.37 153 149 150
-10.91 8.64 0.37 153 149 150
-10.91 8.56 0.37 152 147 151
-10.91 8.49 0.37 152 147 151
-10.91 8.41 0.37 151 149 152
-10.91 8.34 0.37 151 149 152
-10.91 8.26 0.37 150 148 151
-10.91 8.19 0.37 149 147 150
-10.91 8.12 0.37 148 146 149
-10.91 8.04 0.37 148 146 149
-10.91 7.97 0.37 152 148 149
-10.91 7.89 0.37 152 148 149
-10.91 7.82 0.37 151 147 148
-10.91 7.74 0.37 151 147 148
-10.91 7.67 0.37 152 148 147
-10.91 7.59 0.37 153 149 148
-10.91 7.52 0.37 154 150 149
-10.91 7.44 0.37 153 149 148
-10.91 7.37 0.37 154 150 149
-10.91 7.29 0.37 155 151 152
-10.91 7.22 0.37 154 150 151
-10.79 7.20 0.22 153 148 152
-10.79 7.13 0.22 153 148 152
-10.79 7.05 0.22 154 149 155
-10.79 6.98 0.22 155 150 156
-10.79 6.90 0.22 158 151 158
-10.79 6.83 0.22 157 150 157
-10.79 6.75 0.22 157 151 155
-10.79 6.68 0.22 156 150 154
-10.79 6.60 0.22 156 150 154
-10.79 6.53 0.22 157 151 155
-10.79 6.45 0.22 156 151 155
-10.91 6.32 0.37 157 152 156
-10.91 6.25 0.37 155 150 154
-10.91 6.17 0.37 157 152 156
-10.91 6.10 0.37 158 153 157
-10.79 6.08 0.22 159 154 158
-10.79 6.00 0.22 159 154 158
-10.79 5.93 0.22 158 153 157
-10.79 5.85 0.22 156 154 157
-10.79 5.78 0.22 157 155 158
-10.79 5.70 0.22 157 155 160
-10.79 5.63 0.22 156 154 159
-10.79 5.55 0.22 156 154 159
-10.79 5.48 0.22 156 154 159
-10.79 5.40 0.22 156 154 159
-10.79 5.33 0.22 156 154 157
-10.79 5.25 0.22 156 154 157
-10.79 5.18 0.22 155 153 156
-10.79 5.10 0.22 155 153 156
-10.79 5.03 0.22 156 154 155
-10.79 4.95 0.22 156 154 155
-10.79 4.88 0.22 156 154 155
-10.79 4.80 0.22 156 154 155
-10.91 4.68 0.37 156 154 155
-10.79 4.65 0.22 156 154 155
-10.79 4.58 0.22 159 154 158
-10.79 4.50 0.22 159 154 158
-10.79 4.43 0.22 160 155 159
-10.79 4.35 0.22 161 156 160
-10.79 4.28 0.22 162 158 159
-10.79 4.20 0.22 162 158 159
-10.79 4.13 0.22 162 158 159
-10.79 4.05 0.22 162 158 159
-10.79 3.98 0.22 161 157 158
-10.79 3.90 0.22 160 155 159
-10.79 3.83 0.22 160 155 161
-10.79 3.75 0.22 161 156 162
-10.79 3.68 0.22 162 157 164
-10.79 3.60 0.22 162 157 164
-10.79 3.53 0.22 162 157 164
-10.79 3.45 0.22 162 157 163
-10.79 3.38 0.22 161 156 162
-10.79 3.30 0.22 160 155 161
-10.79 3.23 0.22 161 156 162
-10.79 3.15 0.22 161 159 164
-10.79 3.08 0.22 161 159 164
-10.79 3.00 0.22 159 157 160
-10.70 2.96 0.11 158 156 159
-10.70 2.89 0.11 159 159 161
-10.70 2.81 0.11 159 159 161
-10.70 2.74 0.11 159 159 161
-10.70 2.66 0.11 159 159 161
-10.70 2.59 0.11 159 161 160
-10.70 2.51 0.11 160 162 161
-10.70 2.44 0.11 161 163 162
-10.79 2.33 0.22 162 162 164
-10.79 2.25 0.22 160 160 162
-10.79 2.18 0.22 162 160 165
-10.79 2.10 0.22 163 161 166
-10.79 2.03 0.22 162 160 165
-10.70 1.98 0.11 161 159 164
-10.70 1.91 0.11 161 159 162
-10.70 1.83 0.11 162 160 163
-10.70 1.76 0.11 162 162 164
-10.70 1.68 0.11 162 162 164
-10.70 1.61 0.11 161 161 163
-10.70 1.53 0.11 161 161 163
-10.70 1.46 0.11 160 160 162
-10.70 1.38 0.11 160 160 162
-10.70 1.31 0.11 159 159 159
-10.79 1.20 0.22 160 158 159
-10.79 1.13 0.22 163 161 162
-10.79 1.05 0.22 166 162 163
-10.79 0.98 0.22 167 162 166
-10.79 0.90 0.22 167 162 166
-10.79 0.83 0.22 166 164 167
-10.79 0.75 0.22 165 163 166
-10.79 0.68 0.22 165 163 166
-10.79 0.60 0.22 164 162 165
-10.79 0.53 0.22 166 164 167
-10.70 0.48 0.11 164 162 165
-10.70 0.41 0.11 163 161 166
-10.70 0.33 0.11 166 164 169
-10.70 0.25 0.11 166 165 170
-10.70 0.18 0.11 166 165 170
-10.70 0.10 0.11 167 165 170
-10.70 0.03 0.11 167 165 170
-10.70 -0.05 0.11 169 164 170
-10.70 -0.12 0.11 170 165 171
-10.70 -0.20 0.11 170 165 171
-10.70 -0.27 0.11 168 166 171
-10.70 -0.35 0.11 168 166 171
-10.70 -0.42 0.11 167 165 170
-10.70 -0.50 0.11 167 165 170
-10.70 -0.57 0.11 167 164 171
-10.70 -0.65 0.11 168 165 172
-10.70 -0.72 0.11 168 165 172
-10.70 -0.80 0.11 168 165 172
-10.70 -0.87 0.11 166 165 173
-10.70 -0.95 0.11 166 165 173
-10.70 -1.02 0.11 166 165 173
-10.70 -1.10 0.11 166 165 171
-10.70 -1.17 0.11 167 168 172
-10.70 -1.25 0.11 167 168 170
-10.70 -1.33 0.11 168 169 171
-10.70 -1.40 0.11 168 169 171
-10.70 -1.48 0.11 169 170 174
-10.70 -1.55 0.11 169 170 174
-10.70 -1.63 0.11 169 170 174
-10.70 -1.70 0.11 167 168 172
-10.70 -1.78 0.11 167 168 172
-10.70 -1.85 0.11 168 169 173
-10.70 -1.93 0.11 169 170 174
-10.70 -2.00 0.11 170 171 175
-10.70 -2.08 0.11 170 171 175
-10.70 -2.15 0.11 171 172 176
-10.70 -2.23 0.11 171 172 176
-10.70 -2.30 0.11 173 173 175
-10.70 -2.38 0.11 173 173 175
-10.70 -2.45 0.11 174 174 176
-10.70 -2.53 0.11 173 173 175
-10.70 -2.60 0.11 173 172 177
-10.58 -2.66 -0.04 173 172 177
-10.58 -2.74 -0.04 172 171 177
-10.58 -2.81 -0.04 171 170 176
-10.58 -2.89 -0.04 172 171 176
-10.58 -2.96 -0.04 173 172 177
-10.58 -3.04 -0.04 174 173 178
-10.58 -3.11 -0.04 175 174 179
-10.58 -3.19 -0.04 176 176 178
-10.58 -3.26 -0.04 176 176 178
-10.58 -3.34 -0.04 176 176 178
-10.58 -3.42 -0.04 176 176 178
-10.58 -3.49 -0.04 176 176 178
-10.58 -3.57 -0.04 176 176 178
-10.58 -3.64 -0.04 177 177 179
-10.58 -3.72 -0.04 177 176 181
-10.58 -3.79 -0.04 178 177 182
-10.58 -3.87 -0.04 178 177 182
-10.58 -3.94 -0.04 178 177 182
-10.58 -4.02 -0.04 178 177 182
-10.58 -4.10 -0.04 178 177 182
-10.58 -4.17 -0.04 178 177 182
-10.58 -4.25 -0.04 179 178 183
-10.58 -4.32 -0.04 179 178 184
-10.58 -4.40 -0.04 180 179 185
-10.58 -4.47 -0.04 180 179 185
-10.58 -4.55 -0.04 180 179 185
-10.58 -4.62 -0.04 180 180 182
-10.58 -4.70 -0.04 180 180 182
-10.58 -4.78 -0.04 180 180 182
-10.58 -4.85 -0.04 180 180 182
-10.58 -4.93 -0.04 181 181 183
-10.58 -5.00 -0.04 182 182 184
-10.58 -5.08 -0.04 183 182 187
-10.58 -5.15 -0.04 182 181 186
-10.58 -5.23 -0.04 182 181 186
-10.58 -5.30 -0.04 183 182 187
-10.58 -5.38 -0.04 185 184 189
-10.58 -5.45 -0.04 185 184 189
-10.58 -5.53 -0.04 186 185 190
-10.58 -5.61 -0.04 186 185 191
-10.58 -5.68 -0.04 186 185 191
-10.58 -5.76 -0.04 188 188 190
-10.58 -5.83 -0.04 192 192 194
-10.58 -5.91 -0.04 192 192 194
-10.58 -5.98 -0.04 190 190 192
-10.58 -6.06 -0.04 192 192 194
-10.58 -6.13 -0.04 192 192 194
-10.58 -6.21 -0.04 192 191 196
-10.58 -6.29 -0.04 196 195 200
-10.58 -6.36 -0.04 193 192 197
-10.58 -6.44 -0.04 192 191 196
-10.58 -6.51 -0.04 193 192 197
-10.58 -6.59 -0.04 195 194 199
-10.58 -6.66 -0.04 196 195 200
-10.58 -6.74 -0.04 195 194 199
-10.58 -6.81 -0.04 196 195 200
-10.58 -6.89 -0.04 197 196 201
-10.58 -6.97 -0.04 195 195 197
-10.58 -7.04 -0.04 196 196 198
-10.58 -7.12 -0.04 197 197 199
-10.58 -7.19 -0.04 196 196 198
-10.58 -7.27 -0.04 195 195 197
-10.49 -7.34 -0.16 195 195 197
-10.49 -7.42 -0.16 196 196 198
-10.49 -7.49 -0.16 200 200 202
-10.49 -7.57 -0.16 199 199 201
-10.49 -7.65 -0.16 200 200 202
-10.49 -7.72 -0.16 202 202 204
-10.49 -7.80 -0.16 202 202 204
-10.49 -7.87 -0.16 201 201 203
-10.49 -7.95 -0.16 200 200 202
-10.49 -8.02 -0.16 201 201 203
-10.49 -8.10 -0.16 199 200 204
-10.49 -8.18 -0.16 199 200 204
-10.49 -8.25 -0.16 199 200 204
-10.49 -8.33 -0.16 200 201 205
-10.49 -8.40 -0.16 202 203 207
-10.49 -8.48 -0.16 202 203 207
-10.49 -8.56 -0.16 201 202 206
-10.49 -8.63 -0.16 200 201 205
-10.49 -8.71 -0.16 203 204 208
-10.49 -8.78 -0.16 203 204 208
-10.49 -8.86 -0.16 203 204 208
-10.49 -8.93 -0.16 203 204 208
-10.49 -9.01 -0.16 203 204 208
-10.49 -9.09 -0.16 204 205 209
-10.49 -9.16 -0.16 204 205 209
-10.49 -9.24 -0.16 207 207 209
-10.49 -9.31 -0.16 207 207 209
-10.49 -9.39 -0.16 208 208 210
-10.49 -9.46 -0.16 208 208 210
-10.58 -9.53 -0.04 209 209 211
-10.58 -9.61 -0.04 209 209 211
-10.58 -9.68 -0.04 210 210 212
-10.58 -9.76 -0.04 210 210 212
-10.49 -9.84 -0.16 212 212 214
-10.49 -9.92 -0.16 212 212 214
-10.49 -9.99 -0.16 211 211 213
-10.49 -10.07 -0.16 210 210 212
-10.49 -10.15 -0.16 209 209 211
-10.49 -10.22 -0.16 207 207 209
-10.49 -10.30 -0.16 205 205 207
-10.49 -10.37 -0.16 204 204 206
-10.49 -10.45 -0.16 207 208 212
-10.49 -10.53 -0.16 207 208 212
-10.49 -10.60 -0.16 207 208 212
-10.49 -10.68 -0.16 207 208 212
-10.49 -10.75 -0.16 207 208 212
-10.49 -10.83 -0.16 208 209 213
-10.49 -10.90 -0.16 208 209 213
-10.49 -10.98 -0.16 206 207 211
-10.37 -11.07 -0.30 205 206 210
-10.49 -11.13 -0.16 205 206 210
-10.49 -11.21 -0.16 206 207 211
-10.49 -11.28 -0.16 205 206 210
-10.49 -11.36 -0.16 203 204 208
-10.37 -11.45 -0.30 204 205 209
-10.37 -11.53 -0.30 206 207 211
-10.37 -11.60 -0.30 208 208 210
-10.37 -11.68 -0.30 207 207 209
-10.37 -11.75 -0.30 207 207 209
-10.37 -11.83 -0.30 207 207 209
-10.37 -11.91 -0.30 209 209 211
-10.37 -11.98 -0.30 210 210 212
-10.37 -12.06 -0.30 211 211 213
-10.37 -12.14 -0.30 211 211 213
-10.49 -12.19 -0.16 211 211 213
-10.49 -12.27 -0.16 212 212 214
-10.49 -12.34 -0.16 213 213 215
-10.49 -12.42 -0.16 213 213 215
-10.49 -12.50 -0.16 212 212 214
-10.49 -12.57 -0.16 211 211 213
-10.37 -12.67 -0.30 210 210 212
-10.37 -12.74 -0.30 211 211 211
-10.37 -12.82 -0.30 212 212 212
-10.37 -12.90 -0.30 213 213 213
-10.37 -12.97 -0.30 212 212 212
-10.37 -13.05 -0.30 213 213 215
-10.37 -13.12 -0.30 216 216 218
-10.37 -13.20 -0.30 217 216 221
-10.37 -13.28 -0.30 217 216 221
-10.37 -13.35 -0.30 215 214 219
-10.37 -13.43 -0.30 214 213 218
-10.37 -13.50 -0.30 214 213 218
-10.37 -13.58 -0.30 214 213 218
-10.37 -13.66 -0.30 214 213 218
-10.37 -13.73 -0.30 213 212 217
-10.37 -13.81 -0.30 211 210 215
-10.37 -13.89 -0.30 210 209 214
-10.37 -13.96 -0.30 213 213 215
-10.37 -14.04 -0.30 216 216 218
-10.37 -14.11 -0.30 216 216 218
-10.37 -14.19 -0.30 215 215 217
-10.37 -14.27 -0.30 217 217 219
-10.37 -14.34 -0.30 217 217 219
-10.37 -14.42 -0.30 217 217 219
-10.37 -14.49 -0.30 217 217 219
-10.37 -14.57 -0.30 217 217 219
-10.37 -14.65 -0.30 218 218 220
-10.37 -14.72 -0.30 218 218 220
-10.37 -14.80 -0.30 218 218 220
-10.37 -14.87 -0.30 218 218 220
-10.37 -14.95 -0.30 217 217 219
-10.37 -15.03 -0.30 217 217 219
-10.37 -15.10 -0.30 219 219 221
-10.37 -15.18 -0.30 220 220 222
-10.37 -15.25 -0.30 220 220 222
-10.37 -15.33 -0.30 218 218 220
-10.37 -15.41 -0.30 219 219 221
-10.37 -15.48 -0.30 221 221 223
-10.37 -15.56 -0.30 221 221 223
-10.37 -15.63 -0.30 219 219 221
-10.37 -15.71 -0.30 219 219 221
-10.37 -15.79 -0.30 219 219 221
-10.37 -15.86 -0.30 219 219 221
-10.37 -15.94 -0.30 220 220 222
-10.37 -16.02 -0.30 221 221 223
-10.37 -16.09 -0.30 220 220 222
-10.37 -16.17 -0.30 218 218 220
-10.37 -16.24 -0.30 217 221 222
-10.37 -16.32 -0.30 217 221 222
-10.37 -16.40 -0.30 217 221 222
-10.37 -16.47 -0.30 217 221 222
-10.37 -16.55 -0.30 218 219 221
-10.37 -16.62 -0.30 217 218 220
-10.37 -16.70 -0.30 216 217 219
-10.37 -16.78 -0.30 216 217 219
-10.37 -16.85 -0.30 217 217 219
-10.37 -16.93 -0.30 217 217 219
-10.37 -17.00 -0.30 217 217 219
-10.37 -17.08 -0.30 218 218 220
-10.37 -17.16 -0.30 219 217 220
-10.37 -17.23 -0.30 219 217 220
-10.37 -17.31 -0.30 219 217 220
-10.28 -17.42 -0.42 219 217 220
-10.28 -17.49 -0.42 214 215 219
-10.28 -17.57 -0.42 215 216 220
-10.28 -17.65 -0.42 218 217 222
-10.28 -17.72 -0.42 218 217 222
-10.28 -17.80 -0.42 219 217 222
-10.28 -17.87 -0.42 219 217 222
-10.28 -17.95 -0.42 222 217 223
-10.28 -18.03 -0.42 222 215 222
-10.37 -18.07 -0.30 222 215 222
-10.37 -18.15 -0.30 221 214 221
-10.37 -18.22 -0.30 220 213 220
-10.37 -18.30 -0.30 219 214 220
-10.37 -18.37 -0.30 218 213 219
-10.37 -18.45 -0.30 218 213 219
-10.37 -18.53 -0.30 217 212 218
-10.28 -18.64 -0.42 215 213 218
-10.28 -18.71 -0.42 215 213 218
-10.28 -18.79 -0.42 216 214 219
-10.28 -18.87 -0.42 216 214 219
-10.28 -18.94 -0.42 215 214 219
-10.28 -19.02 -0.42 214 213 218
-10.28 -19.10 -0.42 214 214 216
-10.28 -19.17 -0.42 214 214 216
-10.28 -19.25 -0.42 213 213 215
-10.28 -19.32 -0.42 214 214 216
-10.28 -19.40 -0.42 217 215 218
-10.28 -19.48 -0.42 216 214 217
-10.28 -19.55 -0.42 216 212 213
-10.28 -19.63 -0.42 215 211 212
-10.28 -19.71 -0.42 216 210 212
-10.28 -19.78 -0.42 218 214 215
-10.28 -19.86 -0.42 218 214 215
-10.28 -19.93 -0.42 217 213 214
-10.28 -20.01 -0.42 218 214 215
-10.28 -20.09 -0.42 218 213 217
-10.28 -20.16 -0.42 219 214 218
-10.28 -20.24 -0.42 218 213 219
-10.28 -20.32 -0.42 218 213 219
-10.28 -20.39 -0.42 218 213 219
-10.28 -20.47 -0.42 218 213 219
-10.28 -20.55 -0.42 218 213 217
-10.28 -20.62 -0.42 218 213 217
-10.28 -20.70 -0.42 218 214 215
-10.16 -20.83 -0.57 218 214 215
-10.16 -20.90 -0.57 218 214 215
-10.16 -20.98 -0.57 219 215 216
-10.16 -21.06 -0.57 217 212 216
-10.16 -21.13 -0.57 218 213 217
-10.16 -21.21 -0.57 219 214 218
-10.16 -21.29 -0.57 220 215 219
-10.16 -21.36 -0.57 220 215 219
-10.16 -21.44 -0.57 220 215 219
-10.28 -21.46 -0.42 219 214 218
-10.28 -21.54 -0.42 219 214 218
-10.28 -21.61 -0.42 219 215 216
-10.28 -21.69 -0.42 220 216 217
-10.28 -21.77 -0.42 221 217 218
-10.28 -21.84 -0.42 221 217 218
-10.28 -21.92 -0.42 221 217 218
-10.28 -22.00 -0.42 221 217 218
-10.28 -22.07 -0.42 220 216 217
-10.28 -22.15 -0.42 223 219 218
-10.16 -22.28 -0.57 222 218 217
-10.16 -22.36 -0.57 222 218 217
-10.16 -22.44 -0.57 223 219 218
-10.28 -22.45 -0.42 225 221 220
-10.28 -22.53 -0.42 227 223 222
-10.28 -22.61 -0.42 227 223 222
-10.37 -22.63 -0.30 227 223 222
-10.37 -22.71 -0.30 225 221 220
-10.37 -22.79 -0.30 226 222 221
-10.37 -22.86 -0.30 225 221 222
-10.37 -22.94 -0.30 224 220 221
-10.37 -23.01 -0.30 224 220 221
-10.37 -23.09 -0.30 226 222 223
-10.37 -23.17 -0.30 227 223 224
-10.37 -23.24 -0.30 225 221 222
-10.28 -23.37 -0.42 226 224 227
-10.28 -23.45 -0.42 220 216 217
-10.28 -23.52 -0.42 236 230 232
-10.28 -23.60 -0.42 237 231 231
-10.16 -23.74 -0.57 159 150 151
-11.14 16.32 0.54 0 0 0
-11.14 16.25 0.54 0 0 0
-11.14 16.18 0.54 0 0 0
-11.25 16.01 0.69 0 0 0
-11.25 15.93 0.69 0 0 0
-11.25 15.86 0.69 137 133 132
-11.25 15.78 0.69 137 133 132
-11.25 15.71 0.69 137 133 132
-11.25 15.64 0.69 136 132 131
-11.25 15.56 0.69 136 132 131
-11.25 15.49 0.69 135 131 128
-11.25 15.41 0.69 135 131 128
-11.25 15.34 0.69 135 131 128
-11.25 15.27 0.69 135 131 128
-11.35 15.12 0.81 134 130 127
-11.35 15.05 0.81 134 130 127
-11.35 14.97 0.81 135 131 130
-11.25 14.97 0.69 136 132 131
-11.25 14.90 0.69 136 132 131
-11.25 14.82 0.69 137 133 132
-11.35 14.68 0.81 137 133 134
-11.35 14.60 0.81 138 132 134
-11.35 14.53 0.81 139 133 133
-11.25 14.53 0.69 141 132 133
-11.25 14.45 0.69 141 132 133
-11.25 14.38 0.69 142 133 134
-11.14 14.40 0.54 142 133 134
-11.14 14.32 0.54 140 134 134
-11.14 14.25 0.54 140 134 134
-11.14 14.17 0.54 141 135 135
-11.14 14.10 0.54 141 135 135
-11.14 14.02 0.54 141 135 135
-11.14 13.95 0.54 141 135 135
-11.14 13.88 0.54 142 136 138
-11.14 13.80 0.54 142 136 138
-11.14 13.73 0.54 143 137 139
-11.25 13.57 0.69 143 137 139
-11.25 13.49 0.69 144 135 136
-11.25 13.42 0.69 143 134 135
-11.25 13.35 0.69 142 133 134
-11.25 13.27 0.69 143 134 135
-11.25 13.20 0.69 144 135 136
-11.25 13.12 0.69 145 136 137
-11.25 13.05 0.69 146 136 137
-11.14 13.06 0.54 146 136 137
-11.14 12.99 0.54 147 137 138
-11.14 12.91 0.54 147 137 138
-11.14 12.84 0.54 149 137 139
-11.14 12.76 0.54 149 137 139
-11.14 12.69 0.54 149 137 139
-11.14 12.61 0.54 150 138 140
-11.14 12.54 0.54 151 139 143
-11.14 12.47 0.54 151 140 146
-11.14 12.39 0.54 151 140 148
-11.14 12.32 0.54 151 140 146
-11.14 12.24 0.54 151 140 146
-11.14 12.17 0.54 150 139 143
-11.14 12.10 0.54 150 139 143
-11.14 12.02 0.54 149 139 140
-11.14 11.95 0.54 149 139 140
-11.14 11.87 0.54 150 140 139
-11.14 11.80 0.54 149 139 138
-11.14 11.72 0.54 148 138 137
-11.14 11.65 0.54 148 138 137
-11.14 11.58 0.54 148 138 137
-11.14 11.50 0.54 149 139 138
-11.14 11.43 0.54 150 140 139
-11.04 11.41 0.42 151 141 142
-11.04 11.34 0.42 146 140 140
-11.04 11.27 0.42 147 141 143
-11.04 11.19 0.42 147 141 143
-11.04 11.12 0.42 148 142 144
-11.04 11.04 0.42 148 142 144
-11.04 10.97 0.42 149 143 147
-11.04 10.89 0.42 150 144 148
-11.04 10.82 0.42 150 144 148
-11.04 10.74 0.42 150 144 148
-11.04 10.67 0.42 150 144 148
-10.95 10.65 0.31 150 144 148
-10.95 10.58 0.31 150 145 149
-10.95 10.50 0.31 151 146 150
-10.95 10.43 0.31 152 147 151
-10.95 10.36 0.31 152 147 151
-10.95 10.28 0.31 150 143 150
-11.04 10.15 0.42 150 143 150
-11.04 10.07 0.42 150 143 150
-11.04 10.00 0.42 150 143 150
-11.04 9.93 0.42 151 144 151
-11.04 9.85 0.42 151 144 151
-11.04 9.78 0.42 151 145 149
-11.04 9.70 0.42 151 145 149
-11.04 9.63 0.42 149 143 147
-11.04 9.55 0.42 151 145 149
-11.04 9.48 0.42 152 146 148
-11.04 9.40 0.42 152 146 148
-11.04 9.33 0.42 151 145 147
-11.04 9.26 0.42 150 144 146
-10.95 9.24 0.31 152 146 148
