ply
format ascii 1.0
element vertex 1757
property float x
property float y
property float z
property uchar red
property uchar green
property uchar blue
end_header
14.48 -3.80 3.68 0 20 22
14.48 -3.91 3.68 8 32 34
14.48 -4.02 3.68 18 42 44
14.48 -4.13 3.68 24 45 48
14.48 -4.24 3.68 31 52 55
14.48 -4.35 3.68 37 58 59
14.21 -4.48 3.84 41 62 63
14.21 -4.59 3.84 41 61 62
14.21 -4.70 3.84 36 56 57
14.21 -4.80 3.84 29 49 48
14.21 -4.91 3.84 23 41 41
14.48 -5.01 3.68 21 40 38
14.48 -5.12 3.68 32 48 47
14.48 -5.23 3.68 39 55 55
14.48 -5.34 3.68 39 55 55
14.48 -5.89 3.68 31 45 48
14.48 -6.00 3.68 32 46 49
14.21 -6.34 3.84 33 43 42
14.21 -6.45 3.84 26 36 35
14.42 22.90 3.58 43 82 125
14.42 22.79 3.58 39 82 125
14.42 22.68 3.58 39 82 125
14.42 22.57 3.58 39 83 128
14.42 22.46 3.58 42 86 133
14.42 22.35 3.58 42 85 136
14.42 22.24 3.58 40 86 138
14.42 22.13 3.58 41 87 139
14.42 22.02 3.58 39 85 134
14.42 21.91 3.58 40 87 133
14.72 21.96 3.40 42 89 135
14.72 21.85 3.40 43 90 136
14.72 21.74 3.40 42 90 136
14.72 21.63 3.40 43 91 137
14.72 21.52 3.40 44 92 140
14.72 21.41 3.40 45 93 141
14.72 21.30 3.40 46 94 143
14.72 21.19 3.40 45 93 142
14.72 21.08 3.40 45 91 143
14.72 20.97 3.40 45 90 145
14.72 20.86 3.40 48 91 146
14.72 20.75 3.40 50 92 150
14.72 20.64 3.40 50 92 152
14.72 20.53 3.40 50 92 150
14.72 20.42 3.40 48 91 144
14.72 20.31 3.40 49 92 143
15.02 20.35 3.22 49 95 145
15.02 20.24 3.22 49 95 145
15.02 20.13 3.22 48 95 147
15.02 20.01 3.22 47 97 150
15.02 19.90 3.22 48 98 151
15.29 19.93 3.05 45 96 149
15.29 19.81 3.05 45 96 149
15.29 19.70 3.05 43 96 148
15.29 19.59 3.05 43 96 148
15.29 19.48 3.05 43 96 148
15.59 19.51 2.87 43 96 148
15.59 19.40 2.87 43 96 146
15.59 19.29 2.87 43 95 145
15.59 19.18 2.87 40 90 139
15.89 19.21 2.69 45 93 142
15.89 19.09 2.69 45 95 146
15.89 18.98 2.69 46 96 147
15.89 18.87 2.69 46 96 147
15.89 18.76 2.69 45 95 146
15.89 18.64 2.69 46 96 147
15.89 18.53 2.69 46 96 147
15.89 18.42 2.69 47 98 151
15.89 18.30 2.69 45 96 149
15.89 18.19 2.69 43 96 148
15.89 18.08 2.69 44 97 149
15.89 17.97 2.69 44 97 151
15.89 17.85 2.69 42 95 149
15.89 17.74 2.69 44 97 151
15.89 17.63 2.69 44 97 147
15.89 17.51 2.69 43 96 146
15.89 17.40 2.69 44 97 147
15.89 17.29 2.69 44 97 147
15.89 17.17 2.69 41 97 148
15.89 17.06 2.69 39 95 146
15.89 16.95 2.69 40 96 147
16.19 16.97 2.51 42 98 149
16.19 16.85 2.51 40 96 147
16.19 16.74 2.51 40 96 147
16.19 16.63 2.51 43 96 148
16.19 16.51 2.51 45 98 150
16.19 16.40 2.51 47 98 151
16.19 16.29 2.51 47 98 151
16.19 16.17 2.51 47 98 151
16.19 16.06 2.51 47 97 150
16.19 15.95 2.51 49 99 152
16.19 15.83 2.51 50 97 151
16.19 15.72 2.51 47 97 148
16.19 15.60 2.51 47 97 148
16.19 15.49 2.51 46 96 147
16.19 15.38 2.51 45 95 146
16.19 15.26 2.51 45 97 147
16.19 15.15 2.51 46 99 149
16.19 15.04 2.51 45 98 148
16.19 14.92 2.51 44 100 149
16.19 14.81 2.51 44 100 149
16.49 14.81 2.33 44 102 150
16.49 14.70 2.33 43 101 149
16.49 14.59 2.33 43 101 151
16.49 14.47 2.33 44 100 151
16.49 14.36 2.33 45 101 148
16.49 14.24 2.33 47 101 148
16.49 14.13 2.33 45 101 148
16.49 14.02 2.33 46 102 149
16.49 13.90 2.33 46 104 152
16.49 13.79 2.33 46 104 152
16.49 13.67 2.33 44 105 152
16.49 13.56 2.33 44 105 152
16.49 13.45 2.33 43 104 151
16.49 13.33 2.33 41 102 149
16.49 13.22 2.33 40 100 150
16.49 13.10 2.33 40 100 150
16.49 12.99 2.33 42 102 152
16.49 12.88 2.33 43 103 153
16.49 12.76 2.33 44 104 154
16.19 12.54 2.51 43 103 153
16.19 12.43 2.51 40 98 146
16.19 12.31 2.51 41 99 149
16.19 12.20 2.51 43 101 151
16.19 12.09 2.51 45 101 152
16.19 11.97 2.51 46 102 153
16.19 11.86 2.51 47 103 154
16.19 11.75 2.51 47 103 154
16.19 11.63 2.51 48 105 158
16.19 11.52 2.51 47 104 157
16.19 11.41 2.51 43 103 155
16.19 11.29 2.51 41 101 153
16.19 11.18 2.51 38 100 151
16.19 11.07 2.51 39 101 152
16.19 10.95 2.51 39 102 153
16.19 10.84 2.51 42 104 155
16.19 10.73 2.51 44 100 151
16.19 10.61 2.51 44 97 149
16.19 10.50 2.51 43 99 148
16.49 10.48 2.33 45 101 150
16.49 10.37 2.33 45 101 150
16.49 10.25 2.33 43 99 148
16.19 10.04 2.51 41 99 145
16.19 9.93 2.51 42 100 146
16.19 9.82 2.51 43 104 149
16.19 9.70 2.51 40 101 148
16.19 9.59 2.51 40 101 148
16.19 9.48 2.51 41 102 149
16.19 9.36 2.51 41 102 149
16.19 9.25 2.51 40 100 150
15.89 9.05 2.69 41 98 151
15.89 8.94 2.69 38 95 148
15.89 8.82 2.69 39 94 148
15.89 8.71 2.69 37 97 147
15.89 8.60 2.69 40 98 148
15.89 8.48 2.69 42 95 147
15.89 8.37 2.69 41 93 150
15.89 8.26 2.69 42 96 156
15.89 8.15 2.69 44 103 159
15.89 8.03 2.69 46 110 158
15.89 7.92 2.69 62 122 159
15.89 7.81 2.69 1 45 70
15.89 7.69 2.69 18 47 63
16.19 7.66 2.51 39 53 64
16.19 7.55 2.51 39 48 55
16.49 7.51 2.33 40 51 53
13.88 -0.90 3.91 35 38 47
13.88 -1.01 3.91 30 33 42
14.15 -2.40 3.75 24 35 31
14.15 -2.51 3.75 33 45 43
14.15 -2.62 3.75 43 55 55
14.15 -2.73 3.75 51 65 66
14.15 -2.84 3.75 58 72 73
14.15 -2.95 3.75 53 69 68
14.15 -3.06 3.75 43 59 58
14.15 -3.16 3.75 51 67 64
14.15 -3.27 3.75 74 90 87
14.15 -3.38 3.75 94 114 112
14.15 -3.49 3.75 88 108 106
14.15 -3.60 3.75 71 93 90
14.15 -3.71 3.75 54 76 73
14.42 -3.80 3.58 46 66 64
14.42 -3.91 3.58 40 60 58
14.42 -4.02 3.58 39 59 57
14.42 -4.13 3.58 38 57 55
14.42 -4.24 3.58 34 53 51
14.42 -4.35 3.58 27 43 40
14.15 -4.48 3.75 14 30 27
14.15 -4.59 3.75 4 19 14
14.15 -4.70 3.75 0 11 6
14.15 -4.80 3.75 0 5 0
14.15 -4.91 3.75 0 5 0
14.15 -5.02 3.75 0 6 0
14.42 -5.12 3.58 0 7 4
14.42 -5.23 3.58 0 10 7
14.42 -5.34 3.58 0 13 10
14.42 -5.89 3.58 33 45 45
14.42 -6.00 3.58 26 36 37
14.15 -6.34 3.75 37 43 39
14.15 -6.45 3.75 33 38 34
14.37 23.12 3.49 46 80 118
14.37 23.01 3.49 40 79 120
14.37 22.90 3.49 42 83 127
14.37 22.79 3.49 38 81 126
14.37 22.68 3.49 39 82 127
14.37 22.57 3.49 40 83 128
14.37 22.46 3.49 42 84 132
14.37 22.35 3.49 41 84 135
14.37 22.24 3.49 41 87 139
14.37 22.13 3.49 44 90 142
14.37 22.02 3.49 40 86 136
14.37 21.91 3.49 41 87 136
14.67 21.96 3.30 42 88 137
14.67 21.85 3.30 43 89 138
14.67 21.74 3.30 43 91 139
14.67 21.63 3.30 44 92 140
14.67 21.52 3.30 44 92 140
14.67 21.41 3.30 44 92 140
14.67 21.30 3.30 45 93 142
14.67 21.19 3.30 44 92 141
14.67 21.08 3.30 44 90 142
14.67 20.97 3.30 45 90 145
14.67 20.86 3.30 48 91 146
14.67 20.75 3.30 49 91 149
14.67 20.64 3.30 50 92 150
14.67 20.53 3.30 51 94 149
14.67 20.42 3.30 51 94 147
14.67 20.31 3.30 50 93 144
14.97 20.35 3.12 48 94 146
14.97 20.24 3.12 48 94 146
14.97 20.13 3.12 48 95 149
14.97 20.01 3.12 44 94 147
14.97 19.90 3.12 43 93 146
15.23 19.93 2.96 44 95 148
15.23 19.81 2.96 44 95 148
15.23 19.70 2.96 43 96 148
15.23 19.59 2.96 43 96 148
15.23 19.48 2.96 43 96 148
15.53 19.51 2.78 42 95 147
15.53 19.40 2.78 42 95 145
15.53 19.29 2.78 44 96 146
15.53 19.18 2.78 44 94 145
15.83 19.21 2.59 46 93 145
15.83 19.09 2.59 44 94 145
15.83 18.98 2.59 44 94 145
15.83 18.87 2.59 45 95 146
15.83 18.76 2.59 46 96 147
15.83 18.64 2.59 46 96 149
15.83 18.53 2.59 46 96 149
15.83 18.42 2.59 45 96 149
15.83 18.30 2.59 44 95 148
15.83 18.19 2.59 43 96 150
15.83 18.08 2.59 44 97 151
15.83 17.97 2.59 44 97 151
15.83 17.85 2.59 43 96 150
15.83 17.74 2.59 43 96 150
15.83 17.63 2.59 45 96 149
15.83 17.51 2.59 44 95 148
15.83 17.40 2.59 44 97 149
15.83 17.29 2.59 46 99 151
15.83 17.17 2.59 46 99 151
15.83 17.06 2.59 44 97 149
15.83 16.95 2.59 41 97 148
15.83 16.84 2.59 42 98 149
16.13 16.85 2.41 40 93 145
16.13 16.74 2.41 42 95 147
16.13 16.63 2.41 43 96 148
16.13 16.51 2.41 44 97 149
16.13 16.40 2.41 45 96 149
16.13 16.29 2.41 45 96 149
16.13 16.17 2.41 46 96 149
16.13 16.06 2.41 47 97 150
16.13 15.95 2.41 51 98 150
16.13 15.83 2.41 49 96 148
16.13 15.72 2.41 45 95 146
16.13 15.60 2.41 46 96 147
16.13 15.49 2.41 47 97 150
16.13 15.38 2.41 46 96 149
16.13 15.26 2.41 45 96 149
16.13 15.15 2.41 44 97 149
16.13 15.04 2.41 45 98 150
16.13 14.92 2.41 43 99 150
16.13 14.81 2.41 43 99 150
16.43 14.81 2.23 43 101 149
16.43 14.70 2.23 43 101 149
16.43 14.59 2.23 43 101 149
16.43 14.47 2.23 43 99 148
16.43 14.36 2.23 44 100 147
16.43 14.24 2.23 47 101 148
16.43 14.13 2.23 47 101 148
16.43 14.02 2.23 47 101 148
16.43 13.90 2.23 45 101 150
16.43 13.79 2.23 45 101 150
16.43 13.67 2.23 44 102 150
16.43 13.56 2.23 44 102 150
16.43 13.45 2.23 44 104 154
16.43 13.33 2.23 44 104 154
16.13 13.11 2.41 42 102 152
16.13 12.99 2.41 41 101 151
16.13 12.88 2.41 40 100 152
16.13 12.77 2.41 40 100 152
16.13 12.65 2.41 41 101 153
16.13 12.54 2.41 41 101 153
16.13 12.43 2.41 43 101 151
16.13 12.31 2.41 43 101 151
16.13 12.20 2.41 44 102 152
16.13 12.09 2.41 43 101 151
16.13 11.97 2.41 43 101 151
16.13 11.86 2.41 43 100 153
16.13 11.75 2.41 43 100 153
16.13 11.63 2.41 47 104 157
16.13 11.52 2.41 45 102 155
16.13 11.41 2.41 41 101 153
16.13 11.29 2.41 41 101 153
16.13 11.18 2.41 40 102 153
16.13 11.07 2.41 41 103 154
16.13 10.95 2.41 41 103 154
16.13 10.84 2.41 41 101 153
16.13 10.73 2.41 42 98 149
16.13 10.61 2.41 44 97 149
16.13 10.50 2.41 43 99 148
16.43 10.48 2.23 44 100 149
16.43 10.37 2.23 43 101 149
16.43 10.25 2.23 41 99 147
16.13 10.04 2.41 39 100 145
16.13 9.93 2.41 39 100 145
16.13 9.82 2.41 42 103 148
16.13 9.70 2.41 39 100 147
16.13 9.59 2.41 39 100 147
16.13 9.48 2.41 42 100 148
16.13 9.36 2.41 43 101 149
16.13 9.25 2.41 42 100 150
15.83 9.05 2.59 41 98 151
15.83 8.94 2.59 42 97 151
15.83 8.82 2.59 40 95 149
15.83 8.71 2.59 39 97 147
15.83 8.60 2.59 40 96 147
15.83 8.48 2.59 44 95 148
15.83 8.37 2.59 44 95 152
15.83 8.26 2.59 44 96 156
15.83 8.15 2.59 43 99 156
15.83 8.03 2.59 46 108 157
15.83 7.92 2.59 66 124 162
15.83 7.81 2.59 1 45 70
15.83 7.69 2.59 17 46 62
16.13 7.66 2.41 35 49 60
16.13 7.55 2.41 42 51 58
16.43 7.51 2.23 33 47 48
13.83 0.62 3.81 43 55 53
13.83 0.51 3.81 44 56 54
13.83 0.40 3.81 43 58 55
13.83 0.30 3.81 41 56 53
13.83 0.19 3.81 28 44 41
13.83 0.08 3.81 22 41 39
13.83 -0.03 3.81 8 33 29
13.83 -0.14 3.81 5 31 28
13.83 -0.25 3.81 6 30 30
13.83 -0.36 3.81 8 32 32
13.83 -0.47 3.81 9 33 35
14.10 -0.54 3.65 12 36 38
13.83 -0.68 3.81 19 40 45
13.83 -0.79 3.81 24 45 50
13.83 -0.90 3.81 33 56 62
13.83 -1.01 3.81 44 67 73
13.83 -1.12 3.81 60 85 90
14.10 -1.20 3.65 78 103 108
14.10 -1.31 3.65 86 115 119
14.10 -1.41 3.65 97 126 130
14.10 -1.52 3.65 125 155 163
13.83 -1.66 3.81 136 170 182
14.10 -1.74 3.65 140 173 190
14.10 -1.85 3.65 144 180 194
14.10 -1.96 3.65 147 183 197
14.10 -2.07 3.65 149 185 197
14.10 -2.18 3.65 151 187 199
14.10 -2.29 3.65 151 189 202
14.10 -2.40 3.65 152 189 205
14.10 -2.51 3.65 154 193 210
14.10 -2.62 3.65 153 191 212
14.10 -2.73 3.65 145 186 206
14.10 -2.84 3.65 144 185 207
14.10 -2.95 3.65 152 195 214
14.10 -3.06 3.65 157 200 219
14.10 -3.16 3.65 153 196 212
14.10 -3.27 3.65 147 190 207
14.10 -3.38 3.65 140 186 202
14.10 -3.49 3.65 142 187 206
14.10 -3.60 3.65 140 185 204
14.10 -3.71 3.65 140 185 204
14.10 -3.82 3.65 143 190 210
14.10 -3.93 3.65 143 190 210
14.37 -4.02 3.49 142 187 208
14.37 -4.13 3.49 138 183 202
14.37 -4.24 3.49 143 186 205
14.37 -4.35 3.49 146 189 206
14.10 -4.48 3.65 148 189 207
14.10 -4.59 3.65 151 190 207
14.10 -4.70 3.65 150 189 206
14.10 -4.80 3.65 147 184 202
14.10 -4.91 3.65 144 181 197
14.10 -5.02 3.65 136 172 186
14.10 -5.13 3.65 130 166 178
14.10 -5.24 3.65 114 150 162
14.37 -5.34 3.49 93 129 141
14.37 -5.45 3.49 78 112 124
14.37 -5.56 3.49 66 100 112
14.37 -5.67 3.49 53 85 98
14.37 -5.78 3.49 40 72 85
14.37 -5.89 3.49 20 50 61
14.10 -6.01 3.65 6 34 46
14.10 -6.12 3.65 0 16 27
14.10 -6.23 3.65 0 6 18
14.10 -6.34 3.65 0 6 16
14.10 -6.45 3.65 0 6 17
14.10 -6.55 3.65 0 7 16
14.10 -6.66 3.65 0 8 15
14.10 -6.77 3.65 17 31 31
14.10 -6.88 3.65 23 35 31
14.10 -6.99 3.65 26 39 32
14.10 -7.10 3.65 24 36 32
14.31 23.12 3.39 45 79 117
14.31 23.01 3.39 39 78 119
14.31 22.90 3.39 41 82 126
14.31 22.79 3.39 38 81 126
14.31 22.68 3.39 38 81 126
14.31 22.57 3.39 39 82 127
14.31 22.46 3.39 40 82 130
14.31 22.35 3.39 38 81 132
14.31 22.24 3.39 39 85 135
14.31 22.13 3.39 42 88 140
14.31 22.02 3.39 41 87 137
14.31 21.91 3.39 43 89 139
14.31 21.80 3.39 44 90 140
14.61 21.85 3.21 43 89 139
14.61 21.74 3.21 43 91 140
14.61 21.63 3.21 44 92 141
14.61 21.52 3.21 43 91 140
14.61 21.41 3.21 42 90 139
14.61 21.30 3.21 44 91 143
14.61 21.19 3.21 43 90 142
14.61 21.08 3.21 43 89 141
14.61 20.97 3.21 43 89 141
14.61 20.86 3.21 46 89 144
14.61 20.75 3.21 47 90 145
14.61 20.64 3.21 48 91 146
14.61 20.53 3.21 48 91 146
14.61 20.42 3.21 50 93 146
14.91 20.46 3.03 48 91 144
14.91 20.35 3.03 43 89 141
14.91 20.24 3.03 44 90 142
14.91 20.13 3.03 45 92 146
14.91 20.01 3.03 46 95 151
14.91 19.90 3.03 45 94 150
15.18 19.93 2.86 44 95 150
15.18 19.81 2.86 44 95 150
15.18 19.70 2.86 44 95 148
15.18 19.59 2.86 44 95 148
15.18 19.48 2.86 43 94 147
15.48 19.51 2.68 41 92 145
15.48 19.40 2.68 42 94 144
15.48 19.29 2.68 44 94 145
15.48 19.18 2.68 47 97 146
15.78 19.21 2.50 48 96 145
15.78 19.09 2.50 44 94 145
15.78 18.98 2.50 43 93 144
15.78 18.87 2.50 43 93 144
15.78 18.76 2.50 44 94 145
15.78 18.64 2.50 45 95 146
15.78 18.53 2.50 45 95 146
15.78 18.42 2.50 44 95 148
15.78 18.30 2.50 43 94 147
15.78 18.19 2.50 43 96 150
15.78 18.08 2.50 44 97 151
15.78 17.97 2.50 44 97 151
15.78 17.85 2.50 43 96 150
15.78 17.74 2.50 43 94 149
15.78 17.63 2.50 42 93 148
15.78 17.51 2.50 43 92 148
15.78 17.40 2.50 43 94 149
15.78 17.29 2.50 46 97 152
15.78 17.17 2.50 45 98 150
15.78 17.06 2.50 42 95 147
15.78 16.95 2.50 41 94 146
15.78 16.84 2.50 41 94 146
15.78 16.72 2.50 41 94 146
16.07 16.74 2.31 42 95 147
16.07 16.63 2.31 44 97 147
16.07 16.51 2.31 44 97 147
16.07 16.40 2.31 45 97 147
16.07 16.29 2.31 44 96 146
16.07 16.17 2.31 45 97 147
16.07 16.06 2.31 46 98 148
16.07 15.95 2.31 48 98 149
16.07 15.83 2.31 45 95 146
16.07 15.72 2.31 44 94 147
16.07 15.60 2.31 45 95 148
16.07 15.49 2.31 46 97 150
16.07 15.38 2.31 45 96 149
16.07 15.26 2.31 44 95 148
16.07 15.15 2.31 43 96 148
16.07 15.04 2.31 44 97 149
16.07 14.92 2.31 43 99 150
16.07 14.81 2.31 41 97 148
16.07 14.70 2.31 41 97 148
16.37 14.70 2.13 42 98 149
16.37 14.59 2.13 40 98 146
16.37 14.47 2.13 40 96 145
16.37 14.36 2.13 45 99 146
16.37 14.24 2.13 47 99 147
16.07 14.02 2.31 46 100 147
16.37 14.02 2.13 46 100 147
16.37 13.90 2.13 43 99 148
16.37 13.79 2.13 43 99 148
16.37 13.67 2.13 42 100 148
16.37 13.56 2.13 42 100 148
16.07 13.34 2.31 43 103 153
16.07 13.22 2.31 43 103 153
16.07 13.11 2.31 42 102 154
16.07 12.99 2.31 42 102 154
16.07 12.88 2.31 41 101 153
16.07 12.77 2.31 41 101 153
16.07 12.65 2.31 42 102 156
16.07 12.54 2.31 43 103 157
16.07 12.43 2.31 42 102 154
16.07 12.31 2.31 43 103 155
16.07 12.20 2.31 43 103 155
16.07 12.09 2.31 44 101 154
16.07 11.97 2.31 44 101 154
16.07 11.86 2.31 44 101 154
16.07 11.75 2.31 44 101 154
16.07 11.63 2.31 43 100 153
16.07 11.52 2.31 42 99 152
16.07 11.41 2.31 41 98 151
16.07 11.29 2.31 42 99 152
16.07 11.18 2.31 42 102 154
16.07 11.07 2.31 43 103 155
16.07 10.95 2.31 42 102 154
16.07 10.84 2.31 43 100 153
16.07 10.73 2.31 45 100 154
16.07 10.61 2.31 46 99 153
16.37 10.59 2.13 43 99 150
16.37 10.48 2.13 42 98 149
16.37 10.37 2.13 41 99 149
16.37 10.25 2.13 41 99 149
16.07 10.04 2.31 41 102 149
16.07 9.93 2.31 42 103 150
16.07 9.82 2.31 40 102 149
16.07 9.70 2.31 40 100 150
16.07 9.59 2.31 40 100 150
16.07 9.48 2.31 42 100 150
16.07 9.36 2.31 42 100 150
16.07 9.25 2.31 42 99 152
15.78 9.05 2.50 42 99 152
15.78 8.94 2.50 43 98 154
15.78 8.82 2.50 41 96 150
15.78 8.71 2.50 38 96 146
15.78 8.60 2.50 39 95 146
15.78 8.48 2.50 43 94 147
15.78 8.37 2.50 44 95 152
15.78 8.26 2.50 43 95 155
15.78 8.15 2.50 40 96 153
15.78 8.03 2.50 47 107 157
15.78 7.92 2.50 72 127 166
15.78 7.81 2.50 5 49 74
15.78 7.69 2.50 15 44 60
16.07 7.66 2.31 33 47 58
16.07 7.55 2.31 43 52 59
16.37 7.51 2.13 31 45 46
13.78 0.62 3.72 24 38 38
13.78 0.51 3.72 12 26 26
13.78 0.40 3.72 5 24 22
13.78 0.30 3.72 11 30 28
13.78 0.19 3.72 16 36 35
13.78 0.08 3.72 28 44 44
13.78 -0.03 3.72 71 81 80
13.78 -0.14 3.72 90 96 96
13.78 -0.25 3.72 115 123 125
13.78 -0.36 3.72 143 151 154
13.78 -0.47 3.72 160 170 172
13.78 -0.57 3.72 168 177 182
13.78 -0.68 3.72 169 182 188
13.78 -0.79 3.72 171 184 192
13.78 -0.90 3.72 169 186 193
13.78 -1.01 3.72 161 178 186
13.78 -1.12 3.72 155 173 183
13.78 -1.23 3.72 158 176 186
14.04 -1.31 3.56 163 181 191
14.04 -1.41 3.56 160 178 188
14.04 -1.52 3.56 143 167 179
13.78 -1.66 3.72 134 166 181
14.04 -1.74 3.56 132 167 186
14.04 -1.85 3.56 130 168 181
14.04 -1.96 3.56 126 164 177
14.04 -2.07 3.56 122 160 171
14.04 -2.18 3.56 119 157 168
14.04 -2.29 3.56 116 156 168
14.04 -2.40 3.56 115 154 169
14.04 -2.51 3.56 113 155 171
14.04 -2.62 3.56 114 155 173
14.04 -2.73 3.56 113 154 174
14.04 -2.84 3.56 109 150 170
14.04 -2.95 3.56 101 144 161
14.04 -3.06 3.56 99 142 159
14.04 -3.16 3.56 101 145 158
14.04 -3.27 3.56 104 147 163
14.04 -3.38 3.56 104 145 163
14.04 -3.49 3.56 105 146 166
14.04 -3.60 3.56 101 143 165
14.04 -3.71 3.56 102 144 166
14.04 -3.82 3.56 105 150 171
14.04 -3.93 3.56 103 148 169
14.04 -4.04 3.56 97 142 163
14.04 -4.15 3.56 103 148 169
14.04 -4.26 3.56 101 146 167
14.04 -4.37 3.56 101 143 165
14.04 -4.48 3.56 100 141 163
14.04 -4.59 3.56 105 146 166
14.04 -4.70 3.56 116 154 175
14.04 -4.80 3.56 126 163 182
14.04 -4.91 3.56 134 167 184
14.04 -5.02 3.56 133 163 173
14.04 -5.13 3.56 140 167 174
14.04 -5.24 3.56 146 171 178
14.04 -5.35 3.56 147 172 179
14.04 -5.46 3.56 148 173 178
14.04 -5.57 3.56 152 177 182
14.04 -5.68 3.56 158 182 186
14.04 -5.79 3.56 162 183 188
14.04 -5.90 3.56 153 174 175
14.04 -6.01 3.56 169 187 189
14.04 -6.12 3.56 176 194 194
14.04 -6.23 3.56 171 185 186
14.04 -6.34 3.56 154 168 168
14.04 -6.45 3.56 125 137 137
14.04 -6.55 3.56 78 88 87
14.04 -6.66 3.56 34 46 46
14.04 -6.77 3.56 0 5 9
14.04 -6.88 3.56 0 6 5
14.04 -6.99 3.56 0 6 4
14.04 -7.10 3.56 0 5 5
14.26 23.12 3.30 45 77 116
14.26 23.01 3.30 38 75 117
14.26 22.90 3.30 41 79 124
14.26 22.79 3.30 39 82 125
14.26 22.68 3.30 37 80 123
14.26 22.57 3.30 37 80 123
14.26 22.46 3.30 38 81 126
14.26 22.35 3.30 37 81 130
14.26 22.24 3.30 38 82 131
14.26 22.13 3.30 40 83 134
14.26 22.02 3.30 41 87 139
14.26 21.91 3.30 42 88 140
14.26 21.80 3.30 43 89 141
14.26 21.69 3.30 43 89 141
14.56 21.74 3.11 42 89 141
14.56 21.63 3.11 44 91 143
14.56 21.52 3.11 43 90 142
14.56 21.41 3.11 41 88 140
14.56 21.30 3.11 44 91 143
14.56 21.19 3.11 43 90 142
14.56 21.08 3.11 44 90 142
14.56 20.97 3.11 43 89 141
14.56 20.86 3.11 46 89 142
14.56 20.75 3.11 47 90 143
14.56 20.64 3.11 47 90 143
14.56 20.53 3.11 47 90 143
14.56 20.42 3.11 47 90 143
14.85 20.46 2.93 46 89 142
14.85 20.35 2.93 44 89 144
14.85 20.24 2.93 44 89 144
14.85 20.13 2.93 44 91 145
14.85 20.01 2.93 45 94 150
14.85 19.90 2.93 46 95 151
15.12 19.93 2.76 44 93 149
15.12 19.81 2.76 43 92 148
15.12 19.70 2.76 44 94 147
15.12 19.59 2.76 45 95 148
15.12 19.48 2.76 46 93 147
15.42 19.51 2.58 44 91 145
15.42 19.40 2.58 45 92 144
15.42 19.29 2.58 47 94 146
15.72 19.32 2.40 48 96 145
15.72 19.21 2.40 48 96 145
15.72 19.09 2.40 45 95 144
15.72 18.98 2.40 43 93 142
15.72 18.87 2.40 42 92 141
15.72 18.76 2.40 42 92 141
15.72 18.64 2.40 45 95 146
15.72 18.53 2.40 47 97 148
15.72 18.42 2.40 43 94 147
15.72 18.30 2.40 42 93 146
15.72 18.19 2.40 42 95 147
15.42 17.94 2.58 44 97 149
15.72 17.97 2.40 44 97 149
15.72 17.85 2.40 42 95 147
15.72 17.74 2.40 43 94 149
15.72 17.63 2.40 44 93 149
15.72 17.51 2.40 45 92 148
15.72 17.40 2.40 43 92 148
15.72 17.29 2.40 45 94 150
15.72 17.17 2.40 44 95 148
15.72 17.06 2.40 42 93 146
15.72 16.95 2.40 40 93 145
15.72 16.84 2.40 40 93 145
15.72 16.72 2.40 43 96 146
16.02 16.74 2.21 42 95 145
16.02 16.63 2.21 42 96 143
16.02 16.51 2.21 42 96 143
16.02 16.40 2.21 43 97 144
16.02 16.29 2.21 43 97 144
16.02 16.17 2.21 43 97 144
16.02 16.06 2.21 42 96 143
16.02 15.95 2.21 44 96 146
16.02 15.83 2.21 42 94 144
16.02 15.72 2.21 42 95 147
16.02 15.60 2.21 43 96 148
16.02 15.49 2.21 44 97 149
16.02 15.38 2.21 42 95 147
16.02 15.26 2.21 41 94 148
16.02 15.15 2.21 41 96 150
16.02 15.04 2.21 42 97 151
16.02 14.92 2.21 42 98 149
16.02 14.81 2.21 41 97 148
16.02 14.70 2.21 40 96 147
16.32 14.70 2.03 41 97 148
16.32 14.59 2.03 41 97 146
16.32 14.47 2.03 41 94 144
16.32 14.36 2.03 45 97 145
16.32 14.24 2.03 47 97 146
16.02 14.02 2.21 47 99 147
16.02 13.90 2.21 47 99 147
16.32 13.90 2.03 43 99 148
16.32 13.79 2.03 42 98 147
16.32 13.67 2.03 42 100 150
16.02 13.45 2.21 42 100 150
16.02 13.34 2.21 40 100 150
16.02 13.22 2.21 39 99 149
16.02 13.11 2.21 39 99 151
16.02 12.99 2.21 40 100 152
16.02 12.88 2.21 42 102 156
16.02 12.77 2.21 43 103 157
16.02 12.65 2.21 43 103 157
16.02 12.54 2.21 42 102 156
16.02 12.43 2.21 38 101 152
16.02 12.31 2.21 41 103 154
16.02 12.20 2.21 41 103 154
16.02 12.09 2.21 42 102 154
16.02 11.97 2.21 42 102 154
16.02 11.86 2.21 44 101 154
16.02 11.75 2.21 45 102 155
16.02 11.63 2.21 43 98 152
16.02 11.52 2.21 43 98 152
16.02 11.41 2.21 43 98 152
16.02 11.29 2.21 44 99 153
16.02 11.18 2.21 43 100 153
16.02 11.07 2.21 43 100 153
16.02 10.95 2.21 43 100 153
16.02 10.84 2.21 43 98 152
16.02 10.73 2.21 45 100 154
16.02 10.61 2.21 47 100 154
16.32 10.59 2.03 44 99 153
16.32 10.48 2.03 43 98 152
16.32 10.37 2.03 39 99 149
16.32 10.25 2.03 40 100 150
16.02 10.04 2.21 41 103 152
16.02 9.93 2.21 42 104 153
16.02 9.82 2.21 40 104 152
16.02 9.70 2.21 41 103 152
16.02 9.59 2.21 41 101 151
16.02 9.48 2.21 39 99 151
16.02 9.36 2.21 41 98 151
16.02 9.25 2.21 42 97 151
15.72 9.05 2.40 43 98 152
15.72 8.94 2.40 42 97 153
15.72 8.82 2.40 41 96 150
15.72 8.71 2.40 39 97 147
15.72 8.60 2.40 39 95 146
15.72 8.48 2.40 42 93 146
15.72 8.37 2.40 43 94 151
15.72 8.26 2.40 43 95 155
15.72 8.15 2.40 40 96 153
15.72 8.03 2.40 47 107 157
15.72 7.92 2.40 72 127 166
15.72 7.81 2.40 11 55 80
15.72 7.69 2.40 12 41 57
16.02 7.66 2.21 36 53 63
12.89 1.57 4.14 0 5 4
12.89 1.46 4.14 38 50 48
12.89 1.35 4.14 50 62 62
12.89 1.25 4.14 32 42 43
13.15 1.18 3.97 18 28 29
13.15 1.08 3.97 24 34 33
13.42 1.01 3.81 34 44 43
13.42 0.90 3.81 40 50 49
13.42 0.79 3.81 58 70 68
13.42 0.69 3.81 73 85 83
13.42 0.58 3.81 96 112 111
13.42 0.47 3.81 114 130 130
13.72 0.40 3.63 129 149 148
13.72 0.30 3.63 148 168 169
13.72 0.19 3.63 155 179 179
13.72 0.08 3.63 161 189 192
13.72 -0.03 3.63 153 187 197
13.72 -0.14 3.63 144 183 198
13.72 -0.25 3.63 136 178 192
13.72 -0.36 3.63 127 173 189
13.72 -0.47 3.63 118 167 182
13.72 -0.57 3.63 109 162 180
13.72 -0.68 3.63 104 161 180
13.72 -0.79 3.63 103 161 183
13.72 -0.90 3.63 88 150 171
13.72 -1.01 3.63 91 153 178
13.72 -1.12 3.63 92 154 179
13.72 -1.23 3.63 90 151 179
13.72 -1.34 3.63 85 146 175
13.72 -1.44 3.63 80 141 170
13.72 -1.55 3.63 85 142 172
13.72 -1.66 3.63 80 137 167
13.99 -1.74 3.46 82 137 168
13.99 -1.85 3.46 82 138 165
13.99 -1.96 3.46 80 136 163
13.99 -2.07 3.46 79 135 160
13.99 -2.18 3.46 80 136 161
13.99 -2.29 3.46 79 136 163
13.99 -2.40 3.46 78 135 164
13.99 -2.51 3.46 82 139 168
13.99 -2.62 3.46 72 129 159
13.99 -2.73 3.46 70 129 161
13.99 -2.84 3.46 77 136 168
13.99 -2.95 3.46 76 135 165
13.99 -3.06 3.46 71 130 160
13.99 -3.16 3.46 73 133 159
13.99 -3.27 3.46 77 137 165
13.99 -3.38 3.46 77 136 168
13.99 -3.49 3.46 77 136 170
13.99 -3.60 3.46 72 132 168
13.99 -3.71 3.46 71 131 167
13.99 -3.82 3.46 72 136 171
13.99 -3.93 3.46 74 138 173
13.99 -4.04 3.46 72 138 173
13.99 -4.15 3.46 71 137 172
13.99 -4.26 3.46 72 138 173
13.99 -4.37 3.46 73 137 173
13.99 -4.48 3.46 73 135 172
13.99 -4.59 3.46 72 135 170
13.99 -4.70 3.46 74 134 170
13.99 -4.80 3.46 74 132 169
13.99 -4.91 3.46 72 130 168
13.99 -5.02 3.46 74 136 175
13.99 -5.13 3.46 75 137 178
13.99 -5.24 3.46 79 141 180
13.99 -5.35 3.46 81 143 182
13.99 -5.46 3.46 80 142 179
13.99 -5.57 3.46 78 140 177
13.99 -5.68 3.46 83 143 177
13.99 -5.79 3.46 87 146 180
13.99 -5.90 3.46 95 154 184
13.99 -6.01 3.46 101 156 187
13.99 -6.12 3.46 100 156 183
13.99 -6.23 3.46 100 154 182
13.99 -6.34 3.46 113 164 191
13.99 -6.45 3.46 132 183 210
13.99 -6.55 3.46 142 192 217
13.99 -6.66 3.46 145 190 211
13.99 -6.77 3.46 157 184 191
13.99 -6.88 3.46 146 171 175
13.99 -6.99 3.46 124 148 150
13.99 -7.10 3.46 95 116 119
13.99 -7.21 3.46 60 77 84
13.99 -7.32 3.46 24 41 51
13.99 -7.43 3.46 4 16 28
13.99 -7.54 3.46 32 45 53
14.20 23.12 3.20 46 76 114
14.20 23.01 3.20 37 74 116
14.20 22.90 3.20 40 79 122
14.20 22.79 3.20 40 81 125
14.20 22.68 3.20 37 78 122
14.20 22.57 3.20 35 78 121
14.20 22.46 3.20 37 80 123
14.20 22.35 3.20 40 82 130
14.20 22.24 3.20 38 82 131
14.20 22.13 3.20 38 81 132
14.20 22.02 3.20 38 84 136
14.20 21.91 3.20 40 86 138
14.20 21.80 3.20 41 87 139
14.20 21.69 3.20 42 88 140
14.50 21.74 3.02 42 89 143
14.50 21.63 3.02 45 92 146
14.50 21.52 3.02 44 91 143
14.50 21.41 3.02 42 89 141
14.50 21.30 3.02 44 91 143
14.50 21.19 3.02 43 90 142
14.50 21.08 3.02 44 90 142
14.50 20.97 3.02 44 90 142
14.50 20.86 3.02 47 90 141
14.50 20.75 3.02 48 91 142
14.50 20.64 3.02 48 91 142
14.50 20.53 3.02 48 91 144
14.50 20.42 3.02 49 92 145
14.80 20.46 2.83 51 94 149
14.80 20.35 2.83 50 95 150
14.80 20.24 2.83 49 94 149
14.80 20.13 2.83 46 93 149
14.80 20.01 2.83 42 89 145
15.07 20.04 2.67 42 89 145
15.07 19.93 2.67 44 91 147
15.07 19.81 2.67 44 91 147
15.07 19.70 2.67 45 92 146
15.07 19.59 2.67 47 94 148
15.07 19.48 2.67 47 92 147
15.37 19.51 2.48 46 91 146
15.37 19.40 2.48 47 93 145
15.37 19.29 2.48 50 96 148
15.66 19.32 2.30 43 91 140
15.66 19.21 2.30 46 94 143
15.66 19.09 2.30 45 95 144
15.66 18.98 2.30 44 94 143
15.66 18.87 2.30 42 92 141
15.66 18.76 2.30 42 92 141
15.66 18.64 2.30 45 95 146
15.66 18.53 2.30 49 99 150
15.66 18.42 2.30 43 95 145
15.37 18.17 2.48 42 94 144
15.66 18.19 2.30 42 95 147
15.37 17.94 2.48 43 96 148
15.66 17.97 2.30 43 96 148
15.66 17.85 2.30 42 95 147
15.66 17.74 2.30 44 95 148
15.66 17.63 2.30 48 97 153
15.66 17.51 2.30 48 95 151
15.66 17.40 2.30 48 95 151
15.66 17.29 2.30 49 96 152
15.66 17.17 2.30 47 97 150
15.66 17.06 2.30 45 95 148
15.66 16.95 2.30 42 95 145
15.66 16.84 2.30 42 95 145
15.66 16.72 2.30 43 96 146
15.66 16.61 2.30 41 94 144
15.96 16.63 2.12 37 93 140
15.96 16.51 2.12 38 94 141
15.96 16.40 2.12 42 96 142
15.96 16.29 2.12 43 97 143
15.96 16.17 2.12 42 96 142
15.96 16.06 2.12 39 93 140
15.96 15.95 2.12 40 94 141
15.96 15.83 2.12 40 93 143
15.96 15.72 2.12 40 96 147
15.96 15.60 2.12 42 98 149
15.96 15.49 2.12 40 95 149
15.96 15.38 2.12 38 93 147
15.96 15.26 2.12 38 93 147
15.96 15.15 2.12 40 95 149
15.96 15.04 2.12 42 97 151
15.96 14.92 2.12 42 97 151
15.96 14.81 2.12 41 96 150
15.96 14.70 2.12 41 97 148
16.26 14.70 1.93 43 99 150
16.26 14.59 1.93 43 99 148
16.26 14.47 1.93 43 96 146
16.26 14.36 1.93 44 96 144
16.26 14.24 1.93 46 96 145
15.96 14.02 2.12 47 99 147
15.96 13.90 2.12 47 99 147
16.26 13.90 1.93 45 98 148
16.26 13.79 1.93 45 98 148
15.96 13.56 2.12 42 100 150
15.96 13.45 2.12 43 101 151
15.96 13.34 2.12 42 102 154
15.96 13.22 2.12 39 99 151
15.96 13.11 2.12 37 97 149
15.96 12.99 2.12 38 98 150
15.96 12.88 2.12 41 101 155
15.96 12.77 2.12 41 101 155
15.96 12.65 2.12 39 99 153
15.96 12.54 2.12 36 96 150
15.96 12.43 2.12 38 101 152
15.96 12.31 2.12 39 102 153
15.96 12.20 2.12 40 102 153
15.96 12.09 2.12 38 100 151
15.96 11.97 2.12 39 99 151
16.26 11.96 1.93 41 98 151
16.26 11.85 1.93 42 99 152
15.96 11.63 2.12 43 98 152
15.96 11.52 2.12 45 100 154
15.96 11.41 2.12 45 100 154
15.96 11.29 2.12 44 99 153
15.96 11.18 2.12 42 97 151
15.96 11.07 2.12 41 96 150
15.96 10.95 2.12 42 97 151
15.96 10.84 2.12 42 97 151
15.96 10.73 2.12 41 96 152
16.26 10.71 1.93 43 98 154
16.26 10.59 1.93 44 101 156
16.26 10.48 1.93 44 101 156
16.26 10.37 1.93 40 102 153
15.96 10.16 2.12 39 101 152
15.96 10.04 2.12 38 102 150
15.96 9.93 2.12 38 102 150
15.96 9.82 2.12 40 104 152
15.96 9.70 2.12 41 103 154
15.96 9.59 2.12 39 101 152
15.96 9.48 2.12 38 98 152
15.96 9.36 2.12 39 96 151
15.96 9.25 2.12 39 96 151
15.66 9.05 2.30 41 96 152
15.66 8.94 2.30 39 96 151
15.66 8.82 2.30 41 98 151
15.66 8.71 2.30 41 99 149
15.66 8.60 2.30 40 96 147
15.66 8.48 2.30 41 92 145
15.66 8.37 2.30 42 93 150
15.66 8.26 2.30 43 95 155
15.66 8.15 2.30 42 98 155
15.66 8.03 2.30 46 106 156
15.66 7.92 2.30 70 125 164
15.66 7.81 2.30 16 60 85
15.66 7.69 2.30 8 37 53
15.96 7.66 2.12 40 58 68
12.83 1.57 4.05 0 3 2
12.83 1.46 4.05 0 3 2
12.83 1.35 4.05 28 38 39
12.83 1.25 4.05 41 51 50
12.83 1.14 4.05 61 71 70
13.10 1.08 3.88 105 114 113
13.10 0.97 3.88 150 159 158
13.37 0.90 3.72 162 171 170
13.37 0.79 3.72 168 180 180
13.37 0.69 3.72 166 178 178
13.37 0.58 3.72 163 179 179
13.37 0.47 3.72 150 168 168
13.37 0.36 3.72 142 162 163
13.67 0.30 3.53 137 158 159
13.67 0.19 3.53 123 149 150
13.67 0.08 3.53 118 146 150
13.67 -0.03 3.53 117 145 156
13.67 -0.14 3.53 110 142 157
13.67 -0.25 3.53 104 140 154
13.67 -0.36 3.53 100 139 156
13.67 -0.47 3.53 91 138 154
13.67 -0.57 3.53 83 134 153
13.67 -0.68 3.53 74 131 150
13.67 -0.79 3.53 69 130 151
13.67 -0.90 3.53 70 132 155
13.67 -1.01 3.53 68 132 159
13.67 -1.12 3.53 69 133 160
13.67 -1.23 3.53 72 133 162
13.67 -1.34 3.53 74 135 166
13.67 -1.44 3.53 77 133 166
13.67 -1.55 3.53 72 126 162
13.67 -1.66 3.53 78 133 164
13.94 -1.74 3.37 80 135 166
13.94 -1.85 3.37 81 137 164
13.94 -1.96 3.37 80 136 163
13.94 -2.07 3.37 80 136 159
13.94 -2.18 3.37 82 138 161
13.94 -2.29 3.37 81 137 162
13.94 -2.40 3.37 78 134 161
13.94 -2.51 3.37 79 135 162
13.94 -2.62 3.37 81 136 166
13.94 -2.73 3.37 84 139 169
13.94 -2.84 3.37 83 138 168
13.94 -2.95 3.37 79 135 162
13.94 -3.06 3.37 82 138 165
13.94 -3.16 3.37 85 141 164
13.94 -3.27 3.37 82 138 163
13.94 -3.38 3.37 79 138 168
13.94 -3.49 3.37 81 140 172
13.94 -3.60 3.37 78 139 170
13.94 -3.71 3.37 76 137 168
13.94 -3.82 3.37 74 139 171
13.94 -3.93 3.37 73 138 170
13.94 -4.04 3.37 72 138 172
13.94 -4.15 3.37 74 140 175
13.94 -4.26 3.37 74 140 175
13.94 -4.37 3.37 75 139 175
13.94 -4.48 3.37 73 137 173
13.94 -4.59 3.37 75 138 173
13.94 -4.70 3.37 76 139 174
13.94 -4.80 3.37 79 139 175
13.94 -4.91 3.37 78 138 175
13.94 -5.02 3.37 77 137 174
13.94 -5.13 3.37 71 130 170
13.94 -5.24 3.37 71 129 167
13.94 -5.35 3.37 76 134 172
13.94 -5.46 3.37 79 137 174
13.94 -5.57 3.37 77 136 170
13.94 -5.68 3.37 78 134 167
13.94 -5.79 3.37 80 137 167
13.94 -5.90 3.37 77 133 160
13.94 -6.01 3.37 75 129 157
13.94 -6.12 3.37 78 132 156
13.94 -6.23 3.37 89 139 164
13.94 -6.34 3.37 91 141 164
13.94 -6.45 3.37 90 138 161
13.94 -6.55 3.37 93 139 162
13.94 -6.66 3.37 104 147 166
13.94 -6.77 3.37 122 152 162
13.94 -6.88 3.37 130 159 165
13.94 -6.99 3.37 140 168 172
13.94 -7.10 3.37 159 184 189
13.94 -7.21 3.37 178 198 207
13.94 -7.32 3.37 182 200 212
13.94 -7.43 3.37 179 193 206
13.94 -7.54 3.37 153 167 178
14.15 23.12 3.11 43 81 120
14.15 23.01 3.11 39 84 126
14.15 22.90 3.11 32 79 123
14.15 22.79 3.11 34 83 123
14.15 22.68 3.11 35 84 124
14.15 22.57 3.11 35 83 119
14.15 22.46 3.11 33 81 119
14.15 22.35 3.11 40 84 129
14.15 22.24 3.11 41 85 132
14.15 22.13 3.11 39 83 132
14.15 22.02 3.11 42 84 134
14.15 21.91 3.11 43 85 135
14.45 21.96 2.92 43 86 137
14.45 21.85 2.92 44 87 138
14.45 21.74 2.92 46 92 144
14.45 21.63 2.92 48 93 148
14.45 21.52 2.92 46 93 147
14.45 21.41 2.92 43 90 146
14.45 21.30 2.92 45 94 152
14.45 21.19 2.92 44 93 151
14.45 21.08 2.92 43 92 151
14.45 20.97 2.92 43 92 151
14.45 20.86 2.92 45 94 153
14.45 20.75 2.92 46 95 154
14.45 20.64 2.92 46 92 152
14.45 20.53 2.92 45 91 151
14.45 20.42 2.92 48 94 153
14.74 20.46 2.74 45 91 150
14.74 20.35 2.74 44 90 149
14.74 20.24 2.74 46 92 151
14.74 20.13 2.74 48 92 153
15.01 20.15 2.57 45 89 150
15.01 20.04 2.57 45 89 150
15.01 19.93 2.57 43 88 147
15.01 19.81 2.57 45 90 149
15.01 19.70 2.57 49 91 149
15.01 19.59 2.57 48 90 148
15.01 19.48 2.57 48 91 144
15.31 19.51 2.39 49 92 145
15.31 19.40 2.39 51 94 145
15.31 19.29 2.39 51 94 145
15.31 19.18 2.39 46 89 140
15.61 19.21 2.20 48 91 142
15.61 19.09 2.20 51 94 145
15.31 18.84 2.39 51 94 145
15.31 18.73 2.39 47 93 145
15.31 18.61 2.39 46 92 144
15.61 18.64 2.20 47 93 145
15.31 18.39 2.39 49 95 147
15.31 18.28 2.39 40 87 139
15.31 18.17 2.39 45 92 144
15.61 18.19 2.20 45 95 146
15.31 17.94 2.39 42 92 143
15.61 17.97 2.20 39 89 142
15.61 17.85 2.20 41 91 144
15.61 17.74 2.20 47 97 150
15.61 17.63 2.20 39 91 139
15.61 17.51 2.20 43 95 143
15.61 17.40 2.20 45 97 145
15.61 17.29 2.20 43 95 143
15.61 17.17 2.20 43 93 142
15.61 17.06 2.20 45 95 144
15.61 16.95 2.20 47 97 148
15.61 16.84 2.20 48 98 149
15.61 16.72 2.20 45 97 147
15.61 16.61 2.20 44 95 148
15.90 16.63 2.02 43 96 148
15.90 16.51 2.02 43 96 150
15.90 16.40 2.02 42 97 153
15.90 16.29 2.02 42 97 153
15.90 16.17 2.02 39 95 152
15.90 16.06 2.02 39 94 150
15.90 15.95 2.02 41 96 150
15.90 15.83 2.02 42 95 147
15.90 15.72 2.02 42 95 147
15.90 15.60 2.02 41 94 146
15.90 15.49 2.02 41 94 146
15.90 15.38 2.02 41 94 146
15.90 15.26 2.02 43 96 146
15.90 15.15 2.02 45 98 148
15.90 15.04 2.02 47 100 150
15.90 14.92 2.02 47 101 148
15.90 14.81 2.02 45 99 146
15.90 14.70 2.02 40 96 143
16.20 14.70 1.83 41 97 144
16.20 14.59 1.83 42 98 145
16.20 14.47 1.83 44 98 145
16.20 14.36 1.83 44 98 145
16.20 14.24 1.83 45 97 145
16.20 14.13 1.83 45 97 145
16.20 14.02 1.83 45 97 147
16.20 13.90 1.83 46 98 148
16.20 13.79 1.83 47 98 151
15.90 13.56 2.02 47 98 153
15.90 13.45 2.02 48 99 154
15.90 13.34 2.02 49 101 158
15.90 13.22 2.02 48 100 157
15.90 13.11 2.02 46 98 155
15.90 12.99 2.02 44 96 153
15.90 12.88 2.02 43 95 152
15.90 12.77 2.02 44 96 153
15.90 12.65 2.02 44 99 155
15.90 12.54 2.02 45 100 156
15.90 12.43 2.02 43 99 150
15.90 12.31 2.02 44 99 153
15.90 12.20 2.02 45 100 154
15.90 12.09 2.02 46 101 155
16.20 12.08 1.83 44 99 153
16.20 11.96 1.83 44 101 156
16.20 11.85 1.83 47 104 159
16.20 11.73 1.83 43 100 155
16.20 11.62 1.83 46 103 158
16.20 11.51 1.83 41 101 155
16.20 11.39 1.83 43 103 157
16.20 11.28 1.83 41 103 154
15.90 11.07 2.02 39 101 152
15.90 10.95 2.02 44 106 157
15.90 10.84 2.02 43 105 156
15.90 10.73 2.02 38 101 152
15.90 10.61 2.02 39 102 153
16.20 10.59 1.83 41 104 155
16.20 10.48 1.83 41 104 155
16.20 10.37 1.83 41 103 152
15.90 10.16 2.02 40 102 151
15.90 10.04 2.02 41 103 152
15.90 9.93 2.02 42 104 153
15.90 9.82 2.02 41 103 152
15.90 9.70 2.02 40 100 150
15.90 9.59 2.02 39 99 149
15.90 9.48 2.02 39 99 149
15.90 9.36 2.02 38 98 148
15.90 9.25 2.02 37 97 147
15.61 9.05 2.20 37 94 147
15.61 8.94 2.20 41 98 151
15.61 8.82 2.20 40 95 151
15.61 8.71 2.20 36 96 148
15.61 8.60 2.20 38 95 148
15.61 8.48 2.20 39 94 150
15.61 8.37 2.20 41 94 146
15.61 8.26 2.20 41 98 141
15.61 8.15 2.20 47 102 143
15.61 8.03 2.20 56 110 156
15.61 7.92 2.20 69 122 166
15.61 7.81 2.20 6 65 99
15.90 7.77 2.02 4 50 73
15.90 7.66 2.02 34 53 57
12.78 2.21 3.95 0 4 2
12.78 2.10 3.95 0 5 2
12.78 2.00 3.95 0 6 2
12.78 1.89 3.95 0 7 0
12.78 1.78 3.95 0 6 0
12.78 1.68 3.95 49 68 62
12.78 1.57 3.95 113 132 128
12.78 1.46 3.95 152 172 171
12.78 1.35 3.95 158 182 184
12.78 1.25 3.95 160 191 193
12.78 1.14 3.95 154 189 195
13.05 1.08 3.79 139 182 189
13.05 0.97 3.79 112 159 177
13.31 0.90 3.62 104 152 175
13.31 0.79 3.62 102 147 178
13.31 0.69 3.62 101 145 180
13.31 0.58 3.62 100 144 179
13.31 0.47 3.62 96 142 178
13.31 0.36 3.62 90 138 176
13.61 0.30 3.44 83 135 172
13.61 0.19 3.44 79 133 169
13.61 0.08 3.44 76 132 167
13.61 -0.03 3.44 71 131 165
13.61 -0.14 3.44 70 130 164
13.61 -0.25 3.44 69 129 163
13.61 -0.36 3.44 70 130 164
13.61 -0.47 3.44 72 131 163
13.61 -0.57 3.44 73 132 164
13.61 -0.68 3.44 74 133 163
13.61 -0.79 3.44 74 133 163
13.61 -0.90 3.44 73 132 162
13.61 -1.01 3.44 74 133 163
13.61 -1.12 3.44 75 134 166
13.61 -1.23 3.44 75 134 166
13.61 -1.34 3.44 73 134 165
13.61 -1.44 3.44 74 135 166
13.61 -1.55 3.44 81 141 175
13.61 -1.66 3.44 80 141 172
13.61 -1.77 3.44 80 141 172
13.88 -1.85 3.27 79 140 171
13.88 -1.96 3.27 77 138 169
13.88 -2.07 3.27 76 136 170
13.88 -2.18 3.27 78 138 172
13.88 -2.29 3.27 79 138 172
13.88 -2.40 3.27 79 138 172
13.88 -2.51 3.27 78 137 171
13.88 -2.62 3.27 77 136 170
13.88 -2.73 3.27 77 135 172
13.88 -2.84 3.27 78 136 173
13.88 -2.95 3.27 79 137 174
13.88 -3.06 3.27 79 137 174
13.88 -3.16 3.27 78 136 173
13.88 -3.27 3.27 78 136 173
13.88 -3.38 3.27 77 137 173
13.88 -3.49 3.27 76 136 172
13.88 -3.60 3.27 76 136 172
13.88 -3.71 3.27 77 137 173
13.88 -3.82 3.27 77 140 173
13.88 -3.93 3.27 78 141 174
13.88 -4.04 3.27 75 140 172
13.88 -4.15 3.27 71 137 171
13.88 -4.26 3.27 72 138 172
13.88 -4.37 3.27 74 138 174
13.88 -4.48 3.27 74 138 174
13.88 -4.59 3.27 73 137 175
13.88 -4.70 3.27 73 137 175
13.88 -4.80 3.27 73 136 177
13.88 -4.91 3.27 74 137 178
13.88 -5.02 3.27 73 138 176
13.88 -5.13 3.27 73 138 176
13.88 -5.24 3.27 73 139 174
13.88 -5.35 3.27 73 139 174
13.88 -5.46 3.27 74 138 174
13.88 -5.57 3.27 75 139 175
13.88 -5.68 3.27 75 139 174
13.88 -5.79 3.27 75 139 174
13.88 -5.90 3.27 74 137 172
13.88 -6.01 3.27 77 140 175
13.88 -6.12 3.27 76 139 172
13.88 -6.23 3.27 73 136 169
13.88 -6.34 3.27 74 134 168
13.88 -6.45 3.27 77 137 171
13.88 -6.55 3.27 77 138 169
13.88 -6.66 3.27 74 135 166
13.88 -6.77 3.27 73 137 165
13.88 -6.88 3.27 76 137 166
13.88 -6.99 3.27 79 138 168
13.88 -7.10 3.27 81 140 170
13.88 -7.21 3.27 88 145 175
13.88 -7.32 3.27 92 149 178
13.88 -7.43 3.27 96 153 180
13.88 -7.54 3.27 99 155 180
13.88 -7.65 3.27 106 161 182
13.88 -7.76 3.27 104 155 172
13.88 -7.87 3.27 103 151 165
13.88 -7.98 3.27 124 166 178
13.61 -8.08 3.44 146 184 193
13.61 -8.19 3.44 137 170 179
13.61 -8.30 3.44 109 138 144
13.61 -8.41 3.44 30 53 59
13.61 -8.52 3.44 2 23 28
13.61 -8.63 3.44 0 5 9
13.61 -8.73 3.44 0 5 9
13.61 -8.84 3.44 0 6 8
13.61 -8.95 3.44 0 8 11
13.61 -9.06 3.44 7 21 22
14.09 23.12 3.01 44 79 119
14.09 23.01 3.01 39 82 125
14.09 22.90 3.01 35 79 124
14.09 22.79 3.01 31 79 119
14.09 22.68 3.01 32 80 120
14.09 22.57 3.01 34 79 118
14.09 22.46 3.01 33 78 119
14.09 22.35 3.01 39 82 127
14.09 22.24 3.01 41 83 133
14.09 22.13 3.01 41 82 134
14.09 22.02 3.01 40 82 132
14.39 22.08 2.83 42 84 134
14.39 21.96 2.83 44 87 138
14.39 21.85 2.83 44 87 138
14.39 21.74 2.83 42 88 140
14.39 21.63 2.83 43 88 143
14.39 21.52 2.83 43 90 144
14.39 21.41 2.83 43 90 146
14.39 21.30 2.83 40 89 147
14.39 21.19 2.83 40 89 147
14.39 21.08 2.83 40 89 147
14.39 20.97 2.83 40 89 147
14.39 20.86 2.83 43 89 148
14.39 20.75 2.83 43 89 148
14.39 20.64 2.83 45 91 150
14.39 20.53 2.83 46 92 151
14.39 20.42 2.83 46 93 149
14.69 20.46 2.64 44 91 147
14.69 20.35 2.64 43 90 146
14.69 20.24 2.64 45 92 148
14.69 20.13 2.64 45 91 150
14.96 20.15 2.47 43 88 147
14.96 20.04 2.47 44 89 148
14.96 19.93 2.47 45 90 147
14.96 19.81 2.47 47 92 149
14.96 19.70 2.47 47 92 147
14.96 19.59 2.47 44 89 144
14.96 19.48 2.47 43 89 141
15.25 19.51 2.29 45 91 143
15.25 19.40 2.29 46 92 142
15.25 19.29 2.29 47 93 143
15.25 19.18 2.29 44 90 140
15.25 19.06 2.29 45 91 141
15.25 18.95 2.29 47 93 145
15.25 18.84 2.29 46 92 144
15.25 18.73 2.29 46 92 144
15.25 18.61 2.29 46 92 144
15.25 18.50 2.29 46 93 145
15.25 18.39 2.29 48 95 147
15.25 18.28 2.29 40 90 141
15.25 18.17 2.29 43 93 144
15.55 18.19 2.10 44 94 147
15.55 18.08 2.10 43 93 146
15.55 17.97 2.10 41 92 145
15.55 17.85 2.10 43 94 147
15.55 17.74 2.10 43 94 147
15.55 17.63 2.10 40 93 143
15.55 17.51 2.10 42 95 145
15.55 17.40 2.10 44 96 146
15.55 17.29 2.10 42 94 144
15.55 17.17 2.10 41 93 143
15.55 17.06 2.10 42 94 144
15.55 16.95 2.10 44 94 145
15.55 16.84 2.10 43 93 144
15.55 16.72 2.10 43 93 144
15.55 16.61 2.10 42 92 143
15.85 16.63 1.92 41 92 145
15.85 16.51 1.92 41 92 145
15.85 16.40 1.92 42 95 149
15.85 16.29 1.92 43 96 150
15.85 16.17 1.92 41 96 152
15.85 16.06 1.92 40 95 151
15.85 15.95 1.92 40 93 145
15.85 15.83 1.92 40 93 145
15.85 15.72 1.92 41 94 146
15.85 15.60 1.92 41 94 146
15.85 15.49 1.92 41 94 144
15.85 15.38 1.92 41 94 144
15.85 15.26 1.92 42 95 145
15.85 15.15 1.92 41 94 144
15.85 15.04 1.92 44 97 147
15.85 14.92 1.92 43 99 148
15.85 14.81 1.92 41 97 146
16.15 14.81 1.73 39 95 144
16.15 14.70 1.73 40 96 145
16.15 14.59 1.73 41 97 146
16.15 14.47 1.73 43 96 146
16.15 14.36 1.73 45 99 146
16.15 14.24 1.73 45 97 145
16.15 14.13 1.73 44 96 146
16.15 14.02 1.73 44 96 146
16.15 13.90 1.73 44 95 148
16.15 13.79 1.73 45 96 149
15.85 13.56 1.92 46 97 152
15.85 13.45 1.92 47 98 153
15.85 13.34 1.92 45 97 154
15.85 13.22 1.92 45 97 154
15.85 13.11 1.92 44 96 153
15.85 12.99 1.92 44 96 153
15.85 12.88 1.92 45 98 152
15.85 12.77 1.92 46 99 153
15.85 12.65 1.92 47 100 154
15.85 12.54 1.92 48 101 155
15.85 12.43 1.92 43 99 150
15.85 12.31 1.92 43 98 152
15.85 12.20 1.92 45 100 154
16.15 12.19 1.73 45 100 154
16.15 12.08 1.73 44 99 153
16.15 11.96 1.73 43 100 155
16.15 11.85 1.73 45 102 157
16.15 11.73 1.73 40 100 154
16.15 11.62 1.73 43 103 157
16.15 11.51 1.73 41 101 153
16.15 11.39 1.73 43 103 155
16.15 11.28 1.73 41 103 152
16.15 11.16 1.73 38 100 149
16.15 11.05 1.73 42 104 153
16.15 10.94 1.73 41 103 152
16.15 10.82 1.73 38 101 152
16.15 10.71 1.73 38 101 152
16.15 10.59 1.73 39 103 151
16.15 10.48 1.73 39 103 151
16.15 10.37 1.73 38 100 149
15.85 10.16 1.92 38 100 149
15.85 10.04 1.92 38 100 149
15.85 9.93 1.92 39 101 150
15.85 9.82 1.92 39 101 150
15.85 9.70 1.92 40 100 150
15.85 9.59 1.92 41 101 151
15.85 9.48 1.92 41 101 151
15.85 9.36 1.92 40 100 150
15.85 9.25 1.92 38 98 148
15.55 9.05 2.10 38 95 148
15.55 8.94 2.10 41 98 151
15.55 8.82 2.10 39 96 151
15.55 8.71 2.10 37 97 149
15.55 8.60 2.10 37 97 149
15.55 8.48 2.10 39 96 151
15.55 8.37 2.10 39 95 146
15.55 8.26 2.10 40 97 140
15.55 8.15 2.10 45 100 141
15.55 8.03 2.10 47 101 147
15.55 7.92 2.10 70 123 167
15.55 7.81 2.10 13 72 106
15.85 7.77 1.92 3 49 72
15.85 7.66 1.92 31 50 54
12.73 2.21 3.86 28 43 38
12.73 2.10 3.86 83 102 98
12.73 2.00 3.86 125 145 143
12.73 1.89 3.86 161 186 182
12.73 1.78 3.86 171 196 193
12.73 1.68 3.86 167 189 187
12.73 1.57 3.86 146 170 172
12.73 1.46 3.86 130 160 168
12.73 1.35 3.86 126 160 172
12.73 1.25 3.86 117 157 169
12.99 1.18 3.70 105 148 164
12.99 1.08 3.70 94 143 160
12.99 0.97 3.70 85 139 165
13.26 0.90 3.53 84 137 168
13.26 0.79 3.53 78 128 163
13.26 0.69 3.53 76 125 165
13.26 0.58 3.53 74 123 163
13.26 0.47 3.53 72 121 162
13.26 0.36 3.53 69 122 162
13.56 0.30 3.34 69 124 163
13.56 0.19 3.34 70 128 166
13.56 0.08 3.34 71 131 168
13.56 -0.03 3.34 68 131 164
13.56 -0.14 3.34 68 131 164
13.56 -0.25 3.34 68 131 164
13.56 -0.36 3.34 68 131 164
13.56 -0.47 3.34 72 133 164
13.56 -0.57 3.34 73 134 165
13.56 -0.68 3.34 75 134 166
13.56 -0.79 3.34 75 134 166
13.56 -0.90 3.34 78 137 169
13.56 -1.01 3.34 78 137 169
13.56 -1.12 3.34 76 136 170
13.56 -1.23 3.34 74 134 168
13.56 -1.34 3.34 71 134 167
13.56 -1.44 3.34 70 133 166
13.56 -1.55 3.34 73 136 171
13.56 -1.66 3.34 77 138 169
13.83 -1.74 3.18 78 139 170
13.83 -1.85 3.18 77 137 171
13.83 -1.96 3.18 75 135 169
13.83 -2.07 3.18 74 134 168
13.83 -2.18 3.18 76 136 170
13.83 -2.29 3.18 76 136 170
13.83 -2.40 3.18 75 135 169
13.83 -2.51 3.18 76 136 170
13.83 -2.62 3.18 75 135 169
13.83 -2.73 3.18 77 135 172
13.83 -2.84 3.18 77 135 172
13.83 -2.95 3.18 78 136 173
13.83 -3.06 3.18 79 137 174
13.83 -3.16 3.18 78 136 173
13.83 -3.27 3.18 78 136 173
13.83 -3.38 3.18 77 135 172
13.83 -3.49 3.18 76 134 171
13.83 -3.60 3.18 75 135 171
13.83 -3.71 3.18 76 136 172
13.83 -3.82 3.18 76 139 172
13.83 -3.93 3.18 76 139 172
13.83 -4.04 3.18 73 138 170
13.83 -4.15 3.18 72 136 171
13.83 -4.26 3.18 73 137 172
13.83 -4.37 3.18 74 138 174
13.83 -4.48 3.18 74 138 174
13.83 -4.59 3.18 75 137 176
13.83 -4.70 3.18 74 136 175
13.83 -4.80 3.18 75 137 178
13.83 -4.91 3.18 75 137 178
13.83 -5.02 3.18 72 137 175
13.83 -5.13 3.18 73 138 176
13.83 -5.24 3.18 73 139 174
13.83 -5.35 3.18 73 139 174
13.83 -5.46 3.18 74 138 174
13.83 -5.57 3.18 73 137 173
13.83 -5.68 3.18 73 137 172
13.83 -5.79 3.18 72 136 171
13.83 -5.90 3.18 73 136 171
13.83 -6.01 3.18 76 139 174
13.83 -6.12 3.18 77 137 171
13.83 -6.23 3.18 74 134 168
13.83 -6.34 3.18 73 133 167
13.83 -6.45 3.18 75 135 169
13.83 -6.55 3.18 75 135 169
13.83 -6.66 3.18 73 133 167
13.83 -6.77 3.18 74 137 170
13.83 -6.88 3.18 75 135 171
13.83 -6.99 3.18 74 134 170
13.83 -7.10 3.18 74 132 169
13.83 -7.21 3.18 75 133 170
13.83 -7.32 3.18 76 135 169
13.83 -7.43 3.18 77 136 170
13.83 -7.54 3.18 71 130 160
13.83 -7.65 3.18 84 141 170
13.83 -7.76 3.18 96 152 177
13.83 -7.87 3.18 101 153 175
13.83 -7.98 3.18 104 151 171
13.83 -8.09 3.18 112 155 174
13.56 -8.19 3.34 126 165 182
13.56 -8.30 3.34 140 173 188
13.56 -8.41 3.34 161 191 201
13.56 -8.52 3.34 172 197 204
13.56 -8.63 3.34 170 195 200
13.56 -8.73 3.34 147 167 174
13.56 -8.84 3.34 101 122 125
13.56 -8.95 3.34 52 70 74
13.56 -9.06 3.34 11 27 27
14.04 23.12 2.92 44 77 118
14.04 23.01 2.92 40 82 124
14.04 22.90 2.92 36 79 124
14.04 22.79 2.92 35 80 122
14.04 22.68 2.92 36 81 123
14.04 22.57 2.92 36 79 121
14.04 22.46 2.92 34 77 120
14.04 22.35 2.92 38 78 129
14.04 22.24 2.92 39 79 131
14.04 22.13 2.92 40 79 134
14.04 22.02 2.92 38 80 130
14.34 22.08 2.73 42 84 134
14.34 21.96 2.73 44 87 138
14.34 21.85 2.73 43 86 137
14.34 21.74 2.73 40 86 138
14.34 21.63 2.73 41 87 139
14.34 21.52 2.73 43 90 144
14.34 21.41 2.73 45 92 148
14.34 21.30 2.73 40 89 145
14.34 21.19 2.73 41 90 148
14.34 21.08 2.73 44 90 149
14.34 20.97 2.73 43 89 148
14.34 20.86 2.73 42 88 147
14.34 20.75 2.73 43 89 148
14.34 20.64 2.73 46 92 151
14.34 20.53 2.73 48 94 153
14.63 20.57 2.54 44 94 147
14.63 20.46 2.54 43 93 146
14.63 20.35 2.54 43 92 148
14.63 20.24 2.54 44 93 149
14.90 20.26 2.38 45 92 148
14.90 20.15 2.38 43 90 146
14.90 20.04 2.38 44 91 147
14.90 19.93 2.38 44 91 145
14.90 19.81 2.38 46 93 147
14.90 19.70 2.38 46 93 145
14.90 19.59 2.38 44 91 143
15.20 19.63 2.19 42 89 141
15.20 19.51 2.19 43 90 142
15.20 19.40 2.19 43 91 140
15.20 19.29 2.19 42 90 139
15.20 19.18 2.19 44 91 143
15.20 19.06 2.19 44 91 143
15.20 18.95 2.19 43 90 142
15.20 18.84 2.19 43 90 142
15.20 18.73 2.19 44 91 143
15.20 18.61 2.19 45 92 144
15.20 18.50 2.19 44 94 145
15.20 18.39 2.19 45 95 146
15.20 18.28 2.19 43 93 144
15.49 18.30 2.01 43 93 144
15.49 18.19 2.01 42 93 146
15.49 18.08 2.01 42 93 146
15.49 17.97 2.01 44 95 148
15.49 17.85 2.01 45 96 149
15.49 17.74 2.01 41 92 145
15.49 17.63 2.01 42 95 149
15.49 17.51 2.01 42 95 149
15.49 17.40 2.01 42 95 147
15.49 17.29 2.01 40 93 145
15.49 17.17 2.01 41 93 143
15.49 17.06 2.01 41 93 143
15.49 16.95 2.01 41 93 143
15.49 16.84 2.01 40 92 142
15.49 16.72 2.01 42 92 143
15.49 16.61 2.01 41 91 142
15.79 16.63 1.82 40 92 142
15.79 16.51 1.82 40 92 142
15.79 16.40 1.82 42 93 146
15.79 16.29 1.82 43 94 147
15.79 16.17 1.82 44 95 150
15.79 16.06 1.82 45 96 151
15.79 15.95 1.82 39 91 141
15.79 15.83 1.82 40 92 142
15.79 15.72 1.82 40 93 143
15.79 15.60 1.82 41 94 144
15.79 15.49 1.82 41 94 144
15.79 15.38 1.82 41 94 144
15.79 15.26 1.82 41 94 144
15.79 15.15 1.82 40 93 143
15.79 15.04 1.82 43 96 146
15.79 14.92 1.82 42 98 149
15.79 14.81 1.82 41 97 148
16.09 14.81 1.64 41 97 148
16.09 14.70 1.64 42 98 149
16.09 14.59 1.64 42 98 149
16.09 14.47 1.64 44 97 149
16.09 14.36 1.64 46 99 151
16.09 14.24 1.64 45 96 149
16.09 14.13 1.64 44 95 148
16.09 14.02 1.64 42 93 146
16.09 13.90 1.64 41 94 148
16.09 13.79 1.64 42 95 149
15.79 13.56 1.82 44 97 151
15.79 13.45 1.82 46 99 153
15.79 13.34 1.82 43 96 150
15.79 13.22 1.82 43 96 150
15.79 13.11 1.82 44 97 151
15.79 12.99 1.82 45 98 152
15.79 12.88 1.82 46 99 151
15.79 12.77 1.82 46 99 151
15.79 12.65 1.82 46 99 151
15.79 12.54 1.82 47 100 152
16.09 12.53 1.64 43 98 152
16.09 12.42 1.64 43 98 152
16.09 12.31 1.64 44 99 153
16.09 12.19 1.64 43 100 153
16.09 12.08 1.64 42 99 152
16.09 11.96 1.64 42 99 152
16.09 11.85 1.64 44 101 154
16.09 11.73 1.64 39 99 151
16.09 11.62 1.64 43 103 155
16.09 11.51 1.64 40 100 150
16.09 11.39 1.64 43 103 153
16.09 11.28 1.64 42 103 150
16.09 11.16 1.64 39 100 147
16.09 11.05 1.64 41 104 148
16.09 10.94 1.64 39 101 148
16.09 10.82 1.64 41 103 150
16.09 10.71 1.64 41 103 152
16.09 10.59 1.64 41 103 152
16.09 10.48 1.64 40 102 151
16.09 10.37 1.64 40 102 151
15.79 10.16 1.82 39 101 150
15.79 10.04 1.82 40 102 153
15.79 9.93 1.82 40 102 153
15.79 9.82 1.82 38 100 151
15.79 9.70 1.82 41 101 153
15.79 9.59 1.82 42 102 154
15.79 9.48 1.82 43 103 155
15.79 9.36 1.82 42 102 154
15.79 9.25 1.82 40 100 150
15.79 9.14 1.82 38 98 148
15.49 8.94 2.01 39 96 149
15.49 8.82 2.01 37 97 149
15.49 8.71 2.01 36 98 149
15.49 8.60 2.01 37 99 150
15.79 8.57 1.82 38 98 152
15.79 8.46 1.82 39 97 147
15.49 8.26 2.01 40 99 143
15.49 8.15 2.01 42 99 142
15.49 8.03 2.01 43 97 143
15.49 7.92 2.01 68 121 165
15.49 7.81 2.01 18 76 113
15.79 7.77 1.82 1 45 70
15.79 7.66 1.82 32 51 57
12.67 2.21 3.77 156 190 199
12.67 2.10 3.77 151 191 199
12.67 2.00 3.77 132 174 186
12.67 1.89 3.77 119 165 180
