ply
format ascii 1.0
element vertex 1657
property float x
property float y
property float z
property uchar red
property uchar green
property uchar blue
end_header
4.15 -21.52 -1.13 210 210 208
4.15 -21.62 -1.13 212 212 210
4.15 -21.72 -1.13 213 213 211
4.15 -21.82 -1.13 213 213 211
4.15 -21.91 -1.13 210 210 210
4.15 -22.01 -1.13 210 210 210
4.15 -22.11 -1.13 210 210 210
4.15 -22.21 -1.13 211 211 211
4.15 -22.31 -1.13 211 211 211
4.15 -22.41 -1.13 211 211 211
4.15 -22.51 -1.13 210 210 210
4.15 -22.60 -1.13 209 209 209
4.15 -22.70 -1.13 210 210 210
4.15 -22.80 -1.13 210 210 210
4.15 -22.90 -1.13 210 210 210
4.15 -23.00 -1.13 210 210 210
4.15 -23.10 -1.13 211 211 211
4.15 -23.20 -1.13 211 211 211
4.15 -23.29 -1.13 211 211 211
4.15 -23.39 -1.13 209 209 207
4.15 -23.49 -1.13 211 211 209
4.15 -23.59 -1.13 211 211 209
4.15 -23.69 -1.13 209 209 207
4.15 -23.79 -1.13 209 209 207
4.15 -23.89 -1.13 211 211 209
4.15 -23.98 -1.13 211 211 211
4.15 -24.08 -1.13 210 210 210
4.15 -24.18 -1.13 211 211 213
4.15 -24.28 -1.13 211 211 213
4.15 -24.38 -1.13 211 211 213
4.15 -24.48 -1.13 211 211 213
4.15 -24.58 -1.13 211 210 215
4.15 -24.67 -1.13 212 211 216
4.15 -24.77 -1.13 213 212 217
4.15 -24.87 -1.13 213 212 217
4.15 -24.97 -1.13 211 211 211
4.15 -25.07 -1.13 213 213 213
4.15 -25.17 -1.13 210 210 210
4.15 -25.27 -1.13 211 211 211
4.15 -25.36 -1.13 209 209 209
4.15 -25.46 -1.13 214 214 214
4.15 -25.56 -1.13 208 208 206
3.93 -25.57 -0.94 216 216 214
3.93 -25.67 -0.94 131 131 131
3.93 -25.77 -0.94 38 38 38
2.50 22.97 0.16 0 0 0
2.50 22.88 0.16 0 0 0
2.50 22.78 0.16 0 0 0
2.69 22.82 -0.00 0 0 0
2.69 22.73 -0.00 0 0 0
2.69 22.63 -0.00 136 130 114
2.69 22.53 -0.00 136 130 114
2.69 22.44 -0.00 135 129 113
2.50 22.21 0.16 134 128 114
2.50 22.12 0.16 134 128 114
2.50 22.02 0.16 136 130 118
2.50 21.93 0.16 137 131 119
2.50 21.83 0.16 138 131 121
2.50 21.74 0.16 138 131 121
2.50 21.64 0.16 137 130 122
2.50 21.55 0.16 135 128 120
2.50 21.45 0.16 134 127 119
2.50 21.36 0.16 135 128 120
2.50 21.26 0.16 136 129 121
2.50 21.17 0.16 138 131 123
2.50 21.07 0.16 139 132 122
2.50 20.98 0.16 139 132 122
2.50 20.88 0.16 140 133 125
2.50 20.79 0.16 139 132 124
2.69 20.82 -0.00 139 132 124
2.50 20.60 0.16 141 134 124
2.69 20.63 -0.00 141 134 124
2.69 20.53 -0.00 140 133 123
2.69 20.44 -0.00 138 131 121
2.69 20.34 -0.00 137 130 120
2.69 20.24 -0.00 138 131 121
2.69 20.15 -0.00 139 130 123
2.69 20.05 -0.00 139 130 123
2.69 19.96 -0.00 140 131 124
2.69 19.86 -0.00 140 131 124
2.69 19.77 -0.00 141 132 127
2.69 19.67 -0.00 141 132 127
2.69 19.58 -0.00 138 133 127
2.69 19.48 -0.00 138 133 127
2.69 19.39 -0.00 139 134 128
2.69 19.29 -0.00 139 134 128
2.50 19.08 0.16 138 133 127
2.50 18.98 0.16 138 133 127
2.50 18.89 0.16 139 134 128
2.50 18.79 0.16 140 135 129
2.50 18.70 0.16 137 132 126
2.50 18.60 0.16 138 133 127
2.50 18.51 0.16 140 135 129
2.50 18.41 0.16 140 135 129
2.50 18.32 0.16 141 137 128
2.50 18.22 0.16 143 139 130
2.69 18.24 -0.00 144 139 133
2.69 18.15 -0.00 140 140 132
2.69 18.05 -0.00 140 139 134
2.69 17.95 -0.00 140 140 132
2.69 17.86 -0.00 140 140 132
2.69 17.76 -0.00 143 140 133
2.69 17.67 -0.00 143 140 133
2.69 17.57 -0.00 144 139 133
2.69 17.48 -0.00 145 140 134
2.69 17.38 -0.00 143 139 130
2.69 17.29 -0.00 142 138 129
2.69 17.19 -0.00 141 138 129
2.69 17.10 -0.00 141 138 129
2.69 17.00 -0.00 139 139 131
2.69 16.90 -0.00 139 139 131
2.69 16.81 -0.00 139 139 131
2.69 16.71 -0.00 141 138 131
2.69 16.62 -0.00 142 139 132
2.69 16.52 -0.00 142 137 131
2.69 16.43 -0.00 143 138 132
2.69 16.33 -0.00 145 140 134
2.69 16.24 -0.00 146 141 135
2.88 16.25 -0.17 144 139 133
2.88 16.15 -0.17 144 139 133
2.69 15.95 -0.00 145 140 134
2.69 15.86 -0.00 145 140 134
2.69 15.76 -0.00 145 140 134
2.69 15.66 -0.00 146 141 135
2.69 15.57 -0.00 147 142 136
2.69 15.47 -0.00 146 141 135
2.69 15.38 -0.00 145 141 132
2.69 15.28 -0.00 143 138 132
2.69 15.19 -0.00 146 141 137
2.69 15.09 -0.00 146 141 138
2.69 15.00 -0.00 146 143 138
2.69 14.90 -0.00 147 144 139
2.69 14.81 -0.00 145 144 139
2.50 14.61 0.16 144 143 138
2.50 14.52 0.16 143 143 135
2.50 14.42 0.16 143 143 135
2.69 14.42 -0.00 142 143 137
2.69 14.33 -0.00 142 143 137
2.69 14.23 -0.00 144 143 139
2.69 14.14 -0.00 145 144 140
2.69 14.04 -0.00 146 145 143
2.69 13.95 -0.00 146 145 143
2.88 13.95 -0.17 147 143 142
2.88 13.85 -0.17 148 144 143
2.88 13.75 -0.17 146 142 141
2.88 13.66 -0.17 146 142 139
2.88 13.56 -0.17 148 144 141
3.10 13.57 -0.35 147 146 141
3.10 13.48 -0.35 146 145 140
3.10 13.38 -0.35 147 146 141
3.10 13.28 -0.35 150 149 144
3.10 13.19 -0.35 146 147 141
3.10 13.09 -0.35 147 148 142
2.88 12.89 -0.17 147 149 144
2.88 12.80 -0.17 148 150 145
2.88 12.70 -0.17 148 150 147
2.88 12.60 -0.17 148 150 147
2.88 12.51 -0.17 148 150 149
2.88 12.41 -0.17 148 150 149
2.88 12.32 -0.17 150 152 149
2.88 12.22 -0.17 149 151 148
2.88 12.13 -0.17 148 150 145
2.88 12.03 -0.17 147 149 144
2.88 11.93 -0.17 148 151 142
3.10 11.94 -0.35 149 152 143
3.10 11.84 -0.35 151 154 143
3.10 11.74 -0.35 150 154 140
3.10 11.65 -0.35 149 153 139
3.10 11.55 -0.35 149 152 141
3.10 11.45 -0.35 148 151 142
3.10 11.36 -0.35 149 152 143
3.10 11.26 -0.35 150 153 146
3.10 11.16 -0.35 151 153 148
3.10 11.07 -0.35 152 153 147
2.88 10.88 -0.17 152 154 143
2.88 10.78 -0.17 154 154 142
2.88 10.69 -0.17 154 156 145
3.10 10.68 -0.35 153 155 144
3.10 10.59 -0.35 152 153 145
3.10 10.49 -0.35 152 153 147
3.10 10.39 -0.35 153 154 148
3.10 10.30 -0.35 154 155 150
3.10 10.20 -0.35 155 156 151
2.88 10.02 -0.17 155 156 151
2.88 9.92 -0.17 154 156 151
2.88 9.83 -0.17 153 155 150
2.88 9.73 -0.17 153 155 150
2.88 9.63 -0.17 153 155 150
2.88 9.54 -0.17 155 158 151
-3.57 6.90 5.38 156 159 150
-3.57 6.82 5.38 156 158 145
-3.57 6.73 5.38 156 158 147
-3.57 6.65 5.38 157 158 150
-3.57 6.57 5.38 160 161 153
-3.57 6.49 5.38 164 165 160
-3.57 6.41 5.38 168 168 166
-3.57 6.33 5.38 169 171 170
-3.57 6.25 5.38 173 177 178
-3.41 6.23 5.24 175 181 179
-3.41 6.14 5.24 185 196 188
-3.41 6.06 5.24 201 215 200
-3.41 5.98 5.24 205 224 202
-3.41 5.90 5.24 184 207 178
-3.41 5.82 5.24 145 171 134
-3.41 5.74 5.24 108 144 96
-3.41 5.65 5.24 98 150 86
-3.41 5.57 5.24 96 160 84
-3.41 5.49 5.24 100 169 86
-3.28 5.46 5.13 97 171 82
-3.28 5.37 5.13 91 168 74
-3.14 5.34 5.01 91 171 74
-3.00 5.30 4.90 95 177 79
-2.84 5.28 4.76 94 175 80
-2.71 5.24 4.64 93 174 82
-2.55 5.21 4.50 94 172 88
-2.25 5.23 4.25 94 171 89
-2.25 5.14 4.25 92 172 87
-2.11 5.10 4.13 92 172 85
-2.11 5.02 4.13 94 177 87
-1.95 4.99 3.99 104 178 91
-1.95 4.90 3.99 115 171 96
-1.95 4.82 3.99 128 170 106
-1.95 4.73 3.99 132 170 111
-1.95 4.65 3.99 138 164 117
-1.95 4.56 3.99 146 161 122
-1.79 4.53 3.85 159 158 130
-1.79 4.44 3.85 167 152 131
-1.79 4.36 3.85 174 142 129
-1.79 4.27 3.85 174 128 115
-1.79 4.19 3.85 186 123 114
-1.79 4.10 3.85 192 117 111
-1.79 4.02 3.85 195 106 100
-1.79 3.93 3.85 195 96 91
-1.63 3.89 3.71 205 96 93
-1.63 3.81 3.71 224 109 106
-1.63 3.72 3.71 233 128 125
-1.63 3.64 3.71 241 162 157
-1.63 3.55 3.71 240 181 175
-1.63 3.46 3.71 248 203 198
-1.63 3.38 3.71 249 231 227
-1.63 3.29 3.71 241 236 233
-1.49 3.24 3.60 235 237 236
-1.49 3.16 3.60 232 238 238
3.10 4.33 -0.35 239 245 245
3.29 4.28 -0.52 239 243 244
3.29 4.18 -0.52 242 244 243
3.29 4.09 -0.52 245 245 245
3.29 3.99 -0.52 244 242 243
3.29 3.89 -0.52 238 236 237
3.29 3.80 -0.52 231 232 234
3.29 3.70 -0.52 228 229 231
3.29 3.60 -0.52 218 218 216
3.29 3.51 -0.52 212 212 210
3.29 3.41 -0.52 207 209 206
3.29 3.31 -0.52 194 196 193
3.29 3.22 -0.52 191 196 192
3.29 3.12 -0.52 180 185 181
3.29 3.02 -0.52 175 184 179
3.29 2.93 -0.52 168 177 172
3.29 2.83 -0.52 170 179 176
3.29 2.73 -0.52 170 179 176
3.29 2.64 -0.52 172 178 176
3.29 2.54 -0.52 169 175 173
3.29 2.44 -0.52 169 173 172
3.29 2.35 -0.52 174 176 175
3.29 2.25 -0.52 176 178 177
3.29 2.15 -0.52 170 176 174
3.29 2.06 -0.52 170 176 174
3.29 1.96 -0.52 171 177 175
3.29 1.86 -0.52 171 177 175
3.29 1.77 -0.52 170 176 174
3.29 1.67 -0.52 170 176 174
3.29 1.57 -0.52 171 175 174
3.29 1.48 -0.52 171 175 174
3.29 1.38 -0.52 170 174 173
3.29 1.28 -0.52 170 174 173
3.29 1.18 -0.52 170 174 173
3.29 1.09 -0.52 170 174 173
3.29 0.99 -0.52 170 174 173
3.29 0.89 -0.52 171 175 174
3.29 0.80 -0.52 173 175 174
3.29 0.70 -0.52 174 176 175
3.29 0.60 -0.52 172 176 175
3.29 0.51 -0.52 174 178 177
3.29 0.41 -0.52 175 179 178
3.29 0.31 -0.52 175 179 178
3.29 0.22 -0.52 172 178 176
3.29 0.12 -0.52 172 178 176
3.48 0.06 -0.68 173 179 177
3.48 -0.04 -0.68 174 180 178
3.48 -0.14 -0.68 176 182 180
3.48 -0.23 -0.68 174 183 180
3.48 -0.33 -0.68 173 182 179
3.29 -0.46 -0.52 173 182 179
3.29 -0.56 -0.52 174 183 180
3.29 -0.65 -0.52 175 184 181
3.29 -0.75 -0.52 174 183 180
3.29 -0.85 -0.52 173 182 179
3.29 -0.94 -0.52 173 182 179
3.29 -1.04 -0.52 173 182 179
3.29 -1.14 -0.52 173 182 179
3.29 -1.23 -0.52 173 182 179
3.48 -1.30 -0.68 174 183 180
3.48 -1.40 -0.68 175 184 181
3.48 -1.50 -0.68 175 184 181
3.48 -1.60 -0.68 176 185 182
3.48 -1.69 -0.68 176 185 182
3.48 -1.79 -0.68 176 185 182
3.48 -1.89 -0.68 175 184 181
3.48 -1.98 -0.68 175 184 181
3.48 -2.08 -0.68 175 184 181
3.48 -2.18 -0.68 179 188 185
3.48 -2.28 -0.68 175 186 182
3.48 -2.37 -0.68 176 187 183
3.48 -2.47 -0.68 177 188 184
3.48 -2.57 -0.68 177 188 184
3.48 -2.66 -0.68 177 186 183
3.48 -2.76 -0.68 177 186 183
3.48 -2.86 -0.68 180 186 184
3.48 -2.96 -0.68 181 187 185
3.48 -3.05 -0.68 180 186 184
3.48 -3.15 -0.68 180 186 184
3.48 -3.25 -0.68 182 186 185
3.48 -3.34 -0.68 183 187 186
3.48 -3.44 -0.68 184 188 187
3.48 -3.54 -0.68 184 188 187
3.48 -3.64 -0.68 184 188 187
3.48 -3.73 -0.68 183 189 187
3.48 -3.83 -0.68 181 190 187
3.48 -3.93 -0.68 180 191 187
3.48 -4.02 -0.68 180 191 187
3.48 -4.12 -0.68 181 192 188
3.48 -4.22 -0.68 182 191 188
3.48 -4.32 -0.68 182 191 188
3.69 -4.40 -0.86 183 192 189
3.69 -4.50 -0.86 181 190 187
3.69 -4.59 -0.86 182 191 188
3.69 -4.69 -0.86 186 192 190
3.69 -4.79 -0.86 186 192 190
3.69 -4.89 -0.86 187 193 191
3.69 -4.98 -0.86 187 193 191
3.69 -5.08 -0.86 188 194 192
3.69 -5.18 -0.86 189 195 193
3.69 -5.28 -0.86 183 192 189
3.48 -5.38 -0.68 184 193 190
3.48 -5.48 -0.68 184 193 190
3.48 -5.58 -0.68 185 194 191
3.48 -5.68 -0.68 186 195 192
3.48 -5.77 -0.68 186 195 192
3.48 -5.87 -0.68 186 195 192
3.48 -5.97 -0.68 186 195 192
3.48 -6.07 -0.68 186 195 192
3.48 -6.16 -0.68 186 195 192
3.48 -6.26 -0.68 186 195 192
3.48 -6.36 -0.68 187 196 193
3.48 -6.45 -0.68 188 197 194
3.48 -6.55 -0.68 189 198 195
3.48 -6.65 -0.68 190 199 196
3.48 -6.75 -0.68 191 200 197
3.48 -6.84 -0.68 187 196 191
3.48 -6.94 -0.68 189 198 195
3.48 -7.04 -0.68 191 200 197
3.48 -7.13 -0.68 192 201 200
3.69 -7.23 -0.86 192 201 200
3.69 -7.33 -0.86 192 201 200
3.69 -7.43 -0.86 191 200 199
3.69 -7.52 -0.86 190 199 198
3.69 -7.62 -0.86 190 199 198
3.48 -7.72 -0.68 190 199 198
3.48 -7.81 -0.68 191 200 199
3.48 -7.91 -0.68 191 200 197
3.48 -8.01 -0.68 192 201 198
3.48 -8.11 -0.68 192 201 196
3.48 -8.20 -0.68 192 201 196
3.48 -8.30 -0.68 194 203 200
3.48 -8.40 -0.68 194 203 200
3.48 -8.49 -0.68 195 204 201
3.48 -8.59 -0.68 195 204 201
3.48 -8.69 -0.68 194 203 200
3.69 -8.79 -0.86 192 201 198
3.69 -8.89 -0.86 192 201 198
3.69 -8.99 -0.86 194 203 200
3.69 -9.09 -0.86 197 206 203
3.69 -9.18 -0.86 200 209 206
3.69 -9.28 -0.86 199 208 205
3.69 -9.38 -0.86 198 207 204
3.69 -9.48 -0.86 197 206 203
3.69 -9.57 -0.86 197 206 203
3.69 -9.67 -0.86 197 206 203
3.69 -9.77 -0.86 195 204 201
3.69 -9.87 -0.86 195 204 201
3.69 -9.96 -0.86 196 205 202
3.69 -10.06 -0.86 198 207 204
3.69 -10.16 -0.86 199 208 205
3.69 -10.26 -0.86 200 209 206
3.69 -10.36 -0.86 200 209 206
3.69 -10.45 -0.86 200 209 206
3.69 -10.55 -0.86 199 208 205
3.69 -10.65 -0.86 199 208 205
3.69 -10.75 -0.86 199 208 205
3.69 -10.84 -0.86 200 209 206
3.69 -10.94 -0.86 200 209 206
3.69 -11.04 -0.86 201 210 207
3.88 -11.15 -1.03 201 210 207
3.88 -11.25 -1.03 202 211 208
3.88 -11.35 -1.03 202 211 208
3.88 -11.45 -1.03 202 211 208
3.88 -11.55 -1.03 200 209 206
3.88 -11.64 -1.03 201 210 207
3.88 -11.74 -1.03 201 210 207
3.88 -11.84 -1.03 202 211 208
3.88 -11.94 -1.03 203 212 209
3.69 -12.02 -0.86 200 209 206
3.69 -12.11 -0.86 200 209 206
3.69 -12.21 -0.86 201 210 207
3.69 -12.31 -0.86 202 211 208
3.69 -12.41 -0.86 203 212 209
3.69 -12.50 -0.86 203 212 209
3.69 -12.60 -0.86 203 212 209
3.69 -12.70 -0.86 203 212 209
3.69 -12.80 -0.86 208 214 212
3.69 -12.89 -0.86 206 212 210
3.69 -12.99 -0.86 205 211 209
3.69 -13.09 -0.86 205 211 209
3.69 -13.19 -0.86 206 212 210
3.69 -13.28 -0.86 206 212 210
3.69 -13.38 -0.86 205 211 209
3.69 -13.48 -0.86 204 210 208
3.69 -13.58 -0.86 205 211 209
3.69 -13.68 -0.86 204 210 208
3.69 -13.77 -0.86 204 210 208
3.69 -13.87 -0.86 203 209 207
3.88 -14.00 -1.03 204 210 208
3.88 -14.10 -1.03 205 211 209
3.88 -14.19 -1.03 206 212 210
3.88 -14.29 -1.03 200 211 207
3.88 -14.39 -1.03 200 211 207
3.88 -14.49 -1.03 201 212 208
3.88 -14.59 -1.03 202 213 209
3.88 -14.68 -1.03 203 214 210
3.88 -14.78 -1.03 204 215 211
3.88 -14.88 -1.03 205 214 211
3.88 -14.98 -1.03 205 214 211
3.88 -15.08 -1.03 207 213 211
3.88 -15.17 -1.03 206 212 210
3.88 -15.27 -1.03 205 211 209
3.88 -15.37 -1.03 206 212 210
3.88 -15.47 -1.03 208 212 211
3.88 -15.57 -1.03 209 213 212
3.88 -15.66 -1.03 208 212 211
3.88 -15.76 -1.03 207 213 211
3.88 -15.86 -1.03 204 215 211
3.88 -15.96 -1.03 203 215 211
3.88 -16.06 -1.03 203 214 210
3.88 -16.15 -1.03 202 213 209
3.88 -16.25 -1.03 201 210 207
3.88 -16.35 -1.03 204 210 208
3.88 -16.45 -1.03 205 211 209
3.88 -16.55 -1.03 206 210 209
3.88 -16.65 -1.03 208 212 211
3.88 -16.74 -1.03 210 212 211
3.88 -16.84 -1.03 208 210 209
3.88 -16.94 -1.03 210 210 210
3.88 -17.04 -1.03 212 212 212
3.88 -17.14 -1.03 212 212 212
3.88 -17.23 -1.03 210 210 210
3.88 -17.33 -1.03 213 211 212
3.88 -17.43 -1.03 212 210 211
3.88 -17.53 -1.03 211 211 211
3.88 -17.63 -1.03 211 211 211
3.88 -17.72 -1.03 210 212 211
3.88 -17.82 -1.03 210 212 211
3.88 -17.92 -1.03 208 212 211
3.88 -18.02 -1.03 208 212 211
3.88 -18.12 -1.03 207 213 211
3.88 -18.21 -1.03 207 213 211
3.88 -18.31 -1.03 208 212 211
3.88 -18.41 -1.03 208 212 211
3.88 -18.51 -1.03 209 211 210
3.88 -18.61 -1.03 208 210 209
3.69 -18.66 -0.86 208 210 209
3.69 -18.75 -0.86 207 211 210
3.69 -18.85 -0.86 207 211 210
3.69 -18.95 -0.86 207 211 210
3.88 -19.10 -1.03 208 212 211
3.88 -19.20 -1.03 208 212 211
3.88 -19.29 -1.03 208 212 211
3.88 -19.39 -1.03 210 212 211
3.88 -19.49 -1.03 209 211 210
3.88 -19.59 -1.03 207 209 208
3.88 -19.69 -1.03 208 210 209
3.88 -19.78 -1.03 210 210 210
3.88 -19.88 -1.03 210 210 210
3.88 -19.98 -1.03 211 211 211
3.88 -20.08 -1.03 211 211 211
3.88 -20.18 -1.03 211 211 211
3.88 -20.27 -1.03 211 211 211
3.88 -20.37 -1.03 212 212 214
3.88 -20.47 -1.03 211 211 213
3.88 -20.57 -1.03 211 211 211
3.88 -20.67 -1.03 210 210 210
3.88 -20.76 -1.03 210 210 210
3.88 -20.86 -1.03 211 211 211
3.88 -20.96 -1.03 212 212 212
3.88 -21.06 -1.03 212 212 212
3.88 -21.16 -1.03 211 211 211
3.88 -21.25 -1.03 210 210 208
3.88 -21.35 -1.03 210 210 208
3.88 -21.45 -1.03 210 210 208
3.88 -21.55 -1.03 210 210 208
3.88 -21.65 -1.03 210 210 208
3.88 -21.75 -1.03 211 211 209
4.10 -21.91 -1.21 209 209 209
4.10 -22.01 -1.21 209 209 209
4.10 -22.11 -1.21 209 209 209
4.10 -22.21 -1.21 210 210 210
4.10 -22.31 -1.21 211 211 211
3.88 -22.33 -1.03 212 212 212
3.88 -22.43 -1.03 212 212 212
3.88 -22.53 -1.03 212 212 212
4.10 -22.70 -1.21 212 212 212
4.10 -22.80 -1.21 212 212 212
4.10 -22.90 -1.21 211 211 211
4.10 -23.00 -1.21 211 211 211
4.10 -23.10 -1.21 210 210 210
4.10 -23.20 -1.21 210 210 210
4.10 -23.29 -1.21 210 210 210
4.10 -23.39 -1.21 209 209 207
4.10 -23.49 -1.21 211 211 209
4.10 -23.59 -1.21 211 211 209
4.10 -23.69 -1.21 209 209 207
4.10 -23.79 -1.21 209 209 207
4.10 -23.89 -1.21 211 211 209
4.10 -23.98 -1.21 211 211 211
4.10 -24.08 -1.21 210 210 210
4.10 -24.18 -1.21 211 211 213
3.88 -24.20 -1.03 210 210 212
3.88 -24.30 -1.03 210 210 212
3.88 -24.39 -1.03 209 209 211
3.88 -24.49 -1.03 209 208 213
4.10 -24.67 -1.21 210 209 214
4.10 -24.77 -1.21 210 209 214
4.10 -24.87 -1.21 211 210 215
4.10 -24.97 -1.21 210 210 210
4.10 -25.07 -1.21 215 215 215
3.88 -25.08 -1.03 210 210 210
3.88 -25.18 -1.03 212 212 212
3.88 -25.28 -1.03 207 207 207
3.88 -25.37 -1.03 215 215 215
3.88 -25.47 -1.03 211 211 209
3.88 -25.57 -1.03 210 210 208
3.88 -25.67 -1.03 163 163 163
3.88 -25.77 -1.03 34 34 34
2.46 22.97 0.08 0 0 0
2.46 22.88 0.08 0 0 0
2.46 22.78 0.08 0 0 0
2.46 22.69 0.08 0 0 0
2.46 22.59 0.08 0 0 0
2.46 22.50 0.08 133 131 119
2.46 22.40 0.08 133 131 119
2.46 22.31 0.08 133 131 119
2.46 22.21 0.08 132 130 118
2.46 22.12 0.08 132 130 118
2.46 22.02 0.08 134 130 119
2.46 21.93 0.08 134 130 119
2.46 21.83 0.08 134 130 119
2.46 21.74 0.08 135 131 120
2.46 21.64 0.08 133 129 118
2.46 21.55 0.08 133 129 118
2.46 21.45 0.08 136 129 121
2.46 21.36 0.08 137 130 122
2.46 21.26 0.08 139 132 124
2.46 21.17 0.08 139 132 124
2.46 21.07 0.08 139 132 124
2.46 20.98 0.08 138 131 123
2.46 20.88 0.08 140 133 125
2.46 20.79 0.08 140 133 125
2.46 20.69 0.08 139 132 124
2.46 20.60 0.08 140 133 125
2.46 20.50 0.08 141 134 126
2.46 20.41 0.08 140 133 125
2.46 20.31 0.08 137 130 122
2.65 20.34 -0.09 139 130 123
2.65 20.24 -0.09 139 130 123
2.46 20.03 0.08 140 131 124
2.46 19.93 0.08 140 131 124
2.46 19.84 0.08 140 131 124
2.46 19.74 0.08 140 131 124
2.46 19.65 0.08 140 131 124
2.46 19.55 0.08 139 130 123
2.46 19.46 0.08 135 130 124
2.46 19.36 0.08 137 132 126
2.46 19.27 0.08 139 134 128
2.46 19.17 0.08 140 135 129
2.46 19.08 0.08 141 136 130
2.46 18.98 0.08 140 135 129
2.46 18.89 0.08 139 134 128
2.46 18.79 0.08 139 134 128
2.46 18.70 0.08 141 136 130
2.46 18.60 0.08 142 137 131
2.46 18.51 0.08 143 138 132
2.46 18.41 0.08 142 137 131
2.46 18.32 0.08 141 136 130
2.46 18.22 0.08 142 137 131
2.46 18.13 0.08 143 138 135
2.46 18.03 0.08 140 138 139
2.46 17.94 0.08 140 138 143
2.46 17.84 0.08 139 137 140
2.46 17.75 0.08 139 137 140
2.46 17.65 0.08 142 138 137
2.65 17.67 -0.09 143 139 138
2.65 17.57 -0.09 144 141 136
2.65 17.48 -0.09 145 142 137
2.65 17.38 -0.09 147 142 136
2.65 17.29 -0.09 146 141 135
2.65 17.19 -0.09 147 140 134
2.65 17.10 -0.09 147 140 134
2.65 17.00 -0.09 148 141 135
2.65 16.90 -0.09 147 140 134
2.65 16.81 -0.09 146 139 133
2.65 16.71 -0.09 144 137 131
2.65 16.62 -0.09 148 139 134
2.65 16.52 -0.09 149 140 135
2.65 16.43 -0.09 148 140 137
2.65 16.33 -0.09 148 140 137
2.65 16.24 -0.09 144 139 135
2.65 16.14 -0.09 143 138 134
2.65 16.05 -0.09 144 139 135
2.65 15.95 -0.09 146 141 137
2.65 15.86 -0.09 146 141 137
2.65 15.76 -0.09 145 140 134
2.65 15.66 -0.09 145 140 134
2.65 15.57 -0.09 146 139 131
2.65 15.47 -0.09 146 139 131
2.46 15.28 0.08 147 138 129
2.46 15.18 0.08 146 139 131
2.46 15.09 0.08 146 141 135
2.46 14.99 0.08 146 143 138
2.46 14.90 0.08 147 143 140
2.46 14.80 0.08 146 142 139
2.46 14.71 0.08 146 142 141
2.46 14.61 0.08 145 141 140
2.46 14.52 0.08 146 142 143
2.46 14.42 0.08 147 143 144
2.46 14.33 0.08 148 144 145
2.65 14.33 -0.09 148 144 145
2.65 14.23 -0.09 149 145 146
2.65 14.14 -0.09 149 145 146
2.65 14.04 -0.09 149 145 146
2.65 13.95 -0.09 148 144 145
2.65 13.85 -0.09 148 144 143
2.65 13.76 -0.09 149 145 144
2.83 13.75 -0.25 148 144 143
2.83 13.66 -0.25 148 144 141
2.83 13.56 -0.25 147 143 140
2.83 13.47 -0.25 148 145 140
2.83 13.37 -0.25 149 146 141
2.83 13.28 -0.25 150 147 140
2.83 13.18 -0.25 150 147 140
2.83 13.08 -0.25 149 149 141
2.83 12.99 -0.25 149 149 141
2.65 12.80 -0.09 150 149 144
2.65 12.71 -0.09 151 150 145
2.65 12.61 -0.09 151 150 146
2.65 12.52 -0.09 151 150 146
2.65 12.42 -0.09 150 149 147
2.65 12.33 -0.09 149 148 144
2.65 12.23 -0.09 150 147 142
2.65 12.13 -0.09 152 149 142
2.65 12.04 -0.09 153 150 143
2.83 12.03 -0.25 153 150 143
2.83 11.93 -0.25 150 149 144
2.83 11.84 -0.25 150 149 144
2.83 11.74 -0.25 152 151 146
2.83 11.65 -0.25 151 150 145
2.83 11.55 -0.25 152 151 146
2.83 11.45 -0.25 152 151 146
2.83 11.36 -0.25 152 151 146
2.83 11.26 -0.25 154 151 146
2.83 11.17 -0.25 153 150 145
2.83 11.07 -0.25 154 151 146
2.83 10.98 -0.25 154 151 146
2.83 10.88 -0.25 157 153 150
2.83 10.78 -0.25 157 153 150
2.83 10.69 -0.25 158 154 151
2.83 10.59 -0.25 158 154 151
2.83 10.50 -0.25 155 154 150
2.83 10.40 -0.25 154 153 149
2.83 10.30 -0.25 154 153 149
2.83 10.21 -0.25 155 154 150
2.83 10.11 -0.25 152 153 148
2.83 10.02 -0.25 154 155 150
2.83 9.92 -0.25 155 156 151
2.83 9.83 -0.25 155 156 151
2.83 9.73 -0.25 154 156 151
2.83 9.63 -0.25 154 156 151
2.65 9.46 -0.09 154 156 151
-3.61 6.90 5.31 156 157 152
-3.61 6.82 5.31 159 158 156
-3.61 6.73 5.31 158 157 152
-3.61 6.65 5.31 158 157 152
-3.61 6.57 5.31 157 159 148
-3.61 6.49 5.31 161 163 152
-3.61 6.41 5.31 163 170 154
-3.61 6.33 5.31 166 175 156
-3.61 6.25 5.31 167 181 158
-3.61 6.16 5.31 175 195 167
-3.45 6.14 5.17 172 202 164
-3.45 6.06 5.17 147 186 139
-3.45 5.98 5.17 108 162 102
-3.45 5.90 5.17 82 145 75
-3.45 5.82 5.17 74 147 68
-3.45 5.74 5.17 75 155 70
-3.45 5.65 5.17 73 156 68
-3.45 5.57 5.17 75 159 71
-3.45 5.49 5.17 79 163 75
-3.32 5.46 5.06 81 165 79
-3.32 5.37 5.06 83 165 81
-3.18 5.34 4.94 84 166 81
-3.05 5.30 4.82 85 168 80
-2.88 5.28 4.68 87 170 78
-2.75 5.24 4.57 90 175 74
-2.59 5.21 4.43 91 177 70
-2.45 5.17 4.31 92 177 73
-2.29 5.14 4.17 93 176 72
-2.29 5.06 4.17 93 175 75
-2.16 5.02 4.06 94 176 78
-2.16 4.93 4.06 97 174 80
-1.99 4.90 3.92 112 178 90
-1.99 4.82 3.92 120 173 91
-1.99 4.73 3.92 128 169 93
-1.99 4.65 3.92 138 165 98
-1.99 4.56 3.92 145 160 103
-1.83 4.53 3.78 155 151 104
-1.83 4.44 3.78 169 139 103
-1.83 4.36 3.78 185 127 103
-1.83 4.27 3.78 198 119 102
-1.83 4.19 3.78 211 110 98
-1.83 4.10 3.78 208 94 84
-1.83 4.02 3.78 222 87 81
-1.83 3.93 3.78 230 75 71
-1.67 3.89 3.64 234 65 62
-1.67 3.81 3.64 236 64 60
-1.67 3.72 3.64 255 86 81
-1.67 3.64 3.64 255 118 115
-1.67 3.55 3.64 255 144 139
-1.67 3.46 3.64 255 170 160
-1.67 3.38 3.64 241 229 215
-1.67 3.29 3.64 235 238 229
3.05 4.52 -0.44 231 233 228
3.05 4.42 -0.44 236 236 236
3.05 4.33 -0.44 237 231 235
3.05 4.23 -0.44 237 232 236
3.05 4.13 -0.44 235 237 234
3.05 4.04 -0.44 232 241 236
3.05 3.94 -0.44 230 241 233
3.05 3.84 -0.44 225 235 227
3.05 3.75 -0.44 226 226 224
3.05 3.65 -0.44 226 222 221
3.24 3.60 -0.60 217 217 215
3.24 3.51 -0.60 210 210 208
3.05 3.36 -0.44 200 202 199
3.05 3.27 -0.44 194 196 193
3.05 3.17 -0.44 188 193 189
3.05 3.07 -0.44 182 187 183
3.05 2.98 -0.44 174 180 176
3.05 2.88 -0.44 168 174 170
3.05 2.78 -0.44 170 176 174
3.05 2.69 -0.44 170 176 174
3.05 2.59 -0.44 170 176 174
3.05 2.50 -0.44 170 176 174
3.24 2.44 -0.60 169 175 173
3.24 2.35 -0.60 168 174 172
3.24 2.25 -0.60 168 174 172
3.24 2.15 -0.60 170 174 173
3.24 2.06 -0.60 170 174 173
3.24 1.96 -0.60 169 175 173
3.24 1.86 -0.60 170 176 174
3.24 1.77 -0.60 167 176 173
3.24 1.67 -0.60 167 176 173
3.24 1.57 -0.60 166 175 172
3.05 1.44 -0.44 166 175 172
3.05 1.34 -0.44 164 175 171
3.05 1.24 -0.44 164 175 171
3.05 1.15 -0.44 165 176 172
3.05 1.05 -0.44 166 177 173
3.05 0.95 -0.44 169 178 175
3.05 0.86 -0.44 170 179 176
3.05 0.76 -0.44 170 179 176
3.05 0.67 -0.44 169 178 175
3.05 0.57 -0.44 170 176 174
3.05 0.47 -0.44 170 176 174
3.05 0.38 -0.44 172 178 176
3.24 0.31 -0.60 173 179 177
3.24 0.22 -0.60 173 179 177
3.24 0.12 -0.60 172 178 176
3.24 0.02 -0.60 174 180 178
3.24 -0.07 -0.60 171 180 177
3.24 -0.17 -0.60 171 180 177
3.24 -0.27 -0.60 171 180 177
3.24 -0.36 -0.60 171 180 177
3.24 -0.46 -0.60 173 182 179
3.24 -0.56 -0.60 174 183 180
3.24 -0.65 -0.60 174 183 180
3.24 -0.75 -0.60 174 183 180
3.24 -0.85 -0.60 179 185 183
3.24 -0.94 -0.60 177 183 181
3.24 -1.04 -0.60 174 180 178
3.24 -1.14 -0.60 174 180 178
3.24 -1.23 -0.60 175 181 179
3.24 -1.33 -0.60 176 182 180
3.24 -1.43 -0.60 176 182 180
3.24 -1.52 -0.60 175 181 179
3.43 -1.60 -0.76 176 185 182
3.43 -1.69 -0.76 176 185 182
3.43 -1.79 -0.76 176 185 182
3.43 -1.89 -0.76 175 184 181
3.24 -2.01 -0.60 176 185 182
3.24 -2.10 -0.60 176 185 182
3.24 -2.20 -0.60 175 186 182
3.24 -2.30 -0.60 179 189 181
3.24 -2.39 -0.60 178 188 180
3.24 -2.49 -0.60 177 186 181
3.24 -2.59 -0.60 176 185 180
3.24 -2.68 -0.60 176 185 182
3.43 -2.76 -0.76 177 186 183
3.43 -2.86 -0.76 178 187 186
3.43 -2.96 -0.76 179 188 187
3.43 -3.05 -0.76 177 186 185
3.43 -3.15 -0.76 179 188 187
3.43 -3.25 -0.76 180 189 188
3.43 -3.34 -0.76 181 190 189
3.43 -3.44 -0.76 180 189 186
3.43 -3.54 -0.76 180 189 186
3.43 -3.64 -0.76 181 190 185
3.43 -3.73 -0.76 182 191 186
3.43 -3.83 -0.76 180 189 186
3.43 -3.93 -0.76 181 190 187
3.43 -4.02 -0.76 182 191 188
3.43 -4.12 -0.76 183 192 189
3.43 -4.22 -0.76 183 192 189
3.43 -4.32 -0.76 183 192 189
3.43 -4.41 -0.76 184 193 190
3.43 -4.51 -0.76 178 189 185
3.43 -4.61 -0.76 179 190 186
3.43 -4.70 -0.76 181 192 188
3.43 -4.80 -0.76 183 194 190
3.43 -4.90 -0.76 184 195 191
3.43 -5.00 -0.76 185 196 192
3.43 -5.09 -0.76 185 196 192
3.43 -5.19 -0.76 186 195 192
3.43 -5.29 -0.76 186 195 192
3.43 -5.38 -0.76 188 194 192
3.43 -5.48 -0.76 188 194 192
3.43 -5.58 -0.76 188 194 192
3.43 -5.68 -0.76 186 195 192
3.43 -5.77 -0.76 186 195 192
3.43 -5.87 -0.76 186 197 193
3.43 -5.97 -0.76 186 197 193
3.43 -6.07 -0.76 185 196 192
3.43 -6.16 -0.76 184 195 191
3.43 -6.26 -0.76 185 194 191
3.43 -6.36 -0.76 185 194 191
3.43 -6.45 -0.76 187 196 193
3.43 -6.55 -0.76 188 197 194
3.43 -6.65 -0.76 192 198 196
3.43 -6.75 -0.76 193 199 197
3.43 -6.84 -0.76 187 197 196
3.43 -6.94 -0.76 188 198 197
3.43 -7.04 -0.76 188 198 197
3.43 -7.13 -0.76 189 198 197
3.43 -7.23 -0.76 190 199 198
3.43 -7.33 -0.76 191 200 199
3.43 -7.43 -0.76 192 201 200
3.43 -7.52 -0.76 190 199 198
3.43 -7.62 -0.76 190 199 198
3.43 -7.72 -0.76 191 200 199
3.43 -7.81 -0.76 191 200 199
3.43 -7.91 -0.76 192 201 200
3.43 -8.01 -0.76 193 202 201
3.43 -8.11 -0.76 193 202 201
3.43 -8.20 -0.76 194 203 202
3.43 -8.30 -0.76 190 199 196
3.43 -8.40 -0.76 190 199 196
3.43 -8.49 -0.76 192 201 198
3.43 -8.59 -0.76 193 202 199
3.43 -8.69 -0.76 194 203 200
3.43 -8.79 -0.76 195 204 201
3.43 -8.88 -0.76 196 205 202
3.43 -8.98 -0.76 196 205 202
3.43 -9.08 -0.76 197 206 203
3.43 -9.17 -0.76 197 206 203
3.43 -9.27 -0.76 197 206 203
3.43 -9.37 -0.76 198 207 204
3.43 -9.47 -0.76 198 207 204
3.43 -9.56 -0.76 198 207 204
3.43 -9.66 -0.76 198 207 204
3.43 -9.76 -0.76 198 207 204
3.43 -9.85 -0.76 198 207 204
3.43 -9.95 -0.76 198 207 204
3.43 -10.05 -0.76 198 207 204
3.43 -10.15 -0.76 199 208 205
3.43 -10.24 -0.76 199 208 205
3.43 -10.34 -0.76 200 209 206
3.43 -10.44 -0.76 200 209 206
3.43 -10.53 -0.76 200 209 206
3.43 -10.63 -0.76 200 209 206
3.43 -10.73 -0.76 200 209 206
3.43 -10.83 -0.76 200 209 206
3.43 -10.92 -0.76 200 209 206
3.43 -11.02 -0.76 200 209 206
3.64 -11.14 -0.95 201 210 207
3.64 -11.23 -0.95 201 210 207
3.64 -11.33 -0.95 200 209 206
3.64 -11.43 -0.95 201 210 207
3.64 -11.53 -0.95 202 211 208
3.64 -11.62 -0.95 201 212 208
3.64 -11.72 -0.95 200 211 207
3.64 -11.82 -0.95 201 212 208
3.64 -11.92 -0.95 202 213 209
3.64 -12.02 -0.95 200 211 207
3.64 -12.11 -0.95 201 212 208
3.64 -12.21 -0.95 202 213 209
3.64 -12.31 -0.95 201 212 208
3.64 -12.41 -0.95 200 211 207
3.43 -12.48 -0.76 200 211 207
3.43 -12.58 -0.76 200 212 208
3.43 -12.67 -0.76 200 212 208
3.43 -12.77 -0.76 201 212 208
3.43 -12.87 -0.76 200 211 207
3.43 -12.96 -0.76 200 211 207
3.43 -13.06 -0.76 201 212 208
3.64 -13.19 -0.95 203 214 210
3.64 -13.28 -0.95 204 215 211
3.43 -13.35 -0.76 203 214 210
3.43 -13.45 -0.76 202 213 209
3.43 -13.55 -0.76 201 212 208
3.43 -13.64 -0.76 204 215 211
3.43 -13.74 -0.76 204 215 211
3.64 -13.87 -0.95 201 212 208
3.64 -13.97 -0.95 203 214 210
3.64 -14.07 -0.95 204 215 211
3.64 -14.16 -0.95 204 215 211
3.64 -14.26 -0.95 203 214 210
3.64 -14.36 -0.95 203 214 210
3.64 -14.46 -0.95 203 214 210
3.64 -14.55 -0.95 203 214 210
3.64 -14.65 -0.95 203 214 210
3.64 -14.75 -0.95 203 214 210
3.64 -14.85 -0.95 204 213 210
3.64 -14.95 -0.95 204 213 210
3.64 -15.04 -0.95 207 213 211
3.64 -15.14 -0.95 207 213 211
3.64 -15.24 -0.95 207 213 211
3.64 -15.34 -0.95 206 212 210
3.64 -15.43 -0.95 207 211 210
3.64 -15.53 -0.95 207 211 210
3.64 -15.63 -0.95 208 212 211
3.64 -15.73 -0.95 209 213 212
3.64 -15.82 -0.95 206 215 212
3.64 -15.92 -0.95 205 214 211
3.64 -16.02 -0.95 205 214 211
3.64 -16.12 -0.95 204 213 210
3.64 -16.21 -0.95 206 212 210
3.64 -16.31 -0.95 206 212 210
3.64 -16.41 -0.95 206 212 210
3.64 -16.51 -0.95 208 212 211
3.64 -16.61 -0.95 208 212 211
3.64 -16.70 -0.95 210 212 211
3.64 -16.80 -0.95 211 213 212
3.64 -16.90 -0.95 211 213 212
3.64 -17.00 -0.95 211 213 212
3.83 -17.14 -1.11 211 213 212
3.83 -17.23 -1.11 210 211 213
3.64 -17.29 -0.95 211 211 213
3.64 -17.39 -0.95 211 210 215
3.83 -17.53 -1.11 211 212 216
3.83 -17.63 -1.11 211 212 216
3.83 -17.72 -1.11 208 212 215
3.83 -17.82 -1.11 208 212 215
3.64 -17.87 -0.95 208 213 216
3.64 -17.97 -0.95 208 213 216
3.64 -18.07 -0.95 206 211 214
3.64 -18.17 -0.95 206 211 214
3.64 -18.27 -0.95 207 212 215
3.64 -18.36 -0.95 207 212 215
3.64 -18.46 -0.95 208 212 215
3.64 -18.56 -0.95 207 211 214
3.64 -18.66 -0.95 207 211 214
3.64 -18.75 -0.95 207 211 210
3.64 -18.85 -0.95 206 210 209
3.64 -18.95 -0.95 205 211 209
3.64 -19.05 -0.95 206 212 210
3.64 -19.14 -0.95 208 214 212
3.64 -19.24 -0.95 208 214 212
3.64 -19.34 -0.95 207 213 211
3.64 -19.44 -0.95 206 212 210
3.64 -19.53 -0.95 207 211 210
3.83 -19.69 -1.11 207 211 210
3.83 -19.78 -1.11 208 212 211
3.83 -19.88 -1.11 209 213 212
3.83 -19.98 -1.11 211 213 212
3.83 -20.08 -1.11 211 213 212
3.83 -20.18 -1.11 212 212 212
3.83 -20.27 -1.11 212 212 212
3.83 -20.37 -1.11 212 212 212
3.83 -20.47 -1.11 211 211 211
3.83 -20.57 -1.11 210 210 210
3.83 -20.67 -1.11 210 210 210
3.83 -20.76 -1.11 210 210 210
3.83 -20.86 -1.11 210 210 210
3.83 -20.96 -1.11 212 212 214
3.83 -21.06 -1.11 212 212 212
3.83 -21.16 -1.11 213 213 213
3.83 -21.25 -1.11 213 213 211
3.83 -21.35 -1.11 212 212 210
3.83 -21.45 -1.11 210 211 206
3.83 -21.55 -1.11 210 211 206
3.83 -21.65 -1.11 211 212 207
3.83 -21.75 -1.11 213 213 211
3.83 -21.84 -1.11 211 211 211
3.83 -21.94 -1.11 210 210 212
3.83 -22.04 -1.11 210 210 212
3.83 -22.14 -1.11 210 210 212
3.83 -22.24 -1.11 211 211 213
3.83 -22.33 -1.11 211 211 213
3.83 -22.43 -1.11 211 211 213
3.83 -22.53 -1.11 211 211 213
3.83 -22.63 -1.11 213 213 213
3.83 -22.73 -1.11 211 211 211
3.83 -22.82 -1.11 210 210 210
3.83 -22.92 -1.11 210 210 210
3.83 -23.02 -1.11 211 211 211
3.83 -23.12 -1.11 211 211 211
4.05 -23.29 -1.30 211 211 211
4.05 -23.39 -1.30 212 212 212
4.05 -23.49 -1.30 212 212 212
4.05 -23.59 -1.30 211 211 211
4.05 -23.69 -1.30 210 210 210
4.05 -23.79 -1.30 210 210 210
3.83 -23.80 -1.11 210 210 210
3.83 -23.90 -1.11 211 211 211
3.83 -24.00 -1.11 212 212 212
3.83 -24.10 -1.11 209 209 209
3.83 -24.20 -1.11 210 210 210
3.83 -24.30 -1.11 211 211 211
3.83 -24.39 -1.11 212 212 212
3.83 -24.49 -1.11 212 212 212
3.83 -24.59 -1.11 212 212 212
3.83 -24.69 -1.11 211 211 211
3.83 -24.79 -1.11 210 210 210
3.83 -24.88 -1.11 211 211 209
3.83 -24.98 -1.11 211 211 209
3.83 -25.08 -1.11 211 211 211
3.83 -25.18 -1.11 212 212 212
3.83 -25.28 -1.11 212 212 214
3.83 -25.37 -1.11 211 211 213
3.83 -25.47 -1.11 209 208 213
3.83 -25.57 -1.11 208 207 212
3.83 -25.67 -1.11 193 192 197
3.83 -25.77 -1.11 53 52 58
2.41 22.97 -0.01 0 0 0
2.22 22.74 0.16 0 0 0
2.41 22.78 -0.01 0 0 0
2.41 22.69 -0.01 0 0 0
2.41 22.59 -0.01 0 0 0
2.41 22.50 -0.01 131 129 117
2.41 22.40 -0.01 131 129 117
2.41 22.31 -0.01 131 129 117
2.41 22.21 -0.01 133 129 118
2.41 22.12 -0.01 133 129 118
2.41 22.02 -0.01 134 130 119
2.41 21.93 -0.01 135 131 120
2.22 21.70 0.16 135 131 120
2.22 21.61 0.16 136 132 121
2.22 21.51 0.16 135 131 122
2.22 21.42 0.16 134 130 121
2.22 21.32 0.16 136 129 121
2.22 21.23 0.16 137 130 122
2.22 21.13 0.16 138 131 123
2.22 21.04 0.16 138 131 123
2.22 20.94 0.16 138 131 123
2.22 20.85 0.16 138 131 123
2.22 20.76 0.16 135 131 122
2.41 20.79 -0.01 137 133 124
2.41 20.69 -0.01 137 133 124
2.41 20.60 -0.01 137 130 122
2.41 20.50 -0.01 139 132 124
2.41 20.41 -0.01 139 132 124
2.41 20.31 -0.01 138 131 123
2.41 20.22 -0.01 138 131 123
2.41 20.12 -0.01 138 131 123
2.41 20.03 -0.01 139 132 124
2.41 19.93 -0.01 139 132 124
2.41 19.84 -0.01 140 131 124
2.41 19.74 -0.01 140 131 124
2.41 19.65 -0.01 140 131 124
2.41 19.55 -0.01 140 131 124
2.41 19.46 -0.01 137 132 126
2.41 19.36 -0.01 138 133 127
2.41 19.27 -0.01 139 134 128
2.41 19.17 -0.01 140 135 129
2.41 19.08 -0.01 140 135 129
2.41 18.98 -0.01 140 135 129
2.41 18.89 -0.01 140 135 129
2.41 18.79 -0.01 140 135 129
2.41 18.70 -0.01 140 135 129
2.22 18.49 0.16 141 136 130
2.22 18.39 0.16 142 137 131
2.41 18.41 -0.01 142 137 131
2.41 18.32 -0.01 141 136 130
2.41 18.22 -0.01 142 137 131
2.41 18.13 -0.01 142 137 133
2.41 18.03 -0.01 139 138 136
2.41 17.94 -0.01 139 137 138
2.41 17.84 -0.01 139 138 136
2.41 17.75 -0.01 139 138 136
2.41 17.65 -0.01 141 137 134
2.41 17.56 -0.01 142 138 135
2.41 17.46 -0.01 143 140 135
2.41 17.37 -0.01 144 141 136
2.41 17.27 -0.01 144 139 133
2.41 17.18 -0.01 144 139 133
2.41 17.08 -0.01 146 139 133
2.41 16.99 -0.01 147 140 134
2.41 16.89 -0.01 148 141 135
2.41 16.80 -0.01 148 141 135
2.41 16.70 -0.01 148 141 135
2.41 16.61 -0.01 147 140 134
2.41 16.51 -0.01 145 138 132
2.41 16.42 -0.01 146 139 133
2.41 16.32 -0.01 145 140 134
2.41 16.23 -0.01 145 140 134
2.60 16.24 -0.17 145 140 136
2.60 16.14 -0.17 145 142 137
2.60 16.05 -0.17 146 143 138
2.41 15.85 -0.01 145 142 137
2.41 15.75 -0.01 145 142 137
2.41 15.66 -0.01 146 141 135
2.41 15.56 -0.01 146 141 135
2.41 15.47 -0.01 145 141 132
2.41 15.37 -0.01 145 141 132
2.41 15.28 -0.01 146 139 131
2.41 15.18 -0.01 146 139 131
2.41 15.09 -0.01 145 142 135
2.41 14.99 -0.01 146 143 136
2.41 14.90 -0.01 147 144 139
2.41 14.80 -0.01 147 144 139
2.41 14.71 -0.01 146 142 139
2.41 14.61 -0.01 145 141 138
2.41 14.52 -0.01 146 142 141
2.41 14.42 -0.01 147 143 142
2.41 14.33 -0.01 147 143 144
2.41 14.23 -0.01 147 143 144
2.41 14.14 -0.01 147 143 144
2.41 14.04 -0.01 147 143 144
2.41 13.95 -0.01 147 143 142
2.41 13.85 -0.01 147 143 142
2.41 13.76 -0.01 147 143 142
2.60 13.76 -0.17 148 144 143
2.60 13.66 -0.17 148 144 143
2.60 13.57 -0.17 148 144 141
2.60 13.47 -0.17 148 144 141
2.60 13.37 -0.17 149 146 141
2.60 13.28 -0.17 150 147 142
2.60 13.18 -0.17 151 148 141
2.60 13.09 -0.17 152 149 142
2.60 12.99 -0.17 147 147 139
2.60 12.90 -0.17 147 147 139
2.60 12.80 -0.17 149 148 143
2.60 12.71 -0.17 150 149 144
2.41 12.52 -0.01 150 149 145
2.41 12.43 -0.01 150 149 145
2.60 12.42 -0.17 150 149 147
2.60 12.33 -0.17 149 148 146
2.60 12.23 -0.17 152 148 145
2.60 12.13 -0.17 152 148 145
2.60 12.04 -0.17 151 148 143
2.60 11.94 -0.17 151 148 143
2.79 11.93 -0.33 149 148 143
2.79 11.84 -0.33 149 148 143
2.79 11.74 -0.33 148 149 143
2.79 11.65 -0.33 150 151 145
2.79 11.55 -0.33 150 151 145
2.79 11.45 -0.33 152 151 146
2.79 11.36 -0.33 152 151 146
2.79 11.26 -0.33 154 151 146
2.79 11.17 -0.33 154 151 146
2.79 11.07 -0.33 154 151 146
2.60 10.89 -0.17 154 151 146
2.60 10.80 -0.17 155 151 148
2.60 10.70 -0.17 156 152 149
2.60 10.61 -0.17 157 153 150
2.60 10.51 -0.17 157 153 150
2.79 10.50 -0.33 154 153 149
2.79 10.40 -0.33 154 153 149
2.79 10.30 -0.33 154 153 149
2.60 10.13 -0.17 154 153 149
2.60 10.04 -0.17 152 153 148
2.60 9.94 -0.17 154 155 150
2.60 9.84 -0.17 155 156 151
2.60 9.75 -0.17 155 156 151
2.60 9.65 -0.17 154 156 151
2.60 9.56 -0.17 153 155 150
2.60 9.46 -0.17 154 156 151
-3.65 6.90 5.24 156 157 152
-3.65 6.82 5.24 156 155 151
-3.65 6.73 5.24 155 156 150
-3.65 6.65 5.24 156 157 149
-3.65 6.57 5.24 157 160 149
-3.65 6.49 5.24 159 163 149
-3.65 6.41 5.24 157 166 149
-3.65 6.33 5.24 156 168 148
-3.65 6.25 5.24 159 174 151
-3.65 6.16 5.24 138 161 132
-3.65 6.08 5.24 106 141 99
-3.65 6.00 5.24 80 124 73
-3.65 5.92 5.24 64 123 59
-3.65 5.84 5.24 65 133 60
-3.49 5.82 5.10 68 145 63
-3.49 5.74 5.10 70 153 65
-3.49 5.65 5.10 78 163 72
-3.49 5.57 5.10 78 163 72
-3.49 5.49 5.10 79 164 73
-3.36 5.46 4.99 80 164 76
-3.36 5.37 4.99 82 166 80
-3.22 5.34 4.87 83 167 79
-3.09 5.30 4.75 83 168 77
-2.93 5.28 4.61 84 169 75
-2.79 5.24 4.50 87 172 71
-2.79 5.16 4.50 90 176 69
-2.63 5.13 4.36 91 176 72
-2.49 5.09 4.24 91 176 72
-2.33 5.06 4.10 91 176 75
-2.20 5.02 3.98 92 176 78
-2.20 4.93 3.98 95 176 83
-2.20 4.85 3.98 97 172 87
-2.04 4.82 3.84 104 168 90
-2.04 4.73 3.84 115 162 92
-2.04 4.65 3.84 123 154 94
-2.04 4.56 3.84 130 148 96
-2.04 4.48 3.84 144 139 99
-1.88 4.44 3.70 166 129 102
-1.88 4.36 3.70 188 121 105
-1.88 4.27 3.70 202 107 101
-1.88 4.19 3.70 217 103 103
-1.88 4.10 3.70 213 85 86
-1.88 4.02 3.70 219 76 80
-1.88 3.93 3.70 230 69 75
-1.88 3.84 3.70 239 70 77
-1.71 3.81 3.56 232 68 69
-1.71 3.72 3.56 237 74 75
-1.71 3.64 3.56 253 95 92
-1.71 3.55 3.56 255 121 115
-1.71 3.46 3.56 252 154 143
-1.71 3.38 3.56 229 199 188
-1.71 3.29 3.56 231 221 212
2.79 4.46 -0.33 235 232 227
3.00 4.42 -0.52 229 229 227
3.00 4.33 -0.52 235 233 234
3.00 4.23 -0.52 232 232 232
3.00 4.13 -0.52 228 233 229
3.00 4.04 -0.52 226 232 228
3.00 3.94 -0.52 222 233 227
3.00 3.84 -0.52 220 229 224
3.00 3.75 -0.52 219 224 220
3.00 3.65 -0.52 218 220 217
3.00 3.56 -0.52 211 211 209
3.00 3.46 -0.52 206 206 204
3.00 3.36 -0.52 197 199 196
3.00 3.27 -0.52 191 193 190
3.00 3.17 -0.52 185 190 186
3.00 3.07 -0.52 180 185 181
3.00 2.98 -0.52 173 179 175
3.00 2.88 -0.52 169 175 171
3.00 2.78 -0.52 169 175 173
3.00 2.69 -0.52 169 175 173
3.00 2.59 -0.52 169 175 173
3.00 2.50 -0.52 170 176 174
3.00 2.40 -0.52 169 175 173
3.00 2.30 -0.52 169 175 173
3.00 2.21 -0.52 168 174 172
3.00 2.11 -0.52 169 173 172
3.00 2.01 -0.52 169 173 172
3.00 1.92 -0.52 169 175 173
3.00 1.82 -0.52 169 175 173
3.00 1.73 -0.52 167 176 173
3.00 1.63 -0.52 167 176 173
3.00 1.53 -0.52 167 176 173
3.00 1.44 -0.52 167 176 173
3.00 1.34 -0.52 166 177 173
3.00 1.24 -0.52 166 177 173
3.00 1.15 -0.52 167 176 173
3.00 1.05 -0.52 168 177 174
3.00 0.95 -0.52 169 178 175
3.00 0.86 -0.52 169 178 175
3.00 0.76 -0.52 169 178 175
3.00 0.67 -0.52 168 177 174
3.00 0.57 -0.52 169 175 173
3.00 0.47 -0.52 170 176 174
3.00 0.38 -0.52 172 178 176
3.00 0.28 -0.52 174 180 178
3.00 0.18 -0.52 173 179 177
3.00 0.09 -0.52 172 178 176
3.00 -0.01 -0.52 174 180 178
3.00 -0.10 -0.52 171 180 177
3.00 -0.20 -0.52 171 180 177
3.00 -0.30 -0.52 171 180 177
3.00 -0.39 -0.52 172 181 178
3.00 -0.49 -0.52 173 182 179
3.00 -0.59 -0.52 173 182 179
3.00 -0.68 -0.52 172 181 178
3.00 -0.78 -0.52 172 181 178
3.00 -0.88 -0.52 175 181 179
3.19 -0.94 -0.68 173 179 177
3.19 -1.04 -0.68 173 179 177
3.19 -1.14 -0.68 173 179 177
3.19 -1.23 -0.68 175 181 179
3.19 -1.33 -0.68 177 183 181
3.19 -1.43 -0.68 177 183 181
3.19 -1.52 -0.68 176 182 180
3.19 -1.62 -0.68 173 182 179
3.19 -1.72 -0.68 173 182 179
3.19 -1.81 -0.68 173 182 179
3.19 -1.91 -0.68 174 183 180
3.19 -2.01 -0.68 175 184 181
3.19 -2.10 -0.68 175 184 181
3.19 -2.20 -0.68 177 186 183
3.19 -2.30 -0.68 177 187 179
3.19 -2.39 -0.68 176 186 178
3.19 -2.49 -0.68 176 185 180
3.19 -2.59 -0.68 176 185 180
3.19 -2.68 -0.68 177 186 183
3.19 -2.78 -0.68 177 186 183
3.19 -2.88 -0.68 178 187 186
3.19 -2.98 -0.68 178 187 186
3.19 -3.07 -0.68 178 187 186
3.19 -3.17 -0.68 179 188 187
3.19 -3.27 -0.68 181 190 189
3.19 -3.36 -0.68 181 190 189
3.19 -3.46 -0.68 180 189 186
3.19 -3.56 -0.68 180 189 186
3.19 -3.65 -0.68 181 190 187
3.19 -3.75 -0.68 182 191 188
3.19 -3.85 -0.68 180 189 186
3.19 -3.94 -0.68 181 190 187
3.19 -4.04 -0.68 183 192 189
3.38 -4.12 -0.85 183 192 189
3.38 -4.22 -0.85 183 192 189
3.38 -4.32 -0.85 183 192 189
3.38 -4.41 -0.85 184 193 190
3.38 -4.51 -0.85 180 189 186
3.38 -4.61 -0.85 181 190 187
3.38 -4.70 -0.85 182 193 189
3.38 -4.80 -0.85 183 194 190
3.38 -4.90 -0.85 184 195 191
3.38 -5.00 -0.85 185 196 192
3.38 -5.09 -0.85 185 196 192
3.38 -5.19 -0.85 186 195 192
3.38 -5.29 -0.85 185 194 191
3.38 -5.38 -0.85 187 193 191
3.38 -5.48 -0.85 186 195 192
3.38 -5.58 -0.85 186 195 192
3.38 -5.68 -0.85 186 195 192
3.38 -5.77 -0.85 186 195 192
3.19 -5.88 -0.68 186 197 193
3.19 -5.97 -0.68 186 197 193
3.19 -6.07 -0.68 186 197 193
3.19 -6.17 -0.68 186 197 193
3.19 -6.26 -0.68 188 197 194
3.19 -6.36 -0.68 188 197 194
3.19 -6.46 -0.68 191 197 195
3.19 -6.55 -0.68 191 197 195
3.19 -6.65 -0.68 191 197 195
3.19 -6.75 -0.68 191 197 195
3.19 -6.84 -0.68 189 198 195
3.19 -6.94 -0.68 189 198 195
3.38 -7.04 -0.85 189 198 195
3.38 -7.13 -0.85 189 198 195
3.38 -7.23 -0.85 189 198 195
3.38 -7.33 -0.85 191 200 197
3.38 -7.43 -0.85 192 201 198
3.38 -7.52 -0.85 190 199 196
3.38 -7.62 -0.85 190 199 196
3.19 -7.72 -0.68 190 199 196
3.19 -7.81 -0.68 191 200 197
3.19 -7.91 -0.68 191 200 197
3.19 -8.01 -0.68 192 201 198
3.19 -8.10 -0.68 193 202 199
3.19 -8.20 -0.68 193 202 199
3.19 -8.30 -0.68 192 201 198
3.19 -8.39 -0.68 192 201 198
3.38 -8.49 -0.85 192 201 198
3.38 -8.59 -0.85 192 201 198
3.38 -8.69 -0.85 193 202 199
3.38 -8.79 -0.85 194 203 200
3.38 -8.88 -0.85 195 204 201
3.38 -8.98 -0.85 196 205 202
3.38 -9.08 -0.85 196 205 202
3.38 -9.17 -0.85 196 205 202
3.38 -9.27 -0.85 196 205 202
3.38 -9.37 -0.85 196 205 202
3.38 -9.47 -0.85 196 205 202
3.38 -9.56 -0.85 196 205 202
3.38 -9.66 -0.85 196 205 202
3.38 -9.76 -0.85 197 206 203
3.38 -9.85 -0.85 197 206 203
3.38 -9.95 -0.85 197 206 203
3.38 -10.05 -0.85 198 207 204
3.38 -10.15 -0.85 199 208 205
3.38 -10.24 -0.85 200 209 206
3.38 -10.34 -0.85 201 210 207
3.38 -10.44 -0.85 201 210 207
3.38 -10.53 -0.85 200 209 206
3.38 -10.63 -0.85 200 209 206
3.38 -10.73 -0.85 201 210 207
3.38 -10.83 -0.85 201 210 207
3.38 -10.92 -0.85 201 210 207
3.38 -11.02 -0.85 202 211 208
3.38 -11.12 -0.85 202 211 208
3.38 -11.22 -0.85 202 211 208
3.38 -11.31 -0.85 200 209 206
3.38 -11.41 -0.85 201 210 207
3.38 -11.51 -0.85 202 211 208
3.38 -11.60 -0.85 201 210 207
3.38 -11.70 -0.85 201 210 207
3.38 -11.80 -0.85 201 212 208
3.38 -11.90 -0.85 202 213 209
3.38 -11.99 -0.85 200 211 207
3.38 -12.09 -0.85 200 211 207
3.38 -12.19 -0.85 200 211 207
3.38 -12.28 -0.85 200 211 207
3.38 -12.38 -0.85 202 213 209
3.38 -12.48 -0.85 202 213 209
3.38 -12.58 -0.85 201 213 209
3.38 -12.67 -0.85 201 212 208
3.38 -12.77 -0.85 201 212 208
3.38 -12.87 -0.85 203 212 209
3.38 -12.96 -0.85 204 213 210
3.38 -13.06 -0.85 204 213 210
3.38 -13.16 -0.85 204 213 210
3.38 -13.26 -0.85 204 213 210
3.38 -13.35 -0.85 205 214 211
3.38 -13.45 -0.85 205 214 211
3.38 -13.55 -0.85 201 210 207
3.38 -13.64 -0.85 204 213 210
3.38 -13.74 -0.85 205 214 211
3.38 -13.84 -0.85 203 212 209
3.38 -13.94 -0.85 205 214 211
3.38 -14.03 -0.85 206 215 212
3.59 -14.16 -1.03 206 215 212
3.59 -14.26 -1.03 203 214 210
3.59 -14.36 -1.03 204 215 211
3.59 -14.46 -1.03 204 215 211
3.59 -14.55 -1.03 204 215 211
3.59 -14.65 -1.03 204 215 211
3.59 -14.75 -1.03 204 215 211
3.59 -14.85 -1.03 205 214 211
3.59 -14.95 -1.03 204 213 210
3.59 -15.04 -1.03 207 213 211
3.38 -15.10 -0.85 208 214 212
3.38 -15.20 -0.85 209 215 213
3.38 -15.30 -0.85 208 214 212
3.38 -15.39 -0.85 208 212 211
3.38 -15.49 -0.85 207 211 210
3.38 -15.59 -0.85 207 211 210
3.38 -15.68 -0.85 207 211 210
3.59 -15.82 -1.03 206 215 212
3.38 -15.88 -0.85 205 214 211
3.38 -15.98 -0.85 205 214 211
3.38 -16.07 -0.85 204 213 210
3.38 -16.17 -0.85 206 212 210
3.38 -16.27 -0.85 206 212 210
3.38 -16.37 -0.85 206 212 210
3.38 -16.46 -0.85 203 207 206
3.38 -16.56 -0.85 205 209 208
3.38 -16.66 -0.85 209 211 210
3.38 -16.75 -0.85 209 211 210
3.38 -16.85 -0.85 208 210 209
3.38 -16.95 -0.85 208 210 209
3.38 -17.05 -0.85 209 211 210
3.38 -17.14 -0.85 210 211 213
3.59 -17.29 -1.03 211 211 213
3.59 -17.39 -1.03 211 210 215
3.59 -17.48 -1.03 211 212 216
3.59 -17.58 -1.03 210 211 215
3.59 -17.68 -1.03 208 212 215
3.59 -17.78 -1.03 208 212 215
3.59 -17.87 -1.03 207 212 215
3.59 -17.97 -1.03 208 213 216
3.59 -18.07 -1.03 207 212 215
3.59 -18.17 -1.03 207 212 215
3.59 -18.27 -1.03 207 212 215
3.59 -18.36 -1.03 206 211 214
3.59 -18.46 -1.03 208 212 215
3.38 -18.50 -0.85 208 212 215
3.38 -18.60 -0.85 208 212 215
3.38 -18.70 -0.85 211 213 212
3.38 -18.79 -0.85 210 212 211
3.38 -18.89 -0.85 208 212 211
3.38 -18.99 -0.85 209 213 212
3.59 -19.14 -1.03 210 214 213
3.59 -19.24 -1.03 210 214 213
3.59 -19.34 -1.03 208 214 212
3.59 -19.44 -1.03 208 214 212
3.59 -19.53 -1.03 207 213 211
3.59 -19.63 -1.03 207 213 211
3.59 -19.73 -1.03 209 213 212
3.59 -19.83 -1.03 209 213 212
3.59 -19.93 -1.03 211 213 212
3.59 -20.02 -1.03 211 213 212
3.59 -20.12 -1.03 210 212 211
3.59 -20.22 -1.03 210 212 211
3.59 -20.32 -1.03 212 212 212
3.59 -20.41 -1.03 211 211 211
3.59 -20.51 -1.03 211 211 211
3.59 -20.61 -1.03 210 210 210
3.59 -20.71 -1.03 210 210 210
3.59 -20.80 -1.03 210 210 210
3.59 -20.90 -1.03 211 211 213
3.59 -21.00 -1.03 209 209 209
3.59 -21.10 -1.03 210 210 210
3.59 -21.19 -1.03 211 211 211
3.59 -21.29 -1.03 211 211 211
3.59 -21.39 -1.03 211 211 209
3.59 -21.49 -1.03 210 210 208
3.59 -21.59 -1.03 211 212 207
3.59 -21.68 -1.03 212 212 210
3.59 -21.78 -1.03 210 210 210
3.59 -21.88 -1.03 209 209 211
3.59 -21.98 -1.03 209 209 211
3.59 -22.07 -1.03 209 209 211
3.59 -22.17 -1.03 210 210 212
3.59 -22.27 -1.03 211 211 213
3.59 -22.37 -1.03 211 211 213
3.59 -22.46 -1.03 211 211 213
3.59 -22.56 -1.03 211 211 211
3.59 -22.66 -1.03 210 210 210
3.59 -22.76 -1.03 209 209 209
3.59 -22.86 -1.03 209 209 209
3.59 -22.95 -1.03 210 210 210
3.78 -23.12 -1.20 210 210 210
3.78 -23.22 -1.20 210 210 210
3.78 -23.31 -1.20 209 209 209
3.78 -23.41 -1.20 210 210 210
3.78 -23.51 -1.20 212 212 212
3.78 -23.61 -1.20 213 213 213
3.78 -23.71 -1.20 212 212 212
3.78 -23.80 -1.20 211 211 211
3.78 -23.90 -1.20 211 211 211
3.78 -24.00 -1.20 210 210 210
3.78 -24.10 -1.20 211 211 211
3.59 -24.12 -1.03 211 211 211
3.59 -24.22 -1.03 211 211 211
3.59 -24.32 -1.03 211 211 211
3.59 -24.42 -1.03 211 211 211
3.59 -24.52 -1.03 211 211 211
3.59 -24.61 -1.03 210 210 210
3.59 -24.71 -1.03 209 209 209
3.59 -24.81 -1.03 211 211 209
3.59 -24.91 -1.03 211 211 209
3.59 -25.00 -1.03 211 211 211
3.59 -25.10 -1.03 211 211 211
3.59 -25.20 -1.03 211 211 211
3.59 -25.30 -1.03 210 210 210
3.59 -25.39 -1.03 209 209 211
3.59 -25.49 -1.03 208 208 210
3.59 -25.59 -1.03 203 202 207
3.59 -25.69 -1.03 89 88 94
2.17 22.84 0.07 0 0 0
2.17 22.74 0.07 0 0 0
2.17 22.65 0.07 0 0 0
2.17 22.55 0.07 0 0 0
2.17 22.46 0.07 0 0 0
2.17 22.36 0.07 133 129 118
2.17 22.27 0.07 133 129 118
2.17 22.17 0.07 133 129 118
2.17 22.08 0.07 133 129 118
2.17 21.98 0.07 133 129 118
2.17 21.89 0.07 134 130 119
2.17 21.80 0.07 135 131 120
2.17 21.70 0.07 135 131 120
2.17 21.61 0.07 136 132 121
2.17 21.51 0.07 136 132 123
2.17 21.42 0.07 135 131 122
2.17 21.32 0.07 136 129 121
2.17 21.23 0.07 136 129 121
2.17 21.13 0.07 137 130 122
1.99 20.91 0.24 138 131 123
1.99 20.82 0.24 138 131 123
1.99 20.72 0.24 138 131 123
2.17 20.76 0.07 135 131 122
2.17 20.66 0.07 137 133 124
2.17 20.57 0.07 138 134 125
2.17 20.47 0.07 134 130 121
2.17 20.38 0.07 135 131 122
2.17 20.28 0.07 137 133 124
2.17 20.19 0.07 137 133 124
2.36 20.22 -0.09 137 133 124
2.36 20.12 -0.09 137 133 124
2.36 20.03 -0.09 139 132 124
2.36 19.93 -0.09 139 132 124
2.36 19.84 -0.09 139 132 124
2.36 19.74 -0.09 139 132 124
2.36 19.65 -0.09 139 132 124
2.36 19.55 -0.09 140 133 127
2.36 19.46 -0.09 136 131 125
2.36 19.36 -0.09 136 131 127
2.36 19.27 -0.09 137 132 128
2.36 19.17 -0.09 137 132 128
2.17 18.96 0.07 137 132 128
2.17 18.86 0.07 138 133 129
2.17 18.77 0.07 139 134 128
2.17 18.67 0.07 139 134 128
2.17 18.58 0.07 140 135 129
2.17 18.49 0.07 141 136 130
2.17 18.39 0.07 141 136 130
2.17 18.30 0.07 141 136 130
2.17 18.20 0.07 141 137 128
2.36 18.22 -0.09 141 137 128
2.36 18.13 -0.09 142 137 131
2.36 18.03 -0.09 139 136 131
2.36 17.94 -0.09 140 136 133
2.36 17.84 -0.09 140 136 133
2.36 17.75 -0.09 141 137 134
2.36 17.65 -0.09 141 138 133
2.36 17.56 -0.09 142 139 134
2.36 17.46 -0.09 143 138 132
2.36 17.37 -0.09 143 138 132
2.36 17.27 -0.09 143 138 132
2.36 17.18 -0.09 143 138 132
2.36 17.08 -0.09 146 139 133
2.36 16.99 -0.09 147 140 134
2.36 16.89 -0.09 148 141 135
2.36 16.80 -0.09 148 141 135
2.36 16.70 -0.09 148 141 135
2.36 16.61 -0.09 148 141 135
2.36 16.51 -0.09 143 138 132
2.36 16.42 -0.09 144 139 133
2.36 16.32 -0.09 143 140 133
2.36 16.23 -0.09 143 140 133
2.36 16.13 -0.09 143 140 135
2.36 16.04 -0.09 146 143 138
2.36 15.94 -0.09 147 144 139
2.36 15.85 -0.09 146 143 138
2.36 15.75 -0.09 146 143 138
2.36 15.66 -0.09 146 143 136
2.36 15.56 -0.09 146 143 136
2.36 15.47 -0.09 146 143 134
2.36 15.37 -0.09 145 142 133
2.36 15.28 -0.09 145 141 132
2.36 15.18 -0.09 145 141 132
2.36 15.09 -0.09 147 144 137
2.36 14.99 -0.09 147 144 137
2.36 14.90 -0.09 147 144 137
2.36 14.80 -0.09 147 144 137
2.36 14.71 -0.09 146 143 138
