ply
format ascii 1.0
element vertex 1747
property float x
property float y
property float z
property uchar red
property uchar green
property uchar blue
end_header
16.03 11.51 1.54 39 101 148
16.03 11.39 1.54 39 101 148
16.03 11.28 1.54 41 103 150
16.03 11.16 1.54 42 104 151
16.03 11.05 1.54 41 105 153
16.03 10.94 1.54 41 103 152
16.03 10.82 1.54 37 99 150
15.73 10.61 1.72 39 99 151
16.03 10.59 1.54 41 101 153
16.03 10.48 1.54 42 102 154
16.03 10.37 1.54 41 101 153
15.73 10.16 1.72 40 100 152
15.73 10.04 1.72 41 101 153
15.73 9.93 1.72 44 104 156
15.73 9.82 1.72 42 102 154
15.73 9.70 1.72 41 103 154
15.73 9.59 1.72 40 102 153
15.73 9.48 1.72 41 103 154
15.73 9.36 1.72 42 104 155
15.73 9.25 1.72 42 104 155
15.73 9.14 1.72 40 102 153
15.73 9.02 1.72 40 101 148
15.73 8.91 1.72 38 100 147
15.73 8.80 1.72 36 100 146
15.73 8.68 1.72 36 100 148
15.73 8.57 1.72 37 98 152
15.73 8.46 1.72 38 98 150
15.73 8.34 1.72 39 100 144
15.44 8.15 1.91 41 100 142
15.44 8.03 1.91 46 105 149
15.44 7.92 1.91 62 119 162
15.44 7.81 1.91 14 75 106
15.44 7.69 1.91 0 47 65
15.44 7.58 1.91 33 53 54
12.62 2.43 3.68 148 174 173
12.62 2.32 3.68 136 167 170
12.62 2.21 3.68 128 163 169
12.62 2.10 3.68 114 154 164
12.62 2.00 3.68 104 146 160
12.62 1.89 3.68 94 139 158
12.62 1.78 3.68 88 133 156
12.62 1.68 3.68 84 132 155
12.62 1.57 3.68 81 131 158
12.89 1.51 3.51 67 122 153
12.89 1.40 3.51 73 129 162
12.89 1.29 3.51 73 132 166
12.89 1.18 3.51 71 130 164
12.89 1.08 3.51 70 130 166
12.89 0.97 3.51 67 129 166
13.15 0.90 3.34 73 135 172
13.15 0.79 3.34 69 131 170
13.15 0.69 3.34 71 133 172
13.15 0.58 3.34 74 133 173
13.15 0.47 3.34 73 132 172
13.15 0.36 3.34 72 130 168
13.15 0.25 3.34 72 130 168
13.45 0.19 3.16 72 130 168
13.45 0.08 3.16 72 130 168
13.45 -0.03 3.16 74 133 167
13.45 -0.14 3.16 73 132 166
13.45 -0.25 3.16 73 131 168
13.45 -0.36 3.16 73 131 168
13.45 -0.47 3.16 74 132 170
13.45 -0.57 3.16 74 132 170
13.45 -0.68 3.16 72 132 169
13.45 -0.79 3.16 72 132 169
13.45 -0.90 3.16 76 135 175
13.45 -1.01 3.16 73 132 172
13.45 -1.12 3.16 71 131 168
13.45 -1.23 3.16 73 133 170
13.45 -1.34 3.16 76 136 172
13.45 -1.44 3.16 77 137 173
13.45 -1.55 3.16 74 134 170
13.72 -1.63 2.99 73 137 172
13.72 -1.74 2.99 73 137 172
13.72 -1.85 2.99 72 136 171
13.72 -1.96 2.99 72 136 171
13.72 -2.07 2.99 73 135 172
13.72 -2.18 2.99 73 135 172
13.72 -2.29 2.99 73 135 172
13.72 -2.40 2.99 73 135 172
13.72 -2.51 2.99 74 134 171
13.72 -2.62 2.99 74 134 171
13.72 -2.73 2.99 74 134 170
13.72 -2.84 2.99 74 134 170
13.72 -2.95 2.99 74 134 168
13.72 -3.06 2.99 74 134 168
13.72 -3.16 2.99 75 136 167
13.72 -3.27 2.99 75 135 169
13.72 -3.38 2.99 73 133 167
13.72 -3.49 2.99 74 134 170
13.72 -3.60 2.99 76 136 170
13.72 -3.71 2.99 76 136 170
13.72 -3.82 2.99 76 136 170
13.72 -3.93 2.99 75 135 169
13.72 -4.04 2.99 75 135 169
13.72 -4.15 2.99 73 133 167
13.72 -4.26 2.99 74 134 168
13.72 -4.37 2.99 75 135 171
13.72 -4.48 2.99 75 135 171
13.72 -4.59 2.99 74 134 171
13.72 -4.70 2.99 73 133 170
13.72 -4.80 2.99 73 133 170
13.72 -4.91 2.99 73 133 170
13.72 -5.02 2.99 71 134 167
13.72 -5.13 2.99 71 134 167
13.72 -5.24 2.99 72 135 168
13.72 -5.35 2.99 72 135 168
13.72 -5.46 2.99 72 135 170
13.72 -5.57 2.99 72 135 170
13.72 -5.68 2.99 73 136 171
13.72 -5.79 2.99 74 137 172
13.72 -5.90 2.99 70 132 169
13.72 -6.01 2.99 71 133 170
13.72 -6.12 2.99 70 134 172
13.72 -6.23 2.99 69 133 171
13.45 -6.34 3.16 69 133 171
13.45 -6.45 3.16 71 135 173
13.45 -6.56 3.16 71 135 173
13.72 -6.66 2.99 71 135 173
13.72 -6.77 2.99 72 134 175
13.72 -6.88 2.99 72 134 173
13.72 -6.99 2.99 73 135 174
13.72 -7.10 2.99 72 136 172
13.72 -7.21 2.99 72 136 172
13.72 -7.32 2.99 72 136 171
13.72 -7.43 2.99 73 137 172
13.72 -7.54 2.99 72 135 170
13.72 -7.65 2.99 66 126 162
13.72 -7.76 2.99 63 123 159
13.72 -7.87 2.99 69 127 164
13.45 -7.97 3.16 74 129 168
13.45 -8.08 3.16 71 126 165
13.45 -8.19 3.16 70 123 165
13.45 -8.30 3.16 75 124 165
13.45 -8.41 3.16 76 120 155
13.45 -8.52 3.16 90 131 163
13.45 -8.63 3.16 101 142 172
13.45 -8.73 3.16 104 146 171
13.15 -8.84 3.34 110 153 172
13.15 -8.94 3.34 119 161 177
13.15 -9.05 3.34 126 169 176
13.15 -9.16 3.34 137 176 181
13.15 -9.27 3.34 151 186 188
13.45 -9.82 3.16 22 27 30
13.45 -9.93 3.16 0 4 4
13.45 -10.04 3.16 0 3 0
13.45 -10.15 3.16 3 14 8
13.93 22.90 2.73 37 79 127
14.22 22.96 2.54 39 79 128
14.22 22.85 2.54 38 78 127
13.93 22.57 2.73 41 79 124
13.93 22.46 2.73 43 81 126
13.93 22.35 2.73 38 79 123
13.93 22.24 2.73 38 82 127
13.93 22.13 2.73 43 87 134
13.93 22.02 2.73 39 85 135
14.22 22.08 2.54 43 89 141
14.22 21.96 2.54 42 88 140
14.22 21.85 2.54 41 87 139
14.22 21.74 2.54 45 91 143
14.22 21.63 2.54 45 91 143
14.22 21.52 2.54 43 90 142
14.22 21.41 2.54 44 91 143
14.22 21.30 2.54 43 90 144
14.22 21.19 2.54 43 90 144
14.22 21.08 2.54 43 90 144
14.22 20.97 2.54 43 90 144
14.22 20.86 2.54 43 90 146
14.22 20.75 2.54 43 90 146
14.22 20.64 2.54 44 91 147
14.22 20.53 2.54 45 92 148
14.52 20.57 2.35 43 92 148
14.52 20.46 2.35 43 92 148
14.52 20.35 2.35 43 93 146
14.52 20.24 2.35 42 92 145
14.79 20.26 2.18 44 91 145
14.79 20.15 2.18 46 92 144
14.79 20.04 2.18 48 94 146
14.79 19.93 2.18 42 88 140
14.79 19.81 2.18 42 88 140
14.79 19.70 2.18 42 89 143
14.79 19.59 2.18 42 89 143
14.79 19.48 2.18 41 91 144
15.08 19.51 2.00 41 91 144
15.08 19.40 2.00 42 91 147
15.08 19.29 2.00 42 91 147
15.08 19.18 2.00 42 92 143
15.08 19.06 2.00 42 92 143
15.08 18.95 2.00 42 92 145
15.08 18.84 2.00 42 92 145
15.08 18.73 2.00 42 92 145
15.08 18.61 2.00 42 92 145
15.08 18.50 2.00 43 92 148
15.08 18.39 2.00 43 92 148
15.38 18.42 1.81 46 93 149
15.38 18.30 1.81 46 93 149
15.38 18.19 1.81 45 91 150
15.38 18.08 1.81 44 90 149
15.38 17.97 1.81 44 90 149
15.38 17.85 1.81 44 90 149
15.38 17.74 1.81 45 91 151
15.38 17.63 1.81 41 92 149
15.38 17.51 1.81 41 92 149
15.38 17.40 1.81 43 94 151
15.38 17.29 1.81 43 94 151
15.38 17.17 1.81 42 91 147
15.38 17.06 1.81 44 93 149
15.38 16.95 1.81 44 93 149
15.38 16.84 1.81 39 88 144
15.38 16.72 1.81 42 92 145
15.38 16.61 1.81 42 92 145
15.38 16.50 1.81 43 90 144
15.68 16.51 1.62 43 90 144
15.68 16.40 1.62 43 90 144
15.68 16.29 1.62 44 91 145
15.68 16.17 1.62 44 91 145
15.68 16.06 1.62 45 92 146
15.68 15.95 1.62 42 94 144
15.68 15.83 1.62 42 94 144
15.68 15.72 1.62 41 93 143
15.68 15.60 1.62 42 94 144
15.68 15.49 1.62 42 93 146
15.68 15.38 1.62 43 94 147
15.68 15.26 1.62 42 95 147
15.68 15.15 1.62 39 92 144
15.68 15.04 1.62 40 93 145
15.68 14.92 1.62 41 94 146
15.68 14.81 1.62 42 95 147
15.68 14.70 1.62 42 95 147
15.68 14.58 1.62 41 94 146
15.97 14.59 1.44 40 93 145
15.97 14.47 1.44 39 92 144
15.97 14.36 1.44 40 96 145
15.97 14.24 1.44 39 95 144
15.97 14.13 1.44 39 95 146
15.97 14.02 1.44 39 95 146
15.97 13.90 1.44 42 95 147
15.97 13.79 1.44 43 96 148
15.68 13.56 1.62 44 97 151
15.68 13.45 1.62 44 97 151
15.68 13.34 1.62 45 98 152
15.68 13.22 1.62 41 94 148
15.68 13.11 1.62 41 97 148
15.68 12.99 1.62 43 99 150
15.68 12.88 1.62 39 97 147
15.97 12.88 1.44 39 97 147
15.97 12.76 1.44 39 99 149
15.97 12.65 1.44 39 97 147
15.97 12.53 1.44 46 99 153
15.97 12.42 1.44 44 100 151
15.97 12.31 1.44 45 101 152
15.97 12.19 1.44 44 100 151
15.97 12.08 1.44 44 100 151
15.97 11.96 1.44 42 100 148
15.97 11.85 1.44 42 100 148
15.97 11.73 1.44 43 104 149
15.97 11.62 1.44 41 102 147
15.97 11.51 1.44 40 101 148
15.97 11.39 1.44 40 101 148
15.97 11.28 1.44 41 103 150
15.97 11.16 1.44 41 103 150
15.97 11.05 1.44 41 103 150
15.68 10.84 1.62 42 102 152
15.68 10.73 1.62 40 100 150
15.68 10.61 1.62 41 98 151
15.68 10.50 1.62 43 100 153
15.97 10.48 1.44 44 101 154
15.68 10.27 1.62 41 101 153
15.68 10.16 1.62 39 99 151
15.68 10.04 1.62 40 100 152
15.68 9.93 1.62 42 102 154
15.68 9.82 1.62 40 100 152
15.68 9.70 1.62 38 99 153
15.68 9.59 1.62 36 97 151
15.68 9.48 1.62 37 98 152
15.68 9.36 1.62 39 100 154
15.68 9.25 1.62 40 101 155
15.68 9.14 1.62 40 100 154
15.68 9.02 1.62 41 101 151
15.68 8.91 1.62 40 100 150
15.68 8.80 1.62 38 100 147
15.68 8.68 1.62 36 98 147
15.68 8.57 1.62 36 98 149
15.68 8.46 1.62 38 98 150
15.68 8.34 1.62 39 100 144
15.38 8.15 1.81 42 101 145
15.38 8.03 1.81 47 105 153
15.38 7.92 1.81 62 118 165
15.38 7.81 1.81 23 83 120
15.38 7.69 1.81 0 43 67
15.38 7.58 1.81 32 53 58
15.38 7.47 1.81 39 48 43
15.38 7.36 1.81 42 54 44
12.30 2.80 3.75 63 87 99
12.30 2.70 3.75 126 159 168
12.30 2.59 3.75 123 161 172
12.30 2.48 3.75 109 153 166
12.56 2.43 3.58 95 144 161
12.56 2.32 3.58 85 142 161
12.56 2.21 3.58 72 132 156
12.56 2.10 3.58 64 128 156
12.56 2.00 3.58 65 130 162
12.56 1.89 3.58 64 132 169
12.56 1.78 3.58 62 129 171
12.56 1.68 3.58 57 126 168
12.56 1.57 3.58 59 126 169
12.56 1.46 3.58 65 129 165
12.83 1.40 3.42 67 130 165
12.83 1.29 3.42 62 125 160
12.83 1.18 3.42 61 124 159
12.83 1.08 3.42 65 127 164
12.83 0.97 3.42 67 127 164
13.10 0.90 3.25 70 130 167
13.10 0.79 3.25 69 127 165
13.10 0.69 3.25 71 129 167
13.10 0.58 3.25 72 130 167
13.10 0.47 3.25 70 128 165
13.10 0.36 3.25 71 127 164
13.10 0.25 3.25 72 128 165
13.39 0.19 3.06 75 129 165
13.39 0.08 3.06 74 130 165
13.39 -0.03 3.06 73 132 166
13.39 -0.14 3.06 71 131 165
13.39 -0.25 3.06 71 131 165
13.39 -0.36 3.06 71 131 165
13.39 -0.47 3.06 72 132 168
13.39 -0.57 3.06 72 132 168
13.39 -0.68 3.06 71 131 168
13.39 -0.79 3.06 71 131 168
13.39 -0.90 3.06 74 134 171
13.39 -1.01 3.06 73 133 170
13.39 -1.12 3.06 72 132 169
13.39 -1.23 3.06 72 132 169
13.39 -1.34 3.06 74 134 171
13.39 -1.44 3.06 74 134 171
13.39 -1.55 3.06 73 133 170
13.66 -1.63 2.89 72 135 170
13.66 -1.74 2.89 73 136 171
13.66 -1.85 2.89 74 137 172
13.66 -1.96 2.89 73 136 171
13.66 -2.07 2.89 71 133 170
13.66 -2.18 2.89 70 132 169
13.66 -2.29 2.89 71 133 170
13.66 -2.40 2.89 73 135 172
13.66 -2.51 2.89 75 135 172
13.66 -2.62 2.89 75 135 172
13.66 -2.73 2.89 75 135 171
13.66 -2.84 2.89 75 135 171
13.66 -2.95 2.89 76 135 169
13.66 -3.06 2.89 76 135 169
13.66 -3.16 2.89 76 135 169
13.66 -3.27 2.89 77 136 170
13.66 -3.38 2.89 74 134 170
13.66 -3.49 2.89 74 134 170
13.66 -3.60 2.89 74 134 168
13.66 -3.71 2.89 74 134 168
13.66 -3.82 2.89 74 134 168
13.66 -3.93 2.89 74 134 168
13.66 -4.04 2.89 74 134 168
13.66 -4.15 2.89 75 135 169
13.66 -4.26 2.89 75 135 169
13.66 -4.37 2.89 75 135 169
13.66 -4.48 2.89 74 134 168
13.66 -4.59 2.89 74 134 170
13.66 -4.70 2.89 74 134 170
13.66 -4.80 2.89 74 134 171
13.66 -4.91 2.89 75 135 172
13.66 -5.02 2.89 72 135 168
13.66 -5.13 2.89 72 135 168
13.66 -5.24 2.89 71 134 167
13.66 -5.35 2.89 71 134 167
13.66 -5.46 2.89 72 135 170
13.66 -5.57 2.89 72 135 170
13.66 -5.68 2.89 72 135 170
13.66 -5.79 2.89 72 135 170
13.66 -5.90 2.89 70 132 169
13.66 -6.01 2.89 71 133 170
13.66 -6.12 2.89 71 133 172
13.39 -6.23 3.06 69 131 170
13.39 -6.34 3.06 70 132 173
13.39 -6.45 3.06 71 133 174
13.39 -6.56 3.06 71 133 174
13.39 -6.67 3.06 72 131 173
13.39 -6.78 3.06 76 134 174
13.39 -6.89 3.06 75 133 171
13.66 -6.99 2.89 73 131 169
13.66 -7.10 2.89 72 132 166
13.66 -7.21 2.89 72 132 166
13.66 -7.32 2.89 73 134 165
13.66 -7.43 2.89 73 134 165
13.66 -7.54 2.89 72 132 166
13.66 -7.65 2.89 71 131 165
13.66 -7.76 2.89 72 132 168
13.39 -7.86 3.06 74 134 171
13.39 -7.97 3.06 74 132 170
13.39 -8.08 3.06 71 128 171
13.39 -8.19 3.06 69 126 169
13.39 -8.30 3.06 69 128 172
13.39 -8.41 3.06 70 132 173
13.39 -8.52 3.06 63 126 167
13.39 -8.63 3.06 59 122 163
13.39 -8.73 3.06 66 129 170
13.10 -8.84 3.25 73 138 178
13.10 -8.94 3.25 74 137 178
13.10 -9.05 3.25 80 144 182
13.10 -9.16 3.25 93 153 190
13.10 -9.27 3.25 102 158 191
13.10 -9.38 3.25 121 169 192
13.10 -9.48 3.25 140 183 202
12.83 -9.58 3.42 155 194 209
12.83 -9.69 3.42 159 193 203
12.83 -9.80 3.42 144 177 184
12.83 -9.90 3.42 140 168 172
12.83 -10.01 3.42 98 116 118
12.83 -10.12 3.42 51 65 66
12.83 -10.23 3.42 7 19 19
13.10 -10.35 3.25 0 8 8
13.10 -10.46 3.25 6 17 13
13.10 -10.57 3.25 14 25 21
13.10 -10.68 3.25 23 32 31
12.83 -10.77 3.42 31 39 41
12.83 -10.87 3.42 29 34 37
12.83 -10.98 3.42 32 37 41
12.83 -11.09 3.42 33 38 42
12.83 -11.20 3.42 29 34 38
13.87 22.90 2.63 38 80 130
13.87 22.79 2.63 39 79 130
13.87 22.68 2.63 39 79 130
13.87 22.57 2.63 43 81 128
13.87 22.46 2.63 43 81 128
13.87 22.35 2.63 36 79 124
13.87 22.24 2.63 38 82 127
13.87 22.13 2.63 39 86 132
14.17 22.19 2.44 39 83 130
14.17 22.08 2.44 43 87 136
14.17 21.96 2.44 43 87 136
14.17 21.85 2.44 42 86 135
14.17 21.74 2.44 44 90 139
14.17 21.63 2.44 44 90 139
14.17 21.52 2.44 42 88 138
14.17 21.41 2.44 43 89 139
14.17 21.30 2.44 43 89 141
14.17 21.19 2.44 43 89 141
14.17 21.08 2.44 43 90 144
14.17 20.97 2.44 43 90 144
14.17 20.86 2.44 43 90 146
14.17 20.75 2.44 43 90 146
14.17 20.64 2.44 44 90 149
14.47 20.68 2.26 45 91 150
14.47 20.57 2.26 40 89 145
14.47 20.46 2.26 41 90 146
14.47 20.35 2.26 42 92 145
14.73 20.37 2.09 42 92 145
14.73 20.26 2.09 43 90 142
14.73 20.15 2.09 46 92 142
14.73 20.04 2.09 47 93 143
14.73 19.93 2.09 43 89 139
14.73 19.81 2.09 44 90 140
14.73 19.70 2.09 44 91 143
14.73 19.59 2.09 44 91 143
14.73 19.48 2.09 42 92 145
14.73 19.37 2.09 41 91 144
15.03 19.40 1.90 41 90 146
15.03 19.29 1.90 41 90 146
15.03 19.18 1.90 42 92 143
15.03 19.06 1.90 42 92 143
15.03 18.95 1.90 42 92 143
15.03 18.84 1.90 42 92 143
15.03 18.73 1.90 42 92 143
15.03 18.61 1.90 42 92 143
15.03 18.50 1.90 43 90 144
15.03 18.39 1.90 43 90 144
15.32 18.42 1.71 44 91 147
15.32 18.30 1.71 44 91 147
15.32 18.19 1.71 44 90 149
15.32 18.08 1.71 43 89 148
15.32 17.97 1.71 42 88 147
15.32 17.85 1.71 41 87 146
15.32 17.74 1.71 44 90 149
15.32 17.63 1.71 40 91 148
15.32 17.51 1.71 40 91 148
15.32 17.40 1.71 42 93 150
15.32 17.29 1.71 41 92 149
15.32 17.17 1.71 39 90 145
15.32 17.06 1.71 42 93 148
15.32 16.95 1.71 43 93 146
15.32 16.84 1.71 37 87 140
15.32 16.72 1.71 43 93 146
15.32 16.61 1.71 42 92 145
15.32 16.50 1.71 43 90 144
15.62 16.51 1.53 43 90 144
15.62 16.40 1.53 43 90 144
15.62 16.29 1.53 44 91 145
15.62 16.17 1.53 45 92 148
15.62 16.06 1.53 45 92 148
15.62 15.95 1.53 43 95 145
15.62 15.83 1.53 42 94 144
15.62 15.72 1.53 41 93 143
15.62 15.60 1.53 41 93 143
15.62 15.49 1.53 41 93 143
15.62 15.38 1.53 42 94 144
15.62 15.26 1.53 44 96 146
15.62 15.15 1.53 44 96 146
15.62 15.04 1.53 43 95 145
15.62 14.92 1.53 41 94 146
15.62 14.81 1.53 40 93 145
15.62 14.70 1.53 40 93 145
15.62 14.58 1.53 41 94 146
15.92 14.59 1.34 42 95 147
15.92 14.47 1.34 43 96 148
15.92 14.36 1.34 42 100 150
15.92 14.24 1.34 41 99 149
15.92 14.13 1.34 41 97 148
15.92 14.02 1.34 41 97 148
15.92 13.90 1.34 44 97 149
15.92 13.79 1.34 45 98 150
15.62 13.56 1.53 46 97 152
15.62 13.45 1.53 46 97 152
15.62 13.34 1.53 46 99 153
15.62 13.22 1.53 42 95 149
15.62 13.11 1.53 43 98 152
15.62 12.99 1.53 44 99 153
15.92 12.99 1.34 40 97 150
15.92 12.88 1.34 39 96 149
15.92 12.76 1.34 40 100 152
15.92 12.65 1.34 41 98 151
15.92 12.53 1.34 46 99 153
15.92 12.42 1.34 45 100 154
15.92 12.31 1.34 44 99 153
15.92 12.19 1.34 43 101 151
15.92 12.08 1.34 43 101 151
15.92 11.96 1.34 42 100 148
15.92 11.85 1.34 42 100 148
15.92 11.73 1.34 41 102 147
15.92 11.62 1.34 41 102 147
15.92 11.51 1.34 40 101 146
15.92 11.39 1.34 40 101 146
15.92 11.28 1.34 40 101 148
15.92 11.16 1.34 40 101 148
15.92 11.05 1.34 41 102 149
15.62 10.84 1.53 41 101 151
15.62 10.73 1.53 43 101 151
15.62 10.61 1.53 42 99 152
15.62 10.50 1.53 42 99 152
15.62 10.38 1.53 43 100 153
15.62 10.27 1.53 41 101 153
15.62 10.16 1.53 40 100 152
15.62 10.04 1.53 40 100 152
15.62 9.93 1.53 41 101 153
15.62 9.82 1.53 40 100 152
15.62 9.70 1.53 39 100 154
15.62 9.59 1.53 36 97 151
15.62 9.48 1.53 36 97 151
15.62 9.36 1.53 38 99 153
15.62 9.25 1.53 39 100 154
15.62 9.14 1.53 39 99 153
15.62 9.02 1.53 40 100 152
15.62 8.91 1.53 39 99 151
15.62 8.80 1.53 37 99 148
15.62 8.68 1.53 36 98 149
15.62 8.57 1.53 36 96 148
15.62 8.46 1.53 40 97 150
15.62 8.34 1.53 40 101 146
15.32 8.15 1.71 44 102 148
15.32 8.03 1.71 45 102 155
15.32 7.92 1.71 62 118 169
15.32 7.81 1.71 40 99 143
15.32 7.69 1.71 0 40 71
15.32 7.58 1.71 30 50 57
15.03 7.39 1.90 37 46 41
15.03 7.28 1.90 40 51 43
12.24 2.80 3.66 117 136 140
12.24 2.70 3.66 109 134 141
12.24 2.59 3.66 90 123 132
12.24 2.48 3.66 83 121 134
12.51 2.43 3.49 74 117 133
12.51 2.32 3.49 67 118 137
12.51 2.21 3.49 66 121 142
12.51 2.10 3.49 70 126 151
12.51 2.00 3.49 62 119 148
12.51 1.89 3.49 58 117 147
12.51 1.78 3.49 63 122 156
12.51 1.68 3.49 66 125 159
12.51 1.57 3.49 71 129 166
12.51 1.46 3.49 68 130 167
12.51 1.35 3.49 67 129 166
12.78 1.29 3.32 63 126 161
12.78 1.18 3.32 63 126 161
12.78 1.08 3.32 68 131 166
12.78 0.97 3.32 67 127 163
13.04 0.90 3.15 69 129 165
13.04 0.79 3.15 69 127 164
13.04 0.69 3.15 70 128 165
13.04 0.58 3.15 73 129 164
13.04 0.47 3.15 72 128 163
13.04 0.36 3.15 73 127 163
13.04 0.25 3.15 75 129 165
13.34 0.19 2.97 77 131 167
13.34 0.08 2.97 76 132 167
13.34 -0.03 2.97 73 133 167
13.34 -0.14 2.97 70 133 166
13.34 -0.25 2.97 69 132 165
13.34 -0.36 2.97 69 132 165
13.34 -0.47 2.97 71 131 167
13.34 -0.57 2.97 71 131 167
13.34 -0.68 2.97 71 131 167
13.34 -0.79 2.97 70 130 166
13.34 -0.90 2.97 71 131 168
13.34 -1.01 2.97 71 131 168
13.34 -1.12 2.97 71 131 168
13.34 -1.23 2.97 71 131 168
13.34 -1.34 2.97 71 131 168
13.34 -1.44 2.97 71 131 168
13.34 -1.55 2.97 73 133 170
13.61 -1.63 2.80 73 131 168
13.61 -1.74 2.80 74 132 169
13.61 -1.85 2.80 75 135 172
13.61 -1.96 2.80 73 133 170
13.34 -2.10 2.97 71 131 168
13.61 -2.18 2.80 70 130 167
13.61 -2.29 2.80 72 132 169
13.61 -2.40 2.80 74 134 171
13.61 -2.51 2.80 77 137 174
13.61 -2.62 2.80 76 136 173
13.61 -2.73 2.80 76 136 172
13.61 -2.84 2.80 75 135 171
13.61 -2.95 2.80 75 133 170
13.61 -3.06 2.80 75 133 170
13.61 -3.16 2.80 75 134 168
13.61 -3.27 2.80 75 134 168
13.61 -3.38 2.80 78 136 173
13.61 -3.49 2.80 77 135 172
13.61 -3.60 2.80 77 136 170
13.61 -3.71 2.80 75 134 168
13.61 -3.82 2.80 74 133 167
13.61 -3.93 2.80 74 133 167
13.61 -4.04 2.80 75 134 166
13.61 -4.15 2.80 77 136 168
13.61 -4.26 2.80 77 136 168
13.61 -4.37 2.80 76 135 169
13.61 -4.48 2.80 76 135 169
13.61 -4.59 2.80 75 133 170
13.61 -4.70 2.80 76 134 171
13.61 -4.80 2.80 77 135 172
13.61 -4.91 2.80 78 136 173
13.61 -5.02 2.80 75 138 171
13.61 -5.13 2.80 73 136 169
13.61 -5.24 2.80 72 135 168
13.61 -5.35 2.80 71 134 167
13.61 -5.46 2.80 71 134 169
13.61 -5.57 2.80 70 133 168
13.61 -5.68 2.80 72 132 168
13.61 -5.79 2.80 72 132 168
13.61 -5.90 2.80 74 134 171
13.34 -6.01 2.97 74 134 171
13.34 -6.12 2.97 73 132 172
13.34 -6.23 2.97 72 131 171
13.34 -6.34 2.97 72 131 171
13.34 -6.45 2.97 74 133 173
13.34 -6.56 2.97 74 133 173
13.34 -6.67 2.97 73 131 171
13.34 -6.78 2.97 76 131 170
13.34 -6.89 2.97 72 130 167
13.34 -6.99 2.97 70 128 165
13.34 -7.10 2.97 70 129 163
13.61 -7.21 2.80 71 130 164
13.61 -7.32 2.80 70 131 162
13.61 -7.43 2.80 70 131 162
13.61 -7.54 2.80 69 129 163
13.34 -7.65 2.97 71 131 165
13.34 -7.76 2.97 72 132 168
13.34 -7.86 2.97 71 131 168
13.34 -7.97 2.97 70 130 167
13.34 -8.08 2.97 70 129 169
13.34 -8.19 2.97 68 130 171
13.34 -8.30 2.97 70 130 167
13.34 -8.41 2.97 73 130 159
13.34 -8.52 2.97 76 132 159
13.34 -8.63 2.97 72 129 158
13.34 -8.73 2.97 72 128 161
13.34 -8.84 2.97 65 121 158
13.04 -8.94 3.15 58 113 152
13.04 -9.05 3.15 65 118 160
13.04 -9.16 3.15 69 121 161
13.04 -9.27 3.15 68 120 157
13.04 -9.38 3.15 95 141 167
12.78 -9.47 3.32 105 148 167
12.78 -9.58 3.32 112 152 164
12.78 -9.69 3.32 122 159 167
12.78 -9.80 3.32 130 168 169
12.78 -9.90 3.32 147 181 183
12.78 -10.01 3.32 161 188 199
12.78 -10.12 3.32 171 193 206
12.78 -10.23 3.32 155 178 186
12.78 -10.34 3.32 105 124 130
13.04 -10.46 3.15 44 62 66
13.04 -10.57 3.15 6 20 23
12.78 -10.66 3.32 0 5 5
12.78 -10.77 3.32 0 3 4
12.78 -10.87 3.32 9 19 20
12.78 -10.98 3.32 17 22 25
12.78 -11.09 3.32 25 30 34
12.78 -11.20 3.32 33 36 41
14.11 23.07 2.35 38 79 131
13.82 22.79 2.53 38 79 131
13.82 22.68 2.53 40 81 133
13.82 22.57 2.53 41 81 132
13.82 22.46 2.53 40 80 131
13.82 22.35 2.53 40 82 130
13.82 22.24 2.53 38 85 131
13.82 22.13 2.53 40 84 131
14.11 22.19 2.35 37 81 128
14.11 22.08 2.35 43 85 133
14.11 21.96 2.35 43 85 133
14.11 21.85 2.35 42 84 132
14.11 21.74 2.35 44 88 135
14.11 21.63 2.35 45 89 136
14.11 21.52 2.35 42 86 133
14.11 21.41 2.35 43 87 136
14.11 21.30 2.35 43 89 138
14.11 21.19 2.35 44 90 142
14.11 21.08 2.35 43 90 142
14.11 20.97 2.35 43 90 144
14.11 20.86 2.35 42 89 145
14.11 20.75 2.35 42 89 145
14.11 20.64 2.35 43 89 148
14.41 20.68 2.16 44 90 149
14.41 20.57 2.16 42 91 147
14.41 20.46 2.16 41 90 146
14.41 20.35 2.16 40 90 143
14.68 20.37 1.99 40 90 143
14.68 20.26 1.99 43 90 142
14.68 20.15 1.99 46 92 142
14.68 20.04 1.99 46 92 142
14.68 19.93 1.99 45 91 141
14.68 19.81 1.99 46 92 142
14.68 19.70 1.99 45 92 144
14.68 19.59 1.99 45 92 144
14.68 19.48 1.99 42 92 145
14.68 19.37 1.99 41 91 144
14.97 19.40 1.80 42 91 147
14.97 19.29 1.80 43 93 146
14.97 19.18 1.80 42 92 143
14.97 19.06 1.80 42 92 141
14.97 18.95 1.80 42 92 141
14.97 18.84 1.80 42 92 141
14.97 18.73 1.80 44 91 143
14.97 18.61 1.80 44 91 143
14.97 18.50 1.80 43 90 142
14.97 18.39 1.80 42 89 141
15.27 18.42 1.62 43 90 144
15.27 18.30 1.62 42 89 143
15.27 18.19 1.62 42 89 145
15.27 18.08 1.62 42 89 145
15.27 17.97 1.62 43 88 147
15.27 17.85 1.62 43 88 147
15.27 17.74 1.62 42 88 147
15.27 17.63 1.62 40 91 148
15.27 17.51 1.62 39 91 148
15.27 17.40 1.62 40 92 149
15.27 17.29 1.62 39 91 148
15.27 17.17 1.62 38 89 144
15.27 17.06 1.62 41 92 147
15.27 16.95 1.62 42 93 146
15.27 16.84 1.62 36 87 140
15.27 16.72 1.62 42 92 145
15.27 16.61 1.62 41 91 144
15.27 16.50 1.62 41 91 144
15.27 16.38 1.62 41 91 144
15.56 16.40 1.43 44 91 147
15.56 16.29 1.43 44 91 147
15.56 16.17 1.43 44 91 147
15.56 16.06 1.43 44 91 145
15.56 15.95 1.43 43 95 145
15.56 15.83 1.43 42 94 142
15.56 15.72 1.43 42 94 142
15.56 15.60 1.43 41 93 141
15.56 15.49 1.43 40 92 142
15.56 15.38 1.43 41 93 143
15.56 15.26 1.43 42 94 144
15.56 15.15 1.43 44 96 146
15.56 15.04 1.43 43 95 145
15.56 14.92 1.43 42 93 146
15.56 14.81 1.43 42 93 146
15.56 14.70 1.43 42 93 146
15.56 14.58 1.43 43 94 147
15.86 14.59 1.24 44 95 148
15.86 14.47 1.24 44 97 149
15.86 14.36 1.24 43 99 150
15.86 14.24 1.24 41 99 149
15.86 14.13 1.24 41 97 148
15.86 14.02 1.24 42 98 149
15.86 13.90 1.24 45 98 150
15.86 13.79 1.24 45 98 150
15.56 13.56 1.43 46 97 152
15.56 13.45 1.43 45 96 151
15.56 13.34 1.43 46 97 152
15.56 13.22 1.43 43 94 149
15.56 13.11 1.43 43 98 152
15.86 13.10 1.24 45 100 154
15.86 12.99 1.24 41 98 153
15.86 12.88 1.24 41 98 153
15.86 12.76 1.24 41 101 155
15.86 12.65 1.24 43 100 155
15.86 12.53 1.24 45 100 156
15.86 12.42 1.24 44 99 153
15.86 12.31 1.24 44 99 153
15.86 12.19 1.24 42 100 150
15.86 12.08 1.24 42 100 150
15.86 11.96 1.24 40 101 148
15.86 11.85 1.24 40 101 148
15.86 11.73 1.24 40 101 146
15.86 11.62 1.24 41 102 147
15.86 11.51 1.24 44 102 148
15.86 11.39 1.24 42 100 146
15.86 11.28 1.24 41 99 145
15.86 11.16 1.24 40 98 144
15.86 11.05 1.24 43 99 148
15.56 10.84 1.43 44 100 149
15.56 10.73 1.43 44 102 152
15.56 10.61 1.43 41 99 149
15.56 10.50 1.43 40 98 148
15.56 10.38 1.43 42 100 150
15.56 10.27 1.43 43 101 151
15.56 10.16 1.43 43 101 151
15.56 10.04 1.43 40 100 152
15.56 9.93 1.43 40 100 152
15.56 9.82 1.43 39 101 152
15.56 9.70 1.43 41 103 154
15.56 9.59 1.43 39 101 152
15.56 9.48 1.43 37 100 151
15.56 9.36 1.43 37 100 151
15.56 9.25 1.43 37 100 153
15.56 9.14 1.43 37 98 152
15.56 9.02 1.43 38 97 153
15.56 8.91 1.43 38 97 153
15.56 8.80 1.43 37 99 150
15.56 8.68 1.43 36 98 149
15.56 8.57 1.43 36 96 150
15.56 8.46 1.43 39 96 149
15.56 8.34 1.43 39 100 145
15.56 8.23 1.43 43 101 149
15.27 8.03 1.62 43 100 155
15.27 7.92 1.62 57 112 168
15.27 7.81 1.62 52 110 158
15.27 7.69 1.62 0 33 68
15.27 7.58 1.62 30 50 61
14.97 7.39 1.80 38 47 46
14.97 7.28 1.80 37 50 41
12.19 2.80 3.57 101 134 151
12.19 2.70 3.57 75 113 132
12.19 2.59 3.57 71 117 141
12.46 2.53 3.40 67 118 147
12.46 2.43 3.40 56 112 145
12.46 2.32 3.40 59 122 157
12.46 2.21 3.40 58 122 160
12.46 2.10 3.40 61 129 166
12.46 2.00 3.40 57 125 164
12.46 1.89 3.40 60 127 169
12.46 1.78 3.40 68 135 177
12.46 1.68 3.40 63 128 168
12.46 1.57 3.40 60 125 165
12.46 1.46 3.40 58 122 158
12.72 1.40 3.23 62 126 162
12.72 1.29 3.23 63 127 163
12.72 1.18 3.23 64 128 164
12.72 1.08 3.23 67 129 166
12.72 0.97 3.23 62 125 160
12.99 0.90 3.06 67 130 165
12.99 0.79 3.06 66 126 162
12.99 0.69 3.06 67 127 163
12.99 0.58 3.06 67 125 162
12.99 0.47 3.06 66 124 161
12.99 0.36 3.06 67 125 162
12.99 0.25 3.06 69 127 164
13.29 0.19 2.87 70 128 165
13.29 0.08 2.87 68 126 163
13.29 -0.03 2.87 70 133 166
13.29 -0.14 2.87 69 132 165
13.29 -0.25 2.87 69 132 165
13.29 -0.36 2.87 69 132 165
13.29 -0.47 2.87 69 132 165
13.29 -0.57 2.87 69 132 165
13.29 -0.68 2.87 71 131 167
13.29 -0.79 2.87 70 130 166
13.29 -0.90 2.87 69 129 166
13.29 -1.01 2.87 70 130 167
13.29 -1.12 2.87 70 130 167
13.29 -1.23 2.87 70 130 167
13.29 -1.34 2.87 70 129 169
13.29 -1.44 2.87 70 129 169
13.29 -1.55 2.87 74 129 170
13.29 -1.66 2.87 79 135 172
13.55 -1.74 2.70 81 135 173
13.29 -1.88 2.87 80 135 174
13.29 -1.99 2.87 80 135 174
13.29 -2.10 2.87 77 135 173
13.29 -2.21 2.87 77 135 173
13.55 -2.29 2.70 77 136 176
13.55 -2.40 2.70 77 136 176
13.55 -2.51 2.70 76 136 173
13.55 -2.62 2.70 75 135 172
13.55 -2.73 2.70 76 134 172
13.55 -2.84 2.70 75 133 171
13.55 -2.95 2.70 75 133 170
13.55 -3.06 2.70 74 132 169
13.55 -3.16 2.70 76 132 167
13.55 -3.27 2.70 76 132 167
13.55 -3.38 2.70 77 135 172
13.55 -3.49 2.70 77 135 172
13.55 -3.60 2.70 77 135 172
13.55 -3.71 2.70 76 134 171
13.55 -3.82 2.70 75 134 168
13.55 -3.93 2.70 74 133 167
13.55 -4.04 2.70 75 134 166
13.55 -4.15 2.70 74 133 165
13.55 -4.26 2.70 75 134 166
13.55 -4.37 2.70 76 135 169
13.55 -4.48 2.70 75 134 168
13.55 -4.59 2.70 75 134 168
13.55 -4.70 2.70 76 135 169
13.55 -4.80 2.70 76 134 171
13.55 -4.91 2.70 77 135 172
13.55 -5.02 2.70 77 137 173
13.55 -5.13 2.70 75 135 171
13.55 -5.24 2.70 73 133 169
13.55 -5.35 2.70 72 132 168
13.55 -5.46 2.70 72 132 168
13.55 -5.57 2.70 72 132 168
13.55 -5.68 2.70 71 131 168
13.55 -5.79 2.70 71 131 168
13.29 -5.91 2.87 74 132 170
13.29 -6.01 2.87 74 132 170
13.29 -6.12 2.87 73 131 169
13.29 -6.23 2.87 72 130 168
13.29 -6.34 2.87 73 131 171
13.29 -6.45 2.87 75 133 173
13.29 -6.56 2.87 75 133 173
13.29 -6.67 2.87 73 131 171
13.29 -6.78 2.87 71 131 168
13.29 -6.89 2.87 69 129 166
13.29 -6.99 2.87 69 129 166
13.29 -7.10 2.87 71 131 168
13.29 -7.21 2.87 72 132 169
13.29 -7.32 2.87 70 132 169
13.29 -7.43 2.87 69 131 168
13.29 -7.54 2.87 72 134 171
13.29 -7.65 2.87 69 131 168
13.29 -7.76 2.87 66 130 166
13.29 -7.86 2.87 67 131 167
13.29 -7.97 2.87 67 133 168
13.29 -8.08 2.87 67 133 168
13.29 -8.19 2.87 66 131 169
13.29 -8.30 2.87 66 131 169
13.29 -8.41 2.87 62 127 165
13.29 -8.52 2.87 65 130 168
13.29 -8.63 2.87 65 130 170
13.29 -8.73 2.87 68 133 175
13.29 -8.84 2.87 63 128 170
12.99 -8.94 3.06 63 127 171
12.99 -9.05 3.06 70 134 180
12.99 -9.16 3.06 59 123 169
12.99 -9.27 3.06 68 131 174
12.99 -9.38 3.06 55 117 156
12.72 -9.47 3.23 52 115 150
12.72 -9.58 3.23 61 122 153
12.72 -9.69 3.23 75 136 164
12.72 -9.80 3.23 84 144 170
12.72 -9.90 3.23 98 152 176
12.72 -10.01 3.23 116 160 185
12.72 -10.12 3.23 130 166 190
12.46 -10.21 3.40 137 174 192
12.46 -10.32 3.40 154 188 200
12.72 -10.44 3.23 182 211 219
12.72 -10.55 3.23 184 209 213
12.46 -10.64 3.40 129 151 149
12.46 -10.75 3.40 63 82 80
12.46 -10.86 3.40 0 5 2
12.46 -10.96 3.40 0 3 2
12.46 -11.07 3.40 0 6 8
12.46 -11.18 3.40 12 17 20
12.46 -11.28 3.40 28 32 35
12.72 -11.41 3.23 36 40 43
13.76 22.90 2.44 36 79 130
13.76 22.79 2.44 36 77 131
13.76 22.68 2.44 38 79 133
13.76 22.57 2.44 39 79 131
13.76 22.46 2.44 37 77 129
13.76 22.35 2.44 42 84 134
13.76 22.24 2.44 40 86 135
14.06 22.30 2.25 39 83 130
14.06 22.19 2.25 41 84 129
14.06 22.08 2.25 46 87 131
14.06 21.96 2.25 45 86 130
14.06 21.85 2.25 44 85 129
14.06 21.74 2.25 46 89 134
14.06 21.63 2.25 47 90 135
14.06 21.52 2.25 44 88 135
14.06 21.41 2.25 46 90 137
14.06 21.30 2.25 44 90 139
14.06 21.19 2.25 44 90 140
14.06 21.08 2.25 44 92 141
14.06 20.97 2.25 43 90 144
14.06 20.86 2.25 40 90 143
14.06 20.75 2.25 40 89 147
14.06 20.64 2.25 41 90 148
14.35 20.68 2.06 42 91 150
14.35 20.57 2.06 46 95 151
14.35 20.46 2.06 42 91 147
14.62 20.48 1.89 39 89 142
14.62 20.37 1.89 39 89 142
14.62 20.26 1.89 43 90 142
14.62 20.15 1.89 45 91 141
14.62 20.04 1.89 44 90 140
14.62 19.93 1.89 43 89 139
14.62 19.81 1.89 44 90 140
14.62 19.70 1.89 43 90 142
14.62 19.59 1.89 42 89 141
14.62 19.48 1.89 40 90 143
14.62 19.37 1.89 41 91 144
14.92 19.40 1.71 43 92 148
14.92 19.29 1.71 44 94 147
14.92 19.18 1.71 42 92 141
14.92 19.06 1.71 42 93 140
14.92 18.95 1.71 43 94 141
14.92 18.84 1.71 43 94 141
14.92 18.73 1.71 45 93 142
14.92 18.61 1.71 44 92 141
14.92 18.50 1.71 43 90 142
14.92 18.39 1.71 42 89 141
15.21 18.42 1.52 44 91 145
15.21 18.30 1.52 43 90 144
15.21 18.19 1.52 44 89 146
15.21 18.08 1.52 46 91 148
15.21 17.97 1.52 48 93 150
15.21 17.85 1.52 48 93 150
15.21 17.74 1.52 43 89 148
15.21 17.63 1.52 40 92 149
15.21 17.51 1.52 38 93 149
15.21 17.40 1.52 41 93 150
15.21 17.29 1.52 39 91 148
15.21 17.17 1.52 37 90 144
15.21 17.06 1.52 41 94 148
15.21 16.95 1.52 43 94 147
15.21 16.84 1.52 36 87 140
15.21 16.72 1.52 39 90 143
15.21 16.61 1.52 40 91 144
15.21 16.50 1.52 41 91 144
15.21 16.38 1.52 42 92 145
15.21 16.27 1.52 44 91 147
15.51 16.29 1.33 44 91 147
15.51 16.17 1.33 43 89 148
15.51 16.06 1.33 43 90 146
15.51 15.95 1.33 42 94 144
15.51 15.83 1.33 42 94 142
15.51 15.72 1.33 42 94 142
15.51 15.60 1.33 41 93 141
15.51 15.49 1.33 40 92 142
15.51 15.38 1.33 40 92 142
15.51 15.26 1.33 41 93 143
15.51 15.15 1.33 41 93 143
15.51 15.04 1.33 41 93 143
15.51 14.92 1.33 42 93 146
15.51 14.81 1.33 43 94 147
15.51 14.70 1.33 44 95 148
15.51 14.58 1.33 43 94 147
15.80 14.59 1.14 43 94 147
15.80 14.47 1.14 42 95 147
15.80 14.36 1.14 38 94 145
15.80 14.24 1.14 36 94 144
15.80 14.13 1.14 38 94 145
15.80 14.02 1.14 39 95 146
15.80 13.90 1.14 42 95 147
15.80 13.79 1.14 42 95 147
15.80 13.67 1.14 42 93 148
15.51 13.45 1.33 41 92 147
15.51 13.34 1.33 42 93 148
15.51 13.22 1.33 40 91 146
15.51 13.11 1.33 40 95 151
15.80 13.10 1.14 42 97 153
15.80 12.99 1.14 39 96 151
15.80 12.88 1.14 39 96 151
15.80 12.76 1.14 39 100 154
15.80 12.65 1.14 40 100 154
15.80 12.53 1.14 45 100 156
15.80 12.42 1.14 43 100 153
15.80 12.31 1.14 43 100 153
15.80 12.19 1.14 42 100 150
15.80 12.08 1.14 42 100 150
15.80 11.96 1.14 40 101 148
15.80 11.85 1.14 40 101 148
15.80 11.73 1.14 41 102 147
15.80 11.62 1.14 43 104 149
15.80 11.51 1.14 46 104 150
15.80 11.39 1.14 44 102 148
15.80 11.28 1.14 42 98 145
15.80 11.16 1.14 41 97 144
15.80 11.05 1.14 45 98 148
15.80 10.94 1.14 47 100 150
15.51 10.73 1.33 45 103 151
15.51 10.61 1.33 41 99 147
15.51 10.50 1.33 39 97 147
15.51 10.38 1.33 41 99 149
15.51 10.27 1.33 43 101 151
15.51 10.16 1.33 44 102 152
15.51 10.04 1.33 41 101 151
15.51 9.93 1.33 41 101 151
15.51 9.82 1.33 37 99 150
15.51 9.70 1.33 40 102 153
15.51 9.59 1.33 39 101 152
15.51 9.48 1.33 37 100 151
15.51 9.36 1.33 36 99 150
15.51 9.25 1.33 35 98 149
15.51 9.14 1.33 34 95 149
15.51 9.02 1.33 38 97 153
15.51 8.91 1.33 41 97 154
15.51 8.80 1.33 38 99 153
15.51 8.68 1.33 38 98 152
15.51 8.57 1.33 36 96 150
15.51 8.46 1.33 38 95 150
15.51 8.34 1.33 37 98 145
15.51 8.23 1.33 40 98 148
15.21 8.03 1.52 41 97 156
15.21 7.92 1.52 50 104 164
15.21 7.81 1.52 52 109 162
15.21 7.69 1.52 0 25 62
15.21 7.58 1.52 31 50 65
14.92 7.39 1.71 43 51 53
14.92 7.28 1.71 36 49 42
12.14 2.80 3.47 79 111 124
12.14 2.70 3.47 79 116 135
12.14 2.59 3.47 68 112 137
12.40 2.53 3.31 63 112 142
12.40 2.43 3.31 67 121 155
12.40 2.32 3.31 61 119 156
12.40 2.21 3.31 56 116 153
12.40 2.10 3.31 60 122 161
12.40 2.00 3.31 57 119 158
12.40 1.89 3.31 57 117 153
12.40 1.78 3.31 59 119 155
12.40 1.68 3.31 56 115 147
12.40 1.57 3.31 62 122 156
12.40 1.46 3.31 63 127 163
12.67 1.40 3.14 61 126 164
12.67 1.29 3.14 58 123 161
12.67 1.18 3.14 58 123 161
12.67 1.08 3.14 62 126 162
12.67 0.97 3.14 60 124 160
12.94 0.90 2.97 65 129 165
12.94 0.79 2.97 64 126 163
12.94 0.69 2.97 65 127 164
12.94 0.58 2.97 64 126 165
12.94 0.47 2.97 64 126 165
12.94 0.36 2.97 66 128 167
12.94 0.25 2.97 68 130 169
13.23 0.19 2.78 67 129 168
13.23 0.08 2.78 65 127 164
13.23 -0.03 2.78 67 130 165
13.23 -0.14 2.78 67 130 163
13.23 -0.25 2.78 67 130 163
13.23 -0.36 2.78 68 131 164
13.23 -0.47 2.78 69 132 165
13.23 -0.57 2.78 69 132 165
13.23 -0.68 2.78 69 132 167
13.23 -0.79 2.78 69 132 167
13.23 -0.90 2.78 70 130 166
13.23 -1.01 2.78 69 129 165
13.23 -1.12 2.78 69 129 166
13.23 -1.23 2.78 70 130 167
13.23 -1.34 2.78 71 130 170
13.23 -1.44 2.78 72 131 171
13.23 -1.55 2.78 74 129 170
13.23 -1.66 2.78 77 130 170
13.23 -1.77 2.78 77 129 169
13.23 -1.88 2.78 75 128 168
13.23 -1.99 2.78 75 128 168
13.23 -2.10 2.78 75 130 169
13.23 -2.21 2.78 76 131 170
13.23 -2.32 2.78 73 131 171
13.23 -2.42 2.78 73 131 171
13.23 -2.53 2.78 73 133 170
13.50 -2.62 2.61 73 133 170
13.50 -2.73 2.61 74 132 170
13.50 -2.84 2.61 74 132 170
13.50 -2.95 2.61 74 132 169
13.50 -3.06 2.61 74 132 169
13.50 -3.16 2.61 76 132 167
13.50 -3.27 2.61 76 132 167
13.50 -3.38 2.61 73 131 168
13.50 -3.49 2.61 74 132 169
13.50 -3.60 2.61 74 133 167
13.50 -3.71 2.61 74 133 167
13.50 -3.82 2.61 74 133 167
13.50 -3.93 2.61 73 132 166
13.50 -4.04 2.61 73 132 164
13.23 -4.17 2.78 71 130 162
13.23 -4.27 2.78 72 131 163
13.50 -4.37 2.61 74 133 165
13.50 -4.48 2.61 74 133 165
13.50 -4.59 2.61 74 133 167
13.50 -4.70 2.61 74 133 167
13.50 -4.80 2.61 74 133 167
13.50 -4.91 2.61 75 134 168
13.50 -5.02 2.61 74 134 170
13.50 -5.13 2.61 73 133 169
13.50 -5.24 2.61 71 131 167
13.50 -5.35 2.61 71 131 167
13.50 -5.46 2.61 72 132 168
13.50 -5.57 2.61 72 132 168
13.50 -5.68 2.61 73 131 169
13.23 -5.80 2.78 73 131 169
13.23 -5.91 2.78 72 130 168
13.23 -6.01 2.78 73 131 169
13.23 -6.12 2.78 74 129 168
13.23 -6.23 2.78 73 128 167
13.23 -6.34 2.78 75 130 169
13.23 -6.45 2.78 77 132 171
13.23 -6.56 2.78 77 132 171
13.23 -6.67 2.78 73 131 169
13.23 -6.78 2.78 68 132 170
13.23 -6.89 2.78 67 131 169
13.23 -6.99 2.78 68 132 170
13.23 -7.10 2.78 69 132 173
13.23 -7.21 2.78 69 132 173
13.23 -7.32 2.78 68 131 174
13.23 -7.43 2.78 67 130 173
13.23 -7.54 2.78 63 128 170
13.23 -7.65 2.78 62 127 169
13.23 -7.76 2.78 62 130 169
13.23 -7.86 2.78 65 133 172
13.23 -7.97 2.78 61 131 167
13.23 -8.08 2.78 56 126 162
13.23 -8.19 2.78 58 128 162
13.23 -8.30 2.78 65 133 168
13.23 -8.41 2.78 67 129 168
13.23 -8.52 2.78 69 128 168
13.23 -8.63 2.78 68 128 165
13.23 -8.73 2.78 71 131 168
12.94 -8.84 2.97 63 123 159
12.94 -8.94 2.97 63 123 159
12.94 -9.05 2.97 75 135 169
12.94 -9.16 2.97 62 122 156
12.94 -9.27 2.97 63 123 157
12.94 -9.38 2.97 64 127 160
12.67 -9.47 3.14 61 124 157
12.67 -9.58 3.14 58 122 157
12.67 -9.69 3.14 60 124 159
12.67 -9.80 3.14 58 122 158
12.67 -9.90 3.14 66 126 162
12.67 -10.01 3.14 77 131 165
12.67 -10.12 3.14 89 138 168
12.40 -10.21 3.31 100 148 171
12.40 -10.32 3.31 108 151 168
12.40 -10.43 3.31 115 156 162
12.40 -10.53 3.31 131 166 168
12.40 -10.64 3.31 153 184 179
12.40 -10.75 3.31 170 197 192
12.40 -10.86 3.31 180 201 194
12.40 -10.96 3.31 142 159 153
12.14 -11.05 3.47 83 95 93
12.14 -11.16 3.47 29 37 39
12.40 -11.28 3.31 0 8 10
12.40 -11.39 3.31 1 6 10
13.71 22.90 2.34 40 81 125
13.71 22.79 2.34 36 77 121
13.71 22.68 2.34 38 79 125
13.71 22.57 2.34 42 80 127
13.71 22.46 2.34 42 80 129
14.00 22.52 2.16 37 74 127
14.00 22.41 2.16 37 78 132
14.00 22.30 2.16 43 82 139
14.00 22.19 2.16 43 82 139
14.00 22.08 2.16 45 81 139
14.00 21.96 2.16 43 82 137
14.00 21.85 2.16 44 83 138
14.00 21.74 2.16 44 85 139
14.00 21.63 2.16 45 86 140
14.30 21.68 1.97 43 89 139
14.00 21.41 2.16 43 89 139
14.00 21.30 2.16 41 89 138
14.00 21.19 2.16 42 90 139
14.00 21.08 2.16 40 90 141
14.00 20.97 2.16 40 90 141
14.00 20.86 2.16 40 90 141
14.00 20.75 2.16 39 89 140
14.30 20.79 1.97 39 89 142
14.30 20.68 1.97 41 88 142
14.30 20.57 1.97 45 92 146
14.30 20.46 1.97 45 90 145
14.56 20.48 1.80 44 91 145
14.56 20.37 1.80 45 92 146
14.56 20.26 1.80 46 93 149
14.56 20.15 1.80 43 90 146
14.56 20.04 1.80 42 89 145
14.56 19.93 1.80 43 90 144
14.56 19.81 1.80 45 92 146
14.56 19.70 1.80 43 93 144
14.56 19.59 1.80 41 91 142
14.56 19.48 1.80 41 92 139
14.56 19.37 1.80 42 93 140
14.56 19.26 1.80 43 94 139
14.86 19.29 1.61 41 92 139
14.86 19.18 1.61 40 90 141
14.86 19.06 1.61 41 91 144
14.86 18.95 1.61 42 92 143
14.86 18.84 1.61 42 92 143
14.86 18.73 1.61 41 91 142
14.86 18.61 1.61 40 90 141
14.86 18.50 1.61 40 90 139
14.86 18.39 1.61 40 90 139
15.16 18.42 1.42 42 92 141
15.16 18.30 1.42 40 90 139
15.16 18.19 1.42 40 90 141
15.16 18.08 1.42 42 92 143
15.16 17.97 1.42 42 92 143
15.16 17.85 1.42 41 91 142
15.16 17.74 1.42 43 92 148
15.16 17.63 1.42 40 91 146
15.16 17.51 1.42 42 93 150
15.16 17.40 1.42 42 95 149
15.16 17.29 1.42 40 93 147
15.16 17.17 1.42 37 92 146
15.16 17.06 1.42 38 93 147
15.16 16.95 1.42 37 92 146
15.16 16.84 1.42 34 89 143
15.16 16.72 1.42 37 92 146
15.16 16.61 1.42 39 92 146
15.16 16.50 1.42 39 92 144
15.16 16.38 1.42 41 91 144
15.16 16.27 1.42 41 91 144
15.45 16.29 1.23 45 90 145
15.45 16.17 1.23 46 91 146
15.45 16.06 1.23 49 92 147
15.45 15.95 1.23 42 90 139
15.45 15.83 1.23 43 91 140
15.45 15.72 1.23 42 92 141
15.45 15.60 1.23 43 93 142
15.45 15.49 1.23 43 93 144
15.45 15.38 1.23 43 93 144
15.45 15.26 1.23 43 93 146
15.45 15.15 1.23 43 94 147
15.45 15.04 1.23 44 95 148
15.45 14.92 1.23 44 97 151
15.45 14.81 1.23 44 97 151
15.45 14.70 1.23 43 96 150
15.45 14.58 1.23 42 95 149
15.75 14.59 1.04 41 94 148
15.75 14.47 1.04 41 94 148
15.75 14.36 1.04 40 95 149
15.75 14.24 1.04 41 96 150
15.75 14.13 1.04 42 98 149
15.75 14.02 1.04 40 96 147
15.75 13.90 1.04 39 95 146
15.75 13.79 1.04 39 95 146
15.75 13.67 1.04 41 97 148
15.75 13.56 1.04 43 99 150
15.45 13.34 1.23 43 101 151
15.45 13.22 1.23 43 101 151
15.75 13.22 1.04 42 99 152
15.75 13.10 1.04 40 97 150
15.75 12.99 1.04 39 96 151
15.75 12.88 1.04 39 96 151
15.75 12.76 1.04 40 96 153
15.75 12.65 1.04 41 97 154
15.75 12.53 1.04 43 98 154
15.75 12.42 1.04 43 100 153
15.75 12.31 1.04 43 100 153
15.75 12.19 1.04 38 100 151
15.75 12.08 1.04 35 97 148
15.75 11.96 1.04 35 98 149
15.75 11.85 1.04 37 100 151
15.75 11.73 1.04 40 103 154
15.75 11.62 1.04 39 102 153
15.75 11.51 1.04 38 100 149
15.75 11.39 1.04 39 99 149
15.75 11.28 1.04 42 102 152
15.75 11.16 1.04 47 105 155
15.75 11.05 1.04 46 102 153
15.75 10.94 1.04 41 97 148
15.75 10.82 1.04 39 99 149
15.45 10.61 1.23 39 99 149
15.45 10.50 1.23 40 100 150
15.45 10.38 1.23 40 100 150
15.45 10.27 1.23 40 100 150
15.45 10.16 1.23 40 100 150
15.45 10.04 1.23 40 100 150
15.45 9.93 1.23 40 100 150
15.45 9.82 1.23 41 101 151
15.45 9.70 1.23 39 99 149
15.45 9.59 1.23 39 99 149
15.45 9.48 1.23 38 100 149
15.45 9.36 1.23 38 100 149
15.45 9.25 1.23 36 98 147
15.45 9.14 1.23 35 97 146
15.45 9.02 1.23 38 98 150
15.45 8.91 1.23 39 99 151
15.45 8.80 1.23 40 97 150
15.45 8.68 1.23 38 95 150
15.45 8.57 1.23 36 97 152
15.45 8.46 1.23 39 99 153
15.45 8.34 1.23 44 97 147
15.45 8.23 1.23 39 95 142
15.16 8.03 1.42 37 99 150
15.16 7.92 1.42 47 111 159
15.16 7.81 1.42 48 107 151
15.16 7.69 1.42 0 33 66
15.16 7.58 1.42 22 44 57
14.86 7.39 1.61 52 59 65
14.86 7.28 1.61 22 30 33
14.56 7.09 1.80 10 15 18
14.56 6.97 1.80 5 10 6
12.09 2.80 3.38 67 120 136
12.09 2.70 3.38 55 115 139
12.35 2.64 3.21 57 118 147
12.35 2.53 3.21 61 121 155
12.35 2.43 3.21 60 120 156
12.35 2.32 3.21 54 120 154
12.35 2.21 3.21 53 122 155
12.35 2.10 3.21 53 124 154
12.35 2.00 3.21 55 124 155
12.35 1.89 3.21 57 123 157
12.35 1.78 3.21 56 122 157
12.35 1.68 3.21 51 121 155
12.35 1.57 3.21 48 121 156
12.62 1.51 3.04 55 125 161
12.62 1.40 3.04 55 125 161
12.62 1.29 3.04 56 126 162
12.62 1.18 3.04 56 126 162
12.62 1.08 3.04 58 126 163
12.62 0.97 3.04 58 126 161
12.88 0.90 2.87 58 126 161
12.88 0.79 2.87 59 125 160
12.88 0.69 2.87 60 126 161
12.88 0.58 2.87 61 127 161
12.88 0.47 2.87 62 128 162
12.88 0.36 2.87 64 128 163
12.88 0.25 2.87 64 128 163
13.18 0.19 2.68 64 128 163
13.18 0.08 2.68 64 128 163
13.18 -0.03 2.68 65 130 160
13.18 -0.14 2.68 65 130 160
13.18 -0.25 2.68 65 130 160
13.18 -0.36 2.68 65 130 160
13.18 -0.47 2.68 66 129 160
13.18 -0.57 2.68 65 128 159
13.18 -0.68 2.68 67 128 159
13.18 -0.79 2.68 67 128 159
13.18 -0.90 2.68 68 127 161
13.18 -1.01 2.68 72 131 165
13.18 -1.12 2.68 77 133 168
13.18 -1.23 2.68 76 132 167
13.18 -1.34 2.68 74 128 164
13.18 -1.44 2.68 73 127 163
13.18 -1.55 2.68 82 134 173
13.18 -1.66 2.68 78 133 172
13.18 -1.77 2.68 76 131 170
13.18 -1.88 2.68 72 130 168
13.18 -1.99 2.68 71 129 167
13.18 -2.10 2.68 71 130 170
13.18 -2.21 2.68 71 130 170
13.18 -2.32 2.68 68 130 169
13.18 -2.42 2.68 67 129 168
13.18 -2.53 2.68 69 133 171
13.18 -2.64 2.68 69 133 171
13.44 -2.73 2.51 71 133 172
13.44 -2.84 2.51 70 132 171
13.44 -2.95 2.51 69 131 172
13.44 -3.06 2.51 68 130 171
13.44 -3.16 2.51 70 129 171
13.44 -3.27 2.51 71 129 169
13.44 -3.38 2.51 73 131 168
13.44 -3.49 2.51 75 131 166
13.44 -3.60 2.51 76 132 167
13.44 -3.71 2.51 76 132 167
13.44 -3.82 2.51 76 132 167
13.44 -3.93 2.51 76 132 167
13.44 -4.04 2.51 74 133 165
13.18 -4.17 2.68 75 134 166
13.18 -4.27 2.68 74 133 165
13.18 -4.38 2.68 74 133 165
13.18 -4.49 2.68 75 134 166
13.44 -4.59 2.51 73 134 165
13.44 -4.70 2.51 71 132 163
13.44 -4.80 2.51 71 132 163
13.44 -4.91 2.51 75 134 166
13.44 -5.02 2.51 71 130 164
13.44 -5.13 2.51 73 129 164
13.44 -5.24 2.51 74 130 165
13.44 -5.35 2.51 75 131 166
13.44 -5.46 2.51 74 130 165
13.44 -5.57 2.51 72 128 163
13.18 -5.69 2.68 70 129 163
13.18 -5.80 2.68 73 132 166
13.18 -5.91 2.68 73 133 169
13.18 -6.01 2.68 72 132 168
13.18 -6.12 2.68 70 130 167
13.18 -6.23 2.68 70 130 167
13.18 -6.34 2.68 69 131 170
13.18 -6.45 2.68 69 131 170
13.18 -6.56 2.68 68 130 171
13.18 -6.67 2.68 69 128 170
13.18 -6.78 2.68 73 130 173
13.18 -6.89 2.68 71 130 170
13.18 -6.99 2.68 68 130 169
13.18 -7.10 2.68 67 131 169
13.18 -7.21 2.68 67 131 169
13.18 -7.32 2.68 67 131 167
13.18 -7.43 2.68 69 131 168
13.18 -7.54 2.68 70 132 169
13.18 -7.65 2.68 68 128 165
13.18 -7.76 2.68 66 126 163
13.18 -7.86 2.68 67 127 164
13.18 -7.97 2.68 66 128 167
13.18 -8.08 2.68 66 128 167
13.18 -8.19 2.68 64 129 167
13.18 -8.30 2.68 65 130 168
13.18 -8.41 2.68 67 131 167
13.18 -8.52 2.68 64 128 164
13.18 -8.63 2.68 64 128 164
13.18 -8.73 2.68 65 129 165
12.88 -8.84 2.87 67 129 166
12.88 -8.94 2.87 65 127 164
12.88 -9.05 2.87 65 127 164
12.88 -9.16 2.87 67 129 166
12.88 -9.27 2.87 64 126 163
12.88 -9.38 2.87 64 126 163
12.62 -9.47 3.04 64 126 163
12.62 -9.58 3.04 66 128 165
12.62 -9.69 3.04 65 127 164
12.62 -9.80 3.04 64 126 163
12.62 -9.90 3.04 62 124 163
12.62 -10.01 3.04 56 117 161
12.62 -10.12 3.04 61 122 167
12.35 -10.21 3.21 68 130 171
12.35 -10.32 3.21 75 134 174
12.35 -10.43 3.21 81 139 176
12.35 -10.53 3.21 91 145 179
12.35 -10.64 3.21 103 154 183
12.35 -10.75 3.21 112 160 183
12.09 -10.84 3.38 129 172 191
12.09 -10.95 3.38 134 172 185
12.09 -11.05 3.38 156 189 198
12.09 -11.16 3.38 163 188 193
12.09 -11.26 3.38 133 153 154
12.09 -11.37 3.38 66 80 80
12.35 -11.50 3.21 24 36 34
12.09 -11.58 3.38 12 22 21
13.65 22.90 2.25 40 81 125
13.65 22.79 2.25 36 77 121
13.65 22.68 2.25 36 77 123
13.65 22.57 2.25 40 78 125
13.95 22.63 2.06 42 80 129
13.95 22.52 2.06 37 77 129
13.95 22.41 2.06 36 79 132
13.95 22.30 2.06 39 80 136
13.95 22.19 2.06 40 81 137
13.95 22.08 2.06 43 82 139
13.95 21.96 2.06 43 84 138
13.95 21.85 2.06 45 86 140
13.95 21.74 2.06 44 87 140
13.95 21.63 2.06 45 88 141
14.24 21.68 1.87 43 89 139
14.24 21.57 1.87 43 89 139
14.24 21.46 1.87 41 89 138
13.95 21.19 2.06 41 89 138
14.24 21.24 1.87 42 89 141
14.24 21.13 1.87 42 89 141
14.24 21.01 1.87 42 89 141
14.24 20.90 1.87 42 89 141
14.24 20.79 1.87 43 90 144
14.24 20.68 1.87 44 91 145
14.24 20.57 1.87 44 89 144
14.24 20.46 1.87 44 89 144
14.51 20.48 1.70 43 90 146
14.51 20.37 1.70 42 89 145
14.51 20.26 1.70 42 89 145
14.51 20.15 1.70 43 90 146
14.51 20.04 1.70 44 91 147
14.51 19.93 1.70 42 89 143
14.51 19.81 1.70 44 91 145
14.51 19.70 1.70 44 91 143
14.51 19.59 1.70 42 89 141
14.51 19.48 1.70 40 90 139
14.51 19.37 1.70 41 91 140
14.51 19.26 1.70 41 92 139
14.80 19.29 1.51 40 90 139
14.80 19.18 1.51 40 90 143
14.80 19.06 1.51 41 90 146
14.80 18.95 1.51 42 92 145
14.80 18.84 1.51 42 92 145
14.80 18.73 1.51 41 91 142
14.80 18.61 1.51 41 91 142
14.80 18.50 1.51 41 91 142
14.80 18.39 1.51 41 91 142
15.10 18.42 1.32 41 91 142
15.10 18.30 1.32 39 89 140
15.10 18.19 1.32 39 89 140
15.10 18.08 1.32 40 90 141
15.10 17.97 1.32 40 90 143
15.10 17.85 1.32 39 89 142
15.10 17.74 1.32 41 90 146
15.10 17.63 1.32 40 91 148
15.10 17.51 1.32 40 91 148
15.10 17.40 1.32 38 91 145
15.10 17.29 1.32 35 88 142
15.10 17.17 1.32 33 88 142
15.10 17.06 1.32 36 91 145
15.10 16.95 1.32 37 92 146
15.10 16.84 1.32 37 92 146
15.10 16.72 1.32 40 93 147
15.10 16.61 1.32 39 92 146
15.10 16.50 1.32 40 91 144
15.10 16.38 1.32 40 90 143
15.39 16.40 1.13 41 91 144
15.39 16.29 1.13 44 91 145
15.39 16.17 1.13 46 91 146
15.39 16.06 1.13 47 92 147
15.39 15.95 1.13 43 91 140
15.39 15.83 1.13 44 92 141
15.39 15.72 1.13 43 93 144
15.39 15.60 1.13 44 94 145
15.39 15.49 1.13 43 93 144
15.39 15.38 1.13 43 93 144
15.39 15.26 1.13 44 94 147
15.39 15.15 1.13 41 92 145
15.39 15.04 1.13 42 93 146
15.39 14.92 1.13 42 95 149
15.39 14.81 1.13 42 95 149
15.39 14.70 1.13 42 95 149
15.39 14.58 1.13 41 94 148
15.39 14.47 1.13 42 95 149
15.69 14.47 0.94 42 95 149
15.69 14.36 0.94 43 96 150
15.69 14.24 0.94 44 97 151
15.69 14.13 0.94 45 98 150
15.69 14.02 0.94 44 97 149
15.69 13.90 0.94 41 97 148
15.69 13.79 0.94 40 96 147
15.69 13.67 0.94 42 98 149
15.69 13.56 0.94 44 100 151
15.69 13.45 0.94 41 97 148
15.69 13.33 0.94 42 98 149
15.69 13.22 0.94 42 97 151
15.69 13.10 0.94 42 97 151
15.69 12.99 0.94 41 98 153
15.69 12.88 0.94 41 98 153
15.69 12.76 0.94 42 98 155
15.69 12.65 0.94 43 99 156
15.69 12.53 0.94 42 97 153
15.69 12.42 0.94 43 100 153
15.69 12.31 0.94 43 100 153
15.69 12.19 0.94 39 99 151
15.69 12.08 0.94 37 97 149
15.69 11.96 0.94 37 99 150
15.69 11.85 0.94 39 101 152
15.69 11.73 0.94 40 102 153
15.69 11.62 0.94 39 101 152
15.69 11.51 0.94 39 99 149
15.69 11.39 0.94 39 99 149
15.69 11.28 0.94 43 101 151
15.69 11.16 0.94 46 104 154
15.69 11.05 0.94 46 102 153
15.69 10.94 0.94 42 98 149
15.69 10.82 0.94 41 101 151
15.39 10.61 1.13 41 101 151
15.39 10.50 1.13 41 101 151
15.39 10.38 1.13 41 101 151
15.39 10.27 1.13 40 100 150
15.39 10.16 1.13 40 100 150
15.39 10.04 1.13 39 99 149
15.39 9.93 1.13 39 99 149
15.39 9.82 1.13 42 102 152
15.39 9.70 1.13 39 101 150
15.39 9.59 1.13 39 101 150
15.39 9.48 1.13 40 102 151
15.39 9.36 1.13 39 101 150
15.39 9.25 1.13 38 100 149
15.39 9.14 1.13 37 99 148
15.39 9.02 1.13 37 97 149
15.39 8.91 1.13 37 97 149
15.39 8.80 1.13 39 96 149
15.39 8.68 1.13 37 94 149
15.39 8.57 1.13 35 96 151
15.39 8.46 1.13 39 99 153
15.39 8.34 1.13 44 97 147
15.39 8.23 1.13 41 97 144
15.10 8.03 1.32 38 100 149
15.10 7.92 1.32 47 111 157
15.10 7.81 1.32 56 115 157
15.10 7.69 1.32 0 39 70
15.10 7.58 1.32 29 51 62
14.80 7.39 1.51 39 47 50
14.80 7.28 1.51 11 19 21
14.51 7.09 1.70 5 11 11
14.51 6.97 1.70 6 11 7
12.30 2.85 3.12 65 121 136
12.30 2.75 3.12 52 114 137
12.30 2.64 3.12 54 118 146
12.30 2.53 3.12 59 119 153
12.30 2.43 3.12 56 116 152
12.30 2.32 3.12 51 117 151
12.30 2.21 3.12 50 119 152
12.30 2.10 3.12 51 122 152
12.30 2.00 3.12 54 123 154
12.30 1.89 3.12 57 123 157
12.30 1.78 3.12 57 123 158
12.30 1.68 3.12 54 122 157
12.56 1.61 2.95 53 123 159
12.56 1.51 2.95 55 123 160
12.56 1.40 2.95 55 123 160
12.56 1.29 2.95 56 124 161
12.56 1.18 2.95 57 125 162
12.56 1.08 2.95 57 125 162
12.56 0.97 2.95 60 125 163
12.83 0.90 2.78 60 125 163
12.83 0.79 2.78 60 126 161
12.83 0.69 2.78 60 126 161
12.83 0.58 2.78 61 125 161
12.83 0.47 2.78 61 125 161
12.83 0.36 2.78 61 125 161
12.83 0.25 2.78 62 126 162
12.83 0.15 2.78 63 125 162
13.12 0.08 2.59 63 126 161
13.12 -0.03 2.59 64 129 161
13.12 -0.14 2.59 63 128 158
13.12 -0.25 2.59 63 128 160
13.12 -0.36 2.59 63 128 160
13.12 -0.47 2.59 65 128 161
13.12 -0.57 2.59 66 129 162
13.12 -0.68 2.59 67 130 163
13.12 -0.79 2.59 68 131 164
13.12 -0.90 2.59 69 129 163
13.12 -1.01 2.59 71 131 165
13.12 -1.12 2.59 73 131 168
13.12 -1.23 2.59 71 129 166
13.12 -1.34 2.59 72 128 165
13.12 -1.44 2.59 71 127 164
13.12 -1.55 2.59 74 130 167
13.12 -1.66 2.59 72 130 168
13.12 -1.77 2.59 72 130 168
13.12 -1.88 2.59 72 130 168
13.12 -1.99 2.59 72 130 168
13.12 -2.10 2.59 71 131 168
13.12 -2.21 2.59 71 131 168
13.12 -2.32 2.59 70 132 169
13.12 -2.42 2.59 71 133 170
