ply
format ascii 1.0
element vertex 1658
property float x
property float y
property float z
property uchar red
property uchar green
property uchar blue
end_header
1.80 -3.55 -0.58 181 190 187
1.98 -3.63 -0.75 181 190 187
1.98 -3.72 -0.75 181 190 187
1.80 -3.83 -0.58 182 191 188
1.80 -3.93 -0.58 181 190 187
1.80 -4.02 -0.58 182 191 188
1.80 -4.11 -0.58 182 191 188
1.98 -4.20 -0.75 182 191 188
1.98 -4.29 -0.75 180 191 187
1.98 -4.39 -0.75 181 192 188
1.98 -4.48 -0.75 182 193 189
1.98 -4.58 -0.75 184 195 191
1.98 -4.67 -0.75 183 194 190
1.98 -4.77 -0.75 183 192 189
1.98 -4.86 -0.75 184 193 190
1.98 -4.96 -0.75 187 193 191
1.98 -5.05 -0.75 188 194 192
1.98 -5.15 -0.75 187 193 191
1.98 -5.24 -0.75 186 192 190
1.98 -5.34 -0.75 188 194 192
1.98 -5.43 -0.75 189 195 193
1.98 -5.53 -0.75 188 197 194
1.98 -5.62 -0.75 189 198 195
1.98 -5.72 -0.75 187 198 194
1.98 -5.81 -0.75 186 197 193
1.98 -5.91 -0.75 186 197 193
1.98 -6.00 -0.75 186 197 193
1.98 -6.09 -0.75 187 198 194
1.98 -6.19 -0.75 187 198 194
1.98 -6.28 -0.75 187 198 194
1.98 -6.38 -0.75 187 198 194
1.98 -6.47 -0.75 189 198 195
1.98 -6.57 -0.75 189 198 195
1.98 -6.66 -0.75 191 197 195
1.98 -6.76 -0.75 191 197 195
1.98 -6.85 -0.75 189 198 195
1.98 -6.95 -0.75 190 199 196
1.98 -7.04 -0.75 191 200 197
1.98 -7.14 -0.75 194 200 198
1.98 -7.23 -0.75 193 199 197
1.98 -7.33 -0.75 192 198 196
1.98 -7.42 -0.75 192 198 196
1.98 -7.52 -0.75 193 199 197
1.98 -7.61 -0.75 192 198 196
1.98 -7.71 -0.75 190 199 196
1.98 -7.80 -0.75 190 199 196
1.98 -7.90 -0.75 191 200 197
1.98 -7.99 -0.75 192 201 198
1.98 -8.09 -0.75 192 203 199
1.98 -8.18 -0.75 192 203 199
1.98 -8.28 -0.75 192 203 199
1.98 -8.37 -0.75 192 203 199
1.98 -8.47 -0.75 192 203 199
1.98 -8.56 -0.75 192 203 199
1.98 -8.66 -0.75 194 203 200
1.98 -8.75 -0.75 194 203 200
1.98 -8.85 -0.75 195 204 201
1.98 -8.94 -0.75 195 204 201
1.98 -9.04 -0.75 195 204 201
1.98 -9.13 -0.75 196 205 202
1.98 -9.23 -0.75 197 206 203
1.98 -9.32 -0.75 197 206 203
1.98 -9.42 -0.75 196 205 202
1.98 -9.51 -0.75 197 206 203
1.98 -9.61 -0.75 198 207 204
1.98 -9.70 -0.75 199 210 206
1.98 -9.80 -0.75 198 209 205
1.98 -9.89 -0.75 197 206 203
1.98 -9.99 -0.75 196 205 202
1.98 -10.08 -0.75 199 205 201
1.98 -10.18 -0.75 201 207 203
2.17 -10.29 -0.91 203 209 205
2.17 -10.38 -0.91 204 210 206
2.17 -10.48 -0.91 203 209 205
2.17 -10.57 -0.91 203 209 205
2.17 -10.67 -0.91 201 210 205
2.17 -10.76 -0.91 201 210 205
2.17 -10.86 -0.91 201 210 205
2.17 -10.96 -0.91 202 211 206
2.17 -11.05 -0.91 201 212 206
2.17 -11.15 -0.91 202 213 207
2.17 -11.24 -0.91 203 212 209
2.17 -11.34 -0.91 204 213 210
2.17 -11.43 -0.91 204 213 210
2.17 -11.53 -0.91 203 212 209
2.17 -11.62 -0.91 202 211 208
2.17 -11.72 -0.91 203 212 209
2.17 -11.81 -0.91 204 213 210
2.17 -11.91 -0.91 203 212 209
1.98 -11.98 -0.75 204 213 210
1.98 -12.08 -0.75 208 214 212
1.98 -12.17 -0.75 208 214 212
1.98 -12.27 -0.75 208 214 212
1.98 -12.36 -0.75 207 213 211
1.98 -12.46 -0.75 209 213 212
1.98 -12.55 -0.75 209 213 212
1.98 -12.65 -0.75 206 212 210
1.98 -12.74 -0.75 206 212 210
1.98 -12.84 -0.75 206 212 210
1.98 -12.93 -0.75 205 211 209
1.98 -13.03 -0.75 205 211 209
1.98 -13.12 -0.75 205 211 209
1.98 -13.22 -0.75 207 213 211
1.98 -13.31 -0.75 208 214 212
1.98 -13.41 -0.75 205 211 209
1.98 -13.50 -0.75 205 211 209
1.98 -13.60 -0.75 206 212 210
2.17 -13.72 -0.91 207 213 211
2.17 -13.82 -0.91 207 213 211
2.17 -13.91 -0.91 208 214 212
2.17 -14.01 -0.91 208 214 212
2.17 -14.10 -0.91 205 214 211
2.17 -14.20 -0.91 205 214 211
2.17 -14.29 -0.91 207 213 211
2.17 -14.39 -0.91 207 213 211
2.17 -14.49 -0.91 207 213 211
2.17 -14.58 -0.91 206 212 210
2.17 -14.68 -0.91 206 212 210
2.17 -14.77 -0.91 206 212 210
2.17 -14.87 -0.91 208 212 211
2.17 -14.96 -0.91 208 212 211
2.17 -15.06 -0.91 208 212 211
2.17 -15.15 -0.91 208 212 211
2.17 -15.25 -0.91 210 212 211
2.17 -15.34 -0.91 211 213 212
2.17 -15.44 -0.91 211 213 212
2.17 -15.53 -0.91 211 213 212
2.17 -15.63 -0.91 211 215 214
2.17 -15.73 -0.91 211 215 214
2.17 -15.82 -0.91 210 214 213
2.17 -15.92 -0.91 209 213 212
2.17 -16.01 -0.91 207 213 211
2.17 -16.11 -0.91 207 213 211
2.17 -16.20 -0.91 207 213 211
2.17 -16.30 -0.91 206 212 210
2.17 -16.39 -0.91 206 212 210
2.17 -16.49 -0.91 208 212 211
2.17 -16.58 -0.91 209 213 212
2.17 -16.68 -0.91 212 214 213
2.17 -16.78 -0.91 213 215 214
2.17 -16.87 -0.91 212 214 213
2.17 -16.97 -0.91 212 214 213
2.17 -17.06 -0.91 213 215 214
2.17 -17.16 -0.91 212 214 213
2.17 -17.25 -0.91 212 214 213
2.36 -17.39 -1.08 211 213 212
2.36 -17.49 -1.08 211 213 212
2.17 -17.54 -0.91 211 213 212
2.17 -17.63 -0.91 211 213 212
2.17 -17.73 -0.91 211 213 212
2.17 -17.82 -0.91 210 212 211
2.17 -17.92 -0.91 210 212 211
2.17 -18.02 -0.91 210 212 211
2.17 -18.11 -0.91 209 211 210
2.17 -18.21 -0.91 209 211 210
2.17 -18.30 -0.91 211 213 212
2.17 -18.40 -0.91 212 214 213
2.17 -18.49 -0.91 213 213 213
2.17 -18.59 -0.91 213 213 213
2.17 -18.68 -0.91 212 212 212
2.17 -18.78 -0.91 212 212 212
2.17 -18.87 -0.91 212 212 212
2.17 -18.97 -0.91 211 211 211
2.17 -19.07 -0.91 211 211 211
2.17 -19.16 -0.91 211 211 211
2.17 -19.26 -0.91 212 212 212
2.17 -19.35 -0.91 213 213 213
2.17 -19.45 -0.91 215 215 215
2.17 -19.54 -0.91 215 215 215
2.17 -19.64 -0.91 214 214 214
2.17 -19.73 -0.91 213 213 213
2.17 -19.83 -0.91 214 214 214
2.17 -19.92 -0.91 215 215 215
2.17 -20.02 -0.91 212 212 210
2.17 -20.11 -0.91 212 212 210
2.17 -20.21 -0.91 213 213 211
2.36 -20.36 -1.08 213 213 211
2.36 -20.46 -1.08 213 213 213
2.36 -20.55 -1.08 213 213 213
2.36 -20.65 -1.08 212 212 212
2.36 -20.75 -1.08 214 214 216
2.36 -20.84 -1.08 214 214 216
2.36 -20.94 -1.08 214 214 216
2.36 -21.03 -1.08 213 213 215
2.36 -21.13 -1.08 212 212 214
2.36 -21.23 -1.08 211 211 213
2.17 -21.26 -0.91 210 209 214
2.17 -21.36 -0.91 210 209 214
2.17 -21.45 -0.91 212 212 214
2.17 -21.55 -0.91 211 211 213
2.17 -21.64 -0.91 210 210 212
2.17 -21.74 -0.91 209 209 211
2.17 -21.83 -0.91 209 209 211
2.17 -21.93 -0.91 209 209 211
2.17 -22.02 -0.91 210 210 210
2.17 -22.12 -0.91 210 210 210
2.17 -22.21 -0.91 210 210 210
2.17 -22.31 -0.91 210 210 210
2.17 -22.40 -0.91 210 210 210
2.17 -22.50 -0.91 210 210 210
2.17 -22.60 -0.91 210 210 210
2.17 -22.69 -0.91 210 210 210
2.17 -22.79 -0.91 211 211 211
2.17 -22.88 -0.91 209 209 207
2.17 -22.98 -0.91 210 210 208
2.17 -23.07 -0.91 211 211 211
2.17 -23.17 -0.91 211 211 211
2.17 -23.26 -0.91 210 210 212
2.36 -23.43 -1.08 210 210 212
2.36 -23.53 -1.08 211 211 213
2.36 -23.62 -1.08 213 213 215
2.36 -23.72 -1.08 212 212 214
2.36 -23.81 -1.08 213 213 215
2.36 -23.91 -1.08 213 213 215
2.36 -24.00 -1.08 213 213 215
2.36 -24.10 -1.08 212 212 212
2.36 -24.20 -1.08 211 211 211
2.36 -24.29 -1.08 210 210 208
2.36 -24.39 -1.08 209 209 207
2.36 -24.48 -1.08 212 213 208
2.36 -24.58 -1.08 211 212 207
2.36 -24.68 -1.08 210 211 206
2.36 -24.77 -1.08 209 210 205
2.36 -24.87 -1.08 209 209 207
2.36 -24.96 -1.08 209 209 207
2.36 -25.06 -1.08 210 209 207
2.36 -25.15 -1.08 210 209 207
2.36 -25.25 -1.08 215 211 212
2.36 -25.35 -1.08 234 230 231
2.36 -25.44 -1.08 222 218 219
2.36 -25.54 -1.08 104 98 102
0.84 22.18 0.15 0 0 0
0.66 21.95 0.32 0 0 0
0.66 21.86 0.32 0 0 0
0.84 21.90 0.15 0 0 0
0.84 21.81 0.15 0 0 0
0.84 21.71 0.15 134 129 123
0.84 21.62 0.15 134 129 123
0.84 21.53 0.15 134 129 123
0.84 21.44 0.15 135 130 124
0.84 21.34 0.15 136 131 125
0.84 21.25 0.15 136 131 127
0.84 21.16 0.15 136 131 127
0.84 21.07 0.15 138 130 127
0.84 20.97 0.15 137 129 126
0.84 20.88 0.15 138 130 128
0.84 20.79 0.15 137 129 127
0.84 20.70 0.15 136 128 126
0.84 20.60 0.15 136 128 126
0.84 20.51 0.15 136 128 125
0.84 20.42 0.15 137 129 126
0.84 20.33 0.15 138 130 127
0.84 20.23 0.15 138 130 127
1.00 20.25 0.01 138 134 125
1.00 20.16 0.01 137 133 124
0.84 19.96 0.15 136 132 123
0.84 19.86 0.15 137 133 124
0.84 19.77 0.15 138 134 125
0.84 19.68 0.15 138 134 125
0.84 19.59 0.15 138 134 125
0.84 19.49 0.15 138 134 125
0.84 19.40 0.15 138 134 125
0.84 19.31 0.15 139 135 126
0.84 19.22 0.15 139 135 126
0.84 19.12 0.15 139 135 126
0.84 19.03 0.15 139 135 126
0.84 18.94 0.15 139 135 126
0.84 18.85 0.15 139 135 126
1.00 18.86 0.01 139 134 128
1.00 18.76 0.01 139 134 128
1.00 18.67 0.01 139 134 128
0.84 18.48 0.15 139 134 128
0.84 18.38 0.15 140 135 129
0.84 18.29 0.15 140 135 129
0.84 18.20 0.15 141 136 130
0.84 18.11 0.15 141 136 130
0.84 18.01 0.15 142 137 131
0.84 17.92 0.15 142 137 131
0.84 17.83 0.15 142 137 131
0.84 17.74 0.15 141 136 130
0.84 17.64 0.15 140 135 129
1.00 17.65 0.01 142 137 131
1.00 17.56 0.01 146 139 133
1.00 17.46 0.01 145 138 132
1.00 17.37 0.01 147 138 133
1.00 17.28 0.01 147 140 134
1.00 17.19 0.01 146 139 133
1.00 17.09 0.01 143 138 132
1.00 17.00 0.01 143 138 132
1.00 16.91 0.01 143 140 135
1.00 16.81 0.01 145 142 137
1.00 16.72 0.01 144 141 136
1.00 16.63 0.01 143 140 135
1.00 16.54 0.01 143 139 136
1.00 16.44 0.01 144 140 137
1.00 16.35 0.01 145 140 137
1.00 16.26 0.01 146 141 138
1.00 16.16 0.01 145 140 137
1.00 16.07 0.01 145 139 139
1.00 15.98 0.01 143 137 137
1.00 15.89 0.01 144 138 140
1.00 15.79 0.01 145 139 141
1.00 15.70 0.01 146 140 142
1.00 15.61 0.01 145 141 142
1.00 15.51 0.01 146 142 141
0.84 15.33 0.15 145 141 140
0.84 15.24 0.15 146 142 141
0.84 15.15 0.15 146 142 141
0.84 15.05 0.15 146 142 139
1.00 15.05 0.01 147 143 140
1.00 14.96 0.01 146 145 141
1.00 14.86 0.01 147 146 142
1.00 14.77 0.01 148 147 145
1.00 14.68 0.01 148 147 145
1.00 14.59 0.01 146 145 143
1.00 14.49 0.01 146 145 143
1.00 14.40 0.01 146 145 143
1.00 14.31 0.01 146 145 143
1.00 14.21 0.01 146 145 141
1.00 14.12 0.01 145 144 140
1.00 14.03 0.01 145 144 140
1.00 13.93 0.01 145 144 140
1.00 13.84 0.01 144 143 138
1.00 13.75 0.01 145 144 139
1.00 13.66 0.01 146 145 140
1.00 13.56 0.01 148 147 142
1.00 13.47 0.01 148 147 142
1.00 13.38 0.01 148 147 142
1.00 13.28 0.01 149 149 141
1.00 13.19 0.01 151 148 141
1.00 13.10 0.01 150 147 140
1.00 13.01 0.01 148 148 140
1.00 12.91 0.01 147 147 139
1.00 12.82 0.01 147 147 139
1.00 12.73 0.01 148 148 140
1.00 12.63 0.01 148 149 143
1.00 12.54 0.01 148 149 143
1.00 12.45 0.01 148 149 143
1.00 12.36 0.01 149 150 144
1.00 12.26 0.01 150 149 144
1.19 12.26 -0.16 150 149 144
1.19 12.17 -0.16 150 149 145
1.19 12.07 -0.16 150 149 145
1.19 11.98 -0.16 153 149 146
1.00 11.80 0.01 154 150 147
1.00 11.71 0.01 155 151 150
1.19 11.70 -0.16 155 151 150
1.19 11.61 -0.16 155 151 150
1.19 11.51 -0.16 155 151 150
1.19 11.42 -0.16 155 151 150
1.00 11.24 0.01 156 152 151
1.00 11.15 0.01 156 152 149
1.00 11.06 0.01 154 153 149
1.00 10.96 0.01 154 153 149
1.00 10.87 0.01 154 153 149
1.00 10.78 0.01 154 153 149
1.00 10.68 0.01 154 153 148
1.00 10.59 0.01 155 154 149
1.00 10.50 0.01 156 155 150
1.00 10.41 0.01 157 156 151
1.00 10.31 0.01 157 154 149
1.19 10.30 -0.16 157 154 149
1.19 10.21 -0.16 158 155 150
1.00 10.03 0.01 158 155 150
1.00 9.94 0.01 158 155 150
1.00 9.85 0.01 158 155 150
1.00 9.76 0.01 159 155 152
1.00 9.66 0.01 159 155 152
1.00 9.57 0.01 157 153 150
1.00 9.48 0.01 157 153 150
1.00 9.38 0.01 157 153 150
1.00 9.29 0.01 157 153 150
1.19 9.27 -0.16 157 154 149
1.19 9.18 -0.16 158 155 150
1.19 9.09 -0.16 159 156 151
1.19 8.99 -0.16 160 157 152
1.19 8.90 -0.16 157 157 149
1.19 8.81 -0.16 157 158 150
1.19 8.71 -0.16 158 159 151
1.37 8.69 -0.33 158 159 153
1.37 8.60 -0.33 158 159 153
1.37 8.51 -0.33 159 160 154
1.37 8.41 -0.33 160 161 155
1.37 8.32 -0.33 159 160 154
1.37 8.23 -0.33 158 159 153
1.37 8.13 -0.33 156 159 152
1.37 8.04 -0.33 156 159 152
1.37 7.94 -0.33 157 159 154
1.37 7.85 -0.33 157 159 154
1.37 7.76 -0.33 158 160 155
1.37 7.66 -0.33 158 160 155
1.37 7.57 -0.33 158 158 156
1.37 7.48 -0.33 158 158 156
1.37 7.38 -0.33 158 158 156
1.37 7.29 -0.33 158 158 156
1.37 7.20 -0.33 159 159 157
1.37 7.10 -0.33 159 159 157
1.19 6.94 -0.16 159 160 155
1.19 6.85 -0.16 160 161 156
1.19 6.76 -0.16 159 160 155
1.19 6.66 -0.16 159 159 157
1.19 6.57 -0.16 159 159 157
1.19 6.48 -0.16 159 159 157
1.19 6.38 -0.16 159 159 157
1.19 6.29 -0.16 158 158 156
1.19 6.20 -0.16 158 159 154
1.19 6.10 -0.16 159 164 157
1.37 6.07 -0.33 154 159 152
1.37 5.98 -0.33 155 160 153
-2.75 4.55 3.37 154 159 155
-2.75 4.47 3.37 153 158 154
-2.75 4.38 3.37 151 155 154
-2.75 4.30 3.37 148 154 150
-2.91 4.16 3.51 152 158 154
-2.91 4.08 3.51 175 185 177
-3.05 3.96 3.63 207 217 209
-3.21 3.82 3.77 239 248 243
-3.21 3.74 3.77 245 254 251
-3.34 3.62 3.89 230 241 237
-3.50 3.49 4.04 208 218 219
-3.63 3.36 4.16 187 197 198
-3.63 3.28 4.16 169 184 187
-3.63 3.20 4.16 164 189 194
-3.63 3.12 4.16 157 191 201
-3.63 3.03 4.16 153 194 216
-3.63 2.95 4.16 113 160 212
-3.50 2.91 4.04 84 137 203
-3.50 2.82 4.04 75 139 211
-3.50 2.74 4.04 63 130 208
-3.34 2.70 3.89 55 118 195
-3.21 2.66 3.77 69 125 199
-3.05 2.62 3.63 91 141 202
-2.75 2.61 3.37 115 155 206
-2.62 2.56 3.25 128 156 193
-2.62 2.48 3.25 135 140 170
-2.62 2.39 3.25 146 112 145
-2.46 2.35 3.11 165 90 123
-2.46 2.27 3.11 193 73 108
-2.46 2.18 3.11 203 54 84
-2.46 2.10 3.11 205 48 69
-2.46 2.01 3.11 217 53 64
-2.46 1.93 3.11 213 44 47
-2.46 1.84 3.11 219 47 45
-2.46 1.76 3.11 204 33 26
-2.46 1.67 3.11 221 57 55
-2.46 1.59 3.11 255 119 117
-2.46 1.50 3.11 255 148 146
-2.46 1.42 3.11 230 171 167
-2.46 1.33 3.11 210 187 181
-2.46 1.25 3.11 205 217 215
-2.46 1.16 3.11 204 212 214
1.56 1.99 -0.50 213 214 218
1.56 1.90 -0.50 210 211 213
1.56 1.80 -0.50 211 211 211
1.56 1.71 -0.50 214 214 214
1.56 1.61 -0.50 215 215 215
1.56 1.52 -0.50 212 212 212
1.56 1.42 -0.50 211 211 211
1.56 1.33 -0.50 206 208 207
1.37 1.20 -0.33 199 201 200
1.37 1.10 -0.33 188 190 187
1.37 1.01 -0.33 185 187 184
1.37 0.92 -0.33 178 183 179
1.37 0.82 -0.33 173 178 174
1.37 0.73 -0.33 169 174 170
1.37 0.64 -0.33 168 173 169
1.37 0.54 -0.33 169 174 170
1.37 0.45 -0.33 170 175 171
1.37 0.35 -0.33 167 176 173
1.37 0.26 -0.33 166 175 172
1.37 0.17 -0.33 167 176 173
1.37 0.07 -0.33 169 178 175
1.56 0.01 -0.50 170 179 176
1.56 -0.08 -0.50 168 177 174
1.56 -0.18 -0.50 170 179 176
1.56 -0.27 -0.50 171 180 177
1.56 -0.36 -0.50 171 180 177
1.56 -0.46 -0.50 171 180 177
1.56 -0.55 -0.50 172 181 178
1.56 -0.65 -0.50 174 183 180
1.75 -0.71 -0.66 174 183 180
1.75 -0.81 -0.66 174 183 180
1.75 -0.90 -0.66 174 183 180
1.75 -0.99 -0.66 172 183 179
1.75 -1.09 -0.66 171 182 178
1.75 -1.18 -0.66 172 183 179
1.75 -1.28 -0.66 172 183 179
1.75 -1.37 -0.66 174 185 181
1.75 -1.47 -0.66 174 185 181
1.75 -1.56 -0.66 176 185 182
1.75 -1.66 -0.66 175 184 181
1.75 -1.75 -0.66 175 184 181
1.75 -1.85 -0.66 176 185 182
1.56 -1.96 -0.50 176 185 182
1.56 -2.06 -0.50 176 185 182
1.56 -2.15 -0.50 177 183 181
1.56 -2.25 -0.50 177 183 181
1.56 -2.34 -0.50 177 183 181
1.56 -2.44 -0.50 178 183 179
1.56 -2.53 -0.50 180 185 181
1.56 -2.62 -0.50 179 185 181
1.56 -2.72 -0.50 179 185 181
1.56 -2.81 -0.50 175 184 181
1.75 -2.89 -0.66 175 184 181
1.75 -2.98 -0.66 177 186 183
1.75 -3.07 -0.66 179 188 185
1.75 -3.17 -0.66 177 188 184
1.56 -3.28 -0.50 179 190 186
1.56 -3.38 -0.50 181 192 188
1.56 -3.47 -0.50 182 193 189
1.56 -3.56 -0.50 183 192 189
1.75 -3.64 -0.66 182 191 188
1.75 -3.74 -0.66 180 189 186
1.56 -3.85 -0.50 179 188 185
1.56 -3.94 -0.50 180 189 186
1.56 -4.04 -0.50 181 190 187
1.75 -4.11 -0.66 182 191 188
1.75 -4.21 -0.66 182 191 188
1.75 -4.30 -0.66 181 192 188
1.75 -4.40 -0.66 182 193 189
1.75 -4.49 -0.66 183 194 190
1.93 -4.58 -0.83 183 194 190
1.93 -4.67 -0.83 182 193 189
1.93 -4.77 -0.83 182 191 188
1.93 -4.86 -0.83 183 192 189
1.93 -4.96 -0.83 185 194 191
1.93 -5.05 -0.83 186 195 192
1.93 -5.15 -0.83 186 192 190
1.93 -5.24 -0.83 185 191 189
1.75 -5.34 -0.66 188 194 192
1.75 -5.44 -0.66 189 195 193
1.75 -5.53 -0.66 188 197 194
1.75 -5.63 -0.66 188 197 194
1.75 -5.72 -0.66 187 198 194
1.93 -5.81 -0.83 186 197 193
1.93 -5.91 -0.83 186 197 193
1.93 -6.00 -0.83 186 197 193
1.93 -6.09 -0.83 187 198 194
1.93 -6.19 -0.83 188 199 195
1.93 -6.28 -0.83 188 199 195
1.93 -6.38 -0.83 188 199 195
1.93 -6.47 -0.83 188 197 194
1.93 -6.57 -0.83 188 197 194
1.93 -6.66 -0.83 190 196 194
1.75 -6.76 -0.66 191 197 195
1.75 -6.86 -0.66 189 198 195
1.75 -6.95 -0.66 190 199 196
1.75 -7.05 -0.66 191 200 197
1.75 -7.14 -0.66 193 199 197
1.75 -7.24 -0.66 193 199 197
1.75 -7.33 -0.66 191 200 197
1.75 -7.42 -0.66 190 199 196
1.75 -7.52 -0.66 191 200 197
1.75 -7.61 -0.66 191 200 197
1.75 -7.71 -0.66 191 200 197
1.75 -7.80 -0.66 191 200 197
1.75 -7.90 -0.66 191 200 197
1.75 -7.99 -0.66 192 201 198
1.75 -8.09 -0.66 191 202 198
1.75 -8.18 -0.66 192 203 199
1.75 -8.28 -0.66 191 202 198
1.93 -8.37 -0.83 191 202 198
1.93 -8.47 -0.83 191 202 198
1.93 -8.56 -0.83 191 202 198
1.93 -8.66 -0.83 192 203 199
1.93 -8.75 -0.83 192 203 199
1.93 -8.85 -0.83 193 204 200
1.93 -8.94 -0.83 193 204 200
1.93 -9.04 -0.83 192 203 199
1.75 -9.13 -0.66 193 204 200
1.75 -9.22 -0.66 196 207 203
1.75 -9.32 -0.66 197 206 203
1.75 -9.41 -0.66 196 205 202
1.75 -9.51 -0.66 197 206 203
1.75 -9.60 -0.66 198 207 204
1.93 -9.70 -0.83 197 206 203
1.93 -9.80 -0.83 197 206 203
1.93 -9.89 -0.83 199 208 205
1.93 -9.99 -0.83 199 208 205
1.93 -10.08 -0.83 202 208 206
1.93 -10.18 -0.83 202 208 206
1.93 -10.27 -0.83 201 207 203
1.93 -10.37 -0.83 201 207 203
1.93 -10.46 -0.83 203 209 205
1.93 -10.56 -0.83 203 209 205
1.93 -10.65 -0.83 201 210 205
2.12 -10.76 -1.00 201 210 205
2.12 -10.86 -1.00 201 210 205
2.12 -10.96 -1.00 201 210 205
2.12 -11.05 -1.00 201 212 206
2.12 -11.15 -1.00 202 211 206
2.12 -11.24 -1.00 203 212 209
1.93 -11.32 -0.83 205 211 209
1.93 -11.41 -0.83 206 212 210
1.93 -11.51 -0.83 205 211 209
1.93 -11.60 -0.83 204 210 208
1.93 -11.70 -0.83 205 211 209
1.93 -11.79 -0.83 206 212 210
1.93 -11.89 -0.83 205 211 209
1.93 -11.98 -0.83 206 212 210
1.93 -12.08 -0.83 208 212 211
1.93 -12.17 -0.83 208 212 211
1.93 -12.27 -0.83 208 212 211
1.93 -12.36 -0.83 207 211 210
1.93 -12.46 -0.83 207 211 210
1.93 -12.55 -0.83 208 212 211
1.75 -12.63 -0.66 204 210 208
1.75 -12.72 -0.66 204 210 208
1.75 -12.81 -0.66 205 211 209
1.75 -12.91 -0.66 205 211 209
1.75 -13.00 -0.66 206 212 210
1.75 -13.10 -0.66 207 213 211
1.93 -13.22 -0.83 208 214 212
1.93 -13.31 -0.83 208 214 212
1.93 -13.41 -0.83 206 212 210
1.93 -13.50 -0.83 206 212 210
1.93 -13.60 -0.83 206 212 210
1.93 -13.69 -0.83 207 213 211
1.93 -13.79 -0.83 207 213 211
1.93 -13.88 -0.83 207 213 211
1.93 -13.98 -0.83 207 213 211
1.93 -14.07 -0.83 205 216 212
1.93 -14.17 -0.83 205 216 212
1.93 -14.26 -0.83 206 215 212
1.93 -14.36 -0.83 206 215 212
1.93 -14.45 -0.83 205 214 211
1.93 -14.55 -0.83 205 214 211
1.93 -14.64 -0.83 207 213 211
1.93 -14.74 -0.83 207 213 211
1.93 -14.83 -0.83 208 212 211
1.93 -14.93 -0.83 208 212 211
1.93 -15.02 -0.83 210 212 211
1.93 -15.12 -0.83 211 213 212
1.93 -15.21 -0.83 212 212 212
1.93 -15.31 -0.83 213 213 213
1.93 -15.40 -0.83 214 214 214
1.93 -15.50 -0.83 214 214 214
1.93 -15.59 -0.83 211 213 212
1.93 -15.69 -0.83 211 213 212
1.93 -15.78 -0.83 209 213 212
1.93 -15.88 -0.83 209 213 212
1.93 -15.97 -0.83 208 212 211
2.12 -16.11 -1.00 207 213 211
2.12 -16.20 -1.00 208 214 212
2.12 -16.30 -1.00 206 212 210
1.93 -16.35 -0.83 206 212 210
1.93 -16.45 -0.83 208 212 211
2.12 -16.58 -1.00 208 212 211
2.12 -16.68 -1.00 212 214 213
2.12 -16.78 -1.00 213 215 214
2.12 -16.87 -1.00 212 214 213
2.12 -16.97 -1.00 212 214 213
2.12 -17.06 -1.00 212 216 215
2.12 -17.16 -1.00 211 215 214
2.12 -17.25 -1.00 210 214 213
2.12 -17.35 -1.00 209 213 212
2.12 -17.44 -1.00 210 212 211
2.12 -17.54 -1.00 210 212 211
2.12 -17.63 -1.00 209 211 210
2.12 -17.73 -1.00 209 211 210
2.12 -17.82 -1.00 210 212 211
2.12 -17.92 -1.00 210 212 211
2.12 -18.02 -1.00 210 212 211
2.12 -18.11 -1.00 210 212 211
2.12 -18.21 -1.00 209 211 210
2.12 -18.30 -1.00 212 214 213
2.12 -18.40 -1.00 213 215 214
2.12 -18.49 -1.00 212 212 212
2.12 -18.59 -1.00 211 211 211
1.93 -18.63 -0.83 211 211 211
1.93 -18.73 -0.83 211 211 211
1.93 -18.82 -0.83 211 211 211
1.93 -18.92 -0.83 210 210 210
2.12 -19.07 -1.00 210 210 210
2.12 -19.16 -1.00 209 209 209
2.12 -19.26 -1.00 210 210 210
2.12 -19.35 -1.00 212 212 212
2.12 -19.45 -1.00 214 214 214
2.12 -19.54 -1.00 214 214 214
2.12 -19.64 -1.00 214 214 216
2.12 -19.73 -1.00 214 214 216
2.12 -19.83 -1.00 214 214 216
2.12 -19.92 -1.00 214 214 216
2.12 -20.02 -1.00 212 212 210
2.12 -20.11 -1.00 212 212 210
2.12 -20.21 -1.00 213 213 211
2.12 -20.31 -1.00 213 213 211
2.12 -20.40 -1.00 213 213 211
2.31 -20.55 -1.16 213 213 211
2.31 -20.65 -1.16 212 212 212
2.12 -20.69 -1.00 212 212 212
2.12 -20.78 -1.00 212 212 212
2.12 -20.88 -1.00 212 212 214
2.12 -20.97 -1.00 213 213 215
2.12 -21.07 -1.00 212 212 214
2.12 -21.16 -1.00 212 212 214
2.12 -21.26 -1.00 212 212 214
2.12 -21.36 -1.00 211 211 213
2.12 -21.45 -1.00 211 211 211
2.12 -21.55 -1.00 211 211 211
2.12 -21.64 -1.00 210 210 210
2.12 -21.74 -1.00 210 210 210
1.93 -21.77 -0.83 210 210 210
1.93 -21.86 -0.83 210 210 210
2.12 -22.02 -1.00 210 210 210
2.12 -22.12 -1.00 210 210 210
2.12 -22.21 -1.00 212 212 212
2.12 -22.31 -1.00 212 212 212
2.12 -22.40 -1.00 212 212 212
2.12 -22.50 -1.00 212 212 212
2.12 -22.60 -1.00 212 212 212
2.12 -22.69 -1.00 212 212 212
2.12 -22.79 -1.00 212 212 212
2.12 -22.88 -1.00 210 210 210
2.12 -22.98 -1.00 210 210 210
2.12 -23.07 -1.00 211 211 211
2.12 -23.17 -1.00 211 211 211
2.12 -23.26 -1.00 210 210 212
2.12 -23.36 -1.00 210 210 212
2.12 -23.45 -1.00 211 210 215
2.12 -23.55 -1.00 212 211 216
2.12 -23.64 -1.00 211 210 215
2.12 -23.74 -1.00 211 210 215
2.12 -23.84 -1.00 212 212 214
2.31 -24.00 -1.16 212 212 214
2.31 -24.10 -1.16 212 212 212
2.31 -24.20 -1.16 212 212 212
2.31 -24.29 -1.16 212 212 212
2.31 -24.39 -1.16 212 212 212
2.31 -24.48 -1.16 211 213 210
2.31 -24.58 -1.16 210 212 209
2.31 -24.68 -1.16 209 211 208
2.12 -24.69 -1.00 208 210 207
2.12 -24.79 -1.00 210 210 208
2.12 -24.89 -1.00 210 210 208
2.12 -24.98 -1.00 211 210 208
2.12 -25.08 -1.00 211 210 208
2.12 -25.17 -1.00 212 208 209
2.12 -25.27 -1.00 224 218 220
2.12 -25.36 -1.00 225 219 221
2.12 -25.46 -1.00 134 128 130
0.61 22.04 0.24 0 0 0
0.61 21.95 0.24 0 0 0
0.61 21.86 0.24 0 0 0
0.61 21.76 0.24 0 0 0
0.61 21.67 0.24 0 0 0
0.61 21.58 0.24 133 129 120
0.61 21.49 0.24 133 129 120
0.61 21.40 0.24 133 129 120
0.61 21.30 0.24 134 129 123
0.61 21.21 0.24 134 129 123
0.61 21.12 0.24 134 129 125
0.61 21.03 0.24 134 129 125
0.61 20.94 0.24 133 128 125
0.61 20.84 0.24 133 128 125
0.61 20.75 0.24 137 129 127
0.61 20.66 0.24 137 129 127
0.61 20.57 0.24 137 129 127
0.61 20.48 0.24 137 129 127
0.80 20.51 0.07 137 129 126
0.80 20.42 0.07 137 129 126
0.80 20.33 0.07 138 128 126
0.80 20.23 0.07 138 128 126
0.80 20.14 0.07 137 132 126
0.80 20.05 0.07 136 131 125
0.80 19.96 0.07 136 131 125
0.80 19.86 0.07 137 132 126
0.80 19.77 0.07 138 133 127
0.80 19.68 0.07 138 134 125
0.80 19.59 0.07 138 134 125
0.80 19.49 0.07 138 134 125
0.80 19.40 0.07 138 134 125
0.80 19.31 0.07 139 135 126
0.80 19.22 0.07 139 135 126
0.80 19.12 0.07 139 135 126
0.80 19.03 0.07 139 135 126
0.80 18.94 0.07 140 136 127
0.80 18.85 0.07 140 136 127
0.80 18.75 0.07 139 134 128
0.80 18.66 0.07 139 134 128
0.80 18.57 0.07 139 134 128
0.80 18.48 0.07 139 134 128
0.61 18.27 0.24 140 135 129
0.61 18.17 0.24 140 135 129
0.80 18.20 0.07 141 136 130
0.80 18.11 0.07 141 136 130
0.80 18.01 0.07 141 136 130
0.61 17.81 0.24 141 136 130
0.61 17.71 0.24 141 136 130
0.61 17.62 0.24 141 136 130
0.61 17.53 0.24 142 137 131
0.80 17.55 0.07 143 138 132
0.80 17.46 0.07 144 139 133
0.80 17.37 0.07 144 137 131
0.80 17.27 0.07 145 138 132
0.80 17.18 0.07 145 138 132
0.80 17.09 0.07 145 138 132
0.80 17.00 0.07 142 137 131
0.80 16.90 0.07 141 136 130
0.80 16.81 0.07 143 138 134
0.80 16.72 0.07 144 139 135
0.80 16.63 0.07 145 140 136
0.80 16.53 0.07 144 139 135
0.80 16.44 0.07 144 139 136
0.80 16.35 0.07 144 139 136
0.80 16.26 0.07 145 140 137
0.80 16.16 0.07 145 140 137
0.80 16.07 0.07 145 140 137
0.80 15.98 0.07 145 139 139
0.80 15.89 0.07 143 137 139
0.80 15.79 0.07 144 138 142
0.80 15.70 0.07 145 139 141
0.80 15.61 0.07 146 140 142
0.80 15.52 0.07 147 141 141
0.80 15.42 0.07 146 142 139
0.80 15.33 0.07 146 142 139
0.61 15.14 0.24 146 143 138
0.61 15.04 0.24 145 142 137
0.80 15.05 0.07 146 143 138
0.80 14.96 0.07 146 143 138
0.80 14.87 0.07 148 144 141
0.80 14.78 0.07 149 145 142
0.80 14.68 0.07 150 146 145
0.80 14.59 0.07 150 146 145
0.80 14.50 0.07 147 146 144
0.80 14.41 0.07 146 145 143
0.96 14.40 -0.07 146 145 143
0.96 14.31 -0.07 145 144 142
0.96 14.21 -0.07 145 144 142
0.96 14.12 -0.07 146 145 143
0.96 14.03 -0.07 146 145 141
0.80 13.85 0.07 147 146 142
0.80 13.76 0.07 148 147 142
0.80 13.67 0.07 148 147 142
0.80 13.57 0.07 148 147 142
0.80 13.48 0.07 148 147 142
0.80 13.39 0.07 148 148 140
0.80 13.30 0.07 148 148 140
0.80 13.20 0.07 146 146 138
0.80 13.11 0.07 149 146 137
0.80 13.02 0.07 148 145 136
0.80 12.93 0.07 145 145 137
0.96 12.91 -0.07 144 144 136
0.96 12.82 -0.07 145 145 137
0.96 12.73 -0.07 147 147 139
0.96 12.63 -0.07 148 149 143
0.96 12.54 -0.07 150 151 145
0.96 12.45 -0.07 149 150 144
0.96 12.36 -0.07 150 151 145
0.96 12.26 -0.07 151 150 146
0.96 12.17 -0.07 151 150 146
0.96 12.08 -0.07 151 150 146
0.96 11.98 -0.07 151 150 146
0.96 11.89 -0.07 154 150 149
0.96 11.80 -0.07 155 151 150
0.96 11.71 -0.07 153 149 148
0.96 11.61 -0.07 153 149 148
0.96 11.52 -0.07 153 149 146
0.96 11.43 -0.07 153 149 146
0.96 11.33 -0.07 154 150 147
0.96 11.24 -0.07 154 150 147
0.96 11.15 -0.07 155 151 148
0.96 11.06 -0.07 154 153 149
0.96 10.96 -0.07 154 153 149
0.96 10.87 -0.07 154 153 149
0.96 10.78 -0.07 155 154 150
0.96 10.68 -0.07 156 155 151
0.80 10.52 0.07 156 155 151
0.80 10.43 0.07 156 155 151
0.80 10.34 0.07 156 155 151
0.80 10.24 0.07 158 154 151
0.96 10.22 -0.07 158 154 151
0.96 10.13 -0.07 158 155 150
0.96 10.03 -0.07 158 155 150
0.96 9.94 -0.07 158 155 150
0.96 9.85 -0.07 158 155 150
0.96 9.76 -0.07 158 155 150
0.96 9.66 -0.07 158 155 150
0.96 9.57 -0.07 156 153 148
0.96 9.48 -0.07 157 154 149
0.96 9.38 -0.07 158 155 150
0.96 9.29 -0.07 158 155 150
0.96 9.20 -0.07 158 155 150
0.96 9.11 -0.07 158 155 150
0.96 9.01 -0.07 159 156 151
0.96 8.92 -0.07 160 157 152
1.14 8.90 -0.24 156 155 150
1.14 8.81 -0.24 156 157 151
1.14 8.71 -0.24 156 157 151
1.14 8.62 -0.24 156 157 151
1.14 8.53 -0.24 156 157 151
1.14 8.44 -0.24 157 158 152
1.14 8.34 -0.24 157 158 152
1.14 8.25 -0.24 157 158 152
1.14 8.16 -0.24 157 158 152
1.14 8.06 -0.24 157 159 154
1.14 7.97 -0.24 158 160 155
1.14 7.88 -0.24 158 160 155
1.14 7.78 -0.24 158 160 155
1.14 7.69 -0.24 158 160 155
1.14 7.60 -0.24 158 160 155
1.14 7.50 -0.24 158 158 156
1.14 7.41 -0.24 158 158 156
1.14 7.32 -0.24 159 159 157
1.14 7.22 -0.24 159 159 157
1.14 7.13 -0.24 160 160 158
1.14 7.04 -0.24 159 159 157
1.14 6.94 -0.24 159 159 157
1.14 6.85 -0.24 158 158 156
1.14 6.76 -0.24 159 159 157
1.14 6.66 -0.24 159 159 157
1.14 6.57 -0.24 159 159 157
1.14 6.48 -0.24 158 158 156
1.14 6.38 -0.24 158 158 156
1.14 6.29 -0.24 158 158 156
1.14 6.20 -0.24 158 159 154
1.14 6.10 -0.24 159 164 157
1.14 6.01 -0.24 148 153 146
1.33 5.98 -0.41 157 164 156
-2.80 4.55 3.30 163 169 165
-2.80 4.47 3.30 152 158 154
-2.80 4.38 3.30 143 149 147
-2.96 4.25 3.44 160 166 164
-2.96 4.16 3.44 201 207 205
-3.09 4.04 3.56 233 239 235
-3.25 3.91 3.70 235 241 237
-3.38 3.78 3.82 236 242 238
-3.54 3.65 3.97 242 248 244
-3.54 3.57 3.97 251 255 255
-3.68 3.45 4.08 251 255 255
-3.81 3.32 4.20 246 252 252
-3.81 3.24 4.20 231 235 238
-3.81 3.16 4.20 198 199 201
-3.81 3.08 4.20 187 190 199
-3.81 3.00 4.20 170 181 199
-3.81 2.91 4.20 135 160 216
-3.81 2.83 4.20 98 134 208
-3.68 2.79 4.08 83 137 223
-3.68 2.70 4.08 69 133 230
-3.54 2.66 3.97 75 143 244
-3.38 2.62 3.82 66 133 237
-3.25 2.57 3.70 63 129 225
-3.09 2.53 3.56 73 132 222
-2.80 2.53 3.30 85 138 214
-2.66 2.48 3.18 101 131 203
-2.66 2.39 3.18 116 110 184
-2.66 2.31 3.18 136 90 155
-2.50 2.27 3.03 169 77 124
-2.50 2.18 3.03 187 66 101
-2.50 2.10 3.03 192 58 82
-2.50 2.01 3.03 205 53 68
-2.50 1.93 3.03 217 44 50
-2.50 1.84 3.03 235 42 45
-2.50 1.76 3.03 239 33 35
-2.50 1.67 3.03 225 16 21
-2.50 1.59 3.03 250 50 60
-2.50 1.50 3.03 255 110 121
-2.50 1.42 3.03 255 150 158
-2.50 1.33 3.03 239 160 166
1.33 2.13 -0.41 216 202 202
1.33 2.04 -0.41 217 205 209
1.51 1.99 -0.58 213 204 209
1.51 1.90 -0.58 208 204 203
1.33 1.76 -0.41 205 204 202
1.33 1.67 -0.41 207 207 205
1.33 1.57 -0.41 208 208 206
1.33 1.48 -0.41 204 204 202
1.33 1.38 -0.41 201 201 199
1.33 1.29 -0.41 196 198 195
1.33 1.20 -0.41 188 190 187
1.33 1.10 -0.41 182 184 183
1.14 0.97 -0.24 181 183 182
1.14 0.88 -0.24 175 179 178
1.33 0.82 -0.41 170 174 173
1.33 0.73 -0.41 167 171 170
1.33 0.64 -0.41 167 171 170
1.33 0.54 -0.41 169 173 172
1.33 0.45 -0.41 171 175 174
1.33 0.35 -0.41 167 176 173
1.33 0.26 -0.41 166 175 172
1.33 0.17 -0.41 167 176 173
1.33 0.07 -0.41 170 179 176
1.33 -0.02 -0.41 170 179 176
1.33 -0.11 -0.41 169 178 175
1.33 -0.21 -0.41 170 179 176
1.33 -0.30 -0.41 170 179 176
1.33 -0.40 -0.41 170 179 176
1.33 -0.49 -0.41 171 180 177
1.33 -0.58 -0.41 171 180 177
1.51 -0.65 -0.58 172 181 178
1.51 -0.74 -0.58 173 182 179
1.51 -0.83 -0.58 172 181 178
1.51 -0.93 -0.58 172 181 178
1.51 -1.02 -0.58 172 183 179
1.51 -1.12 -0.58 172 183 179
1.51 -1.21 -0.58 172 183 179
1.51 -1.31 -0.58 173 184 180
1.51 -1.40 -0.58 174 185 181
1.51 -1.49 -0.58 175 186 182
1.51 -1.59 -0.58 176 185 182
1.51 -1.68 -0.58 175 184 181
1.51 -1.78 -0.58 174 183 180
1.51 -1.87 -0.58 174 183 180
1.51 -1.96 -0.58 175 184 181
1.51 -2.06 -0.58 175 184 181
1.51 -2.15 -0.58 174 183 180
1.51 -2.25 -0.58 174 183 180
1.51 -2.34 -0.58 174 183 180
1.51 -2.44 -0.58 177 183 181
1.51 -2.53 -0.58 178 184 182
1.51 -2.62 -0.58 179 185 183
1.51 -2.72 -0.58 179 185 183
1.51 -2.81 -0.58 177 186 183
1.51 -2.91 -0.58 177 186 183
1.51 -3.00 -0.58 177 188 182
1.51 -3.09 -0.58 178 189 183
1.51 -3.19 -0.58 176 187 181
1.51 -3.28 -0.58 177 188 182
1.51 -3.38 -0.58 179 190 184
1.51 -3.47 -0.58 180 191 185
1.51 -3.56 -0.58 182 191 186
1.51 -3.66 -0.58 181 190 185
1.51 -3.75 -0.58 180 189 184
1.51 -3.85 -0.58 179 188 183
1.51 -3.94 -0.58 183 189 187
1.51 -4.04 -0.58 183 189 187
1.51 -4.13 -0.58 183 192 189
1.51 -4.22 -0.58 183 192 189
1.51 -4.32 -0.58 183 192 189
1.70 -4.40 -0.74 183 192 189
1.70 -4.49 -0.74 182 193 189
1.70 -4.59 -0.74 183 194 190
1.70 -4.68 -0.74 181 192 188
1.70 -4.78 -0.74 181 192 188
1.70 -4.87 -0.74 182 193 189
1.70 -4.97 -0.74 185 194 191
1.70 -5.06 -0.74 186 195 192
1.70 -5.16 -0.74 185 194 191
1.70 -5.25 -0.74 183 192 189
1.70 -5.34 -0.74 187 193 191
1.70 -5.44 -0.74 187 193 191
1.70 -5.53 -0.74 186 195 192
1.70 -5.63 -0.74 186 195 192
1.70 -5.72 -0.74 185 196 192
1.70 -5.82 -0.74 185 196 192
1.70 -5.91 -0.74 184 195 191
1.70 -6.01 -0.74 184 195 191
1.70 -6.10 -0.74 187 198 194
1.70 -6.20 -0.74 188 199 195
1.70 -6.29 -0.74 189 200 196
1.70 -6.38 -0.74 189 200 196
1.70 -6.48 -0.74 188 197 194
1.70 -6.57 -0.74 187 196 193
1.70 -6.67 -0.74 190 196 194
1.70 -6.76 -0.74 192 198 196
1.70 -6.86 -0.74 193 199 197
1.51 -6.95 -0.58 193 199 197
1.51 -7.05 -0.58 193 199 197
1.70 -7.14 -0.74 193 199 197
1.70 -7.24 -0.74 193 199 197
1.70 -7.33 -0.74 192 201 198
1.70 -7.42 -0.74 192 201 198
1.51 -7.52 -0.58 190 199 196
1.51 -7.61 -0.58 191 200 197
1.51 -7.71 -0.58 191 200 197
1.70 -7.80 -0.74 192 201 198
1.70 -7.90 -0.74 191 202 198
1.70 -7.99 -0.74 191 202 198
1.70 -8.09 -0.74 191 202 198
1.70 -8.18 -0.74 191 202 198
1.70 -8.28 -0.74 192 201 198
1.70 -8.37 -0.74 192 201 198
1.70 -8.46 -0.74 191 202 198
1.70 -8.56 -0.74 192 203 199
1.70 -8.65 -0.74 192 203 199
1.70 -8.75 -0.74 193 204 200
1.70 -8.84 -0.74 193 204 200
1.70 -8.94 -0.74 194 205 201
1.70 -9.03 -0.74 194 205 201
1.70 -9.13 -0.74 194 205 201
1.70 -9.22 -0.74 196 207 203
1.70 -9.32 -0.74 197 208 204
1.70 -9.41 -0.74 196 207 203
1.70 -9.51 -0.74 195 206 202
1.70 -9.60 -0.74 197 206 203
1.70 -9.69 -0.74 196 205 200
1.70 -9.79 -0.74 200 206 202
1.70 -9.88 -0.74 202 208 204
1.70 -9.98 -0.74 203 209 205
1.89 -10.08 -0.91 204 208 207
1.89 -10.18 -0.91 204 208 207
1.89 -10.27 -0.91 202 206 205
1.89 -10.37 -0.91 201 205 204
1.89 -10.46 -0.91 203 209 207
1.89 -10.56 -0.91 203 209 207
1.89 -10.65 -0.91 201 210 207
1.89 -10.75 -0.91 201 210 207
1.89 -10.84 -0.91 200 209 206
1.89 -10.94 -0.91 200 209 206
1.89 -11.03 -0.91 200 211 207
1.89 -11.13 -0.91 201 210 207
1.89 -11.22 -0.91 202 211 208
1.89 -11.32 -0.91 204 210 208
1.89 -11.41 -0.91 205 211 209
1.89 -11.51 -0.91 204 210 208
1.89 -11.60 -0.91 205 211 209
1.89 -11.70 -0.91 206 210 209
1.89 -11.79 -0.91 206 210 209
1.89 -11.89 -0.91 204 208 207
1.89 -11.98 -0.91 205 209 208
1.89 -12.08 -0.91 206 210 209
1.70 -12.15 -0.74 206 210 209
1.70 -12.25 -0.74 205 209 208
1.70 -12.34 -0.74 205 209 208
1.70 -12.44 -0.74 205 209 208
1.70 -12.53 -0.74 205 209 208
1.70 -12.63 -0.74 202 211 208
1.70 -12.72 -0.74 202 211 208
1.70 -12.81 -0.74 203 212 209
1.70 -12.91 -0.74 204 213 210
1.70 -13.00 -0.74 206 215 212
1.70 -13.10 -0.74 206 215 212
1.70 -13.19 -0.74 208 214 212
1.70 -13.29 -0.74 207 213 211
1.70 -13.38 -0.74 207 213 211
1.70 -13.48 -0.74 207 213 211
1.70 -13.57 -0.74 207 213 211
1.70 -13.67 -0.74 208 212 211
1.89 -13.79 -0.91 208 212 211
1.89 -13.88 -0.91 208 212 211
1.89 -13.98 -0.91 207 213 211
1.89 -14.07 -0.91 206 215 212
1.89 -14.17 -0.91 205 216 212
1.89 -14.26 -0.91 205 216 212
1.89 -14.36 -0.91 204 215 211
1.89 -14.45 -0.91 205 214 211
1.89 -14.55 -0.91 205 214 211
1.89 -14.64 -0.91 207 213 211
1.89 -14.74 -0.91 206 212 210
1.89 -14.83 -0.91 207 211 210
1.89 -14.93 -0.91 207 211 210
1.89 -15.02 -0.91 209 211 210
1.89 -15.12 -0.91 209 211 210
1.89 -15.21 -0.91 211 211 211
1.89 -15.31 -0.91 212 212 212
1.89 -15.40 -0.91 212 212 212
1.89 -15.50 -0.91 213 213 213
1.89 -15.59 -0.91 212 212 212
1.89 -15.69 -0.91 212 212 212
1.89 -15.78 -0.91 211 213 212
1.89 -15.88 -0.91 211 213 212
1.89 -15.97 -0.91 209 213 212
1.89 -16.07 -0.91 209 213 212
1.89 -16.16 -0.91 209 213 212
1.89 -16.26 -0.91 208 212 211
1.89 -16.35 -0.91 207 211 210
1.89 -16.45 -0.91 207 211 210
1.89 -16.54 -0.91 207 211 210
1.89 -16.64 -0.91 210 212 211
1.89 -16.73 -0.91 212 214 213
1.89 -16.83 -0.91 212 214 213
1.89 -16.92 -0.91 213 215 214
1.89 -17.02 -0.91 211 215 214
1.89 -17.11 -0.91 210 214 213
1.89 -17.21 -0.91 210 214 213
1.89 -17.30 -0.91 209 213 212
1.89 -17.40 -0.91 209 213 212
1.89 -17.49 -0.91 208 212 211
2.07 -17.63 -1.08 208 212 211
2.07 -17.73 -1.08 208 212 211
2.07 -17.82 -1.08 211 213 212
1.89 -17.87 -0.91 211 213 212
1.89 -17.97 -0.91 211 213 212
1.89 -18.06 -0.91 211 213 212
1.89 -18.16 -0.91 210 212 211
1.89 -18.25 -0.91 213 213 213
1.89 -18.35 -0.91 214 214 214
1.89 -18.44 -0.91 212 212 210
1.89 -18.54 -0.91 212 212 210
1.89 -18.63 -0.91 212 212 212
1.89 -18.73 -0.91 212 212 212
1.89 -18.82 -0.91 211 211 211
1.89 -18.92 -0.91 211 211 211
1.89 -19.01 -0.91 210 210 210
1.89 -19.11 -0.91 210 210 210
1.89 -19.20 -0.91 208 208 210
1.89 -19.30 -0.91 209 209 211
1.89 -19.39 -0.91 211 211 213
1.89 -19.49 -0.91 211 211 213
2.07 -19.64 -1.08 212 212 214
2.07 -19.73 -1.08 212 212 214
2.07 -19.83 -1.08 211 211 213
2.07 -19.92 -1.08 211 211 213
2.07 -20.02 -1.08 212 212 210
2.07 -20.11 -1.08 211 211 209
2.07 -20.21 -1.08 210 210 208
2.07 -20.31 -1.08 210 210 208
2.07 -20.40 -1.08 209 209 207
2.07 -20.50 -1.08 210 210 208
2.07 -20.59 -1.08 211 211 211
2.07 -20.69 -1.08 211 211 211
2.07 -20.78 -1.08 211 211 211
2.07 -20.88 -1.08 211 211 211
2.07 -20.97 -1.08 212 212 212
2.07 -21.07 -1.08 212 212 212
2.07 -21.16 -1.08 213 213 213
1.89 -21.20 -0.91 213 213 213
1.89 -21.29 -0.91 213 213 213
1.89 -21.39 -0.91 210 210 210
1.89 -21.48 -0.91 210 210 210
1.89 -21.58 -0.91 211 211 211
1.89 -21.67 -0.91 212 212 212
1.89 -21.77 -0.91 212 212 212
1.89 -21.86 -0.91 212 212 212
1.89 -21.96 -0.91 211 211 211
1.89 -22.05 -0.91 211 211 211
1.89 -22.15 -0.91 213 213 213
1.89 -22.24 -0.91 212 212 212
1.89 -22.34 -0.91 212 212 212
2.07 -22.50 -1.08 212 212 212
2.07 -22.60 -1.08 212 212 212
2.07 -22.69 -1.08 213 213 213
2.07 -22.79 -1.08 213 213 213
2.07 -22.88 -1.08 212 212 212
2.07 -22.98 -1.08 211 211 211
2.07 -23.07 -1.08 211 211 211
2.07 -23.17 -1.08 211 211 211
2.07 -23.26 -1.08 213 213 215
2.07 -23.36 -1.08 213 213 215
2.07 -23.45 -1.08 213 212 217
2.07 -23.55 -1.08 212 211 216
2.07 -23.64 -1.08 210 209 214
2.07 -23.74 -1.08 210 209 214
2.07 -23.84 -1.08 210 210 212
2.07 -23.93 -1.08 209 209 211
2.07 -24.03 -1.08 210 210 210
2.07 -24.12 -1.08 211 211 211
2.07 -24.22 -1.08 212 212 212
2.07 -24.31 -1.08 212 212 212
2.07 -24.41 -1.08 209 214 210
2.07 -24.50 -1.08 208 213 209
2.07 -24.60 -1.08 209 211 208
2.07 -24.69 -1.08 209 211 208
2.07 -24.79 -1.08 210 212 209
2.07 -24.89 -1.08 210 212 209
2.07 -24.98 -1.08 211 211 209
1.89 -25.00 -0.91 211 211 209
1.89 -25.09 -0.91 207 205 206
1.89 -25.19 -0.91 210 206 207
1.89 -25.28 -0.91 223 219 220
1.89 -25.38 -0.91 169 163 165
0.38 21.91 0.32 0 0 0
0.38 21.81 0.32 0 0 0
0.38 21.72 0.32 0 0 0
0.38 21.63 0.32 0 0 0
0.38 21.54 0.32 0 0 0
0.38 21.45 0.32 136 129 119
0.38 21.36 0.32 136 129 119
0.38 21.26 0.32 136 129 119
0.38 21.17 0.32 134 130 121
0.38 21.08 0.32 134 129 123
0.38 20.99 0.32 134 129 123
0.56 21.03 0.16 134 129 125
0.56 20.94 0.16 134 129 126
0.56 20.84 0.16 134 129 126
0.56 20.75 0.16 134 129 126
0.56 20.66 0.16 134 129 126
0.56 20.57 0.16 136 128 126
0.56 20.48 0.16 137 129 127
0.56 20.38 0.16 137 130 124
0.56 20.29 0.16 137 130 124
0.56 20.20 0.16 138 129 124
0.56 20.11 0.16 138 129 124
0.56 20.02 0.16 138 133 129
0.56 19.92 0.16 137 132 128
0.56 19.83 0.16 136 131 127
0.56 19.74 0.16 136 131 127
0.56 19.65 0.16 137 132 128
0.56 19.55 0.16 136 131 125
0.56 19.46 0.16 136 131 125
0.56 19.37 0.16 137 132 126
0.56 19.28 0.16 137 132 126
0.56 19.19 0.16 137 132 126
0.56 19.09 0.16 137 132 126
0.56 19.00 0.16 138 133 127
0.56 18.91 0.16 138 133 127
0.56 18.82 0.16 139 134 128
0.56 18.73 0.16 139 134 128
0.56 18.63 0.16 141 134 128
0.56 18.54 0.16 141 134 128
0.56 18.45 0.16 141 134 128
0.56 18.36 0.16 142 135 129
0.56 18.27 0.16 142 135 129
0.56 18.17 0.16 143 136 130
0.56 18.08 0.16 141 136 130
0.56 17.99 0.16 142 137 131
0.56 17.90 0.16 141 136 130
0.56 17.81 0.16 141 136 130
0.56 17.71 0.16 141 136 130
0.56 17.62 0.16 141 136 130
0.56 17.53 0.16 143 138 132
0.56 17.44 0.16 144 139 133
0.56 17.34 0.16 144 139 133
0.56 17.25 0.16 145 138 132
0.56 17.16 0.16 145 138 132
0.56 17.07 0.16 143 138 134
0.56 16.98 0.16 143 138 134
0.56 16.88 0.16 143 138 134
0.56 16.79 0.16 143 138 134
0.56 16.70 0.16 143 138 134
0.56 16.61 0.16 144 139 135
0.56 16.52 0.16 144 139 135
0.56 16.42 0.16 143 138 134
0.56 16.33 0.16 143 138 134
0.56 16.24 0.16 143 138 134
0.56 16.15 0.16 144 139 135
0.56 16.06 0.16 144 139 135
0.56 15.96 0.16 144 139 135
0.56 15.87 0.16 144 139 136
0.56 15.78 0.16 145 139 141
0.56 15.69 0.16 144 138 142
0.56 15.60 0.16 145 139 139
0.56 15.50 0.16 147 141 141
0.56 15.41 0.16 148 143 139
0.56 15.32 0.16 147 142 136
0.56 15.23 0.16 148 143 137
0.56 15.14 0.16 146 143 134
0.56 15.04 0.16 145 142 133
0.56 14.95 0.16 145 142 135
0.56 14.86 0.16 145 142 137
0.56 14.77 0.16 146 143 138
0.56 14.67 0.16 147 143 140
0.56 14.58 0.16 147 143 142
0.75 14.59 -0.01 147 143 142
0.75 14.50 -0.01 146 144 145
0.75 14.41 -0.01 146 144 145
0.75 14.31 -0.01 145 144 142
0.75 14.22 -0.01 145 144 142
0.75 14.13 -0.01 145 144 142
0.75 14.04 -0.01 146 145 143
0.75 13.94 -0.01 147 146 142
0.75 13.85 -0.01 148 147 143
0.75 13.76 -0.01 147 146 141
0.75 13.67 -0.01 146 145 140
0.75 13.57 -0.01 147 146 141
0.75 13.48 -0.01 147 146 141
0.75 13.39 -0.01 149 149 141
0.75 13.30 -0.01 149 149 141
0.75 13.20 -0.01 149 149 141
0.75 13.11 -0.01 149 146 137
0.75 13.02 -0.01 150 147 138
0.75 12.93 -0.01 148 148 140
0.75 12.83 -0.01 148 148 140
0.75 12.74 -0.01 149 149 141
0.75 12.65 -0.01 149 149 141
0.75 12.56 -0.01 149 150 144
0.75 12.46 -0.01 149 150 144
0.75 12.37 -0.01 149 150 145
0.75 12.28 -0.01 149 150 145
0.75 12.19 -0.01 150 149 145
0.75 12.09 -0.01 150 149 145
0.91 12.08 -0.16 150 149 147
0.91 11.98 -0.16 151 150 148
0.91 11.89 -0.16 153 149 148
0.75 11.72 -0.01 154 150 149
0.75 11.63 -0.01 153 149 148
0.91 11.61 -0.16 153 149 148
0.91 11.52 -0.16 153 149 146
0.91 11.43 -0.16 154 150 147
0.91 11.33 -0.16 154 150 147
0.75 11.17 -0.01 155 151 148
0.75 11.08 -0.01 155 152 147
0.75 10.98 -0.01 153 152 147
0.75 10.89 -0.01 154 153 148
0.75 10.80 -0.01 154 153 149
0.75 10.71 -0.01 156 155 151
0.75 10.61 -0.01 157 156 152
0.75 10.52 -0.01 157 156 152
0.75 10.43 -0.01 156 155 151
0.75 10.34 -0.01 155 154 150
0.75 10.24 -0.01 158 154 151
0.75 10.15 -0.01 158 154 151
0.75 10.06 -0.01 158 154 151
0.75 9.97 -0.01 158 154 151
0.75 9.87 -0.01 158 155 150
0.75 9.78 -0.01 158 155 150
0.75 9.69 -0.01 158 155 148
0.75 9.60 -0.01 158 155 148
0.75 9.50 -0.01 156 153 146
0.75 9.41 -0.01 156 153 146
0.75 9.32 -0.01 158 155 148
0.91 9.29 -0.16 159 156 149
0.91 9.20 -0.16 159 156 151
0.91 9.11 -0.16 158 155 150
0.91 9.01 -0.16 158 155 150
0.91 8.92 -0.16 159 156 151
0.91 8.83 -0.16 157 156 151
0.91 8.73 -0.16 157 158 153
1.10 8.71 -0.32 157 158 153
1.10 8.62 -0.32 157 158 153
1.10 8.53 -0.32 156 157 152
1.10 8.44 -0.32 157 158 153
1.10 8.34 -0.32 157 158 153
1.10 8.25 -0.32 156 157 152
1.10 8.16 -0.32 157 158 153
1.10 8.06 -0.32 158 160 157
1.10 7.97 -0.32 159 161 158
1.10 7.88 -0.32 159 161 158
1.10 7.78 -0.32 159 161 158
1.10 7.69 -0.32 158 160 157
1.10 7.60 -0.32 158 160 157
0.91 7.43 -0.16 158 159 154
0.91 7.34 -0.16 159 160 155
0.91 7.25 -0.16 159 160 155
1.10 7.22 -0.32 160 161 156
1.10 7.13 -0.32 160 160 158
1.10 7.04 -0.32 159 159 157
1.10 6.94 -0.32 158 158 156
0.91 6.78 -0.16 158 158 156
0.91 6.69 -0.16 159 159 157
0.91 6.60 -0.16 159 159 157
1.10 6.57 -0.32 159 159 157
1.10 6.48 -0.32 158 159 154
0.91 6.32 -0.16 158 159 154
0.91 6.23 -0.16 158 159 154
0.91 6.13 -0.16 158 159 154
1.10 6.10 -0.32 156 162 152
1.10 6.01 -0.32 153 158 151
1.10 5.92 -0.32 162 167 160
-2.84 4.55 3.22 153 158 154
-2.84 4.47 3.22 150 155 151
-2.84 4.38 3.22 167 171 170
-3.00 4.25 3.37 190 196 194
-3.13 4.12 3.49 224 230 228
-3.29 3.99 3.63 224 229 225
-3.42 3.86 3.75 232 237 233
-3.58 3.73 3.89 237 242 238
-3.72 3.61 4.01 236 241 237
-3.72 3.53 4.01 237 239 238
-3.85 3.41 4.13 242 243 245
-3.85 3.32 4.13 249 250 252
-3.85 3.24 4.13 252 253 255
-3.85 3.16 4.13 235 234 242
-3.85 3.08 4.13 207 210 225
-3.85 3.00 4.13 168 180 202
-3.85 2.91 4.13 145 177 226
-3.85 2.83 4.13 100 146 208
-3.85 2.75 4.13 74 140 214
-3.72 2.70 4.01 64 141 223
-3.72 2.62 4.01 53 134 223
-3.58 2.58 3.89 55 134 226
-3.42 2.54 3.75 61 135 220
-3.29 2.49 3.63 70 133 213
-3.13 2.45 3.49 78 128 197
-2.84 2.44 3.22 93 116 183
-2.71 2.39 3.10 116 99 169
-2.71 2.31 3.10 147 81 152
-2.71 2.23 3.10 179 60 124
-2.55 2.18 2.96 206 59 114
-2.55 2.10 2.96 199 54 93
-2.55 2.01 2.96 197 45 70
-2.55 1.93 2.96 215 49 59
-2.55 1.84 2.96 220 41 44
-2.55 1.76 2.96 227 42 39
-2.55 1.67 2.96 221 34 29
-2.55 1.59 2.96 201 26 23
-2.55 1.50 2.96 217 68 64
-2.71 1.38 3.10 239 132 126
-2.71 1.29 3.10 233 170 161
1.28 2.13 -0.49 193 194 180
1.28 2.04 -0.49 202 202 192
1.47 1.99 -0.66 199 196 191
1.28 1.85 -0.49 202 201 197
1.28 1.76 -0.49 201 200 198
1.28 1.67 -0.49 202 201 199
1.28 1.57 -0.49 201 200 198
1.28 1.48 -0.49 196 196 194
1.10 1.34 -0.32 194 194 192
1.10 1.25 -0.32 189 191 188
1.10 1.16 -0.32 181 183 180
1.10 1.07 -0.32 179 181 180
1.10 0.97 -0.32 179 181 180
1.10 0.88 -0.32 174 178 177
1.10 0.79 -0.32 170 174 173
1.10 0.69 -0.32 168 172 171
1.28 0.64 -0.49 169 173 172
1.28 0.54 -0.49 169 175 173
1.28 0.45 -0.49 169 175 173
1.28 0.35 -0.49 167 176 173
1.28 0.26 -0.49 166 175 172
1.28 0.17 -0.49 167 176 173
1.28 0.07 -0.49 169 178 175
1.28 -0.02 -0.49 170 179 176
1.28 -0.11 -0.49 169 178 175
1.28 -0.21 -0.49 171 180 177
1.28 -0.30 -0.49 171 180 177
1.28 -0.40 -0.49 171 180 177
1.28 -0.49 -0.49 172 181 178
1.28 -0.58 -0.49 172 181 178
1.28 -0.68 -0.49 173 182 179
1.28 -0.77 -0.49 173 182 179
1.28 -0.86 -0.49 173 182 179
1.28 -0.96 -0.49 172 181 178
1.28 -1.05 -0.49 172 183 179
1.28 -1.15 -0.49 171 182 178
1.28 -1.24 -0.49 171 182 178
1.28 -1.33 -0.49 172 183 179
1.28 -1.43 -0.49 173 184 180
1.47 -1.49 -0.66 174 185 181
1.47 -1.59 -0.66 174 185 181
1.28 -1.71 -0.49 173 184 180
1.28 -1.80 -0.49 170 181 177
1.28 -1.90 -0.49 171 182 178
1.28 -1.99 -0.49 173 184 180
1.28 -2.08 -0.49 173 184 180
1.28 -2.18 -0.49 174 183 180
1.28 -2.27 -0.49 174 183 180
1.28 -2.36 -0.49 176 185 182
1.28 -2.46 -0.49 178 184 182
1.28 -2.55 -0.49 178 184 182
1.28 -2.64 -0.49 177 186 183
1.28 -2.74 -0.49 178 187 184
1.28 -2.83 -0.49 179 188 183
1.28 -2.93 -0.49 180 189 184
1.47 -3.00 -0.66 179 190 184
1.47 -3.09 -0.66 179 190 184
1.47 -3.19 -0.66 179 190 184
1.28 -3.30 -0.49 178 189 183
1.28 -3.39 -0.49 177 188 182
1.28 -3.49 -0.49 177 188 182
1.28 -3.58 -0.49 179 188 183
1.28 -3.68 -0.49 180 189 184
1.28 -3.77 -0.49 181 190 185
1.28 -3.86 -0.49 182 191 186
1.28 -3.96 -0.49 184 190 188
1.28 -4.05 -0.49 185 191 189
1.47 -4.13 -0.66 186 192 190
1.47 -4.22 -0.66 185 191 189
1.47 -4.32 -0.66 182 191 188
1.47 -4.41 -0.66 182 191 188
1.47 -4.51 -0.66 181 192 188
1.47 -4.60 -0.66 183 194 190
1.47 -4.69 -0.66 182 193 189
1.47 -4.79 -0.66 182 193 189
1.47 -4.88 -0.66 183 194 190
1.47 -4.98 -0.66 185 194 191
1.47 -5.07 -0.66 187 196 193
1.47 -5.17 -0.66 186 195 192
1.47 -5.26 -0.66 185 194 191
1.47 -5.35 -0.66 188 194 192
1.47 -5.45 -0.66 188 194 192
1.47 -5.54 -0.66 186 195 192
1.47 -5.64 -0.66 187 196 193
1.47 -5.73 -0.66 186 197 193
1.47 -5.82 -0.66 187 198 194
1.47 -5.92 -0.66 186 197 193
1.47 -6.01 -0.66 186 197 193
1.47 -6.11 -0.66 187 198 194
1.47 -6.20 -0.66 188 199 195
1.47 -6.29 -0.66 189 200 196
1.47 -6.39 -0.66 188 199 195
1.47 -6.48 -0.66 188 197 194
1.47 -6.58 -0.66 188 197 194
1.47 -6.67 -0.66 191 197 195
1.47 -6.77 -0.66 192 198 196
1.47 -6.86 -0.66 194 198 197
1.47 -6.95 -0.66 193 199 197
1.47 -7.05 -0.66 192 198 196
1.47 -7.14 -0.66 192 198 196
1.47 -7.24 -0.66 192 198 196
1.47 -7.33 -0.66 190 199 196
1.47 -7.42 -0.66 191 200 197
1.47 -7.52 -0.66 190 201 197
1.47 -7.61 -0.66 190 201 197
1.47 -7.71 -0.66 191 202 198
1.47 -7.80 -0.66 192 203 199
1.47 -7.90 -0.66 193 204 200
1.47 -7.99 -0.66 192 203 199
1.47 -8.08 -0.66 193 202 199
1.47 -8.18 -0.66 192 201 198
1.47 -8.27 -0.66 193 202 199
1.47 -8.37 -0.66 194 203 200
1.47 -8.46 -0.66 194 203 200
1.47 -8.55 -0.66 194 203 200
1.65 -8.65 -0.83 195 204 201
1.65 -8.75 -0.83 196 205 202
1.65 -8.84 -0.83 196 205 202
1.65 -8.94 -0.83 197 206 203
1.65 -9.03 -0.83 198 207 204
1.65 -9.13 -0.83 196 205 202
1.65 -9.22 -0.83 197 206 203
1.47 -9.31 -0.66 197 208 204
1.47 -9.40 -0.66 195 206 202
1.47 -9.50 -0.66 195 206 202
1.65 -9.60 -0.83 196 205 202
1.65 -9.69 -0.83 199 208 203
1.65 -9.79 -0.83 201 207 203
1.65 -9.88 -0.83 202 207 203
1.65 -9.98 -0.83 202 207 203
1.65 -10.07 -0.83 203 207 206
1.65 -10.17 -0.83 203 207 206
1.65 -10.26 -0.83 204 208 207
1.65 -10.36 -0.83 204 208 207
1.65 -10.45 -0.83 204 210 208
1.65 -10.55 -0.83 203 209 207
1.65 -10.64 -0.83 203 209 207
1.65 -10.73 -0.83 202 208 206
1.65 -10.83 -0.83 200 209 206
1.65 -10.92 -0.83 200 209 206
1.65 -11.02 -0.83 199 210 206
1.65 -11.11 -0.83 199 210 206
1.65 -11.21 -0.83 201 210 207
1.65 -11.30 -0.83 201 210 207
1.65 -11.40 -0.83 202 211 208
1.65 -11.49 -0.83 204 210 208
1.65 -11.59 -0.83 205 211 209
1.65 -11.68 -0.83 206 210 209
1.65 -11.77 -0.83 206 210 209
1.65 -11.87 -0.83 205 209 208
1.65 -11.96 -0.83 206 210 209
1.65 -12.06 -0.83 207 211 210
1.65 -12.15 -0.83 207 211 210
1.65 -12.25 -0.83 206 210 209
1.65 -12.34 -0.83 206 210 209
1.65 -12.44 -0.83 205 211 209
1.65 -12.53 -0.83 205 211 209
1.65 -12.63 -0.83 203 214 210
1.65 -12.72 -0.83 203 214 210
1.47 -12.79 -0.66 203 214 210
1.47 -12.88 -0.66 204 215 211
1.47 -12.98 -0.66 205 214 211
1.47 -13.07 -0.66 205 214 211
1.65 -13.19 -0.83 204 213 210
1.65 -13.29 -0.83 203 212 209
1.65 -13.38 -0.83 208 214 212
1.65 -13.48 -0.83 208 214 212
1.65 -13.57 -0.83 207 213 211
1.65 -13.67 -0.83 208 212 211
1.65 -13.76 -0.83 208 212 211
1.65 -13.85 -0.83 208 212 211
1.65 -13.95 -0.83 206 212 210
1.65 -14.04 -0.83 204 213 210
1.65 -14.14 -0.83 203 214 210
1.65 -14.23 -0.83 204 213 210
1.65 -14.33 -0.83 204 213 210
1.65 -14.42 -0.83 204 213 210
1.65 -14.52 -0.83 204 213 210
1.84 -14.64 -0.99 206 212 210
1.84 -14.74 -0.99 206 212 210
1.84 -14.83 -0.99 207 211 210
1.84 -14.93 -0.99 207 211 210
1.65 -14.99 -0.83 210 212 211
1.65 -15.08 -0.83 210 212 211
1.65 -15.18 -0.83 211 211 211
1.65 -15.27 -0.83 212 212 212
1.65 -15.37 -0.83 213 213 213
1.65 -15.46 -0.83 213 213 213
1.65 -15.56 -0.83 213 213 213
