ply
format ascii 1.0
element vertex 1745
property float x
property float y
property float z
property uchar red
property uchar green
property uchar blue
end_header
12.61 -8.84 2.40 62 126 161
12.61 -8.94 2.40 59 123 158
12.61 -9.05 2.40 57 123 158
12.61 -9.16 2.40 59 125 160
12.35 -9.26 2.58 57 123 158
12.35 -9.37 2.58 58 123 161
12.35 -9.47 2.58 58 123 161
12.35 -9.58 2.58 58 123 161
12.35 -9.69 2.58 58 123 161
12.35 -9.80 2.58 58 122 160
12.35 -9.90 2.58 58 122 160
12.35 -10.01 2.58 53 121 158
12.08 -10.11 2.75 55 120 158
12.08 -10.21 2.75 55 120 158
12.08 -10.32 2.75 57 121 159
12.08 -10.43 2.75 57 121 157
12.08 -10.53 2.75 57 121 157
12.08 -10.64 2.75 55 121 155
12.08 -10.75 2.75 54 120 154
11.82 -10.84 2.92 44 115 147
11.82 -10.95 2.92 50 121 153
11.82 -11.05 2.92 51 122 154
11.82 -11.16 2.92 48 117 150
11.82 -11.26 2.92 47 116 147
11.82 -11.37 2.92 52 117 149
11.82 -11.48 2.92 50 115 147
11.55 -11.56 3.09 45 108 141
11.55 -11.67 3.09 52 116 151
11.55 -11.78 3.09 46 109 142
11.55 -11.88 3.09 81 135 161
11.55 -11.99 3.09 102 153 174
11.55 -12.09 3.09 121 164 180
11.55 -12.20 3.09 133 171 182
11.55 -12.31 3.09 140 170 178
11.55 -12.41 3.09 159 187 188
13.67 23.07 1.58 36 78 118
13.67 22.96 1.58 37 79 121
13.38 22.68 1.77 36 77 121
13.38 22.57 1.77 37 75 122
13.38 22.46 1.77 37 75 124
13.67 22.52 1.58 37 78 132
13.67 22.41 1.58 36 82 131
13.67 22.30 1.58 37 83 135
13.67 22.19 1.58 39 81 139
13.67 22.08 1.58 39 80 142
13.67 21.96 1.58 40 82 142
13.67 21.85 1.58 41 83 143
13.67 21.74 1.58 43 85 143
13.67 21.63 1.58 44 86 144
13.67 21.52 1.58 42 87 142
13.97 21.57 1.39 43 88 143
13.97 21.46 1.39 40 87 141
13.97 21.35 1.39 40 87 141
13.97 21.24 1.39 38 87 143
13.97 21.13 1.39 38 87 143
13.97 21.01 1.39 39 88 146
13.97 20.90 1.39 39 88 146
13.97 20.79 1.39 39 88 146
13.97 20.68 1.39 40 89 147
14.23 20.71 1.22 43 90 146
14.23 20.60 1.22 43 90 146
14.23 20.48 1.22 42 89 145
14.23 20.37 1.22 40 87 143
14.23 20.26 1.22 39 86 142
14.23 20.15 1.22 40 86 145
14.23 20.04 1.22 39 85 144
14.23 19.93 1.22 43 89 148
14.23 19.81 1.22 42 88 147
14.23 19.70 1.22 41 87 147
14.23 19.59 1.22 40 86 146
14.23 19.48 1.22 39 85 145
14.23 19.37 1.22 39 85 145
14.23 19.26 1.22 40 86 146
14.52 19.29 1.03 40 86 146
14.52 19.18 1.03 38 87 145
14.52 19.06 1.03 38 87 145
14.52 18.95 1.03 39 85 144
14.52 18.84 1.03 40 86 145
14.52 18.73 1.03 40 86 145
14.52 18.61 1.03 40 86 145
14.52 18.50 1.03 39 86 142
14.52 18.39 1.03 38 85 141
14.82 18.42 0.83 42 89 145
14.82 18.30 0.83 41 88 144
14.82 18.19 0.83 41 88 144
14.82 18.08 0.83 40 87 143
14.82 17.97 0.83 40 87 141
14.82 17.85 0.83 41 88 142
14.82 17.74 0.83 43 90 144
14.82 17.63 0.83 43 90 144
14.82 17.51 0.83 43 88 143
14.82 17.40 0.83 42 89 143
14.82 17.29 0.83 42 89 143
14.82 17.17 0.83 42 89 143
14.82 17.06 0.83 42 89 143
14.82 16.95 0.83 40 90 143
14.82 16.84 0.83 41 91 144
15.11 16.85 0.64 40 90 143
15.11 16.74 0.64 40 90 143
15.11 16.63 0.64 42 89 145
15.11 16.51 0.64 42 89 145
15.11 16.40 0.64 42 89 145
15.11 16.29 0.64 42 89 145
15.11 16.17 0.64 44 89 146
15.11 16.06 0.64 44 89 146
15.11 15.95 0.64 43 92 150
15.40 15.96 0.45 40 89 147
15.40 15.84 0.45 37 86 144
15.11 15.60 0.64 38 87 145
15.11 15.49 0.64 41 90 149
15.11 15.38 0.64 43 92 151
15.11 15.26 0.64 43 92 151
15.11 15.15 0.64 43 92 151
15.40 15.16 0.45 43 92 151
15.40 15.04 0.45 43 92 150
15.40 14.93 0.45 44 93 151
15.40 14.81 0.45 44 93 149
15.40 14.70 0.45 43 92 148
15.40 14.59 0.45 41 92 145
15.40 14.47 0.45 41 92 145
15.40 14.36 0.45 43 94 149
15.40 14.24 0.45 42 93 148
15.40 14.13 0.45 40 93 147
15.40 14.02 0.45 41 94 148
15.40 13.90 0.45 41 94 148
15.40 13.79 0.45 40 93 147
15.40 13.67 0.45 39 94 148
15.40 13.56 0.45 40 95 149
15.40 13.45 0.45 41 96 150
15.40 13.33 0.45 41 96 150
15.40 13.22 0.45 40 97 150
15.40 13.10 0.45 39 96 149
15.40 12.99 0.45 39 96 149
15.40 12.88 0.45 38 95 148
15.40 12.76 0.45 36 96 148
15.40 12.65 0.45 38 95 150
15.40 12.53 0.45 41 96 153
15.40 12.42 0.45 42 97 154
15.40 12.31 0.45 43 98 155
15.40 12.19 0.45 41 96 152
15.40 12.08 0.45 39 94 150
15.40 11.96 0.45 39 94 150
15.40 11.85 0.45 42 97 153
15.40 11.73 0.45 42 99 152
15.11 11.52 0.64 40 97 150
15.11 11.41 0.64 39 96 149
15.11 11.29 0.64 38 95 148
15.11 11.18 0.64 40 98 148
15.11 11.07 0.64 41 99 149
15.40 11.05 0.45 41 99 149
15.40 10.94 0.45 41 99 149
15.40 10.82 0.45 37 99 150
15.11 10.61 0.64 38 100 151
15.11 10.50 0.64 40 100 152
15.11 10.38 0.64 42 99 152
15.11 10.27 0.64 42 99 152
15.11 10.16 0.64 42 97 151
15.11 10.04 0.64 43 96 148
15.11 9.93 0.64 42 95 147
15.11 9.82 0.64 43 96 150
15.11 9.70 0.64 42 97 151
15.11 9.59 0.64 41 96 150
15.11 9.48 0.64 38 98 152
15.11 9.36 0.64 39 99 153
15.11 9.25 0.64 38 99 154
15.11 9.14 0.64 37 98 153
15.11 9.02 0.64 36 97 151
15.11 8.91 0.64 33 94 148
15.11 8.80 0.64 31 94 148
14.82 8.60 0.83 33 94 148
14.82 8.48 0.83 37 97 149
14.82 8.37 0.83 41 98 151
14.82 8.26 0.83 37 99 150
14.82 8.15 0.83 35 96 150
14.82 8.03 0.83 36 98 149
14.82 7.92 0.83 40 102 153
14.82 7.81 0.83 69 135 185
14.82 7.69 0.83 0 44 83
14.82 7.58 0.83 20 42 55
14.82 7.47 0.83 11 19 21
14.82 7.36 0.83 7 17 19
14.82 7.24 0.83 1 11 12
14.52 7.05 1.03 0 5 4
12.03 2.85 2.66 49 114 134
12.03 2.75 2.66 46 115 144
12.03 2.64 2.66 45 115 149
12.03 2.53 2.66 52 117 157
12.03 2.43 2.66 47 112 154
12.03 2.32 2.66 47 115 152
12.03 2.21 2.66 46 116 152
12.03 2.10 2.66 47 118 150
12.03 2.00 2.66 48 117 150
12.03 1.89 2.66 51 117 152
12.03 1.78 2.66 51 117 152
12.29 1.72 2.48 49 119 155
12.29 1.61 2.48 48 121 156
12.29 1.51 2.48 49 122 157
12.29 1.40 2.48 49 122 157
12.29 1.29 2.48 49 122 157
12.29 1.18 2.48 49 122 157
12.29 1.08 2.48 52 122 158
12.29 0.97 2.48 56 124 161
12.29 0.86 2.48 57 125 162
12.29 0.75 2.48 55 121 156
12.29 0.65 2.48 57 123 158
12.29 0.54 2.48 60 124 160
12.56 0.47 2.31 61 125 161
12.56 0.36 2.31 62 124 161
12.56 0.25 2.31 62 124 161
12.56 0.15 2.31 61 123 160
12.56 0.04 2.31 61 124 159
12.56 -0.07 2.31 64 124 158
12.85 -0.14 2.12 65 126 157
12.85 -0.25 2.12 63 126 159
12.85 -0.36 2.12 63 126 159
12.85 -0.47 2.12 61 124 159
12.85 -0.57 2.12 60 123 158
12.85 -0.68 2.12 60 123 158
12.85 -0.79 2.12 60 123 158
12.85 -0.90 2.12 63 126 161
12.85 -1.01 2.12 62 125 160
12.85 -1.12 2.12 62 125 160
12.85 -1.23 2.12 62 125 160
12.85 -1.34 2.12 62 125 158
12.85 -1.44 2.12 62 125 158
12.85 -1.55 2.12 61 124 157
12.85 -1.66 2.12 62 126 162
12.85 -1.77 2.12 61 125 163
12.85 -1.88 2.12 60 124 160
12.85 -1.99 2.12 60 124 160
12.85 -2.10 2.12 60 126 161
12.85 -2.21 2.12 60 126 161
12.85 -2.32 2.12 60 126 161
12.85 -2.42 2.12 60 126 161
12.85 -2.53 2.12 61 127 162
12.85 -2.64 2.12 62 128 163
12.85 -2.75 2.12 62 128 163
12.85 -2.86 2.12 61 127 162
12.85 -2.97 2.12 61 125 161
12.85 -3.08 2.12 60 124 160
12.85 -3.19 2.12 62 124 161
12.85 -3.29 2.12 63 125 162
12.85 -3.40 2.12 61 126 164
12.85 -3.51 2.12 61 126 164
12.85 -3.62 2.12 61 127 162
12.85 -3.73 2.12 61 127 162
12.85 -3.84 2.12 62 126 161
12.85 -3.95 2.12 62 126 161
12.85 -4.06 2.12 63 126 161
12.85 -4.17 2.12 64 127 162
12.85 -4.27 2.12 64 127 162
12.85 -4.38 2.12 63 127 163
12.85 -4.49 2.12 63 127 163
12.85 -4.60 2.12 61 126 164
12.85 -4.71 2.12 61 126 164
12.85 -4.82 2.12 61 126 164
12.85 -4.93 2.12 61 126 164
12.85 -5.04 2.12 60 124 162
12.85 -5.14 2.12 63 127 165
12.85 -5.25 2.12 64 128 166
12.85 -5.36 2.12 64 128 166
12.85 -5.47 2.12 65 128 163
12.85 -5.58 2.12 65 128 163
12.85 -5.69 2.12 64 127 160
12.85 -5.80 2.12 61 124 157
12.85 -5.91 2.12 62 125 158
12.85 -6.01 2.12 63 126 159
12.85 -6.12 2.12 64 127 160
12.85 -6.23 2.12 64 127 160
12.85 -6.34 2.12 64 127 162
12.85 -6.45 2.12 63 126 161
12.85 -6.56 2.12 64 126 163
12.85 -6.67 2.12 64 126 163
12.85 -6.78 2.12 60 124 162
12.85 -6.89 2.12 64 126 165
12.85 -6.99 2.12 64 126 165
12.85 -7.10 2.12 63 125 164
12.85 -7.21 2.12 62 124 163
12.56 -7.32 2.31 65 125 161
12.56 -7.43 2.31 66 126 160
12.56 -7.54 2.31 71 132 163
12.56 -7.65 2.31 73 134 163
12.56 -7.75 2.31 77 137 165
12.56 -7.86 2.31 76 135 165
12.56 -7.97 2.31 75 132 162
12.56 -8.08 2.31 71 127 162
12.56 -8.19 2.31 68 124 159
12.56 -8.29 2.31 65 123 160
12.56 -8.40 2.31 68 128 162
12.56 -8.51 2.31 62 125 158
12.56 -8.62 2.31 61 124 157
12.56 -8.73 2.31 63 126 159
12.56 -8.84 2.31 62 126 161
12.56 -8.94 2.31 59 123 158
12.56 -9.05 2.31 57 123 158
12.29 -9.15 2.48 60 126 161
12.29 -9.26 2.48 56 124 159
12.29 -9.37 2.48 58 123 161
12.29 -9.47 2.48 58 123 161
12.29 -9.58 2.48 58 122 160
12.29 -9.69 2.48 58 122 160
12.29 -9.80 2.48 57 121 159
12.29 -9.90 2.48 57 121 159
12.29 -10.01 2.48 52 120 155
12.03 -10.11 2.66 54 120 155
12.03 -10.21 2.66 55 121 156
12.03 -10.32 2.66 56 120 156
12.03 -10.43 2.66 56 119 154
12.03 -10.53 2.66 55 118 153
12.03 -10.64 2.66 52 116 151
12.03 -10.75 2.66 50 114 149
11.77 -10.84 2.83 53 122 153
11.77 -10.95 2.83 50 119 150
11.77 -11.05 2.83 46 117 145
11.77 -11.16 2.83 47 116 145
11.77 -11.26 2.83 48 117 146
11.77 -11.37 2.83 50 115 145
11.77 -11.48 2.83 47 112 142
11.50 -11.56 3.00 43 107 142
11.50 -11.67 3.00 45 113 150
11.50 -11.78 3.00 40 108 147
11.50 -11.88 3.00 48 109 140
11.50 -11.99 3.00 59 117 141
11.50 -12.09 3.00 83 134 153
11.50 -12.20 3.00 107 153 166
11.50 -12.31 3.00 122 160 169
11.50 -12.41 3.00 138 172 174
13.62 23.07 1.49 41 76 130
13.62 22.96 1.49 38 79 125
13.32 22.68 1.68 36 76 125
13.32 22.57 1.68 34 75 127
13.32 22.46 1.68 33 74 130
13.62 22.52 1.49 35 78 129
13.62 22.41 1.49 34 80 130
13.62 22.30 1.49 34 80 132
13.62 22.19 1.49 34 81 137
13.62 22.08 1.49 35 81 140
13.62 21.96 1.49 39 84 141
13.62 21.85 1.49 40 85 142
13.62 21.74 1.49 43 86 141
13.62 21.63 1.49 44 87 142
13.62 21.52 1.49 44 87 140
13.62 21.41 1.49 45 88 141
13.91 21.46 1.29 45 88 143
13.91 21.35 1.29 45 88 143
13.91 21.24 1.29 42 87 144
13.91 21.13 1.29 41 86 145
13.91 21.01 1.29 40 86 145
13.91 20.90 1.29 40 86 146
13.91 20.79 1.29 39 87 149
14.17 20.82 1.12 39 87 149
14.17 20.71 1.12 42 91 149
14.17 20.60 1.12 40 89 147
14.17 20.48 1.12 39 88 144
14.17 20.37 1.12 39 88 144
14.17 20.26 1.12 41 91 144
14.17 20.15 1.12 42 91 147
14.17 20.04 1.12 42 91 150
14.17 19.93 1.12 40 89 148
14.17 19.81 1.12 39 87 149
14.17 19.70 1.12 38 86 148
14.17 19.59 1.12 38 86 148
14.17 19.48 1.12 38 87 145
14.17 19.37 1.12 38 87 145
14.17 19.26 1.12 39 89 142
14.47 19.29 0.93 39 88 144
14.47 19.18 0.93 39 88 146
14.47 19.06 0.93 40 89 148
14.47 18.95 0.93 40 89 147
14.47 18.84 0.93 38 87 145
14.47 18.73 0.93 37 86 144
14.47 18.61 0.93 37 86 144
14.47 18.50 0.93 41 87 146
14.47 18.39 0.93 42 88 147
14.76 18.42 0.74 43 88 145
14.76 18.30 0.74 44 89 146
14.76 18.19 0.74 44 89 144
14.76 18.08 0.74 42 87 142
14.76 17.97 0.74 44 87 142
14.76 17.85 0.74 45 88 143
14.76 17.74 0.74 42 87 142
14.76 17.63 0.74 41 88 142
14.76 17.51 0.74 40 90 143
14.76 17.40 0.74 40 90 143
14.76 17.29 0.74 40 90 143
14.76 17.17 0.74 41 88 144
14.76 17.06 0.74 41 88 144
14.76 16.95 0.74 43 89 148
14.76 16.84 0.74 44 90 149
15.05 16.85 0.54 41 88 144
15.05 16.74 0.54 41 88 144
15.05 16.63 0.54 40 90 143
15.05 16.51 0.54 41 91 144
15.05 16.40 0.54 38 91 141
15.05 16.29 0.54 36 89 139
15.05 16.17 0.54 38 91 141
15.05 16.06 0.54 41 94 146
15.05 15.95 0.54 40 91 146
15.35 15.96 0.35 41 92 149
15.35 15.84 0.35 41 92 149
15.05 15.60 0.54 40 91 148
15.05 15.49 0.54 37 89 147
15.05 15.38 0.54 37 89 147
15.05 15.26 0.54 37 89 149
15.05 15.15 0.54 37 89 147
15.05 15.04 0.54 41 93 151
15.35 15.04 0.35 40 92 150
15.35 14.93 0.35 39 91 149
15.35 14.81 0.35 43 94 151
15.35 14.70 0.35 41 92 149
15.35 14.59 0.35 40 91 146
15.35 14.47 0.35 42 95 149
15.35 14.36 0.35 39 94 148
15.35 14.24 0.35 37 94 147
15.35 14.13 0.35 36 93 146
15.35 14.02 0.35 37 94 147
15.35 13.90 0.35 39 94 148
15.35 13.79 0.35 40 95 149
15.35 13.67 0.35 40 95 151
15.35 13.56 0.35 39 94 150
15.35 13.45 0.35 42 97 153
15.35 13.33 0.35 41 96 152
15.35 13.22 0.35 41 96 152
15.35 13.10 0.35 41 96 152
15.35 12.99 0.35 38 97 153
15.35 12.88 0.35 38 97 153
15.35 12.76 0.35 37 96 152
15.35 12.65 0.35 38 94 151
15.35 12.53 0.35 38 92 152
15.35 12.42 0.35 39 94 150
15.35 12.31 0.35 39 94 150
15.35 12.19 0.35 38 96 146
15.35 12.08 0.35 39 97 147
15.35 11.96 0.35 41 99 145
15.35 11.85 0.35 43 101 147
15.35 11.73 0.35 43 102 146
15.05 11.52 0.54 41 99 145
15.05 11.41 0.54 38 99 144
15.05 11.29 0.54 38 98 148
15.05 11.18 0.54 40 100 150
15.35 11.16 0.35 41 101 153
15.35 11.05 0.35 41 101 155
15.35 10.94 0.35 40 100 154
15.35 10.82 0.35 43 100 153
15.35 10.71 0.35 43 100 153
15.05 10.50 0.54 42 99 152
15.05 10.38 0.54 41 98 151
15.05 10.27 0.54 40 97 150
15.35 10.25 0.35 40 97 150
15.05 10.04 0.54 40 97 152
15.05 9.93 0.54 41 98 153
15.05 9.82 0.54 40 100 154
15.05 9.70 0.54 38 98 152
15.05 9.59 0.54 38 98 152
15.05 9.48 0.54 40 100 154
15.05 9.36 0.54 41 101 155
15.05 9.25 0.54 40 100 154
15.05 9.14 0.54 38 99 154
15.05 9.02 0.54 35 97 154
15.05 8.91 0.54 34 95 150
15.05 8.80 0.54 36 92 143
14.76 8.60 0.74 37 93 144
14.76 8.48 0.74 36 97 151
14.76 8.37 0.74 36 99 153
14.76 8.26 0.74 38 98 150
14.76 8.15 0.74 38 96 146
14.76 8.03 0.74 42 98 147
14.76 7.92 0.74 49 103 150
14.76 7.81 0.74 76 129 173
14.76 7.69 0.74 13 56 90
14.76 7.58 0.74 24 50 67
14.76 7.47 0.74 18 33 38
14.76 7.36 0.74 9 19 18
14.76 7.24 0.74 0 6 3
14.76 7.13 0.74 0 3 2
11.98 2.85 2.56 58 121 152
11.98 2.75 2.56 55 115 151
11.98 2.64 2.56 53 113 149
11.98 2.53 2.56 54 119 147
11.98 2.43 2.56 48 115 144
11.98 2.32 2.56 48 119 151
11.98 2.21 2.56 48 117 156
11.98 2.10 2.56 51 116 156
11.98 2.00 2.56 51 116 156
11.98 1.89 2.56 46 119 152
12.24 1.83 2.39 47 122 154
12.24 1.72 2.39 49 122 157
12.24 1.61 2.39 50 122 160
12.24 1.51 2.39 48 120 160
12.24 1.40 2.39 48 120 160
12.24 1.29 2.39 51 120 159
12.24 1.18 2.39 52 121 160
12.24 1.08 2.39 54 122 161
12.24 0.97 2.39 57 122 160
12.24 0.86 2.39 60 124 162
12.24 0.75 2.39 55 119 155
12.24 0.65 2.39 57 121 157
12.24 0.54 2.39 60 123 158
12.24 0.43 2.39 60 123 158
12.50 0.36 2.22 60 123 158
12.50 0.25 2.22 61 124 159
12.50 0.15 2.22 61 124 157
12.50 0.04 2.22 60 123 156
12.50 -0.07 2.22 61 124 159
12.80 -0.14 2.02 60 123 158
12.80 -0.25 2.02 60 123 158
12.80 -0.36 2.02 60 123 158
12.80 -0.47 2.02 61 124 159
12.80 -0.57 2.02 61 124 159
12.80 -0.68 2.02 61 124 159
12.80 -0.79 2.02 61 124 159
12.80 -0.90 2.02 60 122 159
12.80 -1.01 2.02 62 124 161
12.80 -1.12 2.02 60 124 160
12.80 -1.23 2.02 59 123 159
12.80 -1.34 2.02 60 124 160
12.80 -1.44 2.02 62 126 162
12.80 -1.55 2.02 57 122 160
12.80 -1.66 2.02 55 123 160
12.80 -1.77 2.02 54 123 162
12.80 -1.88 2.02 55 124 163
12.80 -1.99 2.02 56 125 164
12.80 -2.10 2.02 58 126 163
12.80 -2.21 2.02 58 126 163
12.80 -2.32 2.02 61 126 164
12.80 -2.42 2.02 61 126 164
12.80 -2.53 2.02 63 127 163
12.80 -2.64 2.02 63 127 163
12.80 -2.75 2.02 64 127 162
12.80 -2.86 2.02 63 126 161
12.80 -2.97 2.02 61 124 157
12.80 -3.08 2.02 61 124 157
12.80 -3.19 2.02 64 124 158
12.80 -3.29 2.02 64 127 162
12.80 -3.40 2.02 64 128 163
12.80 -3.51 2.02 62 128 163
12.80 -3.62 2.02 61 126 164
12.80 -3.73 2.02 61 126 164
12.80 -3.84 2.02 61 126 166
12.80 -3.95 2.02 60 125 165
12.80 -4.06 2.02 60 123 164
12.80 -4.17 2.02 60 123 164
12.80 -4.27 2.02 59 122 163
12.80 -4.38 2.02 60 122 161
12.80 -4.49 2.02 61 123 162
12.80 -4.60 2.02 63 125 162
12.80 -4.71 2.02 64 126 163
12.80 -4.82 2.02 63 125 162
12.80 -4.93 2.02 62 124 163
12.80 -5.04 2.02 63 125 166
12.80 -5.14 2.02 62 123 167
12.80 -5.25 2.02 61 123 164
12.80 -5.36 2.02 60 122 163
12.80 -5.47 2.02 61 123 160
12.80 -5.58 2.02 61 123 160
12.80 -5.69 2.02 62 125 158
12.80 -5.80 2.02 62 125 158
12.80 -5.91 2.02 64 127 160
12.80 -6.01 2.02 64 127 160
12.80 -6.12 2.02 63 126 159
12.80 -6.23 2.02 63 126 159
12.80 -6.34 2.02 62 125 160
12.80 -6.45 2.02 62 125 160
12.80 -6.56 2.02 63 125 162
12.80 -6.67 2.02 63 125 162
12.80 -6.78 2.02 61 125 163
12.80 -6.89 2.02 63 127 163
12.80 -6.99 2.02 63 127 163
12.50 -7.10 2.22 64 127 162
12.50 -7.21 2.22 64 127 162
12.50 -7.32 2.22 63 126 159
12.50 -7.43 2.22 63 126 159
12.50 -7.54 2.22 71 131 165
12.50 -7.65 2.22 72 132 166
12.50 -7.75 2.22 74 133 167
12.50 -7.86 2.22 73 132 166
12.50 -7.97 2.22 71 129 166
12.50 -8.08 2.22 69 127 164
12.50 -8.19 2.22 67 125 163
12.50 -8.29 2.22 66 124 162
12.50 -8.40 2.22 65 123 161
12.50 -8.51 2.22 65 123 161
12.50 -8.62 2.22 62 122 159
12.50 -8.73 2.22 62 122 159
12.24 -8.83 2.39 60 122 161
12.24 -8.94 2.39 61 123 162
12.24 -9.04 2.39 61 124 165
12.24 -9.15 2.39 62 125 166
12.24 -9.26 2.39 60 125 165
12.24 -9.37 2.39 56 121 161
12.24 -9.47 2.39 55 120 160
12.24 -9.58 2.39 56 121 159
12.24 -9.69 2.39 57 122 160
12.24 -9.80 2.39 58 122 160
12.24 -9.90 2.39 58 120 159
11.98 -10.00 2.56 56 118 157
11.98 -10.11 2.56 59 118 158
11.98 -10.21 2.56 58 120 159
11.98 -10.32 2.56 58 120 159
11.98 -10.43 2.56 57 119 156
11.98 -10.53 2.56 56 118 155
11.98 -10.64 2.56 54 118 154
11.71 -10.73 2.74 54 118 154
11.71 -10.84 2.74 55 119 154
11.71 -10.95 2.74 52 116 151
11.71 -11.05 2.74 48 114 146
11.71 -11.16 2.74 46 112 144
11.71 -11.26 2.74 46 112 144
11.71 -11.37 2.74 48 114 146
11.71 -11.48 2.74 46 115 146
11.45 -11.56 2.91 46 115 148
11.45 -11.67 2.91 50 116 151
11.45 -11.78 2.91 45 113 148
11.45 -11.88 2.91 36 111 140
11.45 -11.99 2.91 38 112 141
11.45 -12.09 2.91 47 116 147
11.18 -12.17 3.08 62 123 154
11.18 -12.28 3.08 90 139 171
11.18 -12.39 3.08 108 146 169
13.56 23.07 1.39 42 78 130
13.27 22.79 1.58 40 81 125
13.27 22.68 1.58 39 80 126
13.27 22.57 1.58 36 77 129
13.27 22.46 1.58 36 77 133
13.56 22.52 1.39 37 80 131
13.56 22.41 1.39 34 81 133
13.56 22.30 1.39 33 80 134
13.56 22.19 1.39 34 81 137
13.56 22.08 1.39 35 81 140
13.56 21.96 1.39 39 84 141
13.56 21.85 1.39 40 85 142
13.56 21.74 1.39 43 86 141
13.56 21.63 1.39 44 87 142
13.56 21.52 1.39 44 87 140
13.56 21.41 1.39 45 88 141
13.85 21.46 1.20 47 90 145
13.85 21.35 1.20 46 89 144
13.85 21.24 1.20 43 88 145
13.85 21.13 1.20 43 88 145
13.85 21.01 1.20 41 87 146
14.12 21.04 1.02 41 87 146
14.12 20.93 1.02 39 88 147
14.12 20.82 1.02 39 88 147
14.12 20.71 1.02 42 88 147
14.12 20.60 1.02 41 87 146
14.12 20.48 1.02 40 87 143
14.12 20.37 1.02 40 87 143
14.12 20.26 1.02 41 88 142
14.12 20.15 1.02 41 88 144
14.12 20.04 1.02 40 86 146
14.12 19.93 1.02 45 91 151
14.12 19.81 1.02 44 90 152
14.12 19.70 1.02 42 88 150
14.12 19.59 1.02 41 87 149
14.12 19.48 1.02 40 86 145
14.12 19.37 1.02 41 87 146
14.12 19.26 1.02 41 88 142
14.12 19.14 1.02 42 89 143
14.41 19.18 0.83 39 88 144
14.41 19.06 0.83 39 88 144
14.41 18.95 0.83 40 89 145
14.41 18.84 0.83 39 88 144
14.41 18.73 0.83 38 87 143
14.41 18.61 0.83 38 87 143
14.41 18.50 0.83 41 88 144
14.41 18.39 0.83 43 90 146
14.70 18.42 0.64 41 86 143
14.70 18.30 0.64 42 87 144
14.70 18.19 0.64 42 87 142
14.70 18.08 0.64 41 86 141
14.70 17.97 0.64 43 86 141
14.70 17.85 0.64 45 88 143
14.70 17.74 0.64 43 88 143
14.70 17.63 0.64 40 87 141
14.70 17.51 0.64 39 89 142
14.70 17.40 0.64 40 89 145
14.70 17.29 0.64 40 89 145
14.70 17.17 0.64 41 87 146
14.70 17.06 0.64 41 87 146
14.70 16.95 0.64 41 87 146
14.70 16.84 0.64 42 88 147
15.00 16.85 0.45 43 89 148
15.00 16.74 0.45 42 88 147
15.00 16.63 0.45 40 89 145
15.00 16.51 0.45 41 90 146
15.00 16.40 0.45 39 90 143
15.00 16.29 0.45 38 89 142
15.00 16.17 0.45 37 90 140
15.00 16.06 0.45 39 92 144
15.00 15.95 0.45 35 86 139
15.29 15.96 0.25 37 88 143
15.29 15.84 0.25 38 89 144
15.00 15.60 0.45 38 89 144
15.00 15.49 0.45 37 89 146
15.00 15.38 0.45 38 90 147
15.00 15.26 0.45 39 91 149
15.00 15.15 0.45 36 88 146
15.00 15.04 0.45 38 90 148
15.00 14.92 0.45 36 88 145
15.00 14.81 0.45 36 88 145
15.00 14.70 0.45 41 92 147
15.29 14.70 0.25 41 92 147
15.29 14.59 0.25 38 89 144
15.29 14.47 0.25 39 92 146
15.29 14.36 0.25 39 94 148
15.29 14.24 0.25 38 95 148
15.29 14.13 0.25 39 94 148
15.29 14.02 0.25 38 93 147
15.29 13.90 0.25 40 93 147
15.29 13.79 0.25 40 93 147
15.29 13.67 0.25 41 93 150
15.29 13.56 0.25 41 93 150
15.29 13.45 0.25 40 92 149
15.29 13.33 0.25 40 92 149
15.29 13.22 0.25 39 94 150
15.29 13.10 0.25 40 95 151
15.29 12.99 0.25 39 95 152
15.29 12.88 0.25 39 95 152
15.29 12.76 0.25 38 97 153
15.29 12.65 0.25 40 96 153
15.29 12.53 0.25 39 93 153
15.29 12.42 0.25 40 95 151
15.29 12.31 0.25 40 95 151
15.29 12.19 0.25 39 97 147
15.29 12.08 0.25 39 97 147
15.29 11.96 0.25 41 99 145
15.29 11.85 0.25 43 101 147
15.29 11.73 0.25 39 97 143
15.29 11.62 0.25 39 97 143
15.00 11.41 0.45 41 99 147
15.00 11.29 0.45 43 101 151
15.00 11.18 0.45 42 102 152
15.00 11.07 0.45 41 101 153
15.29 11.05 0.25 38 98 152
15.29 10.94 0.25 36 96 150
15.29 10.82 0.25 40 97 152
15.29 10.71 0.25 40 97 152
15.00 10.50 0.45 41 98 153
15.00 10.38 0.45 40 97 152
15.29 10.37 0.25 40 97 152
15.29 10.25 0.25 41 98 153
15.29 10.14 0.25 42 99 154
15.00 9.93 0.45 43 100 155
15.00 9.82 0.45 39 99 153
15.00 9.70 0.45 38 98 152
15.00 9.59 0.45 38 98 152
15.00 9.48 0.45 39 99 151
15.00 9.36 0.45 39 99 151
15.00 9.25 0.45 38 98 150
15.00 9.14 0.45 36 97 151
15.00 9.02 0.45 35 97 154
15.00 8.91 0.45 35 96 151
15.00 8.80 0.45 38 94 143
15.00 8.68 0.45 37 93 142
14.70 8.48 0.64 33 95 146
14.70 8.37 0.64 33 96 149
14.70 8.26 0.64 35 95 147
14.70 8.15 0.64 37 95 145
14.70 8.03 0.64 42 98 147
14.70 7.92 0.64 44 98 145
14.70 7.81 0.64 73 126 170
14.70 7.69 0.64 24 67 101
14.70 7.58 0.64 16 42 59
14.70 7.47 0.64 24 39 44
14.70 7.36 0.64 14 26 24
14.70 7.24 0.64 0 4 0
14.70 7.13 0.64 0 8 4
11.92 2.85 2.47 54 117 148
11.92 2.75 2.47 51 114 149
11.92 2.64 2.47 51 114 149
11.92 2.53 2.47 55 120 150
11.92 2.43 2.47 52 119 148
11.92 2.32 2.47 49 119 153
11.92 2.21 2.47 48 117 156
11.92 2.10 2.47 51 116 156
11.92 2.00 2.47 50 115 155
11.92 1.89 2.47 45 118 151
11.92 1.78 2.47 45 120 152
12.19 1.72 2.30 46 119 154
12.19 1.61 2.30 46 118 156
12.19 1.51 2.30 47 119 159
12.19 1.40 2.30 47 119 159
12.19 1.29 2.30 50 119 158
12.19 1.18 2.30 53 122 161
12.19 1.08 2.30 54 122 161
12.19 0.97 2.30 55 120 158
12.19 0.86 2.30 58 122 160
12.19 0.75 2.30 56 120 156
12.19 0.65 2.30 58 122 158
12.19 0.54 2.30 60 123 158
12.19 0.43 2.30 59 122 157
12.45 0.36 2.12 59 122 157
12.45 0.25 2.12 60 123 158
12.45 0.15 2.12 61 124 157
12.45 0.04 2.12 61 124 157
12.45 -0.07 2.12 63 126 161
12.74 -0.14 1.93 62 125 160
12.74 -0.25 1.93 61 124 159
12.74 -0.36 1.93 61 124 159
12.74 -0.47 1.93 61 124 159
12.74 -0.57 1.93 62 125 160
12.74 -0.68 1.93 61 124 159
12.74 -0.79 1.93 61 124 159
12.74 -0.90 1.93 58 122 158
12.74 -1.01 1.93 60 124 160
12.74 -1.12 1.93 60 124 160
12.74 -1.23 1.93 59 123 159
12.74 -1.34 1.93 59 123 159
12.74 -1.44 1.93 60 124 160
12.74 -1.55 1.93 57 122 160
12.74 -1.66 1.93 55 123 160
12.74 -1.77 1.93 55 124 163
12.74 -1.88 1.93 56 124 163
12.74 -1.99 1.93 57 125 164
12.74 -2.10 1.93 58 126 163
12.74 -2.21 1.93 58 126 163
12.74 -2.32 1.93 60 125 163
12.74 -2.42 1.93 60 125 163
12.74 -2.53 1.93 60 124 160
12.74 -2.64 1.93 61 125 161
12.74 -2.75 1.93 62 126 161
12.74 -2.86 1.93 62 126 161
12.74 -2.97 1.93 62 125 158
12.74 -3.08 1.93 61 124 157
12.74 -3.19 1.93 62 125 158
12.74 -3.29 1.93 62 125 160
12.74 -3.40 1.93 61 125 160
12.74 -3.51 1.93 61 125 161
12.74 -3.62 1.93 62 126 162
12.74 -3.73 1.93 63 127 163
12.74 -3.84 1.93 63 127 165
12.74 -3.95 1.93 63 127 165
12.74 -4.06 1.93 62 126 164
12.74 -4.17 1.93 60 124 162
12.74 -4.27 1.93 60 124 162
12.74 -4.38 1.93 60 124 162
12.74 -4.49 1.93 61 125 163
12.74 -4.60 1.93 60 124 160
12.74 -4.71 1.93 61 125 161
12.74 -4.82 1.93 61 125 160
12.74 -4.93 1.93 62 126 162
12.74 -5.04 1.93 63 125 166
12.74 -5.14 1.93 63 124 168
12.74 -5.25 1.93 62 124 165
12.74 -5.36 1.93 63 125 166
12.74 -5.47 1.93 63 125 162
12.74 -5.58 1.93 64 126 163
12.74 -5.69 1.93 65 128 161
12.74 -5.80 1.93 65 128 161
12.74 -5.91 1.93 63 126 159
12.74 -6.01 1.93 63 126 159
12.74 -6.12 1.93 62 125 158
12.74 -6.23 1.93 62 125 158
12.74 -6.34 1.93 62 125 160
12.74 -6.45 1.93 62 125 160
12.74 -6.56 1.93 62 124 161
12.74 -6.67 1.93 62 124 161
12.74 -6.78 1.93 59 124 162
12.74 -6.89 1.93 59 123 159
12.74 -6.99 1.93 59 123 159
12.45 -7.10 2.12 59 123 158
12.45 -7.21 2.12 60 124 159
12.45 -7.32 2.12 64 127 160
12.45 -7.43 2.12 66 129 162
12.45 -7.54 2.12 67 127 161
12.45 -7.65 2.12 68 128 162
12.45 -7.75 2.12 71 130 164
12.45 -7.86 2.12 71 130 164
12.45 -7.97 2.12 72 128 165
12.45 -8.08 2.12 70 126 163
12.45 -8.19 2.12 68 123 162
12.45 -8.29 2.12 67 122 161
12.45 -8.40 2.12 64 122 160
12.45 -8.51 2.12 64 122 160
12.45 -8.62 2.12 63 123 160
12.19 -8.72 2.30 63 123 160
12.19 -8.83 2.30 60 122 161
12.19 -8.94 2.30 60 122 161
12.19 -9.04 2.30 59 122 163
12.19 -9.15 2.30 59 122 163
12.19 -9.26 2.30 58 123 163
12.19 -9.37 2.30 56 121 161
11.92 -9.46 2.47 56 121 161
11.92 -9.57 2.47 58 122 160
11.92 -9.68 2.47 58 122 160
12.19 -9.80 2.30 57 121 159
11.92 -9.89 2.47 57 121 159
11.92 -10.00 2.47 58 120 159
11.92 -10.11 2.47 58 120 159
11.92 -10.21 2.47 58 120 159
11.92 -10.32 2.47 58 120 159
11.92 -10.43 2.47 57 119 158
11.92 -10.53 2.47 56 118 157
11.92 -10.64 2.47 55 119 155
11.66 -10.73 2.64 55 119 155
11.66 -10.84 2.64 54 120 154
11.66 -10.95 2.64 52 118 152
11.66 -11.05 2.64 50 116 150
11.66 -11.16 2.64 49 115 149
11.66 -11.26 2.64 47 116 149
11.66 -11.37 2.64 46 115 148
11.66 -11.48 2.64 46 115 146
11.40 -11.56 2.82 45 114 147
11.40 -11.67 2.82 40 108 143
11.40 -11.78 2.82 40 110 144
11.40 -11.88 2.82 41 116 145
11.13 -11.96 2.99 40 115 144
11.13 -12.07 2.99 42 113 143
11.13 -12.17 2.99 45 108 141
11.13 -12.28 2.99 64 117 149
11.13 -12.39 2.99 101 141 166
11.13 -12.49 2.99 141 170 188
11.13 -12.60 2.99 39 60 65
13.51 23.07 1.29 35 73 122
13.21 22.79 1.49 41 82 126
13.21 22.68 1.49 39 82 127
13.21 22.57 1.49 37 80 133
13.21 22.46 1.49 37 79 137
13.51 22.52 1.29 35 81 133
13.51 22.41 1.29 34 81 135
13.51 22.30 1.29 33 80 136
13.51 22.19 1.29 35 80 139
13.51 22.08 1.29 36 80 141
13.51 21.96 1.29 39 84 143
13.51 21.85 1.29 40 85 144
13.51 21.74 1.29 43 85 143
13.51 21.63 1.29 43 85 143
13.51 21.52 1.29 44 87 140
13.51 21.41 1.29 44 87 140
13.80 21.46 1.10 45 91 143
13.80 21.35 1.10 44 90 142
13.80 21.24 1.10 43 88 143
13.80 21.13 1.10 43 88 143
14.06 21.15 0.93 41 88 144
14.06 21.04 0.93 41 88 144
14.06 20.93 0.93 38 87 145
14.06 20.82 0.93 38 87 145
14.06 20.71 0.93 40 86 145
14.06 20.60 0.93 40 86 145
14.06 20.48 0.93 40 87 143
14.06 20.37 0.93 40 87 143
14.06 20.26 0.93 41 88 142
14.06 20.15 0.93 40 87 143
14.06 20.04 0.93 40 86 145
14.06 19.93 0.93 44 90 150
14.06 19.81 0.93 43 89 149
14.06 19.70 0.93 42 88 150
14.06 19.59 0.93 41 87 149
14.06 19.48 0.93 40 86 145
14.06 19.37 0.93 40 87 143
14.06 19.26 0.93 41 88 142
14.06 19.14 0.93 42 89 141
14.06 19.03 0.93 38 88 139
14.35 19.06 0.73 39 89 140
14.35 18.95 0.73 40 90 141
14.35 18.84 0.73 39 89 140
14.35 18.73 0.73 41 88 142
14.35 18.61 0.73 41 88 142
14.35 18.50 0.73 42 89 143
14.35 18.39 0.73 43 90 144
14.65 18.42 0.54 41 86 141
14.65 18.30 0.54 42 87 142
14.65 18.19 0.54 42 87 142
14.65 18.08 0.54 40 85 140
14.65 17.97 0.54 43 86 141
14.65 17.85 0.54 45 88 143
14.65 17.74 0.54 44 89 144
14.65 17.63 0.54 39 86 142
14.65 17.51 0.54 38 87 143
14.65 17.40 0.54 40 89 147
14.65 17.29 0.54 40 89 147
14.65 17.17 0.54 41 87 146
14.65 17.06 0.54 40 86 145
14.94 17.08 0.35 40 86 145
14.94 16.97 0.35 39 85 144
14.94 16.85 0.35 44 90 149
14.94 16.74 0.35 42 88 147
14.94 16.63 0.35 40 89 145
14.94 16.51 0.35 41 90 146
14.94 16.40 0.35 40 91 144
14.94 16.29 0.35 39 90 143
14.94 16.17 0.35 38 89 142
14.94 16.06 0.35 39 90 143
15.23 16.07 0.15 37 87 140
15.23 15.96 0.15 38 88 141
15.23 15.84 0.15 38 89 144
14.94 15.60 0.35 38 89 144
14.94 15.49 0.35 38 89 144
14.94 15.38 0.35 38 89 144
14.94 15.26 0.35 38 90 147
14.94 15.15 0.35 38 90 147
14.94 15.04 0.35 38 90 147
14.94 14.92 0.35 36 87 142
14.94 14.81 0.35 37 88 143
14.94 14.70 0.35 42 93 148
15.23 14.70 0.15 43 94 149
15.23 14.59 0.15 42 91 147
15.23 14.47 0.15 42 91 147
15.23 14.36 0.15 40 93 147
15.23 14.24 0.15 41 94 148
15.23 14.13 0.15 42 95 149
15.23 14.02 0.15 41 94 148
15.23 13.90 0.15 39 92 146
15.23 13.79 0.15 39 92 146
15.23 13.67 0.15 40 92 149
15.23 13.56 0.15 41 93 150
15.23 13.45 0.15 38 90 147
15.23 13.33 0.15 39 91 148
15.23 13.22 0.15 39 94 150
15.23 13.10 0.15 39 94 150
15.23 12.99 0.15 39 94 150
15.23 12.88 0.15 39 94 150
15.23 12.76 0.15 39 96 151
15.23 12.65 0.15 40 97 152
15.23 12.53 0.15 41 96 153
15.23 12.42 0.15 41 96 152
15.23 12.31 0.15 41 96 152
15.23 12.19 0.15 40 96 147
15.23 12.08 0.15 41 97 148
15.23 11.96 0.15 41 99 145
15.23 11.85 0.15 42 100 146
15.23 11.73 0.15 38 96 142
15.23 11.62 0.15 38 96 142
15.23 11.51 0.15 40 98 146
15.23 11.39 0.15 42 100 150
15.23 11.28 0.15 43 101 151
15.23 11.16 0.15 41 98 151
15.23 11.05 0.15 39 96 151
15.23 10.94 0.15 37 94 149
15.23 10.82 0.15 39 95 152
15.23 10.71 0.15 39 95 152
15.23 10.59 0.15 40 96 153
15.23 10.48 0.15 40 96 153
15.23 10.37 0.15 40 97 152
15.23 10.25 0.15 40 97 152
15.23 10.14 0.15 41 98 153
14.94 9.93 0.35 42 99 154
14.94 9.82 0.35 40 100 152
14.94 9.70 0.35 39 99 151
14.94 9.59 0.35 39 99 151
14.94 9.48 0.35 39 99 151
14.94 9.36 0.35 38 98 150
14.94 9.25 0.35 36 96 146
14.94 9.14 0.35 34 96 147
14.94 9.02 0.35 35 98 152
14.94 8.91 0.35 36 97 151
14.94 8.80 0.35 39 95 144
14.94 8.68 0.35 37 93 142
14.94 8.57 0.35 32 94 145
14.65 8.37 0.54 30 93 146
14.65 8.26 0.54 34 94 144
14.65 8.15 0.54 38 96 144
14.65 8.03 0.54 44 100 149
14.65 7.92 0.54 39 93 140
14.65 7.81 0.54 68 120 167
14.65 7.69 0.54 34 77 112
14.65 7.58 0.54 8 35 52
14.65 7.47 0.54 30 48 52
14.65 7.36 0.54 26 38 38
14.65 7.24 0.54 0 5 1
14.65 7.13 0.54 0 9 5
11.87 2.85 2.38 50 115 147
11.87 2.75 2.38 52 115 150
11.87 2.64 2.38 52 115 150
11.87 2.53 2.38 54 119 149
11.87 2.43 2.38 53 120 149
11.87 2.32 2.38 46 119 152
11.87 2.21 2.38 46 118 156
11.87 2.10 2.38 51 116 156
11.87 2.00 2.38 51 116 156
11.87 1.89 2.38 45 118 151
11.87 1.78 2.38 45 118 151
12.13 1.72 2.20 45 118 153
12.13 1.61 2.20 47 116 155
12.13 1.51 2.20 47 119 157
12.13 1.40 2.20 47 119 157
12.13 1.29 2.20 50 119 158
12.13 1.18 2.20 52 121 160
12.13 1.08 2.20 53 121 160
12.13 0.97 2.20 54 119 157
12.13 0.86 2.20 56 120 158
12.13 0.75 2.20 57 121 157
12.13 0.65 2.20 59 123 159
12.13 0.54 2.20 60 123 158
12.13 0.43 2.20 58 121 156
12.40 0.36 2.03 58 121 156
12.40 0.25 2.03 60 123 158
12.40 0.15 2.03 61 124 159
12.40 0.04 2.03 60 123 158
12.40 -0.07 2.03 63 126 161
12.69 -0.14 1.84 62 125 160
12.69 -0.25 1.84 61 124 159
12.69 -0.36 1.84 61 124 159
12.69 -0.47 1.84 61 124 159
12.69 -0.57 1.84 61 124 159
12.69 -0.68 1.84 61 123 160
12.69 -0.79 1.84 60 122 159
12.69 -0.90 1.84 58 122 158
12.69 -1.01 1.84 61 125 161
12.69 -1.12 1.84 62 126 162
12.69 -1.23 1.84 60 124 160
12.69 -1.34 1.84 59 123 159
12.69 -1.44 1.84 60 124 160
12.69 -1.55 1.84 60 124 162
12.69 -1.66 1.84 56 124 161
12.69 -1.77 1.84 56 124 163
12.69 -1.88 1.84 57 125 164
12.69 -1.99 1.84 57 125 164
12.69 -2.10 1.84 59 124 162
12.69 -2.21 1.84 59 124 162
12.69 -2.32 1.84 59 125 160
12.69 -2.42 1.84 59 125 160
12.69 -2.53 1.84 58 124 159
12.69 -2.64 1.84 59 125 160
12.69 -2.75 1.84 61 125 160
12.69 -2.86 1.84 61 125 160
12.69 -2.97 1.84 61 125 160
12.69 -3.08 1.84 60 124 159
12.69 -3.19 1.84 60 125 157
12.69 -3.29 1.84 60 125 157
12.69 -3.40 1.84 60 124 159
12.69 -3.51 1.84 60 124 159
12.69 -3.62 1.84 61 125 160
12.69 -3.73 1.84 63 127 162
12.69 -3.84 1.84 64 128 164
12.69 -3.95 1.84 64 128 164
12.69 -4.06 1.84 62 126 162
12.69 -4.17 1.84 59 123 159
12.69 -4.27 1.84 61 125 161
12.69 -4.38 1.84 62 126 162
12.69 -4.49 1.84 61 125 161
12.69 -4.60 1.84 59 123 159
12.69 -4.71 1.84 59 123 159
12.69 -4.82 1.84 60 124 159
12.69 -4.93 1.84 61 125 161
12.69 -5.04 1.84 61 123 162
12.69 -5.14 1.84 61 123 164
12.69 -5.25 1.84 61 123 162
12.69 -5.36 1.84 62 124 163
12.69 -5.47 1.84 62 124 161
12.69 -5.58 1.84 62 124 161
12.69 -5.69 1.84 62 125 160
12.69 -5.80 1.84 63 126 161
12.69 -5.91 1.84 61 124 157
12.69 -6.01 1.84 61 124 157
12.69 -6.12 1.84 61 124 157
12.69 -6.23 1.84 62 125 158
12.69 -6.34 1.84 62 125 160
12.69 -6.45 1.84 62 125 160
12.69 -6.56 1.84 62 124 161
12.69 -6.67 1.84 60 124 160
12.69 -6.78 1.84 56 124 161
12.69 -6.89 1.84 57 123 158
12.69 -6.99 1.84 56 122 157
12.40 -7.10 2.03 57 121 157
12.40 -7.21 2.03 58 122 158
12.40 -7.32 2.03 62 125 160
12.40 -7.43 2.03 64 127 162
12.40 -7.54 2.03 66 126 162
12.40 -7.65 2.03 68 128 164
12.40 -7.75 2.03 70 128 165
12.40 -7.86 2.03 70 128 165
12.40 -7.97 2.03 71 127 164
12.40 -8.08 2.03 69 125 162
12.40 -8.19 2.03 68 122 160
12.40 -8.29 2.03 66 122 159
12.40 -8.40 2.03 63 121 158
12.40 -8.51 2.03 63 123 159
12.40 -8.62 2.03 63 123 160
12.13 -8.72 2.20 63 123 160
12.13 -8.83 2.20 61 123 162
12.13 -8.94 2.20 60 122 161
12.13 -9.04 2.20 57 120 161
12.13 -9.15 2.20 56 119 160
11.87 -9.25 2.38 57 120 161
11.87 -9.36 2.38 57 122 162
11.87 -9.46 2.38 57 122 162
11.87 -9.57 2.38 59 123 161
11.87 -9.68 2.38 59 123 161
11.87 -9.79 2.38 57 121 159
11.87 -9.89 2.38 56 120 158
11.87 -10.00 2.38 58 120 161
11.87 -10.11 2.38 58 120 161
11.87 -10.21 2.38 57 120 161
11.87 -10.32 2.38 56 119 160
11.87 -10.43 2.38 54 118 156
11.87 -10.53 2.38 54 118 156
11.87 -10.64 2.38 54 118 156
11.61 -10.73 2.55 55 119 157
11.61 -10.84 2.55 53 119 154
11.61 -10.95 2.55 53 119 154
11.61 -11.05 2.55 52 118 153
11.61 -11.16 2.55 51 117 152
11.61 -11.26 2.55 49 118 151
11.61 -11.37 2.55 47 116 149
11.34 -11.46 2.73 46 115 148
11.34 -11.56 2.73 45 113 148
11.34 -11.67 2.73 44 112 149
11.34 -11.78 2.73 42 112 148
11.08 -11.86 2.90 40 115 144
11.08 -11.96 2.90 39 114 143
11.08 -12.07 2.90 40 111 141
11.08 -12.17 2.90 40 104 139
11.08 -12.28 2.90 56 110 144
11.08 -12.39 2.90 86 130 157
11.08 -12.49 2.90 130 162 183
11.08 -12.60 2.90 39 66 73
13.45 23.07 1.20 40 78 125
13.45 22.96 1.20 40 82 124
13.16 22.68 1.39 38 81 124
13.16 22.57 1.39 37 80 131
13.45 22.63 1.20 36 79 134
13.45 22.52 1.20 34 79 134
13.45 22.41 1.20 33 80 136
13.45 22.30 1.20 34 79 138
13.45 22.19 1.20 34 79 138
13.45 22.08 1.20 38 79 141
13.45 21.96 1.20 40 82 142
13.45 21.85 1.20 41 83 143
13.45 21.74 1.20 42 84 142
13.45 21.63 1.20 43 85 143
13.45 21.52 1.20 41 87 139
13.45 21.41 1.20 41 87 139
13.74 21.46 1.00 42 88 140
13.74 21.35 1.00 42 88 140
13.74 21.24 1.00 41 88 140
13.74 21.13 1.00 40 87 139
14.01 21.15 0.83 40 87 141
14.01 21.04 0.83 40 87 141
14.01 20.93 0.83 37 86 142
14.01 20.82 0.83 37 86 144
14.01 20.71 0.83 38 84 143
14.01 20.60 0.83 39 85 145
14.01 20.48 0.83 40 87 143
14.01 20.37 0.83 42 89 145
14.01 20.26 0.83 43 90 144
14.01 20.15 0.83 42 89 145
14.01 20.04 0.83 41 87 146
14.01 19.93 0.83 40 86 145
14.01 19.81 0.83 40 86 146
14.01 19.70 0.83 40 86 146
14.01 19.59 0.83 40 86 146
14.01 19.48 0.83 40 87 143
14.01 19.37 0.83 40 87 143
14.01 19.26 0.83 40 87 139
14.01 19.14 0.83 41 88 140
14.01 19.03 0.83 39 87 135
14.30 19.06 0.64 40 88 136
14.30 18.95 0.64 41 89 138
14.30 18.84 0.64 41 89 138
14.30 18.73 0.64 41 89 138
14.30 18.61 0.64 41 89 138
14.30 18.50 0.64 43 89 141
14.30 18.39 0.64 43 89 141
14.59 18.42 0.44 43 89 141
14.59 18.30 0.44 43 89 141
14.59 18.19 0.44 42 87 142
14.59 18.08 0.44 40 85 140
14.59 17.97 0.44 42 85 140
14.59 17.85 0.44 44 87 142
14.59 17.74 0.44 42 87 144
14.59 17.63 0.44 40 86 145
14.59 17.51 0.44 39 88 146
14.59 17.40 0.44 39 88 146
14.59 17.29 0.44 40 89 147
14.88 17.31 0.25 41 87 146
14.88 17.19 0.25 40 86 145
14.88 17.08 0.25 39 85 144
14.88 16.97 0.25 39 85 144
14.88 16.85 0.25 42 91 149
14.88 16.74 0.25 39 88 146
14.88 16.63 0.25 38 87 143
14.88 16.51 0.25 40 89 145
14.88 16.40 0.25 41 90 146
14.88 16.29 0.25 40 89 145
14.88 16.17 0.25 38 87 143
15.18 16.18 0.05 38 87 143
15.18 16.07 0.05 38 88 139
15.18 15.96 0.05 39 89 140
15.18 15.84 0.05 39 90 143
14.88 15.60 0.25 39 90 143
14.88 15.49 0.25 39 90 143
14.88 15.38 0.25 39 90 143
14.88 15.26 0.25 38 91 143
14.88 15.15 0.25 40 93 147
14.88 15.04 0.25 41 94 148
14.88 14.92 0.25 39 90 145
14.88 14.81 0.25 38 89 144
14.88 14.70 0.25 43 94 147
15.18 14.70 0.05 43 94 147
15.18 14.59 0.05 43 93 146
15.18 14.47 0.05 44 94 147
15.18 14.36 0.05 40 91 146
15.18 14.24 0.05 41 92 147
15.18 14.13 0.05 41 92 147
15.18 14.02 0.05 41 92 147
15.18 13.90 0.05 40 91 146
15.18 13.79 0.05 40 91 146
15.18 13.67 0.05 41 92 147
15.18 13.56 0.05 42 93 148
15.18 13.45 0.05 39 92 146
15.18 13.33 0.05 41 94 148
15.18 13.22 0.05 42 94 151
15.18 13.10 0.05 41 93 150
15.18 12.99 0.05 37 92 148
15.18 12.88 0.05 36 91 147
15.18 12.76 0.05 37 92 148
15.18 12.65 0.05 39 94 150
15.18 12.53 0.05 41 96 153
15.18 12.42 0.05 41 96 152
15.18 12.31 0.05 41 96 152
15.18 12.19 0.05 40 96 147
15.18 12.08 0.05 41 97 148
15.18 11.96 0.05 41 97 146
15.18 11.85 0.05 42 98 147
15.18 11.73 0.05 40 98 146
15.18 11.62 0.05 39 97 145
15.18 11.51 0.05 39 97 147
15.18 11.39 0.05 39 97 147
15.18 11.28 0.05 39 96 149
15.18 11.16 0.05 39 96 149
15.18 11.05 0.05 40 97 152
15.18 10.94 0.05 40 97 152
15.18 10.82 0.05 40 95 152
15.18 10.71 0.05 40 95 152
15.18 10.59 0.05 40 96 153
15.18 10.48 0.05 39 95 152
15.18 10.37 0.05 39 95 152
15.18 10.25 0.05 39 95 152
15.18 10.14 0.05 39 96 151
15.18 10.02 0.05 40 97 152
14.88 9.82 0.25 39 99 151
14.88 9.70 0.25 40 100 152
14.88 9.59 0.25 40 100 152
14.88 9.48 0.25 39 99 149
14.88 9.36 0.25 38 98 148
14.88 9.25 0.25 36 98 147
14.88 9.14 0.25 35 97 148
14.88 9.02 0.25 34 99 153
14.88 8.91 0.25 36 97 151
14.88 8.80 0.25 38 94 141
14.88 8.68 0.25 37 93 140
14.88 8.57 0.25 32 94 145
14.59 8.37 0.44 32 95 148
14.59 8.26 0.44 36 96 148
14.59 8.15 0.44 39 97 147
14.59 8.03 0.44 45 101 152
14.59 7.92 0.44 42 95 145
14.59 7.81 0.44 64 118 164
14.59 7.69 0.44 36 80 115
14.59 7.58 0.44 7 34 53
14.30 7.39 0.64 34 51 58
14.30 7.28 0.64 33 47 48
14.59 7.24 0.44 4 16 14
14.59 7.13 0.44 0 11 7
12.08 3.12 2.11 100 127 144
12.08 3.01 2.11 64 116 140
11.82 2.85 2.28 50 115 147
11.82 2.75 2.28 54 116 153
11.82 2.64 2.28 54 116 153
11.82 2.53 2.28 50 117 146
11.82 2.43 2.28 48 117 146
11.82 2.32 2.28 45 118 151
11.82 2.21 2.28 45 117 155
11.82 2.10 2.28 51 116 156
11.82 2.00 2.28 51 116 156
11.82 1.89 2.28 47 120 153
11.82 1.78 2.28 47 120 153
11.82 1.68 2.28 47 120 155
12.08 1.61 2.11 49 118 157
12.08 1.51 2.11 48 120 158
12.08 1.40 2.11 47 119 157
12.08 1.29 2.11 50 119 158
12.08 1.18 2.11 52 121 160
12.08 1.08 2.11 52 120 157
12.08 0.97 2.11 53 118 156
12.08 0.86 2.11 56 120 158
12.08 0.75 2.11 57 121 157
12.08 0.65 2.11 59 123 159
12.08 0.54 2.11 60 122 159
12.34 0.47 1.94 59 121 158
12.34 0.36 1.94 58 121 156
12.34 0.25 1.94 59 122 157
12.34 0.15 1.94 60 123 158
12.34 0.04 1.94 59 122 157
12.34 -0.07 1.94 60 123 158
12.63 -0.14 1.74 60 123 158
12.63 -0.25 1.74 59 122 157
12.63 -0.36 1.74 59 122 157
12.63 -0.47 1.74 59 121 158
12.63 -0.57 1.74 59 121 158
12.63 -0.68 1.74 58 122 158
12.63 -0.79 1.74 58 122 158
12.63 -0.90 1.74 57 121 157
12.63 -1.01 1.74 59 123 159
12.63 -1.12 1.74 60 126 161
12.63 -1.23 1.74 59 125 160
12.63 -1.34 1.74 57 122 160
12.63 -1.44 1.74 57 122 160
12.63 -1.55 1.74 59 124 162
12.63 -1.66 1.74 57 122 162
12.63 -1.77 1.74 57 122 162
12.63 -1.88 1.74 58 123 161
12.63 -1.99 1.74 58 123 161
12.63 -2.10 1.74 58 123 161
12.63 -2.21 1.74 58 123 161
12.63 -2.32 1.74 58 124 159
12.63 -2.42 1.74 57 123 158
12.63 -2.53 1.74 57 123 158
12.63 -2.64 1.74 58 124 159
12.63 -2.75 1.74 59 125 159
12.63 -2.86 1.74 59 125 159
12.63 -2.97 1.74 59 125 159
12.63 -3.08 1.74 59 125 159
12.63 -3.19 1.74 60 124 159
12.63 -3.29 1.74 60 124 159
12.63 -3.40 1.74 62 125 160
12.63 -3.51 1.74 62 125 160
12.63 -3.62 1.74 62 125 160
12.63 -3.73 1.74 62 125 160
12.63 -3.84 1.74 63 126 161
12.63 -3.95 1.74 62 125 160
12.63 -4.06 1.74 61 125 161
12.63 -4.17 1.74 60 124 160
12.63 -4.27 1.74 60 124 160
12.63 -4.38 1.74 59 125 160
12.63 -4.49 1.74 59 125 160
12.63 -4.60 1.74 58 124 159
12.63 -4.71 1.74 58 124 159
12.63 -4.82 1.74 59 125 160
12.63 -4.93 1.74 61 125 163
12.63 -5.04 1.74 58 122 160
12.63 -5.14 1.74 59 121 162
12.63 -5.25 1.74 60 122 161
12.63 -5.36 1.74 60 122 161
12.63 -5.47 1.74 60 122 159
12.63 -5.58 1.74 59 121 158
12.63 -5.69 1.74 59 122 157
12.63 -5.80 1.74 58 121 156
12.63 -5.91 1.74 59 122 157
12.63 -6.01 1.74 59 122 157
12.63 -6.12 1.74 60 123 158
12.63 -6.23 1.74 61 124 159
12.63 -6.34 1.74 61 124 159
12.63 -6.45 1.74 61 124 159
12.63 -6.56 1.74 61 123 160
12.63 -6.67 1.74 60 124 160
12.63 -6.78 1.74 55 125 161
12.63 -6.89 1.74 57 125 162
12.63 -6.99 1.74 57 125 162
12.34 -7.10 1.94 58 124 159
12.34 -7.21 1.94 57 123 158
12.34 -7.32 1.94 58 122 158
12.34 -7.43 1.94 58 120 157
12.34 -7.54 1.94 66 129 164
12.34 -7.65 1.94 69 129 165
12.34 -7.75 1.94 71 129 166
12.34 -7.86 1.94 73 129 166
12.34 -7.97 1.94 70 126 163
12.34 -8.08 1.94 69 123 161
12.34 -8.19 1.94 66 120 158
12.34 -8.29 1.94 64 120 157
12.34 -8.40 1.94 63 121 158
12.34 -8.51 1.94 63 123 159
12.34 -8.62 1.94 61 123 160
12.08 -8.72 2.11 61 123 160
12.08 -8.83 2.11 61 123 162
12.08 -8.94 2.11 59 121 160
12.08 -9.04 2.11 57 121 159
12.08 -9.15 2.11 56 120 158
11.82 -9.25 2.28 57 120 161
11.82 -9.36 2.28 58 122 160
11.82 -9.46 2.28 58 122 160
11.82 -9.57 2.28 58 122 160
11.82 -9.68 2.28 58 122 160
11.82 -9.79 2.28 56 120 158
11.82 -9.89 2.28 55 119 157
11.82 -10.00 2.28 56 119 160
11.82 -10.11 2.28 56 119 160
11.82 -10.21 2.28 56 119 160
11.82 -10.32 2.28 55 118 159
11.82 -10.43 2.28 52 117 155
11.82 -10.53 2.28 52 117 155
11.55 -10.63 2.46 52 117 155
11.55 -10.73 2.46 52 117 155
11.55 -10.84 2.46 53 118 156
11.55 -10.95 2.46 52 117 155
11.55 -11.05 2.46 50 118 153
11.55 -11.16 2.46 50 118 153
11.29 -11.25 2.63 49 117 152
11.29 -11.35 2.63 48 116 151
11.29 -11.46 2.63 47 115 150
11.29 -11.56 2.63 46 114 151
11.29 -11.67 2.63 47 116 155
11.29 -11.78 2.63 44 113 152
11.03 -11.86 2.81 37 112 141
11.03 -11.96 2.81 39 114 143
11.03 -12.07 2.81 41 114 146
11.03 -12.17 2.81 44 110 144
11.03 -12.28 2.81 58 117 151
11.03 -12.39 2.81 70 121 152
11.03 -12.49 2.81 116 157 179
11.03 -12.60 2.81 40 74 84
13.40 23.07 1.10 43 81 126
13.40 22.96 1.10 40 82 122
13.40 22.85 1.10 38 81 123
13.40 22.74 1.10 36 79 130
13.40 22.63 1.10 35 78 133
13.40 22.52 1.10 33 78 133
13.40 22.41 1.10 35 80 137
13.40 22.30 1.10 38 80 140
13.40 22.19 1.10 36 78 138
13.40 22.08 1.10 38 78 140
13.40 21.96 1.10 39 81 141
13.40 21.85 1.10 41 83 143
13.40 21.74 1.10 41 84 139
13.40 21.63 1.10 42 85 140
13.40 21.52 1.10 40 86 138
13.40 21.41 1.10 40 86 138
13.40 21.30 1.10 39 86 138
13.69 21.35 0.91 40 87 139
13.69 21.24 0.91 40 87 139
13.69 21.13 0.91 40 87 139
13.69 21.01 0.91 40 87 141
13.95 21.04 0.73 40 87 141
13.95 20.93 0.73 40 87 143
13.95 20.82 0.73 40 86 145
13.95 20.71 0.73 38 84 143
13.95 20.60 0.73 39 85 145
13.95 20.48 0.73 41 88 144
13.95 20.37 0.73 42 89 145
13.95 20.26 0.73 43 90 144
13.95 20.15 0.73 42 89 145
13.95 20.04 0.73 42 88 147
13.95 19.93 0.73 38 84 143
13.95 19.81 0.73 38 84 144
13.95 19.70 0.73 39 85 145
13.95 19.59 0.73 40 86 145
13.95 19.48 0.73 40 87 143
13.95 19.37 0.73 40 87 141
13.95 19.26 0.73 39 87 136
13.95 19.14 0.73 39 87 136
13.95 19.03 0.73 40 86 135
14.24 19.06 0.54 40 86 135
14.24 18.95 0.54 40 86 135
14.24 18.84 0.54 41 87 136
14.24 18.73 0.54 42 88 138
14.24 18.61 0.54 42 88 138
14.24 18.50 0.54 42 88 138
14.24 18.39 0.54 42 88 138
14.53 18.42 0.34 43 89 141
14.53 18.30 0.34 43 89 141
14.53 18.19 0.34 43 88 143
14.53 18.08 0.34 41 86 141
14.53 17.97 0.34 41 86 143
14.53 17.85 0.34 42 87 144
14.53 17.74 0.34 42 87 144
14.53 17.63 0.34 42 88 147
14.83 17.65 0.15 41 87 146
14.83 17.53 0.15 39 88 146
14.83 17.42 0.15 38 87 145
14.83 17.31 0.15 38 87 145
14.83 17.19 0.15 38 87 145
14.83 17.08 0.15 38 87 143
14.83 16.97 0.15 38 87 143
14.83 16.85 0.15 40 89 145
14.83 16.74 0.15 37 86 142
14.83 16.63 0.15 39 86 142
14.83 16.51 0.15 41 88 144
14.83 16.40 0.15 42 89 145
14.83 16.29 0.15 41 88 144
14.83 16.17 0.15 40 87 143
15.12 16.18 -0.04 40 87 143
15.12 16.07 -0.04 35 85 136
15.12 15.96 -0.04 36 86 137
14.83 15.72 0.15 37 87 138
14.83 15.60 0.15 39 89 140
14.83 15.49 0.15 40 92 142
14.83 15.38 0.15 41 93 143
14.83 15.26 0.15 41 92 145
14.83 15.15 0.15 38 89 142
14.83 15.04 0.15 41 92 145
14.83 14.92 0.15 39 90 143
14.83 14.81 0.15 37 88 141
15.12 14.81 -0.04 41 90 146
15.12 14.70 -0.04 41 90 146
15.12 14.59 -0.04 40 89 145
15.12 14.47 -0.04 43 92 148
15.12 14.36 -0.04 43 90 146
15.12 14.24 -0.04 42 89 145
15.12 14.13 -0.04 40 89 145
15.12 14.02 -0.04 40 89 145
15.12 13.90 -0.04 42 91 147
15.12 13.79 -0.04 43 92 148
15.12 13.67 -0.04 42 93 148
15.12 13.56 -0.04 41 92 147
15.12 13.45 -0.04 40 93 147
15.12 13.33 -0.04 42 95 149
15.12 13.22 -0.04 43 96 150
15.12 13.10 -0.04 42 95 149
15.12 12.99 -0.04 37 92 146
15.12 12.88 -0.04 36 91 145
15.12 12.76 -0.04 36 91 145
15.12 12.65 -0.04 38 93 147
15.12 12.53 -0.04 40 95 151
15.12 12.42 -0.04 40 95 149
15.12 12.31 -0.04 39 94 148
15.12 12.19 -0.04 40 96 147
15.12 12.08 -0.04 40 96 147
15.12 11.96 -0.04 40 96 147
15.12 11.85 -0.04 40 96 147
15.12 11.73 -0.04 42 98 149
15.12 11.62 -0.04 41 97 148
15.12 11.51 -0.04 40 95 149
15.12 11.39 -0.04 38 93 147
15.12 11.28 -0.04 38 93 149
15.12 11.16 -0.04 39 94 150
15.12 11.05 -0.04 41 96 153
15.12 10.94 -0.04 42 97 154
15.12 10.82 -0.04 40 95 152
15.12 10.71 -0.04 40 95 152
15.12 10.59 -0.04 41 96 153
15.12 10.48 -0.04 40 95 152
15.12 10.37 -0.04 38 94 151
15.12 10.25 -0.04 38 94 151
15.12 10.14 -0.04 38 95 150
15.12 10.02 -0.04 38 95 150
15.12 9.91 -0.04 38 98 150
14.83 9.70 0.15 39 99 151
14.83 9.59 0.15 39 99 151
14.83 9.48 0.15 38 100 149
14.83 9.36 0.15 37 99 148
14.83 9.25 0.15 36 98 147
14.83 9.14 0.15 36 98 149
14.83 9.02 0.15 36 101 155
14.83 8.91 0.15 36 97 151
14.83 8.80 0.15 38 94 141
14.83 8.68 0.15 37 93 140
14.83 8.57 0.15 35 97 148
14.53 8.37 0.34 35 98 151
14.53 8.26 0.34 36 98 149
14.53 8.15 0.34 37 97 147
14.53 8.03 0.34 42 99 152
14.53 7.92 0.34 44 100 151
14.53 7.81 0.34 64 117 167
14.53 7.69 0.34 36 80 119
14.53 7.58 0.34 12 40 62
14.53 7.47 0.34 33 51 61
14.53 7.36 0.34 33 47 50
14.53 7.24 0.34 14 24 23
14.53 7.13 0.34 4 15 11
12.02 3.12 2.02 100 129 147
12.02 3.01 2.02 62 116 142
11.76 2.85 2.19 48 114 148
11.76 2.75 2.19 53 117 153
11.76 2.64 2.19 52 116 152
11.76 2.53 2.19 49 116 145
11.76 2.43 2.19 46 115 144
11.76 2.32 2.19 43 116 149
11.76 2.21 2.19 44 116 154
11.76 2.10 2.19 50 115 155
11.76 2.00 2.19 51 116 156
11.76 1.89 2.19 47 120 153
11.76 1.78 2.19 47 120 153
11.76 1.68 2.19 48 121 156
12.02 1.61 2.02 50 119 158
12.02 1.51 2.02 49 121 159
12.02 1.40 2.02 48 120 158
12.02 1.29 2.02 50 120 156
12.02 1.18 2.02 50 120 156
12.02 1.08 2.02 51 119 156
12.02 0.97 2.02 54 119 157
12.02 0.86 2.02 57 121 159
12.02 0.75 2.02 56 120 156
12.02 0.65 2.02 58 122 158
12.02 0.54 2.02 60 122 159
12.29 0.47 1.84 59 121 158
12.29 0.36 1.84 59 121 158
12.29 0.25 1.84 59 121 158
12.29 0.15 1.84 59 122 157
12.29 0.04 1.84 58 121 156
12.29 -0.07 1.84 58 120 157
12.58 -0.14 1.65 58 120 157
12.58 -0.25 1.65 57 119 156
12.58 -0.36 1.65 57 119 156
12.58 -0.47 1.65 58 120 157
12.58 -0.57 1.65 59 121 158
12.58 -0.68 1.65 58 122 158
12.58 -0.79 1.65 57 121 157
12.58 -0.90 1.65 56 120 156
12.58 -1.01 1.65 57 121 157
12.58 -1.12 1.65 58 123 161
12.58 -1.23 1.65 58 123 161
12.58 -1.34 1.65 56 121 159
12.58 -1.44 1.65 54 119 157
12.58 -1.55 1.65 55 123 160
12.58 -1.66 1.65 56 121 159
12.58 -1.77 1.65 56 121 159
12.58 -1.88 1.65 57 122 160
12.58 -1.99 1.65 57 122 160
12.58 -2.10 1.65 57 122 160
12.58 -2.21 1.65 57 122 160
12.58 -2.32 1.65 56 122 157
12.58 -2.42 1.65 56 122 157
12.58 -2.53 1.65 58 124 159
12.58 -2.64 1.65 58 124 159
12.58 -2.75 1.65 58 124 158
12.58 -2.86 1.65 58 124 158
12.58 -2.97 1.65 59 125 159
12.58 -3.08 1.65 59 125 159
12.58 -3.19 1.65 61 125 160
12.58 -3.29 1.65 61 125 160
12.58 -3.40 1.65 63 126 161
12.58 -3.51 1.65 61 124 159
12.58 -3.62 1.65 60 123 158
12.58 -3.73 1.65 59 122 157
12.58 -3.84 1.65 60 123 158
12.58 -3.95 1.65 60 123 158
12.58 -4.06 1.65 60 124 159
12.58 -4.17 1.65 60 124 159
12.58 -4.27 1.65 59 123 158
12.58 -4.38 1.65 57 123 158
12.58 -4.49 1.65 57 123 158
12.58 -4.60 1.65 58 124 159
12.58 -4.71 1.65 59 125 160
12.58 -4.82 1.65 59 125 160
12.58 -4.93 1.65 58 124 159
12.58 -5.04 1.65 58 122 160
12.58 -5.14 1.65 59 123 161
12.58 -5.25 1.65 61 125 161
12.58 -5.36 1.65 61 125 161
12.58 -5.47 1.65 60 124 160
12.58 -5.58 1.65 59 123 159
12.58 -5.69 1.65 58 122 157
12.58 -5.80 1.65 58 122 157
12.58 -5.91 1.65 57 121 156
12.58 -6.01 1.65 57 121 156
12.58 -6.12 1.65 58 122 157
12.58 -6.23 1.65 59 123 158
12.58 -6.34 1.65 59 123 159
12.58 -6.45 1.65 59 123 159
12.58 -6.56 1.65 59 123 159
12.58 -6.67 1.65 58 124 159
12.58 -6.78 1.65 56 126 162
12.58 -6.89 1.65 59 127 164
