ply
format ascii 1.0
element vertex 1662
property float x
property float y
property float z
property uchar red
property uchar green
property uchar blue
end_header
0.29 18.42 0.17 139 135 134
0.29 18.33 0.17 139 135 132
0.29 18.24 0.17 139 135 132
0.29 18.15 0.17 140 135 132
0.29 18.06 0.17 141 136 133
0.29 17.96 0.17 141 136 133
0.29 17.87 0.17 142 137 134
0.29 17.78 0.17 142 137 133
0.29 17.69 0.17 141 136 132
0.29 17.60 0.17 142 134 131
0.29 17.51 0.17 142 134 131
0.29 17.41 0.17 143 135 132
0.29 17.32 0.17 142 134 131
0.29 17.23 0.17 141 133 130
0.29 17.14 0.17 139 136 127
0.29 17.05 0.17 140 137 128
0.29 16.96 0.17 142 139 132
0.29 16.86 0.17 142 139 132
0.29 16.77 0.17 142 139 134
0.29 16.68 0.17 142 139 134
0.29 16.59 0.17 141 140 136
0.29 16.50 0.17 141 140 136
0.29 16.41 0.17 140 139 137
0.29 16.31 0.17 140 139 137
0.29 16.22 0.17 140 139 137
0.29 16.13 0.17 141 140 138
0.29 16.04 0.17 142 141 137
0.29 15.95 0.17 142 141 137
0.29 15.86 0.17 142 141 136
0.29 15.76 0.17 143 140 135
0.29 15.67 0.17 140 136 133
0.29 15.58 0.17 142 137 134
0.29 15.49 0.17 143 138 135
0.29 15.40 0.17 145 140 137
0.29 15.31 0.17 146 141 138
0.29 15.21 0.17 147 142 139
0.29 15.12 0.17 148 143 140
0.29 15.03 0.17 147 142 139
0.29 14.94 0.17 147 142 139
0.29 14.85 0.17 147 142 139
0.29 14.76 0.17 147 142 139
0.29 14.66 0.17 150 142 140
0.29 14.57 0.17 150 142 140
0.29 14.48 0.17 151 143 141
0.29 14.39 0.17 151 142 143
0.29 14.30 0.17 146 142 141
0.47 14.31 -0.00 146 142 143
0.47 14.21 -0.00 147 143 144
0.47 14.12 -0.00 148 144 145
0.47 14.03 -0.00 148 144 145
0.47 13.94 -0.00 149 145 146
0.47 13.85 -0.00 149 145 144
0.47 13.75 -0.00 149 145 144
0.47 13.66 -0.00 149 145 142
0.47 13.57 -0.00 149 145 142
0.47 13.48 -0.00 149 145 142
0.47 13.39 -0.00 149 145 142
0.47 13.29 -0.00 150 147 142
0.47 13.20 -0.00 151 148 143
0.47 13.11 -0.00 152 149 144
0.47 13.02 -0.00 151 148 143
0.47 12.93 -0.00 150 147 142
0.47 12.83 -0.00 149 146 139
0.47 12.74 -0.00 149 146 139
0.47 12.65 -0.00 151 148 141
0.47 12.56 -0.00 153 150 143
0.47 12.46 -0.00 153 150 141
0.47 12.37 -0.00 153 150 141
0.47 12.28 -0.00 153 150 141
0.47 12.19 -0.00 150 147 138
0.47 12.10 -0.00 149 146 139
0.47 12.00 -0.00 152 149 142
0.47 11.91 -0.00 153 150 145
0.47 11.82 -0.00 152 149 144
0.47 11.73 -0.00 151 148 143
0.47 11.64 -0.00 150 149 144
0.47 11.54 -0.00 150 151 146
0.47 11.45 -0.00 149 151 146
0.47 11.36 -0.00 149 151 146
0.47 11.27 -0.00 150 152 147
0.47 11.18 -0.00 151 151 149
0.47 11.08 -0.00 153 152 150
0.47 10.99 -0.00 154 153 151
0.47 10.90 -0.00 156 152 151
0.47 10.81 -0.00 156 152 151
0.47 10.72 -0.00 156 152 151
0.47 10.62 -0.00 157 153 152
0.47 10.53 -0.00 157 153 150
0.29 10.36 0.17 157 153 150
0.29 10.27 0.17 157 154 149
0.47 10.26 -0.00 157 154 149
0.47 10.16 -0.00 156 153 146
0.47 10.07 -0.00 159 156 149
0.47 9.98 -0.00 160 157 148
0.47 9.89 -0.00 158 155 146
0.47 9.79 -0.00 157 154 145
0.47 9.70 -0.00 158 155 146
0.47 9.61 -0.00 159 156 147
0.66 9.60 -0.17 159 156 147
0.66 9.50 -0.17 156 153 144
0.66 9.41 -0.17 157 154 145
0.66 9.32 -0.17 158 155 146
0.66 9.23 -0.17 159 156 147
0.66 9.13 -0.17 159 156 147
0.66 9.04 -0.17 159 156 147
0.66 8.95 -0.17 158 155 146
0.66 8.86 -0.17 158 155 146
0.66 8.76 -0.17 157 157 147
0.66 8.67 -0.17 156 158 147
0.82 8.64 -0.32 156 158 147
0.82 8.55 -0.32 156 158 147
0.82 8.46 -0.32 157 159 148
0.82 8.36 -0.32 158 160 149
0.82 8.27 -0.32 160 162 151
0.66 8.12 -0.17 159 160 152
0.66 8.02 -0.17 160 161 153
0.66 7.93 -0.17 159 162 153
0.66 7.84 -0.17 158 161 152
0.66 7.75 -0.17 157 160 151
0.66 7.65 -0.17 157 160 151
0.66 7.56 -0.17 158 161 152
0.66 7.47 -0.17 158 161 152
0.66 7.38 -0.17 159 163 149
0.66 7.28 -0.17 159 163 149
0.66 7.19 -0.17 158 162 148
0.66 7.10 -0.17 158 161 150
0.66 7.01 -0.17 158 161 150
0.66 6.91 -0.17 158 161 152
0.66 6.82 -0.17 159 162 155
0.66 6.73 -0.17 159 162 155
0.66 6.64 -0.17 158 160 155
0.66 6.54 -0.17 157 160 153
0.82 6.51 -0.32 157 160 153
0.82 6.41 -0.32 158 161 154
0.82 6.32 -0.32 159 162 155
0.66 6.17 -0.17 159 162 153
0.66 6.08 -0.17 159 162 153
0.66 5.99 -0.17 161 162 154
0.66 5.90 -0.17 161 162 154
0.66 5.80 -0.17 160 161 153
0.66 5.71 -0.17 159 160 152
0.82 5.67 -0.32 159 162 155
0.82 5.58 -0.32 160 163 156
0.82 5.48 -0.32 161 164 157
0.82 5.39 -0.32 162 165 158
0.82 5.30 -0.32 158 163 157
0.82 5.21 -0.32 158 163 157
0.82 5.11 -0.32 158 163 157
-1.70 4.08 1.97 157 163 159
-1.70 3.99 1.97 157 163 159
-1.70 3.90 1.97 157 164 157
-1.70 3.81 1.97 152 160 149
-1.70 3.73 1.97 151 152 144
-1.86 3.59 2.11 151 142 137
-1.86 3.51 2.11 152 120 123
-1.86 3.42 2.11 150 108 110
-1.86 3.33 2.11 143 98 95
-1.86 3.25 2.11 145 90 83
-3.08 2.82 3.22 143 77 63
-3.08 2.74 3.22 144 65 50
-3.51 2.54 3.61 147 51 37
-3.51 2.45 3.61 150 42 32
-3.51 2.37 3.61 148 34 33
-3.51 2.29 3.61 148 29 35
-3.51 2.21 3.61 148 32 41
-3.51 2.12 3.61 148 40 53
-3.51 2.04 3.61 134 44 53
-3.37 1.99 3.49 115 41 56
-3.22 1.95 3.34 103 47 72
-3.22 1.86 3.34 101 63 102
-3.08 1.81 3.22 96 84 130
-3.08 1.73 3.22 90 101 155
-2.92 1.69 3.08 73 108 162
-2.92 1.60 3.08 53 105 163
-2.92 1.52 3.08 44 110 171
-2.79 1.46 2.96 43 116 184
-2.79 1.38 2.96 42 118 194
-2.63 1.33 2.81 44 119 200
-2.63 1.25 2.81 40 111 191
-2.63 1.16 2.81 53 125 197
-2.63 1.08 2.81 98 150 208
-2.47 1.03 2.67 147 164 194
-2.47 0.94 2.67 177 174 191
-2.47 0.86 2.67 171 163 174
-2.47 0.77 2.67 178 165 175
-2.47 0.69 2.67 157 140 150
-2.47 0.60 2.67 140 80 90
-2.47 0.52 2.67 167 36 42
-2.47 0.43 2.67 210 38 38
-2.47 0.35 2.67 217 40 32
-2.47 0.26 2.67 215 31 21
-2.47 0.17 2.67 218 24 24
-2.47 0.09 2.67 246 81 87
-2.47 0.00 2.67 231 134 143
-2.47 -0.08 2.67 216 169 175
-2.47 -0.17 2.67 214 204 195
-2.47 -0.25 2.67 207 213 203
-2.47 -0.34 2.67 206 208 203
-2.47 -0.42 2.67 211 213 212
-2.47 -0.51 2.67 215 217 216
1.00 -0.52 -0.48 239 243 242
1.00 -0.61 -0.48 243 247 246
1.00 -0.71 -0.48 240 244 243
1.00 -0.80 -0.48 237 241 240
1.00 -0.89 -0.48 237 241 240
1.00 -0.99 -0.48 228 232 231
1.00 -1.08 -0.48 218 224 220
1.00 -1.17 -0.48 202 208 204
1.00 -1.27 -0.48 182 188 184
1.00 -1.36 -0.48 173 179 175
1.00 -1.45 -0.48 174 180 176
1.19 -1.52 -0.65 172 178 174
1.19 -1.61 -0.65 173 179 175
1.00 -1.73 -0.48 181 187 183
1.00 -1.83 -0.48 177 183 181
1.00 -1.92 -0.48 177 183 181
1.00 -2.01 -0.48 177 183 181
1.00 -2.11 -0.48 177 183 181
1.00 -2.20 -0.48 178 184 182
1.00 -2.29 -0.48 179 185 183
1.00 -2.39 -0.48 178 187 184
1.00 -2.48 -0.48 175 187 183
1.00 -2.57 -0.48 173 188 183
1.00 -2.67 -0.48 175 187 183
1.00 -2.76 -0.48 175 187 183
1.00 -2.85 -0.48 176 188 184
1.00 -2.95 -0.48 177 189 185
1.00 -3.04 -0.48 178 189 185
1.00 -3.13 -0.48 179 190 186
1.00 -3.23 -0.48 179 188 185
1.00 -3.32 -0.48 179 188 185
1.00 -3.41 -0.48 181 187 185
1.00 -3.51 -0.48 181 187 185
1.19 -3.58 -0.65 182 188 186
1.19 -3.68 -0.65 182 188 186
1.19 -3.77 -0.65 183 189 187
1.19 -3.86 -0.65 184 190 188
1.19 -3.96 -0.65 184 190 188
1.19 -4.05 -0.65 183 189 187
1.19 -4.14 -0.65 180 189 186
1.19 -4.24 -0.65 180 189 186
1.19 -4.33 -0.65 182 191 188
1.00 -4.44 -0.48 183 192 189
1.00 -4.53 -0.48 181 192 188
1.00 -4.63 -0.48 182 191 188
1.00 -4.72 -0.48 182 191 188
1.00 -4.81 -0.48 182 191 188
1.00 -4.91 -0.48 184 190 188
1.00 -5.00 -0.48 183 189 187
1.00 -5.09 -0.48 185 189 188
1.00 -5.19 -0.48 187 191 190
1.00 -5.28 -0.48 189 193 192
1.19 -5.36 -0.65 183 192 189
1.19 -5.46 -0.65 184 193 190
1.19 -5.55 -0.65 186 195 192
1.19 -5.64 -0.65 186 195 192
1.19 -5.74 -0.65 186 195 192
1.19 -5.83 -0.65 186 195 192
1.19 -5.92 -0.65 187 196 193
1.19 -6.02 -0.65 187 196 193
1.19 -6.11 -0.65 189 198 195
1.19 -6.21 -0.65 189 198 195
1.19 -6.30 -0.65 189 200 196
1.19 -6.39 -0.65 188 199 195
1.19 -6.49 -0.65 188 199 195
1.19 -6.58 -0.65 188 199 195
1.19 -6.67 -0.65 188 199 195
1.19 -6.77 -0.65 189 200 196
1.19 -6.86 -0.65 189 198 195
1.19 -6.96 -0.65 189 198 195
1.19 -7.05 -0.65 189 198 195
1.19 -7.14 -0.65 190 199 196
1.19 -7.24 -0.65 191 200 197
1.19 -7.33 -0.65 192 201 198
1.19 -7.42 -0.65 192 201 198
1.19 -7.52 -0.65 193 202 199
1.19 -7.61 -0.65 193 202 199
1.19 -7.71 -0.65 193 202 199
1.19 -7.80 -0.65 192 201 198
1.19 -7.89 -0.65 192 201 198
1.19 -7.99 -0.65 193 202 199
1.19 -8.08 -0.65 194 203 200
1.19 -8.17 -0.65 196 205 202
1.19 -8.27 -0.65 196 202 200
1.19 -8.36 -0.65 197 203 201
1.19 -8.46 -0.65 198 204 202
1.19 -8.55 -0.65 198 204 202
1.19 -8.64 -0.65 198 202 201
1.19 -8.74 -0.65 197 201 200
1.19 -8.83 -0.65 199 203 202
1.19 -8.92 -0.65 200 204 203
1.19 -9.02 -0.65 201 205 204
1.19 -9.11 -0.65 198 204 202
1.19 -9.20 -0.65 198 204 202
1.19 -9.30 -0.65 196 205 202
1.19 -9.39 -0.65 198 207 204
1.19 -9.49 -0.65 198 209 205
1.19 -9.58 -0.65 201 210 207
1.19 -9.67 -0.65 203 207 206
1.19 -9.77 -0.65 203 205 204
1.37 -9.87 -0.82 201 205 204
1.37 -9.97 -0.82 203 207 206
1.37 -10.06 -0.82 202 208 204
1.37 -10.15 -0.82 201 207 203
1.37 -10.25 -0.82 199 208 203
1.37 -10.34 -0.82 200 209 204
1.37 -10.44 -0.82 202 211 206
1.19 -10.52 -0.65 201 210 205
1.19 -10.61 -0.65 201 210 205
1.19 -10.70 -0.65 202 211 206
1.19 -10.80 -0.65 204 213 210
1.19 -10.89 -0.65 204 213 210
1.19 -10.99 -0.65 205 211 209
1.19 -11.08 -0.65 203 209 207
1.19 -11.17 -0.65 205 209 208
1.19 -11.27 -0.65 205 209 208
1.19 -11.36 -0.65 205 209 208
1.37 -11.47 -0.82 206 210 209
1.37 -11.57 -0.82 205 209 208
1.37 -11.66 -0.82 204 210 208
1.37 -11.75 -0.82 204 210 208
1.37 -11.85 -0.82 207 213 211
1.37 -11.94 -0.82 206 212 210
1.37 -12.04 -0.82 204 213 210
1.37 -12.13 -0.82 205 214 211
1.37 -12.23 -0.82 204 215 211
1.37 -12.32 -0.82 204 215 211
1.37 -12.41 -0.82 203 214 210
1.37 -12.51 -0.82 202 213 209
1.37 -12.60 -0.82 199 214 209
1.37 -12.70 -0.82 201 213 209
1.37 -12.79 -0.82 202 213 209
1.37 -12.88 -0.82 204 210 208
1.37 -12.98 -0.82 205 209 208
1.37 -13.07 -0.82 207 209 208
1.37 -13.17 -0.82 208 208 208
1.37 -13.26 -0.82 209 209 209
1.37 -13.36 -0.82 209 211 210
1.37 -13.45 -0.82 209 211 210
1.37 -13.54 -0.82 208 212 211
1.37 -13.64 -0.82 208 212 211
1.37 -13.73 -0.82 208 212 211
1.37 -13.83 -0.82 210 212 211
1.37 -13.92 -0.82 208 212 211
1.37 -14.01 -0.82 205 211 209
1.37 -14.11 -0.82 203 212 209
1.37 -14.20 -0.82 203 212 209
1.37 -14.30 -0.82 204 213 210
1.37 -14.39 -0.82 207 213 211
1.37 -14.48 -0.82 207 213 211
1.56 -14.61 -0.99 206 212 210
1.37 -14.67 -0.82 205 211 209
1.37 -14.77 -0.82 207 213 211
1.37 -14.86 -0.82 207 213 211
1.37 -14.96 -0.82 209 213 212
1.37 -15.05 -0.82 209 213 212
1.37 -15.14 -0.82 210 214 213
1.37 -15.24 -0.82 210 214 213
1.37 -15.33 -0.82 210 214 213
1.37 -15.43 -0.82 212 214 213
1.37 -15.52 -0.82 210 212 211
1.37 -15.61 -0.82 211 211 211
1.37 -15.71 -0.82 212 212 212
1.37 -15.80 -0.82 213 213 213
1.37 -15.90 -0.82 213 213 213
1.37 -15.99 -0.82 213 213 213
1.37 -16.09 -0.82 213 213 213
1.56 -16.22 -0.99 215 217 216
1.56 -16.31 -0.99 214 216 215
1.37 -16.37 -0.82 212 214 213
1.37 -16.46 -0.82 212 214 213
1.37 -16.56 -0.82 213 215 214
1.56 -16.69 -0.99 214 216 215
1.56 -16.79 -0.99 214 216 215
1.56 -16.88 -0.99 215 215 215
1.56 -16.98 -0.99 212 212 212
1.56 -17.07 -0.99 214 212 213
1.56 -17.16 -0.99 215 213 214
1.56 -17.26 -0.99 215 213 214
1.56 -17.35 -0.99 213 213 213
1.56 -17.45 -0.99 213 213 213
1.56 -17.54 -0.99 214 214 214
1.56 -17.64 -0.99 215 215 215
1.56 -17.73 -0.99 213 213 213
1.56 -17.83 -0.99 213 213 213
1.56 -17.92 -0.99 213 215 214
1.56 -18.02 -0.99 213 215 214
1.56 -18.11 -0.99 213 215 214
1.56 -18.20 -0.99 212 214 213
1.56 -18.30 -0.99 212 214 213
1.56 -18.39 -0.99 208 214 212
1.37 -18.44 -0.82 209 215 213
1.37 -18.53 -0.82 209 215 213
1.37 -18.63 -0.82 208 214 212
1.37 -18.72 -0.82 207 211 210
1.37 -18.82 -0.82 206 210 209
1.37 -18.91 -0.82 207 211 210
1.37 -19.00 -0.82 208 212 211
1.56 -19.15 -0.99 210 212 211
1.56 -19.25 -0.99 208 210 209
1.56 -19.34 -0.99 208 210 209
1.56 -19.43 -0.99 210 212 211
1.56 -19.53 -0.99 214 214 214
1.56 -19.62 -0.99 215 215 215
1.56 -19.72 -0.99 213 213 213
1.56 -19.81 -0.99 211 211 211
1.56 -19.91 -0.99 212 212 212
1.56 -20.00 -0.99 212 212 212
1.56 -20.10 -0.99 211 211 211
1.56 -20.19 -0.99 211 211 211
1.56 -20.29 -0.99 210 210 210
1.56 -20.38 -0.99 210 210 210
1.56 -20.47 -0.99 211 211 211
1.56 -20.57 -0.99 211 211 211
1.56 -20.66 -0.99 211 211 211
1.56 -20.76 -0.99 210 210 210
1.56 -20.85 -0.99 209 209 209
1.56 -20.95 -0.99 209 209 209
1.56 -21.04 -0.99 210 210 210
1.56 -21.14 -0.99 211 211 211
1.56 -21.23 -0.99 211 211 211
1.56 -21.33 -0.99 211 211 211
1.56 -21.42 -0.99 211 211 211
1.56 -21.51 -0.99 212 212 212
1.56 -21.61 -0.99 212 212 212
1.56 -21.70 -0.99 213 213 213
1.56 -21.80 -0.99 212 212 212
1.56 -21.89 -0.99 212 212 212
1.56 -21.99 -0.99 212 212 212
1.56 -22.08 -0.99 213 213 213
1.56 -22.18 -0.99 211 211 211
1.56 -22.27 -0.99 209 209 209
1.56 -22.37 -0.99 209 209 209
1.56 -22.46 -0.99 210 210 210
1.56 -22.55 -0.99 211 211 211
1.56 -22.65 -0.99 211 211 211
1.56 -22.74 -0.99 212 212 212
1.56 -22.84 -0.99 212 212 212
1.56 -22.93 -0.99 213 213 213
1.56 -23.03 -0.99 214 214 214
1.56 -23.12 -0.99 214 214 214
1.56 -23.22 -0.99 214 214 214
1.56 -23.31 -0.99 213 213 213
1.56 -23.41 -0.99 213 213 213
1.56 -23.50 -0.99 209 209 209
1.56 -23.59 -0.99 208 208 208
1.56 -23.69 -0.99 209 209 209
1.56 -23.78 -0.99 209 209 209
1.74 -23.95 -1.16 211 211 211
1.74 -24.05 -1.16 212 212 212
1.74 -24.14 -1.16 213 213 213
1.56 -24.16 -0.99 213 213 213
1.56 -24.26 -0.99 211 209 210
1.56 -24.35 -0.99 211 209 210
1.56 -24.45 -0.99 212 210 211
1.56 -24.54 -0.99 212 210 211
1.56 -24.64 -0.99 213 209 210
1.74 -24.81 -1.16 213 209 210
1.74 -24.90 -1.16 214 210 211
1.56 -24.92 -0.99 214 210 211
1.56 -25.01 -0.99 212 208 209
1.56 -25.11 -0.99 213 207 207
1.56 -25.20 -0.99 227 221 221
1.56 -25.30 -0.99 236 230 230
0.08 21.79 0.23 0 0 0
-0.10 21.56 0.40 0 0 0
-0.10 21.47 0.40 0 0 0
0.08 21.52 0.23 0 0 0
0.08 21.42 0.23 0 0 0
0.08 21.33 0.23 137 131 131
0.08 21.24 0.23 137 131 131
0.08 21.15 0.23 136 130 130
0.08 21.06 0.23 136 131 128
0.08 20.97 0.23 135 130 127
0.08 20.88 0.23 135 130 126
0.24 20.90 0.09 135 130 126
0.24 20.81 0.09 136 132 123
0.24 20.71 0.09 136 132 123
0.24 20.62 0.09 136 132 123
0.24 20.53 0.09 137 133 124
0.24 20.44 0.09 137 133 122
0.24 20.35 0.09 137 133 122
0.24 20.26 0.09 137 133 122
0.24 20.16 0.09 137 133 122
0.24 20.07 0.09 137 133 124
0.24 19.98 0.09 136 132 123
0.24 19.89 0.09 138 131 123
0.24 19.80 0.09 140 133 125
0.24 19.71 0.09 139 132 124
0.24 19.61 0.09 138 131 123
0.08 19.42 0.23 140 133 125
0.08 19.32 0.23 140 133 125
0.08 19.23 0.23 139 132 124
0.08 19.14 0.23 137 132 126
0.08 19.05 0.23 138 133 127
0.08 18.96 0.23 139 134 128
0.08 18.87 0.23 139 134 128
0.08 18.78 0.23 139 134 128
0.08 18.69 0.23 138 133 127
0.08 18.59 0.23 139 134 128
0.08 18.50 0.23 140 135 131
0.08 18.41 0.23 140 135 132
0.08 18.32 0.23 140 134 134
0.08 18.23 0.23 141 135 135
0.08 18.14 0.23 141 135 135
0.08 18.05 0.23 142 137 134
0.24 18.06 0.09 142 137 134
0.24 17.96 0.09 142 137 133
0.24 17.87 0.09 141 136 132
0.24 17.78 0.09 141 136 130
0.08 17.59 0.23 142 137 131
0.08 17.50 0.23 143 139 130
0.08 17.41 0.23 143 139 130
0.08 17.32 0.23 143 139 128
0.24 17.32 0.09 144 140 129
0.24 17.23 0.09 144 140 129
0.24 17.14 0.09 142 138 127
0.24 17.05 0.09 142 138 127
0.24 16.96 0.09 143 139 128
0.24 16.86 0.09 143 139 128
0.24 16.77 0.09 143 139 130
0.24 16.68 0.09 143 139 130
0.24 16.59 0.09 144 140 131
0.24 16.50 0.09 144 140 131
0.24 16.41 0.09 142 137 131
0.24 16.31 0.09 142 137 131
0.24 16.22 0.09 143 138 134
0.24 16.13 0.09 144 139 135
0.24 16.04 0.09 145 140 136
0.24 15.95 0.09 145 140 136
0.24 15.86 0.09 145 140 136
0.08 15.67 0.23 145 140 137
0.08 15.58 0.23 145 140 137
0.24 15.58 0.09 145 139 139
0.24 15.49 0.09 146 140 140
0.24 15.40 0.09 146 140 140
0.24 15.31 0.09 147 142 139
0.24 15.21 0.09 147 142 139
0.24 15.12 0.09 147 142 139
0.24 15.03 0.09 146 141 138
0.24 14.94 0.09 147 142 139
0.24 14.85 0.09 148 143 139
0.24 14.76 0.09 148 143 139
0.24 14.66 0.09 147 142 138
0.24 14.57 0.09 147 142 138
0.24 14.48 0.09 147 142 138
0.24 14.39 0.09 148 143 139
0.24 14.30 0.09 148 143 140
0.24 14.21 0.09 147 142 139
0.24 14.11 0.09 146 142 139
0.24 14.02 0.09 146 142 139
0.24 13.93 0.09 145 144 139
0.24 13.84 0.09 146 145 140
0.24 13.75 0.09 145 146 140
0.24 13.66 0.09 144 145 139
0.24 13.56 0.09 146 147 141
0.24 13.47 0.09 146 147 141
0.24 13.38 0.09 147 148 142
0.24 13.29 0.09 147 148 142
0.24 13.20 0.09 147 148 140
0.24 13.11 0.09 147 148 140
0.43 13.11 -0.08 146 147 141
0.43 13.02 -0.08 146 145 140
0.43 12.93 -0.08 148 147 143
0.43 12.83 -0.08 150 149 145
0.43 12.74 -0.08 150 149 145
0.43 12.65 -0.08 150 149 144
0.43 12.56 -0.08 149 148 143
0.43 12.46 -0.08 149 148 143
0.43 12.37 -0.08 150 149 144
0.43 12.28 -0.08 153 150 145
0.43 12.19 -0.08 152 149 144
0.43 12.10 -0.08 151 148 143
0.43 12.00 -0.08 152 149 144
0.43 11.91 -0.08 153 149 146
0.43 11.82 -0.08 154 150 147
0.43 11.73 -0.08 155 151 150
0.43 11.64 -0.08 154 150 149
0.43 11.54 -0.08 150 150 150
0.43 11.45 -0.08 150 150 150
0.43 11.36 -0.08 150 150 150
0.43 11.27 -0.08 151 151 151
0.43 11.18 -0.08 153 151 152
0.43 11.08 -0.08 155 153 154
0.43 10.99 -0.08 156 154 155
0.43 10.90 -0.08 154 152 153
0.24 10.72 0.09 154 152 153
0.24 10.63 0.09 154 153 151
0.24 10.54 0.09 154 153 151
0.24 10.45 0.09 156 153 148
0.24 10.36 0.09 156 153 148
0.24 10.27 0.09 157 154 149
0.24 10.17 0.09 157 154 149
0.24 10.08 0.09 157 154 149
0.24 9.99 0.09 158 155 150
0.24 9.90 0.09 158 155 150
0.43 9.89 -0.08 158 155 150
0.43 9.79 -0.08 159 156 151
0.43 9.70 -0.08 159 156 151
0.43 9.61 -0.08 159 156 149
0.43 9.52 -0.08 159 156 149
0.43 9.43 -0.08 155 155 147
0.43 9.33 -0.08 154 154 146
0.43 9.24 -0.08 153 153 145
0.43 9.15 -0.08 154 154 146
0.43 9.06 -0.08 156 156 146
0.43 8.97 -0.08 157 157 147
0.43 8.87 -0.08 157 157 147
0.43 8.78 -0.08 157 157 149
0.43 8.69 -0.08 156 158 155
0.61 8.67 -0.25 158 159 154
0.61 8.58 -0.25 156 157 152
0.61 8.49 -0.25 155 156 150
0.61 8.39 -0.25 158 159 153
0.61 8.30 -0.25 160 160 152
0.61 8.21 -0.25 158 158 150
0.61 8.12 -0.25 157 158 150
0.61 8.02 -0.25 158 159 151
0.61 7.93 -0.25 159 160 152
0.61 7.84 -0.25 159 160 152
0.61 7.75 -0.25 157 160 153
0.61 7.65 -0.25 157 160 153
0.61 7.56 -0.25 155 160 153
0.43 7.40 -0.08 157 160 153
0.43 7.31 -0.08 159 162 153
0.43 7.22 -0.08 160 161 153
0.43 7.12 -0.08 159 160 152
0.43 7.03 -0.08 159 160 152
0.61 7.01 -0.25 158 159 153
0.61 6.91 -0.25 159 160 154
0.61 6.82 -0.25 159 160 155
0.61 6.73 -0.25 159 160 155
0.61 6.64 -0.25 159 160 155
0.61 6.54 -0.25 160 161 155
0.61 6.45 -0.25 160 161 155
0.61 6.36 -0.25 160 161 153
0.61 6.27 -0.25 160 161 153
0.61 6.17 -0.25 160 161 153
0.43 6.02 -0.08 160 161 155
0.43 5.93 -0.08 160 161 155
0.43 5.84 -0.08 160 161 156
0.43 5.74 -0.08 161 162 157
0.43 5.65 -0.08 161 162 157
0.61 5.62 -0.25 162 163 157
0.61 5.53 -0.25 162 163 157
0.61 5.43 -0.25 161 164 157
0.61 5.34 -0.25 161 164 157
0.61 5.25 -0.25 159 162 155
0.61 5.16 -0.25 159 162 155
0.77 5.11 -0.40 160 163 156
-1.75 4.08 1.89 159 162 155
-1.75 3.99 1.89 157 162 155
-1.75 3.90 1.89 159 162 155
-1.75 3.81 1.89 159 160 152
-1.91 3.68 2.04 157 154 147
-1.91 3.59 2.04 152 147 141
-1.91 3.51 2.04 148 133 126
-1.91 3.42 2.04 148 124 120
-1.91 3.33 2.04 145 116 112
-1.91 3.25 2.04 146 108 107
-1.91 3.16 2.04 145 100 97
-2.06 3.03 2.18 148 94 94
-2.36 2.86 2.45 147 87 87
-2.22 2.81 2.33 147 78 81
-3.55 2.37 3.53 143 71 72
-3.55 2.29 3.53 142 63 66
-3.55 2.21 3.53 137 57 60
-3.55 2.12 3.53 134 54 57
-3.42 2.07 3.41 136 58 58
-3.26 2.03 3.27 139 69 71
-3.12 1.98 3.15 138 77 82
-3.12 1.90 3.15 127 80 90
-2.97 1.85 3.00 119 91 105
-2.97 1.77 3.00 120 107 127
-2.97 1.69 3.00 119 119 143
-2.97 1.60 3.00 113 124 152
-2.83 1.55 2.88 90 111 140
-2.83 1.46 2.88 78 103 133
-2.83 1.38 2.88 71 97 124
-2.67 1.33 2.74 80 104 130
-2.67 1.25 2.74 144 160 176
-2.67 1.16 2.74 175 187 201
-2.52 1.11 2.59 194 200 212
-2.52 1.03 2.59 199 202 207
-2.52 0.94 2.59 202 197 203
-2.52 0.86 2.59 192 176 186
-2.52 0.77 2.59 187 164 174
-2.52 0.69 2.59 164 138 141
-2.52 0.60 2.59 155 90 98
-2.52 0.52 2.59 167 34 51
-2.52 0.43 2.59 195 28 45
-2.52 0.35 2.59 206 40 44
-2.52 0.26 2.59 200 28 28
-2.52 0.17 2.59 206 23 28
-2.52 0.09 2.59 230 69 75
-2.52 0.00 2.59 231 129 127
-2.52 -0.08 2.59 215 164 161
-2.52 -0.17 2.59 212 205 199
0.77 -0.18 -0.40 223 225 222
0.77 -0.27 -0.40 226 228 225
0.96 -0.33 -0.57 226 230 229
0.96 -0.43 -0.57 232 236 235
0.96 -0.52 -0.57 236 240 239
0.77 -0.64 -0.40 233 237 236
0.77 -0.74 -0.40 231 235 234
0.96 -0.80 -0.57 230 234 233
0.96 -0.89 -0.57 224 228 227
0.96 -0.99 -0.57 215 219 218
0.96 -1.08 -0.57 207 213 209
0.96 -1.17 -0.57 195 201 197
0.96 -1.27 -0.57 184 190 186
0.96 -1.36 -0.57 172 178 174
0.96 -1.45 -0.57 171 180 175
0.96 -1.55 -0.57 177 186 181
0.96 -1.64 -0.57 172 183 177
0.96 -1.73 -0.57 171 182 176
0.96 -1.83 -0.57 172 183 177
0.96 -1.92 -0.57 173 184 178
0.96 -2.01 -0.57 176 185 180
0.96 -2.11 -0.57 176 185 180
0.96 -2.20 -0.57 176 185 180
0.96 -2.29 -0.57 177 186 181
0.96 -2.39 -0.57 182 188 184
0.96 -2.48 -0.57 178 187 184
0.96 -2.57 -0.57 178 187 184
0.96 -2.67 -0.57 178 187 184
0.96 -2.76 -0.57 177 186 183
0.96 -2.85 -0.57 176 185 182
0.96 -2.95 -0.57 176 185 182
0.96 -3.04 -0.57 177 186 183
0.96 -3.13 -0.57 178 187 184
0.96 -3.23 -0.57 179 188 185
0.96 -3.32 -0.57 180 189 186
0.96 -3.41 -0.57 180 191 187
0.96 -3.51 -0.57 180 191 187
0.96 -3.60 -0.57 180 191 187
0.96 -3.69 -0.57 180 191 187
0.96 -3.79 -0.57 181 192 188
0.96 -3.88 -0.57 182 191 188
0.96 -3.97 -0.57 180 190 182
0.96 -4.07 -0.57 183 190 183
0.96 -4.16 -0.57 184 191 184
0.96 -4.25 -0.57 185 192 185
0.96 -4.35 -0.57 186 192 188
0.96 -4.44 -0.57 186 192 188
0.96 -4.53 -0.57 183 192 187
0.96 -4.63 -0.57 182 193 189
0.96 -4.72 -0.57 181 192 188
0.96 -4.81 -0.57 182 193 189
0.96 -4.91 -0.57 183 194 190
0.96 -5.00 -0.57 184 194 193
0.96 -5.09 -0.57 185 195 194
0.96 -5.19 -0.57 183 195 193
0.96 -5.28 -0.57 183 193 192
0.96 -5.37 -0.57 184 195 191
0.96 -5.47 -0.57 185 194 191
0.96 -5.56 -0.57 185 194 191
0.96 -5.65 -0.57 185 194 191
0.96 -5.75 -0.57 185 194 191
1.14 -5.83 -0.73 186 195 192
1.14 -5.92 -0.73 186 195 192
1.14 -6.02 -0.73 187 196 193
1.14 -6.11 -0.73 187 196 193
1.14 -6.21 -0.73 186 195 192
1.14 -6.30 -0.73 186 195 192
1.14 -6.39 -0.73 186 195 192
1.14 -6.49 -0.73 186 195 192
1.14 -6.58 -0.73 187 196 193
1.14 -6.67 -0.73 189 198 195
0.96 -6.77 -0.57 189 198 195
0.96 -6.86 -0.57 188 199 195
0.96 -6.96 -0.57 190 199 196
0.96 -7.05 -0.57 191 200 197
0.96 -7.14 -0.57 191 200 197
0.96 -7.24 -0.57 191 200 197
0.96 -7.33 -0.57 194 200 198
0.96 -7.42 -0.57 195 201 199
0.96 -7.52 -0.57 196 202 200
1.14 -7.61 -0.73 196 202 200
1.14 -7.71 -0.73 197 203 201
1.14 -7.80 -0.73 196 202 200
1.14 -7.89 -0.73 196 202 200
1.14 -7.99 -0.73 196 202 200
1.14 -8.08 -0.73 194 203 200
1.14 -8.17 -0.73 194 203 200
1.14 -8.27 -0.73 196 202 200
1.14 -8.36 -0.73 196 202 200
1.14 -8.46 -0.73 196 202 200
1.14 -8.55 -0.73 197 203 201
1.14 -8.64 -0.73 197 203 201
1.14 -8.74 -0.73 197 203 201
1.14 -8.83 -0.73 195 204 201
1.14 -8.92 -0.73 195 204 201
1.14 -9.02 -0.73 196 205 202
1.14 -9.11 -0.73 198 207 204
1.14 -9.20 -0.73 198 207 204
1.14 -9.30 -0.73 199 208 205
1.14 -9.39 -0.73 198 207 204
1.14 -9.49 -0.73 197 208 204
1.14 -9.58 -0.73 197 208 204
1.14 -9.67 -0.73 198 209 205
1.14 -9.77 -0.73 197 208 204
1.14 -9.86 -0.73 197 208 204
1.14 -9.95 -0.73 198 209 205
1.14 -10.05 -0.73 200 209 206
1.14 -10.14 -0.73 201 210 207
1.14 -10.24 -0.73 203 209 207
1.14 -10.33 -0.73 203 209 207
1.14 -10.42 -0.73 202 208 206
1.14 -10.52 -0.73 202 208 206
1.14 -10.61 -0.73 203 209 207
1.14 -10.70 -0.73 203 209 207
1.14 -10.80 -0.73 204 210 208
1.14 -10.89 -0.73 204 210 208
1.14 -10.99 -0.73 205 211 209
1.14 -11.08 -0.73 205 211 209
1.14 -11.17 -0.73 202 213 209
1.14 -11.27 -0.73 202 213 209
1.14 -11.36 -0.73 202 213 209
1.14 -11.45 -0.73 202 213 209
1.14 -11.55 -0.73 202 213 209
1.33 -11.66 -0.90 201 212 208
1.33 -11.75 -0.90 201 212 208
1.33 -11.85 -0.90 203 214 210
1.33 -11.94 -0.90 202 213 209
1.33 -12.04 -0.90 203 214 210
1.33 -12.13 -0.90 204 215 211
1.14 -12.20 -0.73 205 216 212
1.14 -12.30 -0.73 206 217 213
1.14 -12.39 -0.73 205 216 212
1.14 -12.48 -0.73 205 214 211
1.14 -12.58 -0.73 202 211 208
1.14 -12.67 -0.73 204 210 208
1.14 -12.77 -0.73 204 210 208
1.14 -12.86 -0.73 204 210 208
1.14 -12.95 -0.73 204 210 208
1.14 -13.05 -0.73 205 211 209
1.14 -13.14 -0.73 205 211 209
1.33 -13.26 -0.90 206 212 210
1.33 -13.36 -0.90 207 213 211
1.33 -13.45 -0.90 207 213 211
1.33 -13.54 -0.90 207 213 211
1.33 -13.64 -0.90 209 215 213
1.33 -13.73 -0.90 209 215 213
1.33 -13.83 -0.90 208 214 212
1.33 -13.92 -0.90 207 213 211
1.33 -14.01 -0.90 208 214 212
1.33 -14.11 -0.90 208 214 212
1.33 -14.20 -0.90 208 214 212
1.33 -14.30 -0.90 208 214 212
1.33 -14.39 -0.90 207 213 211
1.33 -14.48 -0.90 207 213 211
1.33 -14.58 -0.90 208 212 211
1.33 -14.67 -0.90 208 212 211
1.33 -14.77 -0.90 209 213 212
1.33 -14.86 -0.90 208 212 211
1.33 -14.96 -0.90 208 212 211
1.33 -15.05 -0.90 209 213 212
1.33 -15.14 -0.90 210 214 213
1.14 -15.20 -0.73 210 214 213
1.14 -15.30 -0.73 210 214 213
1.14 -15.39 -0.73 209 213 212
1.33 -15.52 -0.90 211 213 212
1.33 -15.61 -0.90 211 213 212
1.33 -15.71 -0.90 211 213 212
1.14 -15.76 -0.73 211 213 212
1.14 -15.86 -0.73 212 214 213
1.14 -15.95 -0.73 212 214 213
1.14 -16.05 -0.73 212 214 213
1.33 -16.18 -0.90 209 213 212
1.33 -16.27 -0.90 209 213 212
1.33 -16.37 -0.90 209 213 212
1.14 -16.42 -0.73 209 213 212
1.14 -16.51 -0.73 209 213 212
1.14 -16.61 -0.73 209 213 212
1.33 -16.74 -0.90 209 213 212
1.33 -16.84 -0.90 209 213 212
1.33 -16.93 -0.90 212 214 209
1.33 -17.03 -0.90 212 214 209
1.33 -17.12 -0.90 212 214 209
1.33 -17.21 -0.90 212 214 209
1.33 -17.31 -0.90 212 214 211
1.33 -17.40 -0.90 212 214 211
1.33 -17.50 -0.90 212 214 211
1.33 -17.59 -0.90 212 214 211
1.33 -17.69 -0.90 211 213 212
1.33 -17.78 -0.90 210 212 211
1.33 -17.87 -0.90 210 210 210
1.33 -17.97 -0.90 210 210 210
1.33 -18.06 -0.90 211 211 213
1.33 -18.16 -0.90 211 211 213
1.33 -18.25 -0.90 210 210 212
1.33 -18.34 -0.90 214 214 214
1.33 -18.44 -0.90 213 213 213
1.33 -18.53 -0.90 213 213 213
1.33 -18.63 -0.90 213 213 213
1.33 -18.72 -0.90 213 213 213
1.33 -18.82 -0.90 213 213 213
1.33 -18.91 -0.90 212 212 212
1.33 -19.00 -0.90 211 211 211
1.33 -19.10 -0.90 212 212 212
1.33 -19.19 -0.90 213 213 213
1.33 -19.29 -0.90 214 214 214
1.33 -19.38 -0.90 214 214 214
1.33 -19.47 -0.90 214 214 214
1.33 -19.57 -0.90 213 213 213
1.51 -19.72 -1.07 213 213 213
1.51 -19.81 -1.07 213 213 213
1.51 -19.91 -1.07 211 211 209
1.51 -20.00 -1.07 212 212 210
1.51 -20.10 -1.07 213 213 211
1.51 -20.19 -1.07 213 213 211
1.51 -20.29 -1.07 212 212 212
1.51 -20.38 -1.07 211 211 211
1.51 -20.47 -1.07 209 209 209
1.51 -20.57 -1.07 212 212 212
1.51 -20.66 -1.07 212 212 212
1.51 -20.76 -1.07 212 212 212
1.51 -20.85 -1.07 212 212 212
1.51 -20.95 -1.07 211 211 209
1.33 -20.98 -0.90 211 211 209
1.33 -21.07 -0.90 211 211 209
1.33 -21.17 -0.90 211 211 209
1.33 -21.26 -0.90 210 210 210
1.33 -21.36 -0.90 210 210 210
1.33 -21.45 -0.90 210 210 210
1.33 -21.55 -0.90 210 210 210
1.33 -21.64 -0.90 210 210 210
1.33 -21.73 -0.90 211 211 211
1.33 -21.83 -0.90 211 211 211
1.33 -21.92 -0.90 212 212 212
1.33 -22.02 -0.90 214 214 214
1.33 -22.11 -0.90 214 214 214
1.33 -22.20 -0.90 214 214 214
1.33 -22.30 -0.90 214 214 214
1.33 -22.39 -0.90 214 214 214
1.51 -22.55 -1.07 213 213 213
1.51 -22.65 -1.07 213 213 213
1.51 -22.74 -1.07 210 210 208
1.51 -22.84 -1.07 210 210 208
1.51 -22.93 -1.07 211 211 209
1.51 -23.03 -1.07 211 211 209
1.51 -23.12 -1.07 211 211 211
1.51 -23.22 -1.07 212 212 212
1.51 -23.31 -1.07 212 212 212
1.51 -23.41 -1.07 213 213 213
1.51 -23.50 -1.07 214 214 216
1.51 -23.59 -1.07 213 213 215
1.51 -23.69 -1.07 213 213 215
1.51 -23.78 -1.07 211 211 213
1.51 -23.88 -1.07 210 209 214
1.51 -23.97 -1.07 209 208 213
1.51 -24.07 -1.07 208 207 212
1.51 -24.16 -1.07 208 207 212
1.51 -24.26 -1.07 211 213 212
1.51 -24.35 -1.07 211 213 212
1.51 -24.45 -1.07 210 212 211
1.51 -24.54 -1.07 210 212 211
1.51 -24.64 -1.07 210 210 210
1.51 -24.73 -1.07 210 210 210
1.51 -24.82 -1.07 210 210 210
1.51 -24.92 -1.07 210 210 210
1.51 -25.01 -1.07 212 210 211
1.51 -25.11 -1.07 215 213 214
1.33 -25.12 -0.90 213 211 212
1.33 -25.22 -0.90 235 231 232
-0.15 21.65 0.32 0 0 0
-0.15 21.56 0.32 0 0 0
-0.15 21.47 0.32 0 0 0
-0.15 21.38 0.32 0 0 0
0.04 21.42 0.15 0 0 0
0.04 21.33 0.15 136 131 127
0.04 21.24 0.15 136 131 127
0.04 21.15 0.15 136 131 127
0.04 21.06 0.15 136 131 127
0.04 20.97 0.15 136 131 127
0.04 20.88 0.15 136 131 125
0.04 20.78 0.15 136 131 125
0.04 20.69 0.15 135 131 122
0.04 20.60 0.15 135 131 122
0.04 20.51 0.15 136 132 123
0.19 20.53 0.01 137 133 124
0.19 20.44 0.01 138 134 125
0.19 20.35 0.01 138 134 125
0.19 20.26 0.01 138 134 125
0.19 20.16 0.01 138 134 125
0.19 20.07 0.01 137 132 126
0.19 19.98 0.01 136 131 125
0.19 19.89 0.01 138 131 123
0.19 19.80 0.01 139 132 124
0.19 19.71 0.01 140 133 125
0.04 19.51 0.15 140 133 125
0.04 19.42 0.15 141 134 126
0.04 19.32 0.15 140 133 125
0.04 19.23 0.15 139 132 124
0.04 19.14 0.15 139 132 124
0.04 19.05 0.15 140 133 125
0.04 18.96 0.15 138 133 127
0.04 18.87 0.15 139 134 128
0.04 18.78 0.15 139 134 128
0.04 18.69 0.15 139 134 128
0.04 18.59 0.15 140 135 129
0.04 18.50 0.15 141 136 132
0.04 18.41 0.15 141 133 130
0.04 18.32 0.15 141 133 131
0.04 18.23 0.15 142 134 132
0.04 18.14 0.15 142 134 132
0.04 18.05 0.15 143 135 132
0.04 17.95 0.15 143 135 132
0.04 17.86 0.15 143 135 132
0.04 17.77 0.15 143 135 132
0.04 17.68 0.15 142 135 129
0.04 17.59 0.15 143 136 130
0.04 17.50 0.15 144 137 131
0.04 17.41 0.15 144 137 131
0.04 17.32 0.15 144 137 129
0.04 17.22 0.15 145 138 130
0.04 17.13 0.15 145 138 130
0.04 17.04 0.15 142 138 129
0.04 16.95 0.15 142 138 129
0.04 16.86 0.15 142 138 129
0.04 16.77 0.15 142 138 129
0.04 16.68 0.15 143 139 130
0.04 16.59 0.15 143 139 130
0.04 16.49 0.15 143 138 132
0.04 16.40 0.15 143 138 132
0.04 16.31 0.15 142 137 131
0.04 16.22 0.15 143 138 132
0.04 16.13 0.15 143 138 132
0.04 16.04 0.15 144 139 133
0.04 15.95 0.15 145 140 136
0.04 15.86 0.15 145 140 136
0.04 15.76 0.15 145 140 136
0.04 15.67 0.15 145 140 136
0.04 15.58 0.15 144 139 136
0.04 15.49 0.15 145 140 137
0.19 15.49 0.01 147 142 139
0.19 15.40 0.01 147 142 139
0.19 15.31 0.01 146 141 138
0.19 15.21 0.01 147 142 139
0.04 15.03 0.15 148 143 140
0.04 14.94 0.15 145 140 137
0.19 14.94 0.01 146 141 138
0.19 14.85 0.01 147 142 138
0.19 14.76 0.01 147 142 138
0.04 14.58 0.15 147 142 138
0.04 14.49 0.15 147 142 138
0.04 14.39 0.15 147 142 138
0.19 14.39 0.01 148 143 139
0.19 14.30 0.01 147 142 138
0.19 14.21 0.01 146 141 137
0.19 14.11 0.01 145 142 137
0.19 14.02 0.01 145 142 137
0.19 13.93 0.01 146 143 138
0.19 13.84 0.01 147 144 139
0.19 13.75 0.01 145 145 137
0.19 13.66 0.01 144 144 136
0.19 13.56 0.01 145 146 138
0.19 13.47 0.01 146 147 139
0.19 13.38 0.01 147 148 140
0.19 13.29 0.01 147 148 140
0.19 13.20 0.01 147 148 140
0.19 13.11 0.01 147 148 140
0.19 13.01 0.01 145 146 138
0.19 12.92 0.01 147 146 141
0.19 12.83 0.01 149 148 143
0.19 12.74 0.01 150 149 144
0.19 12.65 0.01 150 149 144
0.19 12.56 0.01 150 149 144
0.19 12.47 0.01 150 149 144
0.19 12.37 0.01 150 149 144
0.19 12.28 0.01 151 150 145
0.19 12.19 0.01 154 151 146
0.19 12.10 0.01 153 150 145
0.19 12.01 0.01 152 148 145
0.19 11.92 0.01 152 148 145
0.19 11.82 0.01 153 149 148
0.19 11.73 0.01 154 150 149
0.38 11.73 -0.16 155 151 150
0.38 11.64 -0.16 155 151 150
0.38 11.54 -0.16 151 151 151
0.38 11.45 -0.16 151 151 151
0.19 11.27 0.01 150 150 150
0.19 11.18 0.01 150 150 150
0.19 11.09 0.01 152 150 151
0.19 11.00 0.01 152 150 151
0.19 10.91 0.01 153 151 152
0.19 10.82 0.01 154 152 153
0.19 10.72 0.01 154 152 153
0.19 10.63 0.01 154 153 151
0.19 10.54 0.01 154 153 151
0.19 10.45 0.01 156 152 149
0.19 10.36 0.01 156 152 149
0.19 10.27 0.01 156 153 148
0.19 10.17 0.01 156 153 148
0.19 10.08 0.01 158 155 148
0.19 9.99 0.01 158 155 148
0.19 9.90 0.01 159 156 149
0.19 9.81 0.01 159 156 149
0.19 9.72 0.01 158 155 148
0.38 9.70 -0.16 158 155 148
0.38 9.61 -0.16 157 154 147
0.38 9.52 -0.16 157 154 147
0.38 9.43 -0.16 158 158 150
0.38 9.33 -0.16 157 157 149
0.38 9.24 -0.16 157 157 149
0.38 9.15 -0.16 156 156 148
0.38 9.06 -0.16 157 157 149
0.38 8.97 -0.16 157 157 149
0.38 8.87 -0.16 157 157 149
0.38 8.78 -0.16 157 156 151
0.38 8.69 -0.16 156 158 153
0.38 8.60 -0.16 157 159 154
0.38 8.51 -0.16 155 157 152
0.38 8.41 -0.16 156 157 151
0.38 8.32 -0.16 158 159 153
0.38 8.23 -0.16 159 160 152
0.38 8.14 -0.16 157 158 150
0.38 8.05 -0.16 157 158 150
0.38 7.95 -0.16 158 159 151
0.38 7.86 -0.16 158 161 152
0.38 7.77 -0.16 158 161 152
0.38 7.68 -0.16 155 160 153
0.38 7.58 -0.16 155 160 153
0.38 7.49 -0.16 155 160 153
0.38 7.40 -0.16 157 160 153
0.38 7.31 -0.16 159 162 153
0.38 7.22 -0.16 160 161 153
0.38 7.12 -0.16 159 160 154
0.38 7.03 -0.16 159 160 154
0.38 6.94 -0.16 159 160 154
0.38 6.85 -0.16 160 161 155
0.38 6.76 -0.16 160 161 156
0.38 6.66 -0.16 161 162 157
0.38 6.57 -0.16 159 160 155
0.38 6.48 -0.16 160 161 155
0.38 6.39 -0.16 160 161 155
0.38 6.30 -0.16 161 162 156
0.38 6.20 -0.16 161 162 156
0.38 6.11 -0.16 160 161 153
0.38 6.02 -0.16 160 161 153
0.38 5.93 -0.16 160 161 155
0.38 5.84 -0.16 160 161 155
0.38 5.74 -0.16 161 162 156
0.38 5.65 -0.16 161 162 156
0.38 5.56 -0.16 162 163 158
0.38 5.47 -0.16 162 163 158
0.38 5.37 -0.16 161 163 158
0.38 5.28 -0.16 161 163 158
0.38 5.19 -0.16 160 162 157
0.38 5.10 -0.16 160 162 157
0.56 5.06 -0.33 159 161 156
-1.79 4.08 1.82 158 160 155
-1.79 3.99 1.82 156 161 155
-1.79 3.90 1.82 156 161 155
-1.79 3.81 1.82 153 163 152
-1.95 3.68 1.96 152 160 149
-1.95 3.59 1.96 147 155 144
-1.95 3.51 1.96 140 140 130
-1.95 3.42 1.96 140 133 125
-1.95 3.33 1.96 139 129 120
-1.95 3.25 1.96 142 125 118
-1.95 3.16 1.96 138 115 109
-2.11 3.03 2.11 139 110 106
-2.11 2.94 2.11 138 105 100
-2.27 2.81 2.25 139 99 97
-3.59 2.37 3.46 140 96 95
-3.59 2.29 3.46 139 91 91
-3.46 2.24 3.34 134 86 84
-3.46 2.16 3.34 133 82 81
-3.17 2.15 3.08 136 83 79
-3.17 2.07 3.08 143 92 89
-3.01 2.02 2.93 142 98 99
-3.01 1.94 2.93 134 99 103
-3.01 1.85 2.93 135 112 118
-3.01 1.77 2.93 147 134 144
-2.88 1.72 2.81 152 150 161
-2.88 1.63 2.81 147 153 167
-2.88 1.55 2.81 136 148 162
-2.88 1.46 2.81 142 158 173
-2.72 1.42 2.67 161 177 190
-2.72 1.33 2.67 189 203 214
-2.72 1.25 2.67 234 243 250
-2.72 1.16 2.67 240 247 253
-2.72 1.08 2.67 239 247 249
-2.56 1.03 2.52 225 236 228
-2.56 0.94 2.52 214 224 216
-2.56 0.86 2.52 201 201 201
-2.56 0.77 2.52 174 174 176
-2.56 0.69 2.52 141 147 145
-2.56 0.60 2.52 135 110 113
-2.56 0.52 2.52 149 57 68
-2.56 0.43 2.52 183 51 62
-2.40 0.38 2.38 196 54 53
-2.40 0.29 2.38 192 37 33
-2.40 0.21 2.38 202 30 30
-2.40 0.12 2.38 208 45 50
-2.40 0.04 2.38 242 117 125
-2.40 -0.05 2.38 232 149 159
-2.40 -0.14 2.38 220 184 194
0.72 -0.18 -0.48 221 223 220
0.72 -0.27 -0.48 222 224 221
0.72 -0.37 -0.48 223 225 222
0.72 -0.46 -0.48 227 229 226
0.72 -0.55 -0.48 230 235 231
0.72 -0.64 -0.48 231 236 232
0.72 -0.74 -0.48 230 234 233
0.72 -0.83 -0.48 224 228 227
0.72 -0.92 -0.48 216 220 219
0.72 -1.02 -0.48 209 213 212
0.72 -1.11 -0.48 202 206 205
0.91 -1.17 -0.65 187 191 190
0.91 -1.27 -0.65 177 183 181
0.72 -1.39 -0.48 170 176 174
0.72 -1.48 -0.48 167 176 173
0.91 -1.55 -0.65 170 179 176
0.91 -1.64 -0.65 165 174 171
0.91 -1.73 -0.65 167 176 173
0.91 -1.83 -0.65 163 174 168
0.91 -1.92 -0.65 164 175 169
0.91 -2.01 -0.65 166 177 171
0.91 -2.11 -0.65 166 177 171
0.72 -2.22 -0.48 167 178 172
0.72 -2.32 -0.48 168 179 173
0.91 -2.39 -0.65 171 180 175
0.91 -2.48 -0.65 174 183 180
0.72 -2.60 -0.48 176 185 182
0.72 -2.69 -0.48 177 186 183
0.72 -2.78 -0.48 177 186 183
0.72 -2.87 -0.48 177 186 183
0.72 -2.97 -0.48 177 186 183
0.91 -3.04 -0.65 178 187 184
0.91 -3.13 -0.65 180 189 186
0.91 -3.23 -0.65 179 188 185
0.91 -3.32 -0.65 180 189 186
0.91 -3.41 -0.65 181 190 187
0.91 -3.51 -0.65 181 190 187
0.91 -3.60 -0.65 181 190 187
0.91 -3.69 -0.65 181 190 187
0.91 -3.79 -0.65 181 190 187
0.91 -3.88 -0.65 182 191 188
0.91 -3.97 -0.65 183 190 183
0.91 -4.07 -0.65 184 191 184
0.91 -4.16 -0.65 185 192 185
0.91 -4.25 -0.65 186 193 186
0.91 -4.35 -0.65 184 193 188
0.91 -4.44 -0.65 184 193 188
0.91 -4.53 -0.65 183 192 187
0.91 -4.63 -0.65 184 193 190
0.72 -4.73 -0.48 183 192 189
0.72 -4.82 -0.48 182 193 189
0.72 -4.92 -0.48 183 194 190
0.72 -5.01 -0.48 184 194 193
0.72 -5.10 -0.48 184 194 193
0.91 -5.19 -0.65 184 194 193
0.91 -5.28 -0.65 183 193 192
0.91 -5.37 -0.65 185 194 191
0.91 -5.47 -0.65 185 194 191
0.91 -5.56 -0.65 185 194 191
0.91 -5.65 -0.65 185 194 191
0.91 -5.75 -0.65 185 194 191
0.91 -5.84 -0.65 186 195 192
0.91 -5.93 -0.65 186 195 192
0.91 -6.02 -0.65 187 196 193
0.91 -6.12 -0.65 186 195 192
0.91 -6.21 -0.65 186 195 192
0.91 -6.30 -0.65 186 195 192
0.91 -6.40 -0.65 187 196 193
0.91 -6.49 -0.65 187 196 193
0.91 -6.58 -0.65 188 197 194
0.91 -6.68 -0.65 189 198 195
0.91 -6.77 -0.65 189 198 195
0.91 -6.86 -0.65 188 199 195
0.91 -6.96 -0.65 190 199 196
0.91 -7.05 -0.65 191 200 197
0.91 -7.14 -0.65 191 200 197
0.91 -7.24 -0.65 191 200 197
0.91 -7.33 -0.65 194 200 198
0.91 -7.42 -0.65 195 201 199
0.91 -7.52 -0.65 195 201 199
0.91 -7.61 -0.65 195 201 199
0.91 -7.70 -0.65 196 202 200
0.91 -7.80 -0.65 196 202 200
0.91 -7.89 -0.65 196 202 200
0.91 -7.98 -0.65 196 202 200
0.91 -8.08 -0.65 193 202 199
0.91 -8.17 -0.65 192 201 198
0.91 -8.26 -0.65 195 201 199
0.91 -8.36 -0.65 195 201 199
0.91 -8.45 -0.65 195 201 199
0.91 -8.54 -0.65 196 202 200
1.09 -8.64 -0.82 197 203 201
1.09 -8.74 -0.82 197 203 201
0.91 -8.82 -0.65 196 205 202
0.91 -8.92 -0.65 196 205 202
0.91 -9.01 -0.65 195 204 201
1.09 -9.11 -0.82 200 209 206
0.91 -9.20 -0.65 201 210 207
0.91 -9.29 -0.65 199 208 205
0.91 -9.38 -0.65 198 207 204
1.09 -9.49 -0.82 196 207 203
1.09 -9.58 -0.82 197 208 204
1.09 -9.67 -0.82 195 206 202
1.09 -9.77 -0.82 196 207 203
1.09 -9.86 -0.82 198 207 204
1.09 -9.95 -0.82 198 207 204
1.09 -10.05 -0.82 200 206 204
1.09 -10.14 -0.82 201 207 205
1.09 -10.24 -0.82 202 208 206
1.09 -10.33 -0.82 203 209 207
1.09 -10.42 -0.82 205 211 209
0.91 -10.50 -0.65 204 210 208
0.91 -10.60 -0.65 204 210 208
0.91 -10.69 -0.65 203 209 207
0.91 -10.78 -0.65 203 209 207
0.91 -10.88 -0.65 204 210 208
0.91 -10.97 -0.65 203 212 209
0.91 -11.06 -0.65 204 213 210
0.91 -11.16 -0.65 203 212 209
1.09 -11.27 -0.82 203 212 209
1.09 -11.36 -0.82 203 212 209
1.09 -11.45 -0.82 203 212 209
1.09 -11.55 -0.82 203 212 209
1.09 -11.64 -0.82 203 212 209
1.09 -11.74 -0.82 202 211 208
1.09 -11.83 -0.82 203 212 209
1.09 -11.92 -0.82 203 212 209
1.09 -12.02 -0.82 203 212 209
1.09 -12.11 -0.82 204 213 210
1.09 -12.20 -0.82 205 214 211
1.09 -12.30 -0.82 205 214 211
1.09 -12.39 -0.82 204 213 210
1.09 -12.48 -0.82 204 213 210
1.09 -12.58 -0.82 206 212 210
1.09 -12.67 -0.82 205 211 209
1.09 -12.77 -0.82 204 210 208
1.09 -12.86 -0.82 204 210 208
1.09 -12.95 -0.82 204 210 208
1.09 -13.05 -0.82 205 211 209
1.09 -13.14 -0.82 206 212 210
1.09 -13.23 -0.82 207 213 211
1.09 -13.33 -0.82 207 213 211
1.09 -13.42 -0.82 206 212 210
1.09 -13.52 -0.82 207 213 211
1.09 -13.61 -0.82 209 215 213
1.09 -13.70 -0.82 209 215 213
1.09 -13.80 -0.82 209 215 213
1.09 -13.89 -0.82 208 214 212
1.09 -13.98 -0.82 208 214 212
1.09 -14.08 -0.82 208 214 212
1.09 -14.17 -0.82 208 214 212
1.09 -14.27 -0.82 208 214 212
1.09 -14.36 -0.82 208 214 212
1.09 -14.45 -0.82 208 214 212
1.09 -14.55 -0.82 209 213 212
1.09 -14.64 -0.82 209 213 212
1.09 -14.73 -0.82 208 212 211
1.09 -14.83 -0.82 208 212 211
1.09 -14.92 -0.82 209 213 212
1.09 -15.02 -0.82 209 213 212
1.09 -15.11 -0.82 210 214 213
1.09 -15.20 -0.82 211 215 214
1.09 -15.30 -0.82 211 215 214
1.09 -15.39 -0.82 210 214 213
1.09 -15.48 -0.82 211 215 214
1.09 -15.58 -0.82 210 214 213
1.09 -15.67 -0.82 210 214 213
1.09 -15.76 -0.82 210 214 213
1.09 -15.86 -0.82 210 214 213
1.09 -15.95 -0.82 210 214 213
1.09 -16.05 -0.82 210 214 213
1.09 -16.14 -0.82 209 213 212
1.09 -16.23 -0.82 209 213 212
1.09 -16.33 -0.82 208 214 212
1.09 -16.42 -0.82 209 215 213
1.09 -16.51 -0.82 209 215 213
1.09 -16.61 -0.82 208 214 212
1.09 -16.70 -0.82 208 214 212
1.09 -16.80 -0.82 208 214 212
1.09 -16.89 -0.82 210 215 209
1.09 -16.98 -0.82 210 215 209
1.09 -17.08 -0.82 210 215 209
1.09 -17.17 -0.82 210 215 209
1.28 -17.31 -0.98 212 214 211
1.28 -17.40 -0.98 212 214 211
1.28 -17.50 -0.98 212 214 211
1.28 -17.59 -0.98 212 214 211
1.28 -17.69 -0.98 212 214 213
1.28 -17.78 -0.98 211 213 212
1.28 -17.87 -0.98 211 211 211
1.28 -17.97 -0.98 211 211 211
1.28 -18.06 -0.98 211 211 213
1.28 -18.16 -0.98 211 211 213
1.28 -18.25 -0.98 210 210 212
1.28 -18.34 -0.98 212 212 212
1.28 -18.44 -0.98 212 212 212
1.28 -18.53 -0.98 213 213 213
1.28 -18.63 -0.98 212 212 212
1.28 -18.72 -0.98 212 212 212
1.09 -18.76 -0.82 211 211 211
1.09 -18.86 -0.82 211 211 211
1.09 -18.95 -0.82 211 211 211
1.09 -19.04 -0.82 209 209 209
1.09 -19.14 -0.82 211 211 211
1.09 -19.23 -0.82 213 213 213
1.09 -19.33 -0.82 214 214 214
1.09 -19.42 -0.82 214 214 214
1.09 -19.51 -0.82 213 213 213
1.28 -19.66 -0.98 212 212 212
1.28 -19.76 -0.98 212 212 212
1.28 -19.85 -0.98 211 211 209
1.28 -19.94 -0.98 212 212 210
1.28 -20.04 -0.98 214 214 214
1.28 -20.13 -0.98 214 214 214
1.28 -20.23 -0.98 213 213 215
1.28 -20.32 -0.98 212 212 214
1.28 -20.42 -0.98 210 210 212
1.28 -20.51 -0.98 214 214 216
1.28 -20.60 -0.98 214 214 216
1.28 -20.70 -0.98 213 213 215
1.28 -20.79 -0.98 212 212 214
1.28 -20.89 -0.98 212 212 212
1.28 -20.98 -0.98 212 212 212
1.28 -21.07 -0.98 212 212 210
1.28 -21.17 -0.98 213 213 211
1.28 -21.26 -0.98 212 212 212
1.28 -21.36 -0.98 212 212 212
1.28 -21.45 -0.98 211 211 211
1.28 -21.55 -0.98 211 211 211
1.28 -21.64 -0.98 210 210 210
1.28 -21.73 -0.98 210 210 210
1.28 -21.83 -0.98 210 210 210
1.28 -21.92 -0.98 210 210 210
1.28 -22.02 -0.98 213 213 213
1.28 -22.11 -0.98 213 213 213
1.28 -22.20 -0.98 213 213 213
1.28 -22.30 -0.98 213 213 213
1.28 -22.39 -0.98 213 213 213
1.28 -22.49 -0.98 212 212 212
1.28 -22.58 -0.98 212 212 212
1.46 -22.74 -1.15 211 211 209
1.46 -22.84 -1.15 211 211 209
1.46 -22.93 -1.15 210 210 208
1.46 -23.03 -1.15 210 210 208
1.46 -23.12 -1.15 211 211 211
1.46 -23.22 -1.15 212 212 212
1.46 -23.31 -1.15 214 214 214
1.46 -23.41 -1.15 214 214 214
1.46 -23.50 -1.15 214 214 216
1.28 -23.52 -0.98 213 213 215
1.28 -23.62 -0.98 211 211 213
1.28 -23.71 -0.98 210 210 212
1.28 -23.80 -0.98 209 209 211
1.28 -23.90 -0.98 210 210 212
1.28 -23.99 -0.98 211 210 215
1.28 -24.09 -0.98 211 210 215
1.28 -24.18 -0.98 212 214 213
1.28 -24.28 -0.98 212 214 213
1.28 -24.37 -0.98 212 212 212
1.28 -24.46 -0.98 211 211 211
1.46 -24.64 -1.15 211 211 211
1.46 -24.73 -1.15 210 210 210
1.46 -24.82 -1.15 209 209 209
1.46 -24.92 -1.15 209 209 209
1.28 -24.93 -0.98 208 206 207
1.28 -25.03 -0.98 211 209 210
1.28 -25.12 -0.98 206 204 205
1.28 -25.22 -0.98 229 225 226
-0.20 21.65 0.24 0 0 0
-0.20 21.56 0.24 0 0 0
-0.20 21.47 0.24 0 0 0
-0.20 21.38 0.24 0 0 0
-0.20 21.29 0.24 0 0 0
-0.20 21.20 0.24 135 130 124
-0.20 21.11 0.24 135 130 124
-0.20 21.02 0.24 135 130 124
-0.20 20.93 0.24 136 131 125
-0.20 20.84 0.24 136 131 125
-0.20 20.74 0.24 136 132 123
-0.20 20.65 0.24 135 131 122
-0.20 20.56 0.24 135 131 122
-0.20 20.47 0.24 134 130 121
-0.20 20.38 0.24 136 132 123
-0.01 20.42 0.07 136 132 123
-0.01 20.33 0.07 137 132 126
-0.01 20.24 0.07 137 132 126
0.15 20.26 -0.07 137 132 126
0.15 20.16 -0.07 137 132 126
0.15 20.07 -0.07 137 132 128
0.15 19.98 -0.07 137 132 128
0.15 19.89 -0.07 138 131 123
0.15 19.80 -0.07 139 132 124
-0.01 19.60 0.07 140 133 125
-0.20 19.38 0.24 141 134 126
-0.20 19.29 0.24 141 134 126
-0.20 19.20 0.24 140 133 125
-0.20 19.11 0.24 140 133 125
-0.20 19.02 0.24 141 134 126
-0.20 18.93 0.24 141 134 126
-0.20 18.84 0.24 141 134 128
-0.20 18.75 0.24 140 133 127
-0.20 18.65 0.24 138 133 127
-0.20 18.56 0.24 139 134 128
-0.20 18.47 0.24 140 135 129
-0.20 18.38 0.24 140 135 129
-0.01 18.41 0.07 141 134 128
-0.20 18.20 0.24 141 134 128
-0.20 18.11 0.24 141 134 128
-0.20 18.02 0.24 142 135 129
-0.20 17.93 0.24 142 135 129
-0.20 17.84 0.24 142 135 129
-0.20 17.75 0.24 142 134 131
-0.01 17.77 0.07 142 134 131
-0.01 17.68 0.07 142 134 131
-0.01 17.59 0.07 142 134 131
-0.01 17.50 0.07 143 135 132
-0.01 17.41 0.07 143 135 132
-0.01 17.32 0.07 143 135 132
-0.01 17.22 0.07 144 136 133
-0.01 17.13 0.07 145 137 134
-0.01 17.04 0.07 143 139 130
-0.01 16.95 0.07 143 139 130
-0.20 16.75 0.24 143 139 130
-0.20 16.66 0.24 143 139 130
-0.01 16.68 0.07 143 139 130
-0.01 16.59 0.07 143 139 130
-0.01 16.49 0.07 143 138 132
-0.01 16.40 0.07 143 138 132
-0.01 16.31 0.07 143 138 132
-0.01 16.22 0.07 143 138 132
-0.01 16.13 0.07 144 139 133
-0.01 16.04 0.07 144 139 133
-0.01 15.95 0.07 145 140 136
-0.01 15.86 0.07 145 140 136
-0.01 15.76 0.07 145 140 136
-0.01 15.67 0.07 145 140 136
-0.01 15.58 0.07 143 138 134
-0.01 15.49 0.07 145 140 136
-0.01 15.40 0.07 147 142 138
-0.01 15.31 0.07 147 142 138
-0.01 15.22 0.07 145 140 137
-0.01 15.12 0.07 146 141 138
-0.01 15.03 0.07 147 142 139
-0.01 14.94 0.07 145 140 137
-0.01 14.85 0.07 145 140 137
-0.01 14.76 0.07 146 141 138
-0.01 14.67 0.07 146 141 138
-0.01 14.58 0.07 147 142 138
-0.01 14.49 0.07 146 141 137
-0.01 14.39 0.07 147 142 138
-0.01 14.30 0.07 147 142 138
-0.01 14.21 0.07 147 142 136
-0.01 14.12 0.07 147 142 136
0.15 14.11 -0.07 147 142 136
0.15 14.02 -0.07 148 143 137
-0.01 13.85 0.07 147 144 137
-0.01 13.76 0.07 147 144 137
-0.01 13.66 0.07 145 145 135
0.15 13.66 -0.07 144 144 134
0.15 13.56 -0.07 147 147 137
0.15 13.47 -0.07 148 148 138
0.15 13.38 -0.07 148 150 139
0.15 13.29 -0.07 148 150 139
0.15 13.20 -0.07 148 150 139
0.15 13.11 -0.07 148 150 139
0.15 13.01 -0.07 146 147 139
0.15 12.92 -0.07 147 148 140
0.15 12.83 -0.07 147 148 142
0.15 12.74 -0.07 148 149 143
0.15 12.65 -0.07 149 150 144
0.15 12.56 -0.07 149 150 144
0.15 12.47 -0.07 149 150 144
0.15 12.37 -0.07 151 150 145
0.15 12.28 -0.07 151 150 145
0.15 12.19 -0.07 151 150 146
0.15 12.10 -0.07 150 149 145
0.15 12.01 -0.07 151 147 144
0.15 11.92 -0.07 151 147 144
0.15 11.82 -0.07 152 148 147
0.15 11.73 -0.07 153 149 148
0.15 11.64 -0.07 154 150 149
0.15 11.55 -0.07 155 151 150
0.15 11.46 -0.07 152 152 152
0.15 11.37 -0.07 152 152 152
0.15 11.27 -0.07 152 152 152
0.15 11.18 -0.07 151 151 151
0.15 11.09 -0.07 151 149 150
0.15 11.00 -0.07 152 150 151
0.15 10.91 -0.07 152 150 151
0.15 10.82 -0.07 156 155 153
0.15 10.72 -0.07 156 155 153
-0.01 10.56 0.07 155 154 152
-0.01 10.47 0.07 155 154 152
-0.01 10.38 0.07 157 153 150
-0.01 10.29 0.07 157 153 150
-0.01 10.20 0.07 156 152 149
0.15 10.17 -0.07 156 153 148
0.15 10.08 -0.07 157 154 147
0.15 9.99 -0.07 157 154 145
0.15 9.90 -0.07 157 154 145
0.15 9.81 -0.07 157 154 145
0.15 9.72 -0.07 157 154 145
0.15 9.62 -0.07 157 154 145
0.15 9.53 -0.07 156 153 144
0.15 9.44 -0.07 156 153 144
0.15 9.35 -0.07 159 159 151
0.15 9.26 -0.07 159 159 151
0.15 9.17 -0.07 158 158 150
0.15 9.07 -0.07 158 158 150
0.15 8.98 -0.07 158 158 150
0.15 8.89 -0.07 158 158 150
0.15 8.80 -0.07 158 158 150
0.15 8.71 -0.07 157 156 151
0.15 8.62 -0.07 157 159 154
0.33 8.60 -0.24 158 161 154
0.33 8.51 -0.24 156 159 152
0.33 8.41 -0.24 157 158 152
0.33 8.32 -0.24 158 159 153
0.33 8.23 -0.24 159 160 152
0.33 8.14 -0.24 158 159 151
0.33 8.05 -0.24 158 159 151
0.33 7.95 -0.24 159 160 152
0.33 7.86 -0.24 159 162 153
0.33 7.77 -0.24 159 162 153
0.33 7.68 -0.24 156 161 154
0.33 7.58 -0.24 156 161 154
0.33 7.49 -0.24 155 162 154
0.33 7.40 -0.24 157 162 155
0.33 7.31 -0.24 159 162 155
0.33 7.22 -0.24 160 161 155
0.33 7.12 -0.24 160 161 155
0.33 7.03 -0.24 160 161 155
0.33 6.94 -0.24 161 162 156
0.33 6.85 -0.24 161 162 156
0.33 6.76 -0.24 161 162 156
0.33 6.66 -0.24 162 163 157
0.33 6.57 -0.24 160 161 155
0.33 6.48 -0.24 160 161 155
0.33 6.39 -0.24 161 162 156
0.33 6.30 -0.24 161 162 156
0.33 6.20 -0.24 161 162 156
0.33 6.11 -0.24 161 162 156
0.15 5.96 -0.07 160 161 155
0.15 5.87 -0.07 160 161 155
0.15 5.77 -0.07 160 161 155
0.15 5.68 -0.07 161 162 156
0.15 5.59 -0.07 161 162 156
0.33 5.56 -0.24 161 162 157
0.33 5.47 -0.24 161 162 157
0.33 5.37 -0.24 160 162 157
0.33 5.28 -0.24 160 162 157
0.33 5.19 -0.24 162 164 159
0.33 5.10 -0.24 161 163 158
0.33 5.01 -0.24 159 161 156
-1.83 4.25 1.74 158 160 155
-1.83 4.16 1.74 157 159 154
-1.83 4.08 1.74 157 159 154
-1.83 3.99 1.74 155 160 154
-1.83 3.90 1.74 157 159 154
-1.99 3.77 1.89 159 156 151
-1.99 3.68 1.89 159 154 150
-1.99 3.59 1.89 158 151 145
