ply
format ascii 1.0
element vertex 1639
property float x
property float y
property float z
property uchar red
property uchar green
property uchar blue
end_header
0.91 -11.25 -0.65 203 212 209
0.91 -11.34 -0.65 203 212 209
1.09 -11.45 -0.82 203 212 209
1.09 -11.55 -0.82 203 212 209
1.09 -11.64 -0.82 203 212 209
1.09 -11.74 -0.82 202 211 208
1.09 -11.83 -0.82 203 212 209
1.09 -11.92 -0.82 203 212 209
1.09 -12.02 -0.82 203 212 209
1.09 -12.11 -0.82 204 213 210
1.09 -12.20 -0.82 205 214 211
1.09 -12.30 -0.82 205 214 211
1.09 -12.39 -0.82 204 213 210
1.09 -12.48 -0.82 204 213 210
0.91 -12.56 -0.65 206 212 210
0.91 -12.65 -0.65 205 211 209
0.91 -12.74 -0.65 204 210 208
0.91 -12.84 -0.65 204 210 208
0.91 -12.93 -0.65 204 210 208
0.91 -13.02 -0.65 205 211 209
0.91 -13.11 -0.65 206 212 210
0.91 -13.21 -0.65 207 213 211
1.09 -13.33 -0.82 207 213 211
1.09 -13.42 -0.82 206 212 210
1.09 -13.52 -0.82 207 213 211
1.09 -13.61 -0.82 209 215 213
1.09 -13.70 -0.82 209 215 213
1.09 -13.80 -0.82 209 215 213
1.09 -13.89 -0.82 208 214 212
1.09 -13.98 -0.82 208 214 212
1.09 -14.08 -0.82 208 214 212
1.09 -14.17 -0.82 208 214 212
1.09 -14.27 -0.82 208 214 212
1.09 -14.36 -0.82 208 214 212
1.09 -14.45 -0.82 208 214 212
1.09 -14.55 -0.82 209 213 212
1.09 -14.64 -0.82 209 213 212
1.09 -14.73 -0.82 208 212 211
1.09 -14.83 -0.82 208 212 211
1.09 -14.92 -0.82 209 213 212
1.09 -15.02 -0.82 209 213 212
1.09 -15.11 -0.82 210 214 213
1.09 -15.20 -0.82 211 215 214
1.09 -15.30 -0.82 211 215 214
1.09 -15.39 -0.82 210 214 213
1.09 -15.48 -0.82 211 215 214
1.09 -15.58 -0.82 210 214 213
1.09 -15.67 -0.82 210 214 213
1.09 -15.76 -0.82 210 214 213
1.09 -15.86 -0.82 210 214 213
1.09 -15.95 -0.82 210 214 213
1.09 -16.05 -0.82 210 214 213
1.09 -16.14 -0.82 209 213 212
1.09 -16.23 -0.82 209 213 212
1.09 -16.33 -0.82 208 214 212
1.09 -16.42 -0.82 209 215 213
1.09 -16.51 -0.82 209 215 213
1.09 -16.61 -0.82 208 214 212
1.09 -16.70 -0.82 208 214 212
1.09 -16.80 -0.82 208 214 212
1.09 -16.89 -0.82 210 215 209
1.09 -16.98 -0.82 210 215 209
1.09 -17.08 -0.82 210 215 209
1.09 -17.17 -0.82 210 215 209
1.28 -17.31 -0.98 212 214 211
1.28 -17.40 -0.98 212 214 211
1.28 -17.50 -0.98 212 214 211
1.28 -17.59 -0.98 212 214 211
1.28 -17.69 -0.98 212 214 213
1.28 -17.78 -0.98 211 213 212
1.28 -17.87 -0.98 211 211 211
1.28 -17.97 -0.98 211 211 211
1.28 -18.06 -0.98 211 211 213
1.28 -18.16 -0.98 211 211 213
1.09 -18.20 -0.82 210 210 212
1.09 -18.30 -0.82 212 212 212
1.09 -18.39 -0.82 212 212 212
1.09 -18.48 -0.82 213 213 213
1.09 -18.58 -0.82 212 212 212
1.09 -18.67 -0.82 212 212 212
1.09 -18.76 -0.82 211 211 211
1.09 -18.86 -0.82 211 211 211
1.09 -18.95 -0.82 211 211 211
1.09 -19.04 -0.82 209 209 209
1.09 -19.14 -0.82 211 211 211
1.09 -19.23 -0.82 213 213 213
1.09 -19.33 -0.82 214 214 214
1.09 -19.42 -0.82 214 214 214
1.09 -19.51 -0.82 213 213 213
1.09 -19.61 -0.82 212 212 212
1.09 -19.70 -0.82 212 212 212
1.09 -19.79 -0.82 211 211 209
1.09 -19.89 -0.82 212 212 210
1.28 -20.04 -0.98 214 214 214
1.28 -20.13 -0.98 214 214 214
1.28 -20.23 -0.98 213 213 215
1.28 -20.32 -0.98 212 212 214
1.28 -20.42 -0.98 210 210 212
1.28 -20.51 -0.98 214 214 216
1.28 -20.60 -0.98 214 214 216
1.28 -20.70 -0.98 213 213 215
1.28 -20.79 -0.98 212 212 214
1.28 -20.89 -0.98 212 212 212
1.28 -20.98 -0.98 212 212 212
1.28 -21.07 -0.98 212 212 210
1.28 -21.17 -0.98 213 213 211
1.28 -21.26 -0.98 212 212 212
1.28 -21.36 -0.98 212 212 212
1.09 -21.39 -0.82 211 211 211
1.09 -21.48 -0.82 211 211 211
1.28 -21.64 -0.98 210 210 210
1.28 -21.73 -0.98 210 210 210
1.28 -21.83 -0.98 210 210 210
1.28 -21.92 -0.98 210 210 210
1.28 -22.02 -0.98 213 213 213
1.28 -22.11 -0.98 213 213 213
1.28 -22.20 -0.98 213 213 213
1.28 -22.30 -0.98 213 213 213
1.28 -22.39 -0.98 213 213 213
1.28 -22.49 -0.98 212 212 212
1.28 -22.58 -0.98 212 212 212
1.46 -22.74 -1.15 211 211 209
1.46 -22.84 -1.15 211 211 209
1.46 -22.93 -1.15 210 210 208
1.46 -23.03 -1.15 210 210 208
1.46 -23.12 -1.15 211 211 211
1.46 -23.22 -1.15 212 212 212
1.46 -23.31 -1.15 214 214 214
1.46 -23.41 -1.15 214 214 214
1.46 -23.50 -1.15 214 214 216
1.46 -23.59 -1.15 213 213 215
1.46 -23.69 -1.15 211 211 213
1.46 -23.78 -1.15 210 210 212
1.46 -23.88 -1.15 209 209 211
1.46 -23.97 -1.15 210 210 212
1.46 -24.07 -1.15 211 210 215
1.46 -24.16 -1.15 211 210 215
1.46 -24.26 -1.15 212 214 213
1.46 -24.35 -1.15 212 214 213
1.46 -24.45 -1.15 212 212 212
1.46 -24.54 -1.15 211 211 211
1.46 -24.64 -1.15 211 211 211
1.46 -24.73 -1.15 210 210 210
1.46 -24.82 -1.15 209 209 209
1.46 -24.92 -1.15 209 209 209
1.46 -25.01 -1.15 208 206 207
1.28 -25.03 -0.98 211 209 210
1.28 -25.12 -0.98 206 204 205
1.28 -25.22 -0.98 229 225 226
-0.20 21.65 0.24 0 0 0
-0.35 21.45 0.39 0 0 0
-0.20 21.47 0.24 0 0 0
-0.20 21.38 0.24 0 0 0
-0.20 21.29 0.24 0 0 0
-0.20 21.20 0.24 135 130 124
-0.20 21.11 0.24 135 130 124
-0.20 21.02 0.24 135 130 124
-0.20 20.93 0.24 136 131 125
-0.20 20.84 0.24 136 131 125
-0.20 20.74 0.24 136 132 123
-0.20 20.65 0.24 135 131 122
-0.20 20.56 0.24 135 131 122
-0.20 20.47 0.24 134 130 121
-0.01 20.51 0.07 136 132 123
-0.01 20.42 0.07 136 132 123
-0.01 20.33 0.07 137 132 126
-0.01 20.24 0.07 137 132 126
0.15 20.26 -0.07 137 132 126
0.15 20.16 -0.07 137 132 126
0.15 20.07 -0.07 137 132 128
0.15 19.98 -0.07 137 132 128
0.15 19.89 -0.07 138 131 123
-0.01 19.69 0.07 139 132 124
-0.01 19.60 0.07 140 133 125
-0.20 19.38 0.24 141 134 126
-0.20 19.29 0.24 141 134 126
-0.20 19.20 0.24 140 133 125
-0.20 19.11 0.24 140 133 125
-0.20 19.02 0.24 141 134 126
-0.20 18.93 0.24 141 134 126
-0.20 18.84 0.24 141 134 128
-0.20 18.75 0.24 140 133 127
-0.20 18.65 0.24 138 133 127
-0.20 18.56 0.24 139 134 128
-0.20 18.47 0.24 140 135 129
-0.20 18.38 0.24 140 135 129
-0.20 18.29 0.24 141 134 128
-0.20 18.20 0.24 141 134 128
-0.20 18.11 0.24 141 134 128
-0.20 18.02 0.24 142 135 129
-0.20 17.93 0.24 142 135 129
-0.20 17.84 0.24 142 135 129
-0.20 17.75 0.24 142 134 131
-0.20 17.66 0.24 142 134 131
-0.20 17.56 0.24 142 134 131
-0.20 17.47 0.24 142 134 131
-0.20 17.38 0.24 143 135 132
-0.20 17.29 0.24 143 135 132
-0.20 17.20 0.24 143 135 132
-0.01 17.22 0.07 144 136 133
-0.01 17.13 0.07 145 137 134
-0.01 17.04 0.07 143 139 130
-0.01 16.95 0.07 143 139 130
-0.01 16.86 0.07 143 139 130
-0.01 16.77 0.07 143 139 130
-0.01 16.68 0.07 143 139 130
-0.01 16.59 0.07 143 139 130
-0.01 16.49 0.07 143 138 132
-0.01 16.40 0.07 143 138 132
-0.01 16.31 0.07 143 138 132
-0.01 16.22 0.07 143 138 132
-0.01 16.13 0.07 144 139 133
-0.01 16.04 0.07 144 139 133
-0.01 15.95 0.07 145 140 136
-0.01 15.86 0.07 145 140 136
-0.01 15.76 0.07 145 140 136
-0.01 15.67 0.07 145 140 136
-0.01 15.58 0.07 143 138 134
-0.01 15.49 0.07 145 140 136
-0.01 15.40 0.07 147 142 138
-0.01 15.31 0.07 147 142 138
-0.01 15.22 0.07 145 140 137
-0.01 15.12 0.07 146 141 138
-0.01 15.03 0.07 147 142 139
-0.01 14.94 0.07 145 140 137
-0.01 14.85 0.07 145 140 137
-0.01 14.76 0.07 146 141 138
-0.01 14.67 0.07 146 141 138
-0.01 14.58 0.07 147 142 138
-0.01 14.49 0.07 146 141 137
-0.01 14.39 0.07 147 142 138
-0.01 14.30 0.07 147 142 138
-0.01 14.21 0.07 147 142 136
-0.01 14.12 0.07 147 142 136
-0.01 14.03 0.07 147 142 136
-0.01 13.94 0.07 148 143 137
-0.01 13.85 0.07 147 144 137
-0.01 13.76 0.07 147 144 137
-0.01 13.66 0.07 145 145 135
-0.01 13.57 0.07 144 144 134
-0.01 13.48 0.07 147 147 137
-0.01 13.39 0.07 148 148 138
-0.01 13.30 0.07 148 150 139
-0.01 13.21 0.07 148 150 139
0.15 13.20 -0.07 148 150 139
0.15 13.11 -0.07 148 150 139
0.15 13.01 -0.07 146 147 139
0.15 12.92 -0.07 147 148 140
0.15 12.83 -0.07 147 148 142
0.15 12.74 -0.07 148 149 143
0.15 12.65 -0.07 149 150 144
0.15 12.56 -0.07 149 150 144
0.15 12.47 -0.07 149 150 144
0.15 12.37 -0.07 151 150 145
0.15 12.28 -0.07 151 150 145
0.15 12.19 -0.07 151 150 146
0.15 12.10 -0.07 150 149 145
0.15 12.01 -0.07 151 147 144
0.15 11.92 -0.07 151 147 144
0.15 11.82 -0.07 152 148 147
0.15 11.73 -0.07 153 149 148
0.15 11.64 -0.07 154 150 149
0.15 11.55 -0.07 155 151 150
0.15 11.46 -0.07 152 152 152
0.15 11.37 -0.07 152 152 152
0.15 11.27 -0.07 152 152 152
0.15 11.18 -0.07 151 151 151
0.15 11.09 -0.07 151 149 150
0.15 11.00 -0.07 152 150 151
0.15 10.91 -0.07 152 150 151
0.15 10.82 -0.07 156 155 153
0.15 10.72 -0.07 156 155 153
0.15 10.63 -0.07 155 154 152
0.15 10.54 -0.07 155 154 152
0.15 10.45 -0.07 157 153 150
0.15 10.36 -0.07 157 153 150
0.15 10.27 -0.07 156 152 149
0.15 10.17 -0.07 156 153 148
0.15 10.08 -0.07 157 154 147
0.15 9.99 -0.07 157 154 145
0.15 9.90 -0.07 157 154 145
0.15 9.81 -0.07 157 154 145
0.15 9.72 -0.07 157 154 145
0.15 9.62 -0.07 157 154 145
0.15 9.53 -0.07 156 153 144
0.15 9.44 -0.07 156 153 144
0.15 9.35 -0.07 159 159 151
0.15 9.26 -0.07 159 159 151
0.15 9.17 -0.07 158 158 150
0.15 9.07 -0.07 158 158 150
0.15 8.98 -0.07 158 158 150
0.15 8.89 -0.07 158 158 150
0.15 8.80 -0.07 158 158 150
0.15 8.71 -0.07 157 156 151
0.15 8.62 -0.07 157 159 154
0.33 8.60 -0.24 158 161 154
0.33 8.51 -0.24 156 159 152
0.33 8.41 -0.24 157 158 152
0.33 8.32 -0.24 158 159 153
0.33 8.23 -0.24 159 160 152
0.33 8.14 -0.24 158 159 151
0.33 8.05 -0.24 158 159 151
0.33 7.95 -0.24 159 160 152
0.33 7.86 -0.24 159 162 153
0.33 7.77 -0.24 159 162 153
0.33 7.68 -0.24 156 161 154
0.33 7.58 -0.24 156 161 154
0.33 7.49 -0.24 155 162 154
0.33 7.40 -0.24 157 162 155
0.33 7.31 -0.24 159 162 155
0.33 7.22 -0.24 160 161 155
0.33 7.12 -0.24 160 161 155
0.33 7.03 -0.24 160 161 155
0.33 6.94 -0.24 161 162 156
0.33 6.85 -0.24 161 162 156
0.33 6.76 -0.24 161 162 156
0.33 6.66 -0.24 162 163 157
0.33 6.57 -0.24 160 161 155
0.33 6.48 -0.24 160 161 155
0.33 6.39 -0.24 161 162 156
0.33 6.30 -0.24 161 162 156
0.33 6.20 -0.24 161 162 156
0.33 6.11 -0.24 161 162 156
0.15 5.96 -0.07 160 161 155
0.15 5.87 -0.07 160 161 155
0.15 5.77 -0.07 160 161 155
0.15 5.68 -0.07 161 162 156
0.15 5.59 -0.07 161 162 156
0.33 5.56 -0.24 161 162 157
0.33 5.47 -0.24 161 162 157
0.33 5.37 -0.24 160 162 157
0.33 5.28 -0.24 160 162 157
0.33 5.19 -0.24 162 164 159
0.33 5.10 -0.24 161 163 158
0.33 5.01 -0.24 159 161 156
0.33 4.91 -0.24 158 160 155
0.52 4.88 -0.41 157 159 154
0.52 4.79 -0.41 157 159 154
0.52 4.69 -0.41 155 160 154
0.52 4.60 -0.41 157 159 154
0.52 4.51 -0.41 159 156 151
0.52 4.42 -0.41 159 154 150
0.52 4.32 -0.41 158 151 145
0.52 4.23 -0.41 151 140 136
0.52 4.14 -0.41 151 136 133
0.52 4.05 -0.41 152 134 132
0.52 3.95 -0.41 153 132 131
0.33 3.81 -0.24 152 126 127
0.33 3.72 -0.24 151 121 123
0.33 3.63 -0.24 147 115 116
0.33 3.53 -0.24 147 111 113
0.33 3.44 -0.24 147 111 113
0.33 3.35 -0.24 150 109 113
0.33 3.26 -0.24 147 106 110
0.33 3.17 -0.24 145 104 108
0.33 3.07 -0.24 132 101 99
0.33 2.98 -0.24 134 106 105
-2.15 2.08 2.03 158 146 146
-2.44 1.92 2.30 178 169 172
-2.44 1.84 2.30 181 181 181
-2.44 1.75 2.30 177 181 184
-2.60 1.63 2.45 189 194 197
-2.60 1.54 2.45 199 207 210
-2.60 1.45 2.45 216 226 227
-2.60 1.37 2.45 228 236 238
-2.60 1.28 2.45 227 233 233
-2.60 1.20 2.45 223 227 226
-2.60 1.11 2.45 220 226 222
-2.60 1.03 2.45 219 233 218
-2.60 0.94 2.45 212 224 212
-2.60 0.86 2.45 216 216 216
-2.60 0.77 2.45 192 187 193
-2.60 0.69 2.45 158 155 162
-2.60 0.60 2.45 146 114 125
-2.60 0.52 2.45 147 59 75
-2.60 0.43 2.45 179 48 64
-2.44 0.38 2.30 194 39 45
-2.44 0.29 2.30 210 42 42
-2.44 0.21 2.30 199 31 28
-2.44 0.12 2.30 181 27 25
-2.44 0.04 2.30 234 106 107
-2.44 -0.05 2.30 235 153 155
-2.44 -0.14 2.30 204 189 186
-2.44 -0.22 2.30 178 190 186
-2.60 -0.34 2.45 189 194 190
-2.60 -0.42 2.45 195 195 193
-2.76 -0.54 2.59 200 200 198
-2.76 -0.62 2.59 205 205 203
-2.92 -0.74 2.74 211 211 209
-2.92 -0.82 2.74 218 220 217
-2.92 -0.91 2.74 220 222 219
-2.92 -0.99 2.74 220 222 219
-2.92 -1.07 2.74 221 223 220
-2.92 -1.16 2.74 222 227 223
-2.92 -1.24 2.74 225 230 226
-3.05 -1.35 2.86 223 228 224
-3.05 -1.43 2.86 216 221 217
-3.05 -1.52 2.86 208 213 209
-2.92 -1.58 2.74 203 208 204
-2.92 -1.67 2.74 196 198 197
-3.05 -1.77 2.86 181 183 182
0.86 -1.27 -0.73 172 176 175
0.86 -1.36 -0.73 167 171 170
0.86 -1.45 -0.73 165 171 169
0.86 -1.55 -0.73 165 171 169
0.86 -1.64 -0.73 159 168 165
0.86 -1.73 -0.73 164 173 170
0.86 -1.83 -0.73 163 174 170
0.68 -1.95 -0.56 164 175 171
0.68 -2.04 -0.56 164 175 169
0.68 -2.13 -0.56 165 176 170
0.68 -2.22 -0.56 166 177 171
0.68 -2.32 -0.56 167 178 172
0.68 -2.41 -0.56 168 179 173
0.68 -2.50 -0.56 171 180 177
0.68 -2.60 -0.56 173 182 179
0.68 -2.69 -0.56 175 184 181
0.68 -2.78 -0.56 176 185 182
0.68 -2.87 -0.56 176 185 182
0.68 -2.97 -0.56 177 186 183
0.68 -3.06 -0.56 179 188 185
0.86 -3.13 -0.73 180 189 186
0.86 -3.23 -0.73 178 187 184
0.68 -3.34 -0.56 179 188 185
0.68 -3.43 -0.56 181 190 187
0.68 -3.52 -0.56 181 190 187
0.68 -3.62 -0.56 181 190 187
0.68 -3.71 -0.56 181 190 187
0.68 -3.80 -0.56 181 190 187
0.68 -3.90 -0.56 181 190 187
0.68 -3.99 -0.56 183 189 185
0.68 -4.08 -0.56 184 190 186
0.68 -4.17 -0.56 185 191 187
0.68 -4.27 -0.56 186 192 188
0.68 -4.36 -0.56 184 193 188
0.68 -4.45 -0.56 184 193 188
0.68 -4.55 -0.56 185 194 189
0.68 -4.64 -0.56 185 194 191
0.68 -4.73 -0.56 184 193 190
0.68 -4.82 -0.56 183 194 190
0.68 -4.92 -0.56 183 194 190
0.68 -5.01 -0.56 183 194 190
0.68 -5.10 -0.56 184 195 191
0.68 -5.20 -0.56 184 195 191
0.68 -5.29 -0.56 184 195 191
0.68 -5.38 -0.56 185 194 191
0.86 -5.47 -0.73 185 194 191
0.86 -5.56 -0.73 185 194 191
0.86 -5.65 -0.73 185 194 191
0.86 -5.75 -0.73 186 195 192
0.86 -5.84 -0.73 186 195 192
0.86 -5.93 -0.73 187 196 193
0.86 -6.02 -0.73 187 196 193
0.86 -6.12 -0.73 186 195 192
0.86 -6.21 -0.73 186 195 192
0.86 -6.30 -0.73 187 196 193
0.86 -6.40 -0.73 188 197 194
0.86 -6.49 -0.73 188 197 194
0.86 -6.58 -0.73 189 198 195
0.86 -6.68 -0.73 189 198 195
0.86 -6.77 -0.73 189 198 195
0.86 -6.86 -0.73 189 200 196
0.86 -6.96 -0.73 191 200 197
0.86 -7.05 -0.73 191 200 197
0.86 -7.14 -0.73 191 200 197
0.86 -7.24 -0.73 191 200 197
0.86 -7.33 -0.73 193 199 197
0.86 -7.42 -0.73 194 200 198
0.68 -7.52 -0.56 193 199 197
0.68 -7.61 -0.56 193 199 197
0.86 -7.70 -0.73 194 200 198
0.86 -7.80 -0.73 194 200 198
0.86 -7.89 -0.73 194 200 198
0.86 -7.98 -0.73 194 200 198
0.86 -8.08 -0.73 192 201 198
0.86 -8.17 -0.73 191 200 197
0.86 -8.26 -0.73 195 201 199
0.86 -8.36 -0.73 195 201 199
0.86 -8.45 -0.73 195 201 199
0.86 -8.54 -0.73 196 202 200
0.86 -8.64 -0.73 197 203 201
0.86 -8.73 -0.73 198 204 202
0.86 -8.82 -0.73 196 205 202
0.86 -8.92 -0.73 197 206 203
0.86 -9.01 -0.73 196 205 202
0.86 -9.10 -0.73 200 209 206
0.86 -9.20 -0.73 200 209 206
0.86 -9.29 -0.73 200 209 206
0.86 -9.38 -0.73 200 209 206
0.86 -9.48 -0.73 199 210 206
0.86 -9.57 -0.73 199 210 206
0.86 -9.66 -0.73 195 206 202
0.86 -9.76 -0.73 196 207 203
0.86 -9.85 -0.73 198 207 204
1.05 -9.95 -0.90 198 207 204
1.05 -10.05 -0.90 199 205 203
0.86 -10.13 -0.73 200 206 204
0.86 -10.22 -0.73 201 207 205
0.86 -10.32 -0.73 203 209 207
0.86 -10.41 -0.73 204 210 208
0.86 -10.50 -0.73 203 209 207
0.86 -10.60 -0.73 203 209 207
0.86 -10.69 -0.73 203 209 207
0.86 -10.78 -0.73 201 210 207
0.86 -10.88 -0.73 202 211 208
0.86 -10.97 -0.73 202 211 208
0.86 -11.06 -0.73 203 212 209
0.86 -11.16 -0.73 203 212 209
0.86 -11.25 -0.73 203 212 209
0.86 -11.34 -0.73 204 213 210
0.86 -11.44 -0.73 205 214 211
1.05 -11.55 -0.90 205 214 211
1.05 -11.64 -0.90 205 214 211
1.05 -11.74 -0.90 205 214 211
1.05 -11.83 -0.90 204 213 210
1.05 -11.92 -0.90 204 213 210
1.05 -12.02 -0.90 204 213 210
1.05 -12.11 -0.90 204 213 210
0.86 -12.18 -0.73 204 213 210
0.86 -12.28 -0.73 203 212 209
0.86 -12.37 -0.73 202 211 208
0.86 -12.46 -0.73 201 210 207
0.86 -12.56 -0.73 207 213 211
0.86 -12.65 -0.73 206 212 210
0.86 -12.74 -0.73 206 212 210
0.86 -12.84 -0.73 205 211 209
0.86 -12.93 -0.73 206 212 210
0.86 -13.02 -0.73 206 212 210
0.86 -13.11 -0.73 207 213 211
0.86 -13.21 -0.73 207 213 211
0.86 -13.30 -0.73 207 213 211
0.86 -13.39 -0.73 206 212 210
0.86 -13.49 -0.73 207 213 211
0.86 -13.58 -0.73 209 215 213
0.86 -13.67 -0.73 210 216 214
0.86 -13.77 -0.73 210 216 214
1.05 -13.89 -0.90 209 215 213
1.05 -13.98 -0.90 207 213 211
1.05 -14.08 -0.90 208 214 212
1.05 -14.17 -0.90 208 214 212
1.05 -14.27 -0.90 208 214 212
1.05 -14.36 -0.90 208 214 212
1.05 -14.45 -0.90 209 215 213
1.05 -14.55 -0.90 210 214 213
1.05 -14.64 -0.90 210 214 213
1.05 -14.73 -0.90 208 212 211
1.05 -14.83 -0.90 208 212 211
1.05 -14.92 -0.90 209 213 212
1.05 -15.02 -0.90 209 213 212
1.05 -15.11 -0.90 210 214 213
0.86 -15.17 -0.73 211 215 214
0.86 -15.26 -0.73 211 215 214
0.86 -15.35 -0.73 210 214 213
0.86 -15.45 -0.73 209 215 213
1.05 -15.58 -0.90 209 215 213
1.05 -15.67 -0.90 209 215 213
1.05 -15.76 -0.90 209 215 213
0.86 -15.82 -0.73 209 215 213
0.86 -15.91 -0.73 209 215 213
0.86 -16.01 -0.73 209 215 213
0.86 -16.10 -0.73 209 215 213
0.86 -16.19 -0.73 209 215 213
0.86 -16.29 -0.73 210 216 214
0.86 -16.38 -0.73 210 216 214
0.86 -16.47 -0.73 210 216 214
0.86 -16.57 -0.73 210 216 214
0.86 -16.66 -0.73 209 215 213
0.86 -16.75 -0.73 209 215 213
0.86 -16.85 -0.73 210 215 211
1.05 -16.98 -0.90 210 215 211
1.05 -17.08 -0.90 210 215 211
1.05 -17.17 -0.90 210 215 211
1.05 -17.26 -0.90 210 215 211
1.05 -17.36 -0.90 210 215 211
1.05 -17.45 -0.90 212 214 211
1.05 -17.55 -0.90 211 213 210
1.05 -17.64 -0.90 213 215 214
1.05 -17.73 -0.90 212 214 213
1.05 -17.83 -0.90 212 212 212
1.05 -17.92 -0.90 212 212 212
1.05 -18.01 -0.90 212 212 212
1.05 -18.11 -0.90 211 211 211
1.05 -18.20 -0.90 211 211 211
1.05 -18.30 -0.90 210 210 210
1.05 -18.39 -0.90 211 211 211
1.05 -18.48 -0.90 212 212 212
1.05 -18.58 -0.90 211 211 211
1.05 -18.67 -0.90 210 210 210
1.05 -18.76 -0.90 209 209 209
1.05 -18.86 -0.90 209 209 209
1.05 -18.95 -0.90 210 210 210
1.05 -19.04 -0.90 209 209 209
1.05 -19.14 -0.90 211 211 211
1.05 -19.23 -0.90 212 212 212
1.05 -19.33 -0.90 213 213 213
1.05 -19.42 -0.90 213 213 213
1.05 -19.51 -0.90 212 212 212
1.05 -19.61 -0.90 212 212 212
1.05 -19.70 -0.90 212 212 212
1.05 -19.79 -0.90 213 213 213
1.05 -19.89 -0.90 214 214 214
1.05 -19.98 -0.90 214 214 214
1.05 -20.08 -0.90 214 214 214
1.05 -20.17 -0.90 213 213 215
1.05 -20.26 -0.90 212 212 214
1.05 -20.36 -0.90 213 212 217
1.05 -20.45 -0.90 213 212 217
1.05 -20.54 -0.90 212 211 216
1.05 -20.64 -0.90 212 212 214
1.05 -20.73 -0.90 211 211 213
1.05 -20.83 -0.90 212 212 212
1.05 -20.92 -0.90 213 213 213
1.05 -21.01 -0.90 214 214 214
1.05 -21.11 -0.90 214 214 214
1.05 -21.20 -0.90 213 213 213
1.05 -21.29 -0.90 212 212 212
1.05 -21.39 -0.90 212 212 212
1.05 -21.48 -0.90 211 211 211
1.05 -21.58 -0.90 211 211 211
1.05 -21.67 -0.90 211 211 211
1.05 -21.76 -0.90 211 211 211
1.05 -21.86 -0.90 211 211 211
1.05 -21.95 -0.90 212 212 212
1.23 -22.11 -1.07 212 212 212
1.23 -22.20 -1.07 212 212 212
1.23 -22.30 -1.07 212 212 212
1.23 -22.39 -1.07 212 212 212
1.23 -22.49 -1.07 212 212 212
1.23 -22.58 -1.07 211 211 211
1.23 -22.67 -1.07 212 212 210
1.23 -22.77 -1.07 211 211 209
1.23 -22.86 -1.07 211 211 209
1.23 -22.96 -1.07 211 211 209
1.23 -23.05 -1.07 212 212 210
1.23 -23.15 -1.07 212 212 210
1.23 -23.24 -1.07 213 213 213
1.23 -23.33 -1.07 213 213 213
1.23 -23.43 -1.07 212 212 212
1.23 -23.52 -1.07 212 212 212
1.23 -23.62 -1.07 211 211 213
1.23 -23.71 -1.07 210 210 212
1.23 -23.80 -1.07 211 209 212
1.23 -23.90 -1.07 212 210 213
1.23 -23.99 -1.07 213 211 214
1.23 -24.09 -1.07 214 212 215
1.23 -24.18 -1.07 212 212 212
1.23 -24.28 -1.07 212 212 212
1.23 -24.37 -1.07 212 212 212
1.23 -24.46 -1.07 212 212 212
1.23 -24.56 -1.07 212 212 212
1.23 -24.65 -1.07 212 212 212
1.23 -24.75 -1.07 213 211 212
1.23 -24.84 -1.07 213 211 212
1.23 -24.93 -1.07 213 211 212
1.23 -25.03 -1.07 214 212 213
1.23 -25.12 -1.07 205 203 204
1.05 -25.14 -0.90 222 218 219
-0.40 21.54 0.31 0 0 0
-0.40 21.45 0.31 0 0 0
-0.40 21.36 0.31 0 0 0
-0.40 21.27 0.31 0 0 0
-0.40 21.18 0.31 0 0 0
-0.40 21.08 0.31 135 130 124
-0.40 20.99 0.31 135 130 124
-0.40 20.90 0.31 135 130 124
-0.40 20.81 0.31 136 131 125
-0.40 20.72 0.31 136 131 125
-0.40 20.63 0.31 136 132 123
-0.40 20.54 0.31 135 131 122
-0.40 20.45 0.31 134 130 121
-0.24 20.47 0.16 133 129 120
-0.24 20.38 0.16 137 133 124
-0.24 20.29 0.16 136 132 123
-0.06 20.33 -0.01 135 130 124
-0.06 20.24 -0.01 135 130 124
-0.06 20.15 -0.01 135 130 126
-0.06 20.05 -0.01 136 131 127
-0.06 19.96 -0.01 137 132 128
-0.06 19.87 -0.01 137 132 128
-0.06 19.78 -0.01 138 133 127
-0.06 19.69 -0.01 137 132 126
-0.24 19.47 0.16 137 132 126
-0.24 19.38 0.16 140 133 127
-0.40 19.18 0.31 140 133 127
-0.40 19.09 0.31 141 134 126
-0.40 19.00 0.31 141 134 126
-0.40 18.91 0.31 141 134 126
-0.40 18.82 0.31 141 134 126
-0.40 18.73 0.31 140 133 125
-0.24 18.75 0.16 140 133 125
-0.24 18.65 0.16 141 134 126
-0.24 18.56 0.16 141 134 126
-0.24 18.47 0.16 142 135 127
-0.24 18.38 0.16 142 135 127
-0.24 18.29 0.16 142 135 129
-0.24 18.20 0.16 143 136 130
-0.24 18.11 0.16 143 136 130
-0.24 18.02 0.16 144 137 131
-0.24 17.93 0.16 144 137 131
-0.24 17.84 0.16 144 137 131
-0.24 17.75 0.16 144 137 131
-0.24 17.66 0.16 144 137 131
-0.24 17.56 0.16 143 135 132
-0.24 17.47 0.16 144 136 133
-0.24 17.38 0.16 145 137 134
-0.24 17.29 0.16 145 137 134
-0.24 17.20 0.16 145 137 134
-0.24 17.11 0.16 146 138 135
-0.24 17.02 0.16 146 138 135
-0.24 16.93 0.16 145 141 132
-0.24 16.84 0.16 144 140 131
-0.24 16.75 0.16 144 140 131
-0.24 16.66 0.16 144 140 131
-0.24 16.56 0.16 144 140 131
-0.24 16.47 0.16 144 140 131
-0.06 16.49 -0.01 144 139 133
-0.06 16.40 -0.01 144 139 133
-0.06 16.31 -0.01 143 138 132
-0.06 16.22 -0.01 143 138 132
-0.06 16.13 -0.01 144 139 133
-0.06 16.04 -0.01 145 140 134
-0.06 15.95 -0.01 145 140 134
-0.06 15.86 -0.01 145 140 134
-0.06 15.76 -0.01 145 140 134
-0.06 15.67 -0.01 145 140 134
-0.06 15.58 -0.01 143 140 133
-0.06 15.49 -0.01 145 142 135
-0.06 15.40 -0.01 147 144 137
-0.06 15.31 -0.01 146 143 136
-0.06 15.22 -0.01 144 141 136
-0.06 15.12 -0.01 144 140 137
-0.06 15.03 -0.01 146 142 139
-0.06 14.94 -0.01 145 141 138
-0.24 14.75 0.16 145 141 138
-0.24 14.66 0.16 145 141 138
-0.24 14.57 0.16 145 141 138
-0.24 14.48 0.16 146 143 138
-0.06 14.49 -0.01 146 143 138
-0.06 14.39 -0.01 145 142 135
-0.06 14.30 -0.01 145 142 135
-0.06 14.21 -0.01 147 143 134
-0.06 14.12 -0.01 147 143 134
-0.06 14.03 -0.01 148 144 135
-0.06 13.94 -0.01 149 145 136
-0.06 13.85 -0.01 149 146 137
-0.06 13.76 -0.01 149 146 137
-0.06 13.66 -0.01 147 144 135
-0.06 13.57 -0.01 146 143 134
-0.06 13.48 -0.01 147 147 137
-0.06 13.39 -0.01 147 147 137
-0.06 13.30 -0.01 148 148 138
-0.06 13.21 -0.01 149 149 139
-0.06 13.12 -0.01 148 150 139
-0.06 13.03 -0.01 148 150 139
-0.06 12.93 -0.01 147 149 138
-0.06 12.84 -0.01 145 148 139
-0.06 12.75 -0.01 145 148 139
-0.06 12.66 -0.01 147 148 142
-0.06 12.57 -0.01 148 149 143
-0.06 12.48 -0.01 149 150 144
-0.06 12.39 -0.01 149 150 144
-0.06 12.29 -0.01 150 149 145
-0.06 12.20 -0.01 150 149 145
-0.06 12.11 -0.01 149 148 144
-0.06 12.02 -0.01 149 148 144
-0.06 11.93 -0.01 151 147 144
-0.06 11.84 -0.01 151 147 144
-0.06 11.75 -0.01 151 147 144
-0.06 11.66 -0.01 152 148 145
0.10 11.64 -0.15 153 149 146
0.10 11.55 -0.15 154 150 149
-0.06 11.38 -0.01 150 150 148
-0.06 11.29 -0.01 151 151 151
-0.06 11.20 -0.01 152 152 152
-0.06 11.11 -0.01 152 152 152
-0.06 11.02 -0.01 153 152 150
-0.06 10.93 -0.01 154 153 151
-0.06 10.83 -0.01 156 155 153
-0.06 10.74 -0.01 155 154 152
-0.06 10.65 -0.01 155 154 152
-0.06 10.56 -0.01 155 154 152
-0.06 10.47 -0.01 155 154 152
-0.06 10.38 -0.01 157 153 152
-0.06 10.29 -0.01 157 153 152
-0.06 10.20 -0.01 157 153 152
-0.06 10.10 -0.01 157 153 150
0.10 10.08 -0.15 157 154 145
0.10 9.99 -0.15 157 155 143
0.10 9.90 -0.15 157 154 145
0.10 9.81 -0.15 157 154 145
0.10 9.72 -0.15 157 154 145
0.10 9.62 -0.15 157 154 145
0.10 9.53 -0.15 157 154 147
0.10 9.44 -0.15 157 154 147
0.10 9.35 -0.15 155 155 147
0.10 9.26 -0.15 155 155 147
0.10 9.17 -0.15 156 155 150
0.10 9.07 -0.15 156 155 150
0.10 8.98 -0.15 157 156 151
0.10 8.89 -0.15 158 157 152
0.10 8.80 -0.15 159 158 153
0.10 8.71 -0.15 160 159 154
0.10 8.62 -0.15 157 160 153
0.10 8.52 -0.15 157 160 153
0.10 8.43 -0.15 156 159 152
0.10 8.34 -0.15 157 158 150
0.10 8.25 -0.15 158 159 151
0.29 8.23 -0.32 158 159 151
0.29 8.14 -0.32 158 159 151
0.29 8.05 -0.32 158 159 151
0.29 7.95 -0.32 159 160 152
0.29 7.86 -0.32 159 162 155
0.29 7.77 -0.32 159 162 155
0.29 7.68 -0.32 156 161 154
0.29 7.58 -0.32 156 161 154
0.29 7.49 -0.32 156 161 155
0.10 7.33 -0.15 159 161 156
0.10 7.24 -0.15 159 162 155
0.10 7.15 -0.15 160 161 155
0.10 7.06 -0.15 160 161 155
0.10 6.97 -0.15 161 162 156
0.10 6.87 -0.15 161 162 156
0.10 6.78 -0.15 162 163 157
0.10 6.69 -0.15 162 163 157
0.10 6.60 -0.15 162 163 157
0.10 6.51 -0.15 160 161 155
0.10 6.42 -0.15 161 162 156
0.10 6.32 -0.15 161 162 156
0.10 6.23 -0.15 161 162 156
0.10 6.14 -0.15 161 162 156
0.10 6.05 -0.15 161 162 156
0.10 5.96 -0.15 161 162 156
0.10 5.87 -0.15 160 161 155
0.10 5.77 -0.15 160 161 155
0.10 5.68 -0.15 161 162 156
0.10 5.59 -0.15 161 162 156
0.10 5.50 -0.15 161 162 157
0.10 5.41 -0.15 161 162 157
0.10 5.32 -0.15 160 162 157
0.10 5.22 -0.15 160 162 157
0.10 5.13 -0.15 162 164 159
0.29 5.10 -0.32 161 163 158
0.29 5.01 -0.32 159 161 158
0.29 4.91 -0.32 158 160 157
0.29 4.82 -0.32 157 159 156
0.29 4.73 -0.32 156 158 155
0.29 4.64 -0.32 155 160 156
0.29 4.55 -0.32 154 160 156
0.29 4.45 -0.32 152 162 153
0.29 4.36 -0.32 149 161 151
0.29 4.27 -0.32 148 158 149
0.29 4.18 -0.32 146 153 145
0.29 4.09 -0.32 145 150 143
0.29 3.99 -0.32 143 148 141
0.29 3.90 -0.32 143 146 139
0.29 3.81 -0.32 145 146 140
0.29 3.72 -0.32 142 141 136
0.10 3.57 -0.15 137 136 132
0.10 3.48 -0.15 137 133 130
0.10 3.39 -0.15 137 132 129
0.10 3.30 -0.15 136 131 128
0.29 3.26 -0.32 136 128 126
0.29 3.17 -0.32 133 125 123
0.29 3.07 -0.32 130 120 121
0.29 2.98 -0.32 130 120 121
-2.04 2.12 1.81 169 167 168
-2.48 1.92 2.23 181 181 181
-2.48 1.84 2.23 186 188 187
-2.64 1.71 2.37 186 190 189
-2.64 1.63 2.37 197 203 201
-2.64 1.54 2.37 200 206 204
-2.64 1.45 2.37 204 210 208
-2.64 1.37 2.37 210 216 214
-2.64 1.28 2.37 220 226 224
-2.64 1.20 2.37 223 229 227
-2.64 1.11 2.37 228 230 227
-2.64 1.03 2.37 225 222 215
-2.64 0.94 2.37 218 213 209
-2.64 0.86 2.37 225 221 222
-2.64 0.77 2.37 204 201 208
-2.64 0.69 2.37 177 176 182
-2.64 0.60 2.37 150 135 142
-2.64 0.52 2.37 124 82 86
-2.48 0.46 2.23 141 62 65
-2.48 0.38 2.23 173 50 52
-2.48 0.29 2.23 198 54 53
-2.48 0.21 2.23 186 48 37
-2.48 0.12 2.23 168 29 22
-2.48 0.04 2.23 213 70 72
-2.48 -0.05 2.23 246 133 137
-2.48 -0.14 2.23 233 184 180
-2.48 -0.22 2.23 198 183 178
-2.48 -0.31 2.23 195 190 186
-2.48 -0.39 2.23 195 194 192
-2.64 -0.51 2.37 199 198 196
-2.80 -0.62 2.52 202 201 199
-2.80 -0.71 2.52 204 204 202
-2.80 -0.79 2.52 212 212 210
-2.96 -0.91 2.66 216 216 214
-2.96 -0.99 2.66 215 217 214
-2.96 -1.07 2.66 214 216 213
-2.96 -1.16 2.66 215 220 216
-3.09 -1.27 2.78 218 223 219
-3.09 -1.35 2.78 216 221 217
-3.09 -1.43 2.78 208 213 209
-3.09 -1.52 2.78 199 204 200
-3.09 -1.60 2.78 194 198 197
-3.09 -1.69 2.78 191 193 192
-3.09 -1.77 2.78 177 178 180
0.82 -1.27 -0.81 169 173 174
0.82 -1.36 -0.81 166 170 171
0.82 -1.45 -0.81 165 171 171
0.82 -1.55 -0.81 165 171 171
0.82 -1.64 -0.81 159 168 165
0.63 -1.76 -0.64 166 175 172
0.63 -1.85 -0.64 165 176 172
0.47 -1.97 -0.49 165 176 172
0.47 -2.06 -0.49 165 176 170
0.47 -2.15 -0.49 166 177 171
0.47 -2.24 -0.49 167 178 172
0.47 -2.34 -0.49 167 178 172
0.63 -2.41 -0.64 167 178 172
0.63 -2.50 -0.64 171 182 178
0.63 -2.60 -0.64 172 183 179
0.63 -2.69 -0.64 174 185 181
0.63 -2.78 -0.64 174 185 181
0.63 -2.87 -0.64 174 183 180
0.63 -2.97 -0.64 174 183 180
0.63 -3.06 -0.64 175 184 181
0.63 -3.15 -0.64 176 185 182
0.63 -3.25 -0.64 177 186 183
0.63 -3.34 -0.64 179 188 185
0.63 -3.43 -0.64 182 188 186
0.63 -3.52 -0.64 183 189 187
0.63 -3.62 -0.64 183 189 187
0.63 -3.71 -0.64 183 189 187
0.63 -3.80 -0.64 183 189 187
0.63 -3.90 -0.64 183 189 187
0.47 -4.00 -0.49 182 191 186
0.47 -4.09 -0.49 183 192 187
0.47 -4.19 -0.49 183 192 187
0.47 -4.28 -0.49 183 192 187
0.63 -4.36 -0.64 183 192 187
0.63 -4.45 -0.64 184 193 188
0.63 -4.55 -0.64 185 194 189
0.63 -4.64 -0.64 184 193 190
0.63 -4.73 -0.64 184 193 190
0.63 -4.82 -0.64 184 195 191
0.63 -4.92 -0.64 183 194 190
0.63 -5.01 -0.64 183 194 190
0.63 -5.10 -0.64 183 194 190
0.63 -5.20 -0.64 184 195 191
0.63 -5.29 -0.64 184 195 191
0.63 -5.38 -0.64 186 195 192
0.63 -5.47 -0.64 186 195 192
0.63 -5.57 -0.64 186 195 192
0.63 -5.66 -0.64 186 195 192
0.63 -5.75 -0.64 187 196 193
0.63 -5.85 -0.64 187 196 193
0.63 -5.94 -0.64 188 197 194
0.63 -6.03 -0.64 188 197 194
0.63 -6.12 -0.64 186 195 192
0.63 -6.22 -0.64 187 196 193
0.63 -6.31 -0.64 188 197 194
0.63 -6.40 -0.64 188 197 194
0.63 -6.50 -0.64 189 198 195
0.63 -6.59 -0.64 189 198 195
0.63 -6.68 -0.64 189 198 195
0.63 -6.77 -0.64 189 198 195
0.63 -6.87 -0.64 190 201 197
0.63 -6.96 -0.64 192 201 198
0.63 -7.05 -0.64 192 201 198
0.63 -7.15 -0.64 191 200 197
0.63 -7.24 -0.64 191 200 197
0.63 -7.33 -0.64 193 199 197
0.63 -7.42 -0.64 193 199 197
0.63 -7.52 -0.64 196 202 200
0.63 -7.61 -0.64 195 201 199
0.63 -7.70 -0.64 195 201 199
0.63 -7.80 -0.64 195 201 199
0.63 -7.89 -0.64 195 201 199
0.63 -7.98 -0.64 196 202 200
0.82 -8.08 -0.81 194 203 200
0.82 -8.17 -0.81 195 204 201
0.82 -8.26 -0.81 196 202 200
0.82 -8.36 -0.81 196 202 200
0.82 -8.45 -0.81 196 202 200
0.82 -8.54 -0.81 196 202 200
0.82 -8.64 -0.81 196 202 200
0.82 -8.73 -0.81 197 203 201
0.82 -8.82 -0.81 196 205 202
0.82 -8.92 -0.81 196 205 202
0.82 -9.01 -0.81 197 206 203
0.82 -9.10 -0.81 197 206 203
0.82 -9.20 -0.81 198 207 204
0.82 -9.29 -0.81 200 209 206
0.82 -9.38 -0.81 201 210 207
0.82 -9.48 -0.81 200 211 207
0.82 -9.57 -0.81 199 210 206
0.82 -9.66 -0.81 198 207 204
0.82 -9.76 -0.81 199 208 205
0.82 -9.85 -0.81 200 209 206
0.82 -9.94 -0.81 199 208 205
0.82 -10.04 -0.81 200 206 204
0.82 -10.13 -0.81 200 206 204
0.82 -10.22 -0.81 202 208 206
0.82 -10.32 -0.81 203 209 207
0.82 -10.41 -0.81 201 207 205
0.82 -10.50 -0.81 201 207 205
0.82 -10.60 -0.81 202 208 206
0.82 -10.69 -0.81 203 209 207
0.63 -10.77 -0.64 201 210 207
0.63 -10.86 -0.64 201 210 207
0.63 -10.95 -0.64 200 211 207
0.63 -11.05 -0.64 201 210 207
0.82 -11.16 -0.81 202 211 208
0.82 -11.25 -0.81 205 211 209
0.82 -11.34 -0.81 206 212 210
0.82 -11.44 -0.81 206 212 210
0.82 -11.53 -0.81 207 213 211
0.82 -11.62 -0.81 206 212 210
0.82 -11.72 -0.81 206 212 210
0.82 -11.81 -0.81 207 213 211
0.82 -11.90 -0.81 207 213 211
0.82 -12.00 -0.81 208 214 212
0.82 -12.09 -0.81 208 214 212
0.82 -12.18 -0.81 207 213 211
0.82 -12.28 -0.81 206 212 210
0.63 -12.35 -0.64 206 212 210
0.63 -12.44 -0.64 205 211 209
0.63 -12.53 -0.64 207 213 211
0.63 -12.62 -0.64 207 213 211
0.63 -12.72 -0.64 207 213 211
0.63 -12.81 -0.64 208 214 212
0.63 -12.90 -0.64 208 214 212
0.63 -13.00 -0.64 208 214 212
0.82 -13.11 -0.81 208 214 212
0.82 -13.21 -0.81 208 214 212
0.82 -13.30 -0.81 207 213 211
0.82 -13.39 -0.81 206 212 210
0.82 -13.49 -0.81 206 212 210
0.82 -13.58 -0.81 208 214 212
0.82 -13.67 -0.81 209 215 213
0.82 -13.77 -0.81 210 216 214
0.82 -13.86 -0.81 209 215 213
0.82 -13.95 -0.81 208 214 212
0.82 -14.05 -0.81 208 214 212
0.82 -14.14 -0.81 208 214 212
0.82 -14.23 -0.81 208 214 212
0.82 -14.33 -0.81 208 214 212
1.00 -14.45 -0.98 208 214 212
1.00 -14.55 -0.98 209 213 212
1.00 -14.64 -0.98 209 213 212
1.00 -14.73 -0.98 207 211 210
1.00 -14.83 -0.98 208 212 211
0.82 -14.89 -0.81 209 213 212
0.82 -14.98 -0.81 209 213 212
0.82 -15.07 -0.81 210 214 213
0.82 -15.17 -0.81 210 214 213
0.82 -15.26 -0.81 210 214 213
0.82 -15.35 -0.81 210 214 213
0.82 -15.45 -0.81 209 215 213
0.82 -15.54 -0.81 208 214 212
0.82 -15.63 -0.81 208 214 212
0.82 -15.73 -0.81 208 214 212
0.82 -15.82 -0.81 208 214 212
0.82 -15.91 -0.81 209 215 213
0.82 -16.01 -0.81 209 215 213
0.82 -16.10 -0.81 209 215 213
0.82 -16.19 -0.81 209 215 213
0.82 -16.29 -0.81 210 216 214
0.82 -16.38 -0.81 210 216 214
0.82 -16.47 -0.81 210 216 214
0.82 -16.57 -0.81 210 216 214
0.82 -16.66 -0.81 210 216 214
0.82 -16.75 -0.81 209 215 213
0.82 -16.85 -0.81 209 215 211
0.82 -16.94 -0.81 209 215 211
0.82 -17.03 -0.81 209 215 211
0.82 -17.13 -0.81 209 215 211
1.00 -17.26 -0.98 210 215 211
1.00 -17.36 -0.98 210 215 211
1.00 -17.45 -0.98 210 215 211
1.00 -17.55 -0.98 209 214 210
1.00 -17.64 -0.98 212 214 213
1.00 -17.73 -0.98 212 214 213
1.00 -17.83 -0.98 212 212 212
1.00 -17.92 -0.98 212 212 212
1.00 -18.01 -0.98 211 211 211
1.00 -18.11 -0.98 211 211 211
1.00 -18.20 -0.98 211 211 211
1.00 -18.30 -0.98 210 210 210
1.00 -18.39 -0.98 211 211 211
1.00 -18.48 -0.98 212 212 212
1.00 -18.58 -0.98 212 212 212
1.00 -18.67 -0.98 211 211 211
1.00 -18.76 -0.98 210 210 210
1.00 -18.86 -0.98 210 210 210
1.00 -18.95 -0.98 211 211 211
0.82 -18.99 -0.81 212 212 212
0.82 -19.09 -0.81 213 213 213
0.82 -19.18 -0.81 213 213 213
0.82 -19.27 -0.81 213 213 213
0.82 -19.37 -0.81 213 213 213
0.82 -19.46 -0.81 213 213 213
0.82 -19.55 -0.81 213 213 213
1.00 -19.70 -0.98 214 214 214
1.00 -19.79 -0.98 214 214 214
1.00 -19.89 -0.98 214 214 214
1.00 -19.98 -0.98 214 214 214
1.00 -20.08 -0.98 213 213 213
1.00 -20.17 -0.98 212 212 214
1.00 -20.26 -0.98 212 212 214
1.00 -20.36 -0.98 214 213 218
1.00 -20.45 -0.98 212 211 216
1.00 -20.54 -0.98 211 210 215
1.00 -20.64 -0.98 211 211 213
1.00 -20.73 -0.98 210 210 212
1.00 -20.83 -0.98 211 211 211
1.00 -20.92 -0.98 212 212 212
1.00 -21.01 -0.98 212 212 212
1.00 -21.11 -0.98 213 213 213
1.00 -21.20 -0.98 212 212 212
1.00 -21.29 -0.98 211 211 211
0.82 -21.32 -0.81 211 211 211
0.82 -21.42 -0.81 211 211 211
1.00 -21.58 -0.98 211 211 211
1.00 -21.67 -0.98 211 211 211
1.00 -21.76 -0.98 211 211 211
1.00 -21.86 -0.98 211 211 211
1.00 -21.95 -0.98 213 213 213
1.00 -22.04 -0.98 213 213 213
1.00 -22.14 -0.98 213 213 213
1.00 -22.23 -0.98 213 213 213
1.18 -22.39 -1.15 213 213 213
1.18 -22.49 -1.15 213 213 213
1.18 -22.58 -1.15 213 213 213
1.18 -22.67 -1.15 209 211 208
1.18 -22.77 -1.15 210 212 209
1.18 -22.86 -1.15 212 212 210
1.18 -22.96 -1.15 212 212 210
1.18 -23.05 -1.15 213 213 211
1.18 -23.15 -1.15 213 213 211
1.18 -23.24 -1.15 213 213 213
1.18 -23.33 -1.15 213 213 213
1.00 -23.36 -0.98 214 212 213
1.00 -23.45 -0.98 214 212 213
1.00 -23.54 -0.98 213 211 212
1.00 -23.64 -0.98 212 210 211
1.00 -23.73 -0.98 212 210 211
1.00 -23.82 -0.98 212 210 211
1.00 -23.92 -0.98 212 210 211
1.00 -24.01 -0.98 212 210 211
1.18 -24.18 -1.15 214 212 213
1.18 -24.28 -1.15 214 212 213
1.18 -24.37 -1.15 214 212 213
1.18 -24.46 -1.15 214 212 213
1.18 -24.56 -1.15 214 212 213
1.18 -24.65 -1.15 214 212 213
1.18 -24.75 -1.15 214 212 213
1.18 -24.84 -1.15 214 212 213
1.00 -24.86 -0.98 213 211 212
1.00 -24.95 -0.98 212 210 211
1.00 -25.04 -0.98 208 206 207
1.00 -25.14 -0.98 220 216 217
-0.44 21.54 0.23 0 0 0
-0.63 21.31 0.40 0 0 0
-0.63 21.22 0.40 0 0 0
-0.63 21.13 0.40 0 0 0
-0.63 21.04 0.40 0 0 0
-0.63 20.95 0.40 134 129 123
-0.44 20.99 0.23 134 129 123
-0.44 20.90 0.23 135 130 124
-0.44 20.81 0.23 136 131 125
-0.44 20.72 0.23 136 131 125
-0.44 20.63 0.23 136 132 123
-0.44 20.54 0.23 135 131 122
-0.44 20.45 0.23 134 130 121
-0.44 20.36 0.23 133 129 120
-0.44 20.27 0.23 137 133 124
-0.44 20.18 0.23 136 132 123
-0.29 20.20 0.08 135 130 124
-0.29 20.11 0.08 134 129 123
-0.29 20.02 0.08 134 129 123
-0.29 19.93 0.08 135 130 124
-0.29 19.84 0.08 137 132 128
-0.29 19.75 0.08 138 133 129
-0.29 19.65 0.08 138 133 127
-0.29 19.56 0.08 137 132 126
-0.44 19.37 0.23 137 132 126
-0.44 19.27 0.23 138 133 127
-0.44 19.18 0.23 138 133 127
-0.44 19.09 0.23 141 134 126
-0.44 19.00 0.23 142 135 127
-0.44 18.91 0.23 140 133 125
-0.44 18.82 0.23 140 133 125
-0.44 18.73 0.23 140 133 125
-0.44 18.64 0.23 140 133 125
-0.44 18.55 0.23 142 135 127
-0.44 18.46 0.23 143 136 128
-0.44 18.37 0.23 143 136 128
-0.44 18.28 0.23 143 136 128
-0.44 18.19 0.23 142 135 129
-0.29 18.20 0.08 142 135 129
-0.29 18.11 0.08 143 136 130
-0.29 18.02 0.08 143 136 130
-0.29 17.93 0.08 143 136 130
-0.29 17.84 0.08 143 136 130
-0.29 17.75 0.08 143 136 130
-0.29 17.66 0.08 143 136 130
-0.44 17.46 0.23 143 135 132
-0.44 17.37 0.23 143 135 132
-0.44 17.28 0.23 144 136 133
-0.44 17.19 0.23 144 136 133
-0.44 17.10 0.23 144 136 133
-0.44 17.01 0.23 145 137 134
-0.44 16.92 0.23 146 138 135
-0.44 16.83 0.23 141 136 130
-0.44 16.74 0.23 142 137 131
-0.44 16.65 0.23 142 137 131
-0.44 16.56 0.23 142 137 131
-0.44 16.47 0.23 143 138 132
-0.44 16.38 0.23 143 138 132
-0.44 16.29 0.23 144 139 133
-0.29 16.29 0.08 144 139 133
-0.29 16.20 0.08 144 139 133
-0.29 16.11 0.08 144 139 133
-0.29 16.02 0.08 144 139 133
-0.29 15.93 0.08 145 140 134
-0.29 15.84 0.08 145 140 134
-0.10 15.86 -0.09 145 140 134
-0.10 15.76 -0.09 145 140 134
-0.10 15.67 -0.09 145 140 134
-0.10 15.58 -0.09 144 141 132
-0.10 15.49 -0.09 146 143 134
-0.10 15.40 -0.09 147 144 137
-0.10 15.31 -0.09 147 144 137
-0.10 15.22 -0.09 146 143 138
-0.10 15.12 -0.09 146 142 139
-0.29 14.93 0.08 147 143 140
-0.29 14.84 0.08 146 142 139
-0.29 14.75 0.08 146 142 139
-0.29 14.66 0.08 146 142 139
-0.29 14.57 0.08 146 142 139
-0.29 14.48 0.08 147 144 139
-0.29 14.38 0.08 147 144 139
-0.29 14.29 0.08 146 143 136
-0.29 14.20 0.08 145 142 135
-0.29 14.11 0.08 147 143 134
-0.29 14.02 0.08 147 143 134
-0.29 13.93 0.08 148 144 135
-0.29 13.84 0.08 149 145 136
-0.29 13.75 0.08 150 146 137
-0.10 13.76 -0.09 149 145 136
-0.10 13.66 -0.09 148 144 135
-0.10 13.57 -0.09 146 142 133
-0.10 13.48 -0.09 148 145 138
-0.10 13.39 -0.09 148 145 138
-0.10 13.30 -0.09 147 147 139
-0.10 13.21 -0.09 147 147 139
-0.10 13.12 -0.09 146 147 139
-0.10 13.03 -0.09 146 147 139
-0.10 12.93 -0.09 146 147 139
-0.10 12.84 -0.09 145 148 141
-0.10 12.75 -0.09 145 148 141
-0.10 12.66 -0.09 145 148 141
-0.10 12.57 -0.09 146 149 142
-0.10 12.48 -0.09 148 149 144
-0.10 12.39 -0.09 149 150 145
-0.10 12.29 -0.09 149 150 145
-0.10 12.20 -0.09 149 150 145
-0.10 12.11 -0.09 148 147 143
-0.10 12.02 -0.09 149 148 144
-0.10 11.93 -0.09 151 147 144
-0.10 11.84 -0.09 151 147 144
-0.10 11.75 -0.09 151 148 143
-0.29 11.57 0.08 151 148 143
-0.29 11.48 0.08 153 148 144
-0.29 11.39 0.08 153 149 146
-0.29 11.29 0.08 151 150 148
-0.29 11.20 0.08 150 150 150
-0.29 11.11 0.08 151 151 151
-0.29 11.02 0.08 151 151 151
-0.10 11.02 -0.09 151 150 148
-0.10 10.93 -0.09 151 150 148
-0.10 10.83 -0.09 153 152 150
-0.10 10.74 -0.09 152 151 147
-0.10 10.65 -0.09 152 151 147
-0.10 10.56 -0.09 153 152 150
-0.10 10.47 -0.09 153 152 150
-0.10 10.38 -0.09 156 152 151
-0.10 10.29 -0.09 157 153 152
-0.10 10.20 -0.09 157 153 154
-0.10 10.10 -0.09 158 154 153
-0.10 10.01 -0.09 157 154 149
-0.10 9.92 -0.09 158 155 148
-0.10 9.83 -0.09 158 155 148
-0.10 9.74 -0.09 159 156 149
-0.10 9.65 -0.09 159 156 149
-0.10 9.56 -0.09 159 156 149
-0.10 9.46 -0.09 159 156 149
0.06 9.44 -0.23 159 156 149
0.06 9.35 -0.23 156 155 150
0.06 9.26 -0.23 156 155 150
0.06 9.17 -0.23 157 156 151
0.06 9.07 -0.23 157 156 151
0.06 8.98 -0.23 157 156 151
0.06 8.89 -0.23 158 157 152
0.06 8.80 -0.23 159 158 154
0.06 8.71 -0.23 160 159 155
0.06 8.62 -0.23 156 157 151
0.06 8.52 -0.23 157 158 152
0.06 8.43 -0.23 157 158 152
0.06 8.34 -0.23 157 157 149
0.06 8.25 -0.23 157 157 149
0.06 8.16 -0.23 158 158 150
0.06 8.07 -0.23 158 158 150
0.06 7.97 -0.23 158 158 150
0.06 7.88 -0.23 159 159 151
0.06 7.79 -0.23 158 159 153
0.06 7.70 -0.23 159 160 154
0.06 7.61 -0.23 157 159 154
0.06 7.52 -0.23 157 159 154
0.06 7.42 -0.23 155 160 154
0.06 7.33 -0.23 158 160 155
0.06 7.24 -0.23 159 161 156
0.06 7.15 -0.23 160 161 156
0.06 7.06 -0.23 161 162 156
0.06 6.97 -0.23 161 162 156
0.06 6.87 -0.23 162 163 157
0.06 6.78 -0.23 162 163 157
0.06 6.69 -0.23 162 163 155
0.06 6.60 -0.23 161 162 154
0.06 6.51 -0.23 161 162 154
0.06 6.42 -0.23 161 162 156
0.06 6.32 -0.23 161 162 156
0.06 6.23 -0.23 161 162 156
0.06 6.14 -0.23 161 162 156
0.06 6.05 -0.23 161 162 157
0.06 5.96 -0.23 161 162 157
0.06 5.87 -0.23 161 162 156
0.06 5.77 -0.23 161 162 156
0.06 5.68 -0.23 161 162 156
0.06 5.59 -0.23 161 162 156
0.06 5.50 -0.23 161 162 157
0.06 5.41 -0.23 161 162 157
0.06 5.32 -0.23 159 161 156
0.06 5.22 -0.23 159 161 156
0.06 5.13 -0.23 161 163 160
0.06 5.04 -0.23 160 162 159
0.06 4.95 -0.23 159 161 158
0.24 4.91 -0.40 158 160 157
0.24 4.82 -0.40 157 159 156
0.24 4.73 -0.40 157 159 156
0.24 4.64 -0.40 155 159 158
0.24 4.55 -0.40 157 159 158
0.24 4.45 -0.40 160 159 155
0.24 4.36 -0.40 160 156 153
0.24 4.27 -0.40 159 154 151
0.24 4.18 -0.40 158 153 150
0.24 4.09 -0.40 156 151 148
0.24 3.99 -0.40 153 148 145
0.06 3.85 -0.23 150 145 142
0.06 3.76 -0.23 153 144 145
0.06 3.67 -0.23 151 142 143
0.06 3.57 -0.23 151 141 142
0.06 3.48 -0.23 151 141 142
0.06 3.39 -0.23 151 141 142
0.06 3.30 -0.23 149 139 140
0.06 3.21 -0.23 146 136 137
0.06 3.12 -0.23 142 133 136
0.06 3.02 -0.23 136 136 138
0.06 2.93 -0.23 136 137 141
-2.69 1.97 2.30 169 173 174
-2.53 1.92 2.15 175 179 180
-2.69 1.80 2.30 182 186 187
-2.69 1.71 2.30 191 195 196
-2.69 1.63 2.30 198 204 204
-2.69 1.54 2.30 202 208 208
-2.69 1.45 2.30 208 214 212
-2.69 1.37 2.30 214 220 218
-2.69 1.28 2.30 218 224 222
-2.69 1.20 2.30 216 222 220
-2.69 1.11 2.30 215 219 218
-2.69 1.03 2.30 228 233 227
-2.69 0.94 2.30 219 221 218
-2.69 0.86 2.30 224 224 226
-2.69 0.77 2.30 214 207 214
-2.69 0.69 2.30 206 188 200
-2.69 0.60 2.30 185 151 165
-2.69 0.52 2.30 151 99 111
-2.53 0.46 2.15 146 62 75
-2.53 0.38 2.15 180 52 67
-2.53 0.29 2.15 194 42 57
-2.53 0.21 2.15 194 43 52
-2.53 0.12 2.15 188 32 43
-2.53 0.04 2.15 186 29 46
-2.53 -0.05 2.15 225 94 108
-2.53 -0.14 2.15 243 173 175
-1.92 -0.11 1.59 205 174 172
-1.92 -0.19 1.59 191 179 179
0.77 -1.27 -0.89 166 172 172
0.77 -1.36 -0.89 164 170 170
0.58 -1.48 -0.72 162 171 170
0.58 -1.57 -0.72 163 172 171
0.58 -1.67 -0.72 160 169 168
0.43 -1.78 -0.57 166 175 174
0.43 -1.87 -0.57 163 174 170
0.24 -1.99 -0.40 162 173 169
0.24 -2.08 -0.40 162 173 169
0.24 -2.18 -0.40 163 174 170
0.43 -2.24 -0.57 164 175 169
0.43 -2.34 -0.57 165 176 170
0.43 -2.43 -0.57 165 174 169
0.43 -2.52 -0.57 170 181 177
0.43 -2.61 -0.57 170 181 177
0.43 -2.71 -0.57 171 182 178
0.43 -2.80 -0.57 172 183 179
0.43 -2.89 -0.57 174 183 180
0.43 -2.98 -0.57 175 184 181
0.43 -3.08 -0.57 176 185 182
0.43 -3.17 -0.57 176 185 182
0.43 -3.26 -0.57 179 185 183
0.43 -3.35 -0.57 180 186 184
0.43 -3.45 -0.57 182 188 186
0.43 -3.54 -0.57 183 189 187
0.43 -3.63 -0.57 184 188 187
0.43 -3.72 -0.57 184 188 187
0.43 -3.82 -0.57 184 188 187
0.43 -3.91 -0.57 184 188 187
0.43 -4.00 -0.57 183 192 187
0.43 -4.09 -0.57 183 192 187
0.43 -4.19 -0.57 184 193 188
0.43 -4.28 -0.57 183 192 187
0.43 -4.37 -0.57 182 191 186
0.43 -4.46 -0.57 183 192 187
0.43 -4.56 -0.57 185 194 189
0.43 -4.65 -0.57 184 193 190
0.43 -4.74 -0.57 184 193 190
0.43 -4.83 -0.57 185 194 191
0.43 -4.93 -0.57 185 194 191
0.43 -5.02 -0.57 185 194 191
0.43 -5.11 -0.57 185 194 191
0.43 -5.20 -0.57 185 194 191
0.43 -5.30 -0.57 186 195 192
0.43 -5.39 -0.57 186 195 192
0.43 -5.48 -0.57 186 195 192
0.43 -5.57 -0.57 186 195 192
0.43 -5.67 -0.57 187 196 193
0.43 -5.76 -0.57 187 196 193
0.43 -5.85 -0.57 188 197 194
0.43 -5.94 -0.57 189 198 195
0.58 -6.03 -0.72 189 198 195
0.58 -6.12 -0.72 188 197 194
0.43 -6.22 -0.57 188 197 194
0.43 -6.31 -0.57 188 197 194
0.43 -6.41 -0.57 189 198 195
0.43 -6.50 -0.57 189 198 195
0.58 -6.59 -0.72 189 198 195
0.58 -6.68 -0.72 189 198 195
0.43 -6.78 -0.57 189 198 195
0.43 -6.87 -0.57 190 201 197
0.43 -6.96 -0.57 192 201 198
0.43 -7.05 -0.57 192 201 198
0.43 -7.15 -0.57 191 200 197
0.43 -7.24 -0.57 191 200 197
0.43 -7.33 -0.57 193 199 197
0.43 -7.42 -0.57 193 199 197
0.43 -7.52 -0.57 196 202 200
0.43 -7.61 -0.57 196 202 200
0.43 -7.70 -0.57 195 201 199
0.43 -7.79 -0.57 195 201 199
0.43 -7.89 -0.57 195 201 199
0.43 -7.98 -0.57 196 202 200
0.58 -8.07 -0.72 195 204 201
0.58 -8.17 -0.72 196 205 202
0.58 -8.26 -0.72 197 203 201
0.58 -8.35 -0.72 197 203 201
0.58 -8.45 -0.72 196 202 200
0.58 -8.54 -0.72 196 202 200
0.58 -8.63 -0.72 197 203 201
0.58 -8.72 -0.72 197 203 201
0.58 -8.82 -0.72 196 205 202
0.58 -8.91 -0.72 197 206 203
0.58 -9.00 -0.72 198 207 204
0.58 -9.10 -0.72 196 205 202
0.58 -9.19 -0.72 196 205 202
0.58 -9.28 -0.72 198 207 204
0.58 -9.37 -0.72 199 208 205
0.58 -9.47 -0.72 197 208 204
0.58 -9.56 -0.72 196 207 203
0.58 -9.65 -0.72 198 207 204
0.58 -9.75 -0.72 198 207 204
0.77 -9.85 -0.89 200 206 204
0.77 -9.94 -0.89 200 206 204
0.77 -10.04 -0.89 200 206 204
0.58 -10.12 -0.72 200 206 204
0.58 -10.21 -0.72 200 206 204
0.58 -10.30 -0.72 201 207 205
0.58 -10.40 -0.72 200 206 204
0.58 -10.49 -0.72 201 207 205
0.58 -10.58 -0.72 202 208 206
0.58 -10.67 -0.72 203 209 207
0.58 -10.77 -0.72 201 210 207
0.58 -10.86 -0.72 201 210 207
0.58 -10.95 -0.72 199 210 206
0.58 -11.05 -0.72 200 209 206
0.58 -11.14 -0.72 202 211 208
0.58 -11.23 -0.72 204 210 208
0.58 -11.32 -0.72 205 211 209
0.77 -11.44 -0.89 204 210 208
0.77 -11.53 -0.89 204 210 208
0.77 -11.62 -0.89 204 210 208
0.77 -11.72 -0.89 204 210 208
0.77 -11.81 -0.89 204 210 208
0.77 -11.90 -0.89 205 211 209
0.77 -12.00 -0.89 207 213 211
0.77 -12.09 -0.89 207 213 211
0.58 -12.16 -0.72 207 213 211
0.58 -12.25 -0.72 206 212 210
0.58 -12.35 -0.72 206 212 210
0.58 -12.44 -0.72 207 213 211
0.58 -12.53 -0.72 207 213 211
0.58 -12.62 -0.72 208 214 212
0.58 -12.72 -0.72 208 214 212
0.58 -12.81 -0.72 209 215 213
0.58 -12.90 -0.72 209 215 213
0.58 -13.00 -0.72 208 214 212
0.58 -13.09 -0.72 208 214 212
0.58 -13.18 -0.72 208 214 212
0.58 -13.27 -0.72 207 213 211
0.58 -13.37 -0.72 206 212 210
0.58 -13.46 -0.72 206 212 210
0.58 -13.55 -0.72 208 214 212
0.77 -13.67 -0.89 209 215 213
0.77 -13.77 -0.89 209 215 213
0.77 -13.86 -0.89 209 215 213
0.77 -13.95 -0.89 210 216 214
0.77 -14.05 -0.89 210 216 214
0.77 -14.14 -0.89 209 215 213
0.77 -14.23 -0.89 209 215 213
0.77 -14.33 -0.89 208 214 212
0.77 -14.42 -0.89 207 213 211
0.77 -14.51 -0.89 208 212 211
0.77 -14.61 -0.89 207 211 210
0.77 -14.70 -0.89 207 211 210
0.77 -14.79 -0.89 208 212 211
0.77 -14.89 -0.89 209 213 212
0.77 -14.98 -0.89 209 213 212
0.77 -15.07 -0.89 209 213 212
0.77 -15.17 -0.89 209 213 212
0.77 -15.26 -0.89 209 213 212
0.77 -15.35 -0.89 210 214 213
0.77 -15.45 -0.89 208 214 212
0.77 -15.54 -0.89 208 214 212
0.77 -15.63 -0.89 208 214 212
0.77 -15.73 -0.89 208 214 212
0.77 -15.82 -0.89 208 214 212
0.58 -15.87 -0.72 210 214 213
0.58 -15.97 -0.72 210 214 213
0.77 -16.10 -0.89 209 213 212
0.77 -16.19 -0.89 209 213 212
0.77 -16.29 -0.89 209 213 212
0.77 -16.38 -0.89 210 214 213
0.77 -16.47 -0.89 210 214 213
0.77 -16.57 -0.89 210 214 213
0.77 -16.66 -0.89 210 214 213
0.77 -16.75 -0.89 210 214 213
0.77 -16.85 -0.89 207 216 211
0.77 -16.94 -0.89 207 216 211
0.77 -17.03 -0.89 210 216 212
0.77 -17.13 -0.89 209 215 211
0.77 -17.22 -0.89 209 215 211
0.77 -17.31 -0.89 209 215 211
0.77 -17.41 -0.89 209 214 210
0.77 -17.50 -0.89 209 214 210
0.77 -17.59 -0.89 210 212 211
0.77 -17.69 -0.89 211 213 212
0.77 -17.78 -0.89 211 213 212
0.77 -17.87 -0.89 210 212 211
0.77 -17.97 -0.89 210 210 210
0.77 -18.06 -0.89 211 211 211
0.77 -18.15 -0.89 211 211 211
0.77 -18.25 -0.89 208 208 208
0.77 -18.34 -0.89 209 209 209
0.77 -18.43 -0.89 210 210 210
0.77 -18.53 -0.89 210 210 210
0.77 -18.62 -0.89 211 211 211
0.77 -18.71 -0.89 211 211 211
0.77 -18.81 -0.89 211 211 211
0.77 -18.90 -0.89 212 212 212
0.77 -18.99 -0.89 211 211 211
0.77 -19.09 -0.89 212 212 212
0.77 -19.18 -0.89 212 212 212
0.77 -19.27 -0.89 212 212 212
0.77 -19.37 -0.89 211 211 211
0.77 -19.46 -0.89 212 212 212
0.77 -19.55 -0.89 212 212 212
0.77 -19.65 -0.89 213 213 213
0.77 -19.74 -0.89 213 213 211
0.77 -19.83 -0.89 213 213 211
0.77 -19.93 -0.89 212 212 212
0.77 -20.02 -0.89 211 211 211
0.77 -20.11 -0.89 211 211 213
0.77 -20.20 -0.89 211 211 213
0.77 -20.30 -0.89 213 213 215
0.77 -20.39 -0.89 212 212 214
0.77 -20.48 -0.89 211 211 213
0.77 -20.58 -0.89 211 211 213
0.77 -20.67 -0.89 210 210 212
0.77 -20.76 -0.89 210 210 210
0.77 -20.86 -0.89 210 210 210
0.77 -20.95 -0.89 210 210 208
0.77 -21.04 -0.89 211 211 209
0.77 -21.14 -0.89 210 210 210
0.77 -21.23 -0.89 210 210 210
0.77 -21.32 -0.89 210 210 210
0.77 -21.42 -0.89 210 210 210
0.77 -21.51 -0.89 210 210 210
0.77 -21.60 -0.89 210 210 210
0.77 -21.70 -0.89 210 210 210
0.77 -21.79 -0.89 211 211 211
0.77 -21.88 -0.89 211 211 211
0.95 -22.04 -1.06 212 212 212
0.95 -22.14 -1.06 212 212 212
0.95 -22.23 -1.06 212 212 212
0.95 -22.32 -1.06 212 212 212
0.95 -22.42 -1.06 212 212 212
0.95 -22.51 -1.06 211 211 211
0.95 -22.61 -1.06 208 210 207
0.95 -22.70 -1.06 208 210 207
0.95 -22.79 -1.06 211 211 209
0.95 -22.89 -1.06 212 212 210
0.95 -22.98 -1.06 213 213 211
0.95 -23.07 -1.06 213 213 211
0.95 -23.17 -1.06 213 213 211
0.95 -23.26 -1.06 213 213 211
0.95 -23.36 -1.06 212 210 211
0.95 -23.45 -1.06 212 210 211
