ply
format ascii 1.0
element vertex 1642
property float x
property float y
property float z
property uchar red
property uchar green
property uchar blue
end_header
-11.68 14.17 0.79 142 139 150
-11.59 14.16 0.67 162 152 161
-11.59 14.09 0.67 149 139 150
-11.59 14.02 0.67 151 139 151
-11.59 13.94 0.67 140 132 143
-11.59 13.87 0.67 150 145 152
-11.49 13.87 0.55 146 144 147
-11.49 13.79 0.55 146 146 148
-11.49 13.72 0.55 146 144 147
-11.40 13.72 0.43 145 142 151
-11.40 13.64 0.43 149 143 157
-11.28 13.65 0.28 136 132 146
-11.19 13.65 0.17 107 106 112
-11.19 13.57 0.17 109 110 112
-11.19 13.50 0.17 120 119 124
-11.19 13.42 0.17 130 129 134
-11.10 13.42 0.05 135 134 140
-11.10 13.34 0.05 137 136 144
-11.10 13.27 0.05 138 135 144
-11.10 13.19 0.05 135 132 143
-11.10 13.12 0.05 123 120 131
-11.10 13.04 0.05 120 117 128
-11.10 12.97 0.05 107 101 113
-11.10 12.89 0.05 114 108 120
-11.10 12.82 0.05 95 89 101
-11.10 12.75 0.05 82 74 87
-11.10 12.67 0.05 72 62 71
-11.10 12.60 0.05 70 60 61
-11.10 12.52 0.05 70 58 58
-11.10 12.45 0.05 70 60 59
-11.19 12.31 0.17 73 63 64
-11.19 12.23 0.17 73 63 61
-11.28 12.10 0.28 72 61 57
-11.40 11.94 0.43 72 58 49
-11.49 11.80 0.55 73 55 45
-11.49 11.73 0.55 80 62 50
-11.59 11.59 0.67 94 75 68
-11.59 11.52 0.67 99 85 85
-11.68 11.39 0.79 89 81 94
-11.68 11.31 0.79 50 54 81
-11.59 11.30 0.67 35 47 89
-11.40 11.20 0.43 29 50 117
-11.10 11.33 0.05 28 47 116
-10.98 11.33 -0.10 26 47 112
-10.89 11.31 -0.22 22 43 108
-10.77 11.31 -0.37 18 39 106
-10.77 11.24 -0.37 23 43 106
-10.68 11.22 -0.49 18 37 95
-10.68 11.15 -0.49 42 59 103
-10.56 11.14 -0.63 69 84 115
-10.47 11.13 -0.75 94 108 121
-10.24 11.04 -1.05 114 114 126
-10.24 10.97 -1.05 111 108 129
-10.24 10.89 -1.05 111 106 129
-10.24 10.81 -1.05 110 105 125
-10.14 10.79 -1.17 110 106 123
-10.14 10.71 -1.17 110 107 124
-10.14 10.64 -1.17 109 106 123
-10.14 10.56 -1.17 109 107 120
-10.14 10.48 -1.17 109 107 120
-10.14 10.41 -1.17 108 106 117
-10.24 10.27 -1.05 108 106 117
-10.24 10.20 -1.05 109 106 113
-10.24 10.12 -1.05 109 106 113
-10.24 10.04 -1.05 111 106 113
-10.24 9.97 -1.05 112 107 114
-10.24 9.89 -1.05 114 107 115
-10.24 9.81 -1.05 115 108 116
-10.24 9.73 -1.05 118 108 117
-10.24 9.66 -1.05 115 108 115
-10.24 9.58 -1.05 119 112 119
-10.24 9.50 -1.05 120 115 121
-10.24 9.43 -1.05 120 115 122
-10.24 9.35 -1.05 119 114 121
-10.24 9.27 -1.05 120 114 124
-10.24 9.20 -1.05 119 113 123
-10.24 9.12 -1.05 118 112 122
-10.24 9.04 -1.05 121 115 125
-10.24 8.97 -1.05 121 115 125
-10.24 8.89 -1.05 119 116 123
-10.24 8.81 -1.05 120 117 124
-10.24 8.73 -1.05 121 119 122
-10.24 8.66 -1.05 123 121 124
-10.24 8.58 -1.05 125 123 124
-10.24 8.50 -1.05 128 124 125
-10.24 8.43 -1.05 127 122 126
-10.24 8.35 -1.05 133 127 131
-10.24 8.27 -1.05 139 133 137
-10.24 8.20 -1.05 141 135 139
-10.24 8.12 -1.05 143 138 142
-10.24 8.04 -1.05 147 142 146
-10.24 7.97 -1.05 150 145 149
-10.24 7.89 -1.05 151 146 152
-10.24 7.81 -1.05 152 147 153
-10.24 7.73 -1.05 153 148 154
-10.24 7.66 -1.05 154 149 155
-10.24 7.58 -1.05 153 151 156
-10.24 7.50 -1.05 154 152 157
-10.14 7.47 -1.17 155 153 158
-10.24 7.35 -1.05 158 153 159
-10.14 7.32 -1.17 161 156 160
-10.14 7.24 -1.17 162 156 160
-10.14 7.17 -1.17 162 156 160
-10.24 7.04 -1.05 162 156 160
-10.24 6.97 -1.05 165 156 161
-10.24 6.89 -1.05 166 157 162
-10.24 6.81 -1.05 168 159 164
-10.24 6.73 -1.05 169 160 165
-10.24 6.66 -1.05 165 159 163
-10.24 6.58 -1.05 165 159 163
-10.24 6.50 -1.05 164 159 163
-10.24 6.43 -1.05 164 159 163
-10.24 6.35 -1.05 163 161 164
-10.24 6.27 -1.05 164 162 165
-10.24 6.20 -1.05 164 164 166
-10.24 6.12 -1.05 165 163 166
-10.24 6.04 -1.05 170 165 171
-10.24 5.97 -1.05 171 166 172
-10.24 5.89 -1.05 172 167 173
-10.24 5.81 -1.05 172 167 174
-10.24 5.73 -1.05 172 167 174
-10.24 5.66 -1.05 172 167 174
-10.24 5.58 -1.05 172 167 174
-10.24 5.50 -1.05 173 166 174
-10.35 5.38 -0.90 174 167 175
-10.35 5.30 -0.90 176 169 176
-10.35 5.22 -0.90 177 170 177
-10.24 5.20 -1.05 177 171 175
-10.24 5.12 -1.05 177 171 175
-10.24 5.04 -1.05 178 172 176
-10.24 4.97 -1.05 179 173 177
-10.24 4.89 -1.05 178 173 179
-10.24 4.81 -1.05 178 173 179
-10.24 4.73 -1.05 178 173 179
-10.24 4.66 -1.05 179 174 180
-10.24 4.58 -1.05 180 175 182
-10.24 4.50 -1.05 181 176 183
-10.24 4.43 -1.05 181 176 183
-10.24 4.35 -1.05 182 177 184
-10.24 4.27 -1.05 183 178 185
-10.24 4.20 -1.05 186 181 187
-10.24 4.12 -1.05 188 183 189
-10.24 4.04 -1.05 189 184 190
-10.24 3.97 -1.05 191 186 192
-10.24 3.89 -1.05 192 187 191
-10.24 3.81 -1.05 192 187 191
-10.24 3.73 -1.05 189 187 192
-10.24 3.66 -1.05 189 187 192
-10.24 3.58 -1.05 191 189 194
-10.24 3.50 -1.05 195 193 198
-10.24 3.43 -1.05 195 193 198
-10.24 3.35 -1.05 194 192 197
-10.14 3.31 -1.17 196 191 197
-10.14 3.23 -1.17 198 193 199
-10.14 3.15 -1.17 197 192 198
-10.24 3.04 -1.05 196 191 197
-10.24 2.97 -1.05 196 191 197
-10.24 2.89 -1.05 199 194 200
-10.24 2.81 -1.05 204 199 205
-10.24 2.73 -1.05 207 202 208
-10.24 2.66 -1.05 206 201 207
-10.24 2.58 -1.05 204 199 205
-10.24 2.50 -1.05 197 195 198
-10.24 2.43 -1.05 199 197 200
-10.24 2.35 -1.05 202 197 203
-10.24 2.27 -1.05 197 192 198
-10.24 2.20 -1.05 197 192 198
-10.24 2.12 -1.05 198 193 199
-10.24 2.04 -1.05 198 193 199
-10.24 1.97 -1.05 202 197 204
-10.24 1.89 -1.05 197 192 199
-10.24 1.81 -1.05 193 187 197
-10.24 1.73 -1.05 194 188 198
-10.24 1.66 -1.05 195 189 199
-10.24 1.58 -1.05 195 189 199
-10.24 1.50 -1.05 194 188 198
-10.24 1.43 -1.05 194 189 196
-10.24 1.35 -1.05 189 188 193
-10.24 1.27 -1.05 189 189 191
-10.24 1.20 -1.05 188 187 192
-10.24 1.12 -1.05 186 185 191
-10.24 1.04 -1.05 184 183 189
-10.24 0.97 -1.05 184 183 191
-10.24 0.89 -1.05 185 183 194
-10.24 0.81 -1.05 186 184 195
-10.24 0.73 -1.05 185 183 194
-10.24 0.66 -1.05 185 183 194
-10.24 0.58 -1.05 183 182 190
-10.24 0.50 -1.05 182 181 189
-10.24 0.43 -1.05 180 179 185
-10.24 0.35 -1.05 180 179 184
-10.24 0.27 -1.05 180 179 184
-10.24 0.20 -1.05 181 180 186
-10.24 0.12 -1.05 179 178 184
-10.24 0.04 -1.05 177 176 182
-10.24 -0.03 -1.05 177 176 182
-10.24 -0.11 -1.05 177 176 182
-10.24 -0.19 -1.05 177 176 182
-10.24 -0.27 -1.05 176 175 181
-10.24 -0.34 -1.05 175 174 180
-10.24 -0.42 -1.05 174 173 179
-10.24 -0.50 -1.05 177 176 182
-10.24 -0.57 -1.05 178 177 183
-10.24 -0.65 -1.05 176 175 181
-10.24 -0.73 -1.05 174 173 179
-10.24 -0.80 -1.05 175 174 180
-10.24 -0.88 -1.05 176 175 181
-10.24 -0.96 -1.05 175 174 180
-10.24 -1.03 -1.05 175 176 178
-10.24 -1.11 -1.05 172 173 175
-10.24 -1.19 -1.05 171 172 174
-10.24 -1.27 -1.05 172 173 175
-10.24 -1.34 -1.05 173 174 178
-10.24 -1.42 -1.05 172 173 177
-10.24 -1.50 -1.05 172 173 177
-10.24 -1.57 -1.05 174 173 178
-10.24 -1.65 -1.05 174 173 178
-10.24 -1.73 -1.05 173 172 177
-10.24 -1.80 -1.05 171 170 175
-10.24 -1.88 -1.05 170 169 175
-10.24 -1.96 -1.05 171 170 176
-10.35 -2.06 -0.90 171 170 176
-10.35 -2.13 -0.90 170 169 177
-10.24 -2.19 -1.05 172 171 179
-10.24 -2.27 -1.05 171 169 180
-10.24 -2.34 -1.05 171 169 180
-10.24 -2.42 -1.05 170 168 179
-10.24 -2.50 -1.05 170 169 177
-10.24 -2.57 -1.05 171 170 178
-10.24 -2.65 -1.05 171 170 176
-10.24 -2.73 -1.05 172 171 177
-10.24 -2.80 -1.05 168 169 174
-10.24 -2.88 -1.05 169 170 175
-10.24 -2.96 -1.05 169 170 174
-10.24 -3.03 -1.05 170 171 175
-10.24 -3.11 -1.05 170 171 173
-10.24 -3.19 -1.05 170 171 173
-10.24 -3.27 -1.05 170 171 175
-10.35 -3.36 -0.90 170 173 178
-10.35 -3.43 -0.90 170 173 180
-10.35 -3.51 -0.90 171 171 179
-10.35 -3.59 -0.90 171 171 179
-10.35 -3.66 -0.90 171 171 179
-10.35 -3.74 -0.90 170 170 178
-10.35 -3.82 -0.90 170 170 178
-10.24 -3.88 -1.05 170 170 178
-10.24 -3.96 -1.05 170 171 176
-10.24 -4.03 -1.05 170 171 176
-10.24 -4.11 -1.05 171 170 176
-10.24 -4.19 -1.05 171 170 176
-10.24 -4.27 -1.05 171 170 176
-10.24 -4.34 -1.05 172 171 177
-10.24 -4.42 -1.05 172 171 177
-10.24 -4.50 -1.05 172 171 177
-10.24 -4.57 -1.05 173 174 178
-10.24 -4.65 -1.05 172 173 177
-10.24 -4.73 -1.05 171 172 177
-10.24 -4.80 -1.05 172 173 178
-10.24 -4.88 -1.05 170 170 178
-10.24 -4.96 -1.05 169 169 177
-10.24 -5.03 -1.05 171 171 181
-10.24 -5.11 -1.05 174 172 183
-10.24 -5.19 -1.05 173 171 182
-10.24 -5.27 -1.05 173 171 182
-10.24 -5.34 -1.05 173 171 182
-10.24 -5.42 -1.05 172 171 179
-10.24 -5.50 -1.05 172 171 179
-10.24 -5.57 -1.05 172 171 177
-10.24 -5.65 -1.05 172 171 177
-10.24 -5.73 -1.05 172 173 178
-10.24 -5.80 -1.05 173 174 179
-10.24 -5.88 -1.05 173 173 181
-10.24 -5.96 -1.05 172 172 180
-10.14 -6.03 -1.17 172 172 182
-10.14 -6.11 -1.17 172 172 182
-10.14 -6.18 -1.17 173 173 185
-10.24 -6.27 -1.05 174 174 186
-10.24 -6.34 -1.05 173 173 185
-10.24 -6.42 -1.05 173 173 185
-10.24 -6.50 -1.05 173 172 180
-10.24 -6.57 -1.05 173 172 180
-10.24 -6.65 -1.05 172 171 177
-10.24 -6.73 -1.05 173 172 178
-10.24 -6.80 -1.05 173 172 177
-10.35 -6.88 -0.90 173 172 178
-10.35 -6.96 -0.90 174 172 185
-10.35 -7.04 -0.90 174 172 183
-10.35 -7.11 -0.90 174 172 183
-10.35 -7.19 -0.90 174 172 183
-10.35 -7.27 -0.90 175 173 184
-10.24 -7.34 -1.05 175 173 186
-10.24 -7.42 -1.05 175 173 187
-10.24 -7.50 -1.05 171 169 183
-10.24 -7.57 -1.05 178 175 192
-10.24 -7.65 -1.05 166 165 179
-10.24 -7.73 -1.05 160 160 172
-10.24 -7.80 -1.05 236 239 248
-10.24 -7.88 -1.05 251 254 255
-10.24 -7.96 -1.05 251 255 255
-10.24 -8.03 -1.05 245 251 249
-10.35 -8.11 -0.90 252 255 253
-10.35 -8.19 -0.90 252 255 253
-10.35 -8.26 -0.90 246 251 247
-10.35 -8.34 -0.90 247 252 248
-10.35 -8.41 -0.90 252 255 253
-10.35 -8.49 -0.90 250 255 251
-10.35 -8.57 -0.90 248 253 249
-10.35 -8.64 -0.90 252 255 253
-10.35 -8.72 -0.90 250 254 253
-10.35 -8.80 -0.90 250 254 253
-10.35 -8.87 -0.90 250 254 253
-10.35 -8.95 -0.90 250 254 253
-10.35 -9.03 -0.90 250 254 253
-10.35 -9.10 -0.90 250 254 253
-10.35 -9.18 -0.90 251 255 254
-10.35 -9.26 -0.90 253 255 254
-10.35 -9.33 -0.90 253 255 254
-10.35 -9.41 -0.90 253 255 254
-10.35 -9.49 -0.90 253 255 254
-10.35 -9.56 -0.90 253 255 254
-10.24 -9.65 -1.05 253 255 254
-10.24 -9.73 -1.05 251 255 254
-10.24 -9.80 -1.05 251 255 254
-10.24 -9.88 -1.05 249 253 252
-10.35 -9.95 -0.90 249 253 252
-10.35 -10.02 -0.90 249 253 252
-10.35 -10.10 -0.90 249 253 252
-10.35 -10.18 -0.90 250 254 253
-10.35 -10.25 -0.90 250 254 253
-10.35 -10.33 -0.90 250 255 254
-10.35 -10.41 -0.90 250 255 254
-10.35 -10.48 -0.90 250 255 254
-10.35 -10.56 -0.90 250 255 254
-10.35 -10.64 -0.90 250 255 254
-10.35 -10.71 -0.90 250 255 254
-10.35 -10.79 -0.90 250 255 254
-10.35 -10.87 -0.90 250 255 254
-10.35 -10.94 -0.90 250 255 254
-10.35 -11.02 -0.90 250 255 254
-10.35 -11.10 -0.90 250 255 254
-10.35 -11.17 -0.90 250 255 254
-10.35 -11.25 -0.90 250 255 254
-10.35 -11.33 -0.90 250 255 254
-10.24 -11.42 -1.05 250 255 254
-10.24 -11.50 -1.05 250 255 254
-10.35 -11.56 -0.90 250 255 254
-10.35 -11.63 -0.90 250 255 254
-10.35 -11.71 -0.90 250 255 254
-10.35 -11.79 -0.90 250 255 254
-10.35 -11.86 -0.90 250 255 254
-10.35 -11.94 -0.90 250 255 254
-10.35 -12.02 -0.90 250 255 254
-10.35 -12.09 -0.90 250 255 254
-10.35 -12.17 -0.90 250 255 254
-10.35 -12.25 -0.90 250 255 254
-10.35 -12.32 -0.90 250 255 254
-10.35 -12.40 -0.90 250 255 254
-10.35 -12.48 -0.90 250 255 254
-10.35 -12.55 -0.90 250 255 254
-10.35 -12.63 -0.90 250 255 254
-10.35 -12.71 -0.90 248 255 254
-10.35 -12.78 -0.90 247 255 252
-10.35 -12.86 -0.90 247 255 252
-10.35 -12.94 -0.90 250 255 252
-10.35 -13.01 -0.90 253 255 252
-10.35 -13.24 -0.90 253 253 253
-10.35 -13.32 -0.90 251 253 252
-10.35 -13.40 -0.90 246 250 251
-10.35 -13.47 -0.90 249 255 255
-10.35 -13.55 -0.90 250 254 255
-10.35 -13.63 -0.90 253 252 255
-10.35 -13.70 -0.90 255 251 255
-10.35 -13.78 -0.90 255 249 255
-10.35 -13.85 -0.90 248 224 238
-10.24 -13.96 -1.05 223 196 213
-10.24 -14.03 -1.05 133 115 131
-10.24 -14.11 -1.05 87 70 88
-10.24 -14.19 -1.05 29 17 31
-10.24 -14.27 -1.05 8 0 11
-10.24 -14.34 -1.05 16 13 24
-10.24 -14.42 -1.05 34 34 44
-10.24 -14.50 -1.05 42 44 57
-10.24 -14.57 -1.05 44 48 60
-10.35 -14.62 -0.90 41 44 59
-10.35 -14.70 -0.90 41 44 59
-10.35 -14.93 -0.90 39 39 51
-10.35 -15.00 -0.90 38 37 45
-10.35 -15.08 -0.90 38 36 47
-10.35 -15.16 -0.90 38 37 53
-10.35 -15.23 -0.90 32 31 45
-10.35 -15.31 -0.90 36 40 43
-10.35 -15.39 -0.90 41 45 48
-10.35 -15.46 -0.90 33 37 48
-10.35 -15.54 -0.90 41 44 59
-10.35 -15.62 -0.90 42 49 59
-10.35 -15.69 -0.90 45 51 63
-10.35 -15.77 -0.90 0 5 23
-10.35 -15.85 -0.90 4 8 33
-10.35 -15.92 -0.90 247 251 255
-10.35 -16.00 -0.90 251 253 255
-10.35 -16.08 -0.90 250 252 255
-10.35 -16.15 -0.90 254 255 255
-10.35 -16.23 -0.90 248 249 251
-10.47 -16.27 -0.75 247 252 248
-10.47 -16.35 -0.75 249 254 250
-10.47 -16.42 -0.75 252 255 253
-10.47 -16.50 -0.75 252 255 253
-10.35 -16.61 -0.90 247 253 249
-10.35 -16.69 -0.90 247 253 249
-10.47 -16.73 -0.75 249 255 251
-10.47 -16.81 -0.75 247 253 249
-10.47 -16.88 -0.75 248 254 250
-10.47 -16.96 -0.75 248 254 250
-10.47 -17.03 -0.75 251 255 252
-10.47 -17.11 -0.75 251 255 252
-10.47 -17.19 -0.75 249 251 248
-10.47 -17.26 -0.75 247 249 246
-10.35 -17.38 -0.90 252 254 251
-10.35 -17.46 -0.90 254 255 253
-10.35 -17.53 -0.90 252 255 255
-10.35 -17.61 -0.90 230 234 233
-10.35 -17.69 -0.90 198 202 203
-10.35 -17.76 -0.90 179 183 184
-10.35 -17.84 -0.90 179 180 184
-10.35 -17.92 -0.90 183 184 188
-10.35 -17.99 -0.90 187 188 193
-10.35 -18.07 -0.90 192 191 199
-10.35 -18.15 -0.90 192 191 199
-10.35 -18.22 -0.90 192 191 199
-10.35 -18.30 -0.90 191 190 198
-10.47 -18.33 -0.75 192 189 198
-10.47 -18.41 -0.75 193 190 199
-10.35 -18.53 -0.90 193 190 199
-10.35 -18.61 -0.90 194 191 200
-10.35 -18.68 -0.90 197 191 203
-10.47 -18.71 -0.75 197 191 203
-10.47 -18.79 -0.75 198 192 204
-10.47 -18.87 -0.75 198 192 204
-10.47 -18.94 -0.75 198 192 204
-10.47 -19.02 -0.75 198 192 204
-10.47 -19.10 -0.75 198 192 204
-10.47 -19.17 -0.75 198 192 204
-10.47 -19.25 -0.75 198 192 204
-10.47 -19.32 -0.75 197 191 203
-10.47 -19.40 -0.75 197 191 203
-10.47 -19.48 -0.75 197 191 203
-10.47 -19.55 -0.75 195 192 203
-10.47 -19.63 -0.75 195 192 203
-10.47 -19.71 -0.75 195 192 203
-10.35 -19.83 -0.90 196 193 200
-10.35 -19.91 -0.90 195 193 198
-10.35 -19.98 -0.90 195 192 199
-10.47 -20.01 -0.75 195 192 199
-10.47 -20.09 -0.75 196 193 200
-10.47 -20.16 -0.75 197 194 201
-10.47 -20.24 -0.75 198 195 204
-10.47 -20.32 -0.75 198 195 204
-10.47 -20.39 -0.75 199 193 203
-10.47 -20.47 -0.75 198 192 202
-10.47 -20.55 -0.75 198 193 200
-10.47 -20.62 -0.75 198 193 200
-10.47 -20.70 -0.75 198 193 200
-10.47 -20.77 -0.75 197 192 199
-10.47 -20.85 -0.75 196 191 197
-10.47 -20.93 -0.75 196 191 198
-10.47 -21.00 -0.75 194 189 196
-10.47 -21.08 -0.75 191 185 195
-10.47 -21.16 -0.75 186 180 190
-10.47 -21.23 -0.75 177 171 181
-10.47 -21.31 -0.75 177 170 178
-10.47 -21.38 -0.75 171 164 172
-10.47 -21.46 -0.75 128 121 129
-10.47 -21.54 -0.75 89 82 90
-10.47 -21.61 -0.75 145 138 146
-10.47 -21.69 -0.75 155 148 156
-10.47 -21.77 -0.75 138 131 139
-10.47 -21.84 -0.75 135 130 137
-10.56 -21.87 -0.63 129 124 131
-10.56 -21.95 -0.63 128 123 130
-10.56 -22.03 -0.63 122 116 126
-10.56 -22.10 -0.63 118 116 127
-10.56 -22.18 -0.63 72 70 83
-10.68 -22.19 -0.49 29 27 41
-10.68 -22.27 -0.49 19 17 31
-10.77 -22.30 -0.37 41 40 56
-10.89 -22.31 -0.22 55 54 70
-10.89 -22.39 -0.22 48 47 61
-10.98 -22.42 -0.10 50 49 63
-10.98 -22.49 -0.10 52 52 62
-10.98 -22.57 -0.10 58 58 66
-10.98 -22.64 -0.10 36 35 41
-10.98 -22.72 -0.10 62 61 66
-10.98 -22.79 -0.10 58 56 61
-11.10 -22.80 0.05 47 45 50
-11.10 -22.88 0.05 26 24 29
-11.10 -22.95 0.05 21 14 22
-11.10 -23.03 0.05 14 1 11
-11.10 -23.10 0.05 83 66 58
-11.10 -23.18 0.05 199 181 159
-11.10 -23.25 0.05 255 250 219
-11.10 -23.33 0.05 247 223 185
-11.10 -23.40 0.05 224 196 156
-11.10 -23.47 0.05 234 203 159
-11.10 -23.55 0.05 240 208 161
-11.10 -23.62 0.05 247 211 159
-11.10 -23.70 0.05 252 217 159
-11.10 -23.77 0.05 255 220 156
-11.10 -23.85 0.05 243 205 140
-11.10 -23.92 0.05 229 191 126
-11.10 -24.00 0.05 235 196 131
-11.10 -24.07 0.05 235 197 135
-11.19 -24.09 0.17 255 231 176
-11.19 -24.17 0.17 220 187 136
-11.19 -24.24 0.17 60 32 0
-11.10 -24.37 0.05 66 38 14
-11.10 -24.45 0.05 72 45 54
-10.89 -24.65 -0.22 126 100 125
-10.68 -24.85 -0.49 167 146 161
-10.56 -24.99 -0.63 215 197 211
-10.56 -25.07 -0.63 225 210 229
-10.56 -25.14 -0.63 234 220 237
-10.47 -25.28 -0.75 210 198 202
-10.47 -25.35 -0.75 212 204 202
-10.47 -25.43 -0.75 209 200 201
-10.47 -25.51 -0.75 199 194 200
-10.47 -25.58 -0.75 206 199 207
-10.47 -25.66 -0.75 206 199 207
-10.35 -25.81 -0.90 208 198 207
-10.35 -25.88 -0.90 209 199 208
-10.35 -25.96 -0.90 210 200 209
-10.35 -26.04 -0.90 211 201 209
-10.35 -26.11 -0.90 211 201 209
-10.35 -26.19 -0.90 211 201 209
-10.35 -26.27 -0.90 210 200 208
-10.35 -26.34 -0.90 211 201 209
-10.35 -26.42 -0.90 212 202 210
-10.47 -26.42 -0.75 212 203 208
-10.47 -26.50 -0.75 211 202 207
-10.47 -26.57 -0.75 211 202 207
-10.47 -26.65 -0.75 213 204 209
-10.47 -26.73 -0.75 213 204 209
-10.47 -26.80 -0.75 212 203 208
-10.47 -26.88 -0.75 209 202 209
-10.56 -26.89 -0.63 209 202 209
-10.56 -26.97 -0.63 209 202 209
-10.56 -27.05 -0.63 211 204 211
-10.56 -27.12 -0.63 211 204 211
-10.56 -27.20 -0.63 212 205 212
-10.56 -27.27 -0.63 213 206 213
-10.56 -27.35 -0.63 211 204 211
-10.56 -27.43 -0.63 211 204 211
-10.56 -27.50 -0.63 211 204 211
-10.56 -27.58 -0.63 211 204 211
-10.56 -27.65 -0.63 211 204 211
-10.47 -27.80 -0.75 211 204 211
-10.47 -27.87 -0.75 210 203 210
-10.47 -27.95 -0.75 212 202 210
-10.47 -28.02 -0.75 213 204 209
-10.47 -28.10 -0.75 215 204 210
-10.47 -28.18 -0.75 216 205 211
-10.47 -28.25 -0.75 215 204 210
-10.47 -28.33 -0.75 215 204 210
-10.47 -28.41 -0.75 216 205 211
-10.47 -28.48 -0.75 216 205 211
-10.47 -28.56 -0.75 214 203 209
-10.47 -28.63 -0.75 214 203 209
-10.47 -28.71 -0.75 215 204 210
-10.47 -28.79 -0.75 214 204 212
-10.47 -28.86 -0.75 213 203 211
-10.56 -28.87 -0.63 211 201 209
-10.56 -28.95 -0.63 213 203 211
-10.56 -29.02 -0.63 215 205 213
-10.56 -29.10 -0.63 213 203 212
-10.56 -29.18 -0.63 212 202 211
-10.56 -29.25 -0.63 212 202 211
-10.56 -29.33 -0.63 213 203 212
-10.56 -29.40 -0.63 214 204 212
-10.56 -29.48 -0.63 213 203 211
-10.56 -29.56 -0.63 214 204 212
-10.56 -29.63 -0.63 215 205 213
-10.56 -29.71 -0.63 215 205 213
-10.56 -29.78 -0.63 216 206 214
-10.47 -29.93 -0.75 216 207 212
-10.47 -30.01 -0.75 216 207 212
-10.47 -30.08 -0.75 216 207 212
-10.47 -30.16 -0.75 216 207 212
-10.47 -30.24 -0.75 216 207 212
-10.47 -30.31 -0.75 216 207 212
-10.47 -30.39 -0.75 0 0 0
-10.47 -30.47 -0.75 0 0 0
-10.47 -30.54 -0.75 0 0 0
-10.47 -30.62 -0.75 0 0 0
-10.47 -30.70 -0.75 0 0 0
-10.47 -30.77 -0.75 0 0 0
-10.47 -30.85 -0.75 0 0 0
-10.47 -30.92 -0.75 0 0 0
-10.47 -31.00 -0.75 0 0 0
-10.56 -31.00 -0.63 0 0 0
-10.56 -31.08 -0.63 0 0 0
-10.56 -31.15 -0.63 0 0 0
-10.56 -31.23 -0.63 0 0 0
-10.56 -31.31 -0.63 0 0 0
-10.56 -31.38 -0.63 0 0 0
-10.27 17.50 -1.12 0 0 0
-10.27 17.43 -1.12 0 0 0
-10.27 17.35 -1.12 0 0 0
-10.27 17.27 -1.12 0 0 0
-10.27 17.20 -1.12 0 0 0
-10.27 17.12 -1.12 0 0 0
-10.27 17.04 -1.12 0 0 0
-10.27 16.97 -1.12 0 0 0
-10.27 16.89 -1.12 0 0 0
-10.27 16.81 -1.12 114 115 107
-10.27 16.73 -1.12 114 115 107
-10.27 16.66 -1.12 114 113 108
-10.18 16.66 -1.23 116 115 113
-10.18 16.58 -1.23 120 114 118
-10.18 16.50 -1.23 119 112 119
-10.18 16.43 -1.23 120 108 118
-10.18 16.35 -1.23 120 109 117
-10.06 16.36 -1.38 122 109 118
-10.06 16.29 -1.38 115 106 109
-9.95 16.30 -1.53 121 115 119
-11.93 14.66 0.99 105 100 106
-11.93 14.59 0.99 111 109 122
-11.93 14.51 0.99 90 91 111
-11.93 14.44 0.99 33 37 66
-11.93 14.37 0.99 25 29 67
-11.83 14.37 0.87 34 38 83
-11.83 14.30 0.87 26 32 82
-11.83 14.22 0.87 38 42 87
-11.83 14.15 0.87 43 44 74
-11.72 14.17 0.72 152 145 153
-11.72 14.09 0.72 154 143 151
-11.62 14.09 0.61 148 135 144
-11.62 14.02 0.61 147 135 147
-11.62 13.94 0.61 141 131 142
-11.53 13.94 0.49 146 140 150
-11.53 13.87 0.49 139 137 142
-11.53 13.79 0.49 142 142 144
-11.44 13.79 0.37 144 143 148
-11.44 13.72 0.37 139 136 145
-11.32 13.73 0.22 132 128 143
-11.32 13.65 0.22 112 108 123
-11.23 13.65 0.10 104 103 111
-11.23 13.57 0.10 120 121 125
-11.23 13.50 0.10 138 139 144
-11.14 13.49 -0.02 140 140 148
-11.14 13.42 -0.02 135 135 143
-11.14 13.34 -0.02 136 136 146
-11.14 13.27 -0.02 122 120 133
-11.14 13.19 -0.02 93 91 104
-11.14 13.12 -0.02 54 50 65
-11.14 13.04 -0.02 70 66 81
-11.14 12.97 -0.02 77 70 86
-11.14 12.89 -0.02 91 84 100
-11.14 12.82 -0.02 53 47 61
-11.14 12.75 -0.02 47 39 54
-11.14 12.67 -0.02 50 40 51
-11.14 12.60 -0.02 39 30 31
-11.14 12.52 -0.02 46 36 35
-11.14 12.45 -0.02 47 42 39
-11.14 12.37 -0.02 48 42 42
-11.23 12.23 0.10 53 44 45
-11.23 12.16 0.10 59 49 48
-11.32 12.02 0.22 60 49 43
-11.44 11.87 0.37 59 44 37
-11.53 11.73 0.49 58 44 35
-11.62 11.59 0.61 70 55 52
-11.72 11.46 0.72 76 67 70
-11.72 11.39 0.72 67 64 81
-11.72 11.31 0.72 32 40 76
-11.72 11.24 0.72 30 48 98
-11.62 11.23 0.61 27 55 120
-11.53 11.22 0.49 22 50 123
-11.44 11.20 0.37 28 50 125
-11.44 11.13 0.37 29 47 121
-11.14 11.25 -0.02 28 46 118
-11.02 11.25 -0.17 25 44 113
-10.93 11.24 -0.28 22 41 110
-10.81 11.24 -0.43 28 46 112
-10.81 11.16 -0.43 23 40 96
-10.72 11.15 -0.55 58 75 118
-10.72 11.07 -0.55 85 101 127
-10.51 11.13 -0.82 105 118 127
-10.51 11.05 -0.82 107 117 119
-10.51 10.97 -0.82 106 111 115
-10.39 10.97 -0.97 107 107 119
-10.39 10.89 -0.97 110 106 131
-10.27 10.89 -1.12 115 108 139
-10.27 10.81 -1.12 110 105 127
-10.27 10.73 -1.12 109 104 124
-10.27 10.66 -1.12 109 105 122
-10.27 10.58 -1.12 110 106 123
-10.27 10.50 -1.12 110 108 122
-10.27 10.43 -1.12 111 109 123
-10.27 10.35 -1.12 110 108 119
-10.27 10.27 -1.12 108 106 117
-10.27 10.20 -1.12 110 107 116
-10.27 10.12 -1.12 110 107 116
-10.27 10.04 -1.12 113 108 115
-10.27 9.97 -1.12 113 106 114
-10.27 9.89 -1.12 112 105 113
-10.27 9.81 -1.12 115 105 114
-10.27 9.73 -1.12 120 108 118
-10.27 9.66 -1.12 113 107 111
-10.27 9.58 -1.12 117 111 115
-10.27 9.50 -1.12 121 114 121
-10.27 9.43 -1.12 122 115 123
-10.27 9.35 -1.12 121 116 123
-10.27 9.27 -1.12 121 115 125
-10.27 9.04 -1.12 121 115 125
-10.27 8.97 -1.12 121 115 125
-10.27 8.89 -1.12 120 117 124
-10.27 8.81 -1.12 121 118 125
-10.27 8.73 -1.12 123 121 124
-10.27 8.66 -1.12 125 123 126
-10.27 8.58 -1.12 127 125 126
-10.27 8.50 -1.12 130 126 127
-10.27 8.43 -1.12 131 127 128
-10.27 8.35 -1.12 138 132 134
-10.27 8.27 -1.12 142 137 141
-10.27 8.20 -1.12 144 139 143
-10.27 8.12 -1.12 146 141 145
-10.27 8.04 -1.12 149 144 148
-10.27 7.97 -1.12 151 146 150
-10.27 7.89 -1.12 157 152 158
-10.27 7.81 -1.12 157 152 158
-10.27 7.73 -1.12 154 152 157
-10.27 7.66 -1.12 154 152 157
-10.27 7.58 -1.12 154 152 157
-10.27 7.50 -1.12 155 153 158
-10.27 7.43 -1.12 156 154 159
-10.27 7.35 -1.12 158 153 159
-10.27 7.27 -1.12 162 156 158
-10.27 7.20 -1.12 164 155 158
-10.27 7.12 -1.12 164 155 158
-10.27 7.04 -1.12 164 155 158
-10.27 6.97 -1.12 165 156 159
-10.27 6.89 -1.12 167 158 161
-10.27 6.81 -1.12 168 159 162
-10.27 6.73 -1.12 169 160 163
-10.27 6.66 -1.12 167 161 163
-10.27 6.58 -1.12 167 161 163
-10.27 6.50 -1.12 166 162 163
-10.27 6.43 -1.12 166 162 163
-10.27 6.35 -1.12 164 162 163
-10.27 6.27 -1.12 165 163 164
-10.27 6.20 -1.12 165 165 165
-10.27 6.12 -1.12 167 165 168
-10.39 5.99 -0.97 170 165 171
-10.39 5.91 -0.97 172 167 173
-10.39 5.84 -0.97 173 168 174
-10.39 5.76 -0.97 173 168 175
-10.39 5.68 -0.97 173 168 175
-10.39 5.61 -0.97 171 165 175
-10.39 5.53 -0.97 170 164 174
-10.39 5.45 -0.97 172 165 173
-10.39 5.38 -0.97 173 166 174
-10.39 5.30 -0.97 175 168 175
-10.39 5.22 -0.97 177 170 177
-10.39 5.15 -0.97 178 172 176
-10.27 5.12 -1.12 179 173 177
-10.27 5.04 -1.12 180 174 178
-10.39 4.92 -0.97 181 175 179
-10.39 4.84 -0.97 176 171 177
-10.39 4.76 -0.97 177 172 178
-10.39 4.69 -0.97 179 174 180
-10.39 4.61 -0.97 182 177 183
-10.39 4.53 -0.97 183 178 185
-10.27 4.50 -1.12 184 179 186
-10.27 4.43 -1.12 185 180 187
-10.27 4.35 -1.12 185 180 187
-10.27 4.27 -1.12 187 182 189
-10.27 4.20 -1.12 188 183 190
-10.27 4.12 -1.12 189 184 191
-10.27 4.04 -1.12 191 186 192
-10.27 3.97 -1.12 192 187 193
-10.27 3.89 -1.12 193 188 192
-10.27 3.81 -1.12 194 189 193
-10.27 3.73 -1.12 195 190 196
-10.27 3.66 -1.12 194 189 195
-10.27 3.58 -1.12 195 190 196
-10.27 3.50 -1.12 198 193 199
-10.27 3.43 -1.12 197 192 198
-10.27 3.35 -1.12 196 191 197
-10.27 3.27 -1.12 198 193 199
-10.27 3.20 -1.12 202 197 203
-10.27 3.12 -1.12 199 194 200
-10.27 3.04 -1.12 201 196 202
-10.39 2.92 -0.97 202 197 203
-10.39 2.85 -0.97 203 198 204
-10.39 2.77 -0.97 202 197 203
-10.39 2.69 -0.97 202 197 203
-10.39 2.62 -0.97 200 195 201
-10.39 2.54 -0.97 199 194 200
-10.39 2.47 -0.97 201 199 204
-10.39 2.39 -0.97 202 200 205
-10.39 2.31 -0.97 201 199 204
-10.39 2.24 -0.97 197 195 200
-10.39 2.16 -0.97 200 198 203
-10.39 2.08 -0.97 198 195 202
-10.39 2.01 -0.97 194 191 198
-10.39 1.93 -0.97 197 192 199
-10.39 1.85 -0.97 197 192 199
-10.39 1.78 -0.97 198 192 202
-10.39 1.70 -0.97 200 194 204
-10.39 1.62 -0.97 197 191 201
-10.27 1.58 -1.12 193 187 197
-10.27 1.50 -1.12 193 187 197
-10.39 1.39 -0.97 196 191 198
-10.39 1.32 -0.97 189 188 193
-10.27 1.27 -1.12 189 189 191
-10.27 1.20 -1.12 189 188 193
-10.27 1.12 -1.12 187 186 192
-10.27 1.04 -1.12 185 184 190
-10.27 0.97 -1.12 184 183 191
-10.27 0.89 -1.12 185 183 194
-10.27 0.81 -1.12 187 185 196
-10.27 0.73 -1.12 183 181 194
-10.27 0.66 -1.12 183 181 194
-10.27 0.58 -1.12 182 180 191
-10.27 0.50 -1.12 181 179 190
-10.27 0.43 -1.12 180 179 185
-10.27 0.35 -1.12 181 180 185
-10.27 0.27 -1.12 181 180 185
-10.27 0.20 -1.12 180 179 185
-10.27 0.12 -1.12 178 177 183
-10.27 0.04 -1.12 176 175 181
-10.27 -0.03 -1.12 176 175 181
-10.27 -0.11 -1.12 178 177 183
-10.27 -0.19 -1.12 178 177 183
-10.27 -0.27 -1.12 177 176 182
-10.27 -0.34 -1.12 176 175 181
-10.27 -0.42 -1.12 175 174 180
-10.27 -0.50 -1.12 178 177 183
-10.27 -0.57 -1.12 179 178 184
-10.27 -0.65 -1.12 176 175 181
-10.27 -0.73 -1.12 173 172 178
-10.39 -0.83 -0.97 174 173 179
-10.39 -0.91 -0.97 176 175 181
-10.27 -0.96 -1.12 177 176 182
-10.27 -1.03 -1.12 176 177 179
-10.27 -1.11 -1.12 173 174 176
-10.27 -1.19 -1.12 171 172 174
-10.27 -1.27 -1.12 172 173 175
-10.27 -1.34 -1.12 172 173 177
-10.39 -1.44 -0.97 171 172 176
-10.39 -1.52 -0.97 171 172 176
-10.39 -1.60 -0.97 173 172 177
-10.39 -1.67 -0.97 174 173 178
-10.39 -1.75 -0.97 173 172 177
-10.39 -1.83 -0.97 170 169 174
-10.39 -1.90 -0.97 169 168 174
-10.39 -1.98 -0.97 171 170 176
-10.39 -2.06 -0.97 171 170 176
-10.39 -2.13 -0.97 170 169 177
-10.39 -2.21 -0.97 173 171 182
-10.39 -2.29 -0.97 172 170 183
-10.39 -2.36 -0.97 171 169 182
-10.27 -2.42 -1.12 169 167 180
-10.27 -2.50 -1.12 169 167 178
-10.27 -2.57 -1.12 170 168 179
-10.39 -2.67 -0.97 171 171 179
-10.39 -2.75 -0.97 172 172 180
-10.39 -2.82 -0.97 169 170 175
-10.27 -2.88 -1.12 169 170 175
-10.27 -2.96 -1.12 168 172 175
-10.27 -3.03 -1.12 168 172 175
-10.39 -3.13 -0.97 169 173 174
-10.39 -3.20 -0.97 168 172 173
-10.39 -3.28 -0.97 167 171 174
-10.39 -3.36 -0.97 167 170 175
-10.39 -3.43 -0.97 168 171 178
-10.39 -3.51 -0.97 170 170 178
-10.39 -3.59 -0.97 170 170 178
-10.39 -3.66 -0.97 170 170 178
-10.39 -3.74 -0.97 170 170 178
-10.39 -3.82 -0.97 171 171 179
-10.39 -3.89 -0.97 171 171 179
-10.39 -3.97 -0.97 169 170 175
-10.39 -4.05 -0.97 169 170 175
-10.39 -4.12 -0.97 170 169 175
-10.39 -4.20 -0.97 169 168 174
-10.39 -4.28 -0.97 169 168 174
-10.39 -4.35 -0.97 169 168 174
-10.39 -4.43 -0.97 170 169 175
-10.39 -4.51 -0.97 170 169 175
-10.39 -4.58 -0.97 169 170 174
-10.39 -4.66 -0.97 169 170 174
-10.39 -4.74 -0.97 172 173 178
-10.39 -4.81 -0.97 174 175 180
-10.39 -4.89 -0.97 172 172 180
-10.39 -4.97 -0.97 169 169 177
-10.39 -5.04 -0.97 170 170 180
-10.39 -5.12 -0.97 174 172 183
-10.39 -5.20 -0.97 173 171 182
-10.39 -5.27 -0.97 173 171 182
-10.39 -5.35 -0.97 172 170 181
-10.27 -5.42 -1.12 172 171 179
-10.27 -5.50 -1.12 173 172 180
-10.39 -5.58 -0.97 173 172 178
-10.39 -5.66 -0.97 174 173 179
-10.39 -5.73 -0.97 172 173 178
-10.39 -5.81 -0.97 171 172 177
-10.27 -5.88 -1.12 171 171 179
-10.27 -5.96 -1.12 170 170 180
-10.27 -6.03 -1.12 170 170 180
-10.27 -6.11 -1.12 170 170 182
-10.27 -6.19 -1.12 171 171 183
-10.27 -6.27 -1.12 172 172 184
-10.39 -6.35 -0.97 173 171 184
-10.39 -6.42 -0.97 173 171 184
-10.39 -6.50 -0.97 174 172 183
-10.39 -6.58 -0.97 174 172 183
-10.39 -6.65 -0.97 174 173 179
-10.39 -6.73 -0.97 173 172 178
-10.39 -6.81 -0.97 173 173 175
-10.39 -6.88 -0.97 173 172 178
-10.39 -6.96 -0.97 174 172 186
-10.39 -7.04 -0.97 174 172 185
-10.39 -7.11 -0.97 175 173 186
-10.39 -7.19 -0.97 175 173 184
-10.39 -7.27 -0.97 175 173 186
-10.39 -7.34 -0.97 175 173 186
-10.39 -7.42 -0.97 175 173 187
-10.39 -7.50 -0.97 175 172 189
-10.39 -7.57 -0.97 175 172 189
-10.39 -7.65 -0.97 169 168 182
-10.39 -7.73 -0.97 234 234 246
-10.39 -7.80 -0.97 251 255 255
-10.39 -7.88 -0.97 244 249 253
-10.39 -7.96 -0.97 251 255 255
-10.39 -8.03 -0.97 249 255 253
-10.39 -8.11 -0.97 248 253 249
-10.39 -8.19 -0.97 246 251 247
-10.39 -8.26 -0.97 251 255 252
-10.39 -8.34 -0.97 251 255 252
-10.39 -8.41 -0.97 247 252 248
-10.39 -8.49 -0.97 251 255 252
-10.39 -8.57 -0.97 252 255 253
-10.39 -8.64 -0.97 248 253 249
-10.39 -8.72 -0.97 250 254 253
-10.39 -8.80 -0.97 250 254 253
-10.39 -8.87 -0.97 250 254 253
-10.51 -8.95 -0.82 250 254 253
-10.51 -9.02 -0.82 250 254 253
-10.51 -9.10 -0.82 251 255 254
-10.51 -9.17 -0.82 251 255 254
-10.51 -9.25 -0.82 253 255 254
-10.39 -9.33 -0.97 253 255 254
-10.39 -9.41 -0.97 253 255 254
-10.39 -9.49 -0.97 253 255 254
-10.39 -9.56 -0.97 253 255 254
-10.39 -9.64 -0.97 253 255 254
-10.39 -9.72 -0.97 253 255 254
-10.27 -9.80 -1.12 253 255 254
-10.39 -9.87 -0.97 249 253 252
-10.39 -9.95 -0.97 249 253 252
-10.39 -10.02 -0.97 249 253 252
-10.39 -10.10 -0.97 249 253 252
-10.39 -10.18 -0.97 250 254 253
-10.39 -10.25 -0.97 250 254 253
-10.39 -10.33 -0.97 250 255 254
-10.51 -10.40 -0.82 250 255 254
-10.51 -10.47 -0.82 250 255 254
-10.51 -10.55 -0.82 250 255 254
-10.51 -10.62 -0.82 250 255 254
-10.51 -10.70 -0.82 250 255 254
-10.51 -10.78 -0.82 250 255 254
-10.51 -10.85 -0.82 250 255 254
-10.51 -10.93 -0.82 250 255 254
-10.51 -11.01 -0.82 250 255 254
-10.51 -11.08 -0.82 250 255 254
-10.51 -11.16 -0.82 250 255 254
-10.51 -11.23 -0.82 250 255 254
-10.51 -11.31 -0.82 250 255 254
-10.51 -11.39 -0.82 250 255 254
-10.39 -11.48 -0.97 250 255 254
-10.39 -11.56 -0.97 250 255 254
-10.39 -11.63 -0.97 250 255 254
-10.39 -11.71 -0.97 250 255 254
-10.39 -11.79 -0.97 250 255 254
-10.39 -11.86 -0.97 250 255 254
-10.39 -11.94 -0.97 250 255 254
-10.39 -12.02 -0.97 250 255 254
-10.39 -12.09 -0.97 250 255 254
-10.51 -12.15 -0.82 250 255 254
-10.51 -12.23 -0.82 250 255 254
-10.51 -12.30 -0.82 250 255 254
-10.51 -12.38 -0.82 250 255 254
-10.51 -12.46 -0.82 250 255 254
-10.51 -12.53 -0.82 250 255 254
-10.51 -12.61 -0.82 250 255 254
-10.51 -12.68 -0.82 248 255 254
-10.51 -12.76 -0.82 246 255 252
-10.51 -12.84 -0.82 246 255 252
-10.51 -12.91 -0.82 250 255 252
-10.51 -12.99 -0.82 253 255 252
-10.51 -13.07 -0.82 254 254 254
-10.39 -13.17 -0.97 254 252 253
-10.39 -13.24 -0.97 253 253 255
-10.39 -13.32 -0.97 251 252 254
-10.51 -13.37 -0.82 246 250 253
-10.51 -13.45 -0.82 248 252 255
-10.51 -13.52 -0.82 222 225 230
-10.51 -13.60 -0.82 165 162 169
-10.51 -13.68 -0.82 105 91 104
-10.39 -13.78 -0.97 62 39 55
-10.39 -13.85 -0.97 32 1 19
-10.39 -13.93 -0.97 20 0 9
-10.39 -14.01 -0.97 11 0 12
-10.39 -14.08 -0.97 12 0 19
-10.39 -14.16 -0.97 21 10 26
-10.39 -14.24 -0.97 36 30 44
-10.39 -14.31 -0.97 42 44 56
-10.39 -14.39 -0.97 41 47 59
-10.39 -14.47 -0.97 35 43 54
-10.39 -14.54 -0.97 42 50 63
-10.39 -14.62 -0.97 41 47 61
-10.39 -14.70 -0.97 39 45 61
-10.39 -14.77 -0.97 40 42 57
-10.39 -14.85 -0.97 42 41 55
-10.51 -14.90 -0.82 45 41 55
-10.51 -14.97 -0.82 46 40 50
-10.51 -15.05 -0.82 46 38 53
-10.51 -15.13 -0.82 41 37 54
-10.51 -15.20 -0.82 37 33 50
-10.51 -15.28 -0.82 45 46 50
-10.51 -15.36 -0.82 42 46 49
-10.51 -15.43 -0.82 39 43 55
-10.51 -15.51 -0.82 43 49 65
-10.51 -15.58 -0.82 40 50 60
-10.51 -15.66 -0.82 43 52 67
-10.51 -15.74 -0.82 36 44 63
-10.51 -15.81 -0.82 0 0 29
-10.39 -15.92 -0.97 109 113 148
-10.39 -16.00 -0.97 249 250 255
-10.39 -16.08 -0.97 245 249 255
-10.39 -16.15 -0.97 248 249 253
-10.39 -16.23 -0.97 253 253 255
-10.51 -16.27 -0.82 250 254 253
-10.51 -16.35 -0.82 248 253 249
-10.51 -16.42 -0.82 248 253 249
-10.51 -16.50 -0.82 246 251 247
-10.51 -16.73 -0.82 251 255 253
-10.51 -16.81 -0.82 247 253 249
-10.51 -16.88 -0.82 251 255 253
-10.51 -16.96 -0.82 250 255 252
-10.51 -17.03 -0.82 249 254 250
-10.51 -17.11 -0.82 249 254 250
-10.51 -17.19 -0.82 253 255 252
-10.51 -17.26 -0.82 254 255 253
-10.51 -17.34 -0.82 252 254 251
-10.51 -17.42 -0.82 249 251 248
-10.51 -17.49 -0.82 247 252 248
-10.51 -17.57 -0.82 252 255 253
-10.51 -17.65 -0.82 252 255 255
-10.51 -17.72 -0.82 231 235 236
-10.39 -17.84 -0.97 206 207 209
-10.39 -17.92 -0.97 192 193 197
-10.39 -17.99 -0.97 196 196 204
-10.39 -18.07 -0.97 191 190 198
-10.51 -18.26 -0.82 190 188 199
-10.51 -18.33 -0.82 191 188 199
-10.51 -18.41 -0.82 192 189 200
-10.51 -18.48 -0.82 193 190 199
-10.51 -18.56 -0.82 194 191 200
-10.51 -18.64 -0.82 194 188 200
-10.51 -18.71 -0.82 195 189 201
-10.51 -18.79 -0.82 196 190 202
-10.51 -18.87 -0.82 197 191 203
-10.60 -18.91 -0.70 198 192 204
-10.60 -18.98 -0.70 198 192 204
-10.60 -19.06 -0.70 197 191 203
-10.60 -19.13 -0.70 197 191 203
-10.60 -19.21 -0.70 199 193 205
-10.60 -19.29 -0.70 198 192 204
-10.60 -19.36 -0.70 197 191 203
-10.60 -19.44 -0.70 197 191 203
-10.60 -19.51 -0.70 195 192 203
-10.60 -19.59 -0.70 196 193 204
-10.60 -19.67 -0.70 197 194 205
-10.51 -19.78 -0.82 193 192 198
-10.51 -19.86 -0.82 194 193 198
-10.51 -19.93 -0.82 197 194 201
-10.51 -20.01 -0.82 196 193 200
-10.60 -20.05 -0.70 194 191 200
-10.60 -20.12 -0.70 193 190 199
-10.60 -20.20 -0.70 194 191 200
-10.60 -20.28 -0.70 195 192 201
-10.51 -20.39 -0.82 198 192 202
-10.51 -20.47 -0.82 198 192 202
-10.51 -20.55 -0.82 198 192 202
-10.60 -20.58 -0.70 199 193 203
-10.60 -20.66 -0.70 199 194 201
-10.60 -20.73 -0.70 197 192 199
-10.60 -20.81 -0.70 195 190 196
-10.60 -20.88 -0.70 194 189 196
-10.51 -21.00 -0.82 194 188 198
-10.51 -21.08 -0.82 192 186 198
-10.60 -21.11 -0.70 191 185 195
-10.60 -21.19 -0.70 168 162 172
-10.60 -21.26 -0.70 172 164 175
-10.60 -21.34 -0.70 178 170 181
-10.51 -21.46 -0.82 179 172 180
-10.51 -21.54 -0.82 171 164 172
-10.51 -21.61 -0.82 185 178 186
-10.60 -21.64 -0.70 168 161 168
-10.60 -21.72 -0.70 142 135 142
-10.60 -21.80 -0.70 142 137 143
-10.60 -21.87 -0.70 132 127 133
-10.60 -21.95 -0.70 122 120 125
-10.60 -22.03 -0.70 119 116 125
-10.60 -22.10 -0.70 105 101 115
-10.60 -22.18 -0.70 93 88 108
-10.72 -22.19 -0.55 61 58 77
-10.72 -22.27 -0.55 31 27 50
-10.81 -22.30 -0.43 37 38 59
-10.93 -22.31 -0.28 53 53 77
-11.02 -22.34 -0.17 47 49 70
-11.02 -22.42 -0.17 49 52 71
-11.02 -22.49 -0.17 46 48 63
-11.02 -22.57 -0.17 51 53 65
-11.02 -22.64 -0.17 49 49 59
-11.14 -22.65 -0.02 51 50 58
-11.14 -22.73 -0.02 43 42 47
-11.14 -22.80 -0.02 50 48 53
-11.14 -22.88 -0.02 46 41 47
-11.14 -22.95 -0.02 28 21 28
-11.14 -23.03 -0.02 23 10 20
-11.14 -23.10 -0.02 11 0 0
-11.14 -23.18 -0.02 48 31 11
-11.14 -23.25 -0.02 143 127 94
-11.23 -23.27 0.10 206 186 151
-11.23 -23.35 0.10 237 213 175
-11.14 -23.47 -0.02 229 201 164
-11.14 -23.55 -0.02 230 198 159
-11.23 -23.57 0.10 235 200 158
-11.23 -23.65 0.10 236 200 150
-11.23 -23.72 0.10 236 197 142
-11.23 -23.79 0.10 228 190 128
-11.23 -23.87 0.10 237 197 136
-11.23 -23.94 0.10 237 197 136
-11.23 -24.02 0.10 233 192 136
-11.32 -24.04 0.22 252 213 156
-11.32 -24.11 0.22 255 220 168
-11.32 -24.19 0.22 73 40 0
-11.32 -24.26 0.22 90 58 37
-11.23 -24.39 0.10 85 54 72
-11.14 -24.52 -0.02 46 16 50
-10.93 -24.72 -0.28 44 20 44
-10.72 -24.92 -0.55 69 47 70
-10.72 -25.00 -0.55 95 77 103
-10.60 -25.14 -0.70 155 137 161
-10.60 -25.22 -0.70 204 192 196
-10.60 -25.30 -0.70 213 205 202
-10.51 -25.43 -0.82 209 201 198
-10.51 -25.51 -0.82 199 193 195
-10.51 -25.58 -0.82 207 200 207
-10.51 -25.66 -0.82 205 195 203
-10.51 -25.73 -0.82 205 195 204
-10.51 -25.81 -0.82 207 197 206
-10.51 -25.89 -0.82 208 198 207
-10.51 -25.96 -0.82 209 199 208
-10.51 -26.04 -0.82 209 199 208
-10.51 -26.12 -0.82 209 199 207
-10.39 -26.27 -0.97 209 199 207
-10.51 -26.27 -0.82 209 199 207
-10.51 -26.35 -0.82 210 200 208
-10.51 -26.42 -0.82 210 201 206
-10.51 -26.50 -0.82 208 199 204
-10.60 -26.51 -0.70 209 200 205
-10.60 -26.59 -0.70 211 202 207
-10.60 -26.67 -0.70 212 203 208
-10.60 -26.74 -0.70 212 203 208
-10.60 -26.82 -0.70 209 202 209
-10.60 -26.89 -0.70 209 202 209
-10.60 -26.97 -0.70 208 201 208
-10.60 -27.05 -0.70 208 201 208
-10.60 -27.12 -0.70 208 201 208
-10.60 -27.20 -0.70 209 202 209
-10.60 -27.27 -0.70 209 202 209
-10.60 -27.35 -0.70 209 202 209
-10.60 -27.43 -0.70 209 202 209
-10.60 -27.50 -0.70 209 202 209
-10.60 -27.58 -0.70 209 202 209
-10.60 -27.65 -0.70 210 203 210
-10.60 -27.73 -0.70 210 203 210
-10.60 -27.81 -0.70 211 204 211
-10.51 -27.95 -0.82 213 203 211
-10.60 -27.96 -0.70 211 202 207
-10.60 -28.03 -0.70 213 202 208
-10.60 -28.11 -0.70 213 202 208
-10.60 -28.19 -0.70 212 201 207
-10.51 -28.33 -0.82 212 201 207
-10.51 -28.41 -0.82 213 202 208
-10.51 -28.48 -0.82 213 204 209
-10.51 -28.56 -0.82 212 203 208
-10.51 -28.63 -0.82 210 201 206
-10.51 -28.71 -0.82 213 204 209
-10.51 -28.79 -0.82 215 205 213
-10.60 -28.80 -0.70 214 204 212
-10.60 -28.87 -0.70 209 202 209
-10.60 -28.95 -0.70 211 204 211
-10.60 -29.02 -0.70 213 206 213
-10.60 -29.10 -0.70 214 204 213
-10.60 -29.18 -0.70 212 202 211
-10.60 -29.25 -0.70 212 202 211
-10.60 -29.33 -0.70 213 203 212
-10.60 -29.40 -0.70 213 203 212
-10.60 -29.48 -0.70 212 202 211
-10.60 -29.56 -0.70 212 202 210
-10.60 -29.63 -0.70 213 203 211
-10.60 -29.71 -0.70 214 204 212
-10.60 -29.78 -0.70 214 204 212
-10.60 -29.86 -0.70 215 206 211
-10.60 -29.94 -0.70 215 206 211
-10.60 -30.01 -0.70 214 205 210
-10.60 -30.09 -0.70 214 205 210
-10.51 -30.24 -0.82 213 204 209
-10.51 -30.31 -0.82 213 204 209
-10.51 -30.39 -0.82 0 0 0
-10.51 -30.47 -0.82 0 0 0
-10.60 -30.47 -0.70 0 0 0
-10.60 -30.55 -0.70 0 0 0
-10.60 -30.62 -0.70 0 0 0
-10.60 -30.70 -0.70 0 0 0
-10.60 -30.77 -0.70 0 0 0
-10.60 -30.85 -0.70 0 0 0
-10.60 -30.93 -0.70 0 0 0
-10.60 -31.00 -0.70 0 0 0
-10.60 -31.08 -0.70 0 0 0
-10.72 -31.06 -0.55 0 0 0
-10.72 -31.14 -0.55 0 0 0
-10.72 -31.21 -0.55 0 0 0
-10.72 -31.29 -0.55 0 0 0
-10.43 17.41 -1.03 0 0 0
-10.43 17.33 -1.03 0 0 0
-10.31 17.35 -1.18 0 0 0
-10.31 17.27 -1.18 0 0 0
-10.43 17.10 -1.03 0 0 0
-10.43 17.02 -1.03 0 0 0
-10.31 17.04 -1.18 0 0 0
-10.31 16.97 -1.18 0 0 0
-10.31 16.89 -1.18 0 0 0
-10.31 16.81 -1.18 0 0 0
-10.31 16.73 -1.18 0 0 0
-10.31 16.66 -1.18 0 0 0
-10.31 16.58 -1.18 0 0 0
-10.22 16.58 -1.30 0 0 0
-10.22 16.50 -1.30 0 0 0
-10.22 16.43 -1.30 0 0 0
-10.22 16.35 -1.30 0 0 0
-10.22 16.27 -1.30 0 0 0
-10.10 16.29 -1.45 0 0 0
-9.99 16.30 -1.60 0 0 0
-11.96 14.66 0.93 0 0 0
-11.96 14.59 0.93 0 0 0
-11.96 14.51 0.93 0 0 0
-11.96 14.44 0.93 0 0 0
-11.96 14.37 0.93 0 0 0
-11.96 14.30 0.93 0 0 0
-11.87 14.30 0.81 0 0 0
-11.87 14.22 0.81 0 0 0
-11.87 14.15 0.81 0 0 0
-11.75 14.17 0.66 0 0 0
-11.75 14.09 0.66 0 0 0
-11.66 14.09 0.54 0 0 0
-11.66 14.02 0.54 0 0 0
-11.66 13.94 0.54 0 0 0
-11.57 13.94 0.42 0 0 0
-11.57 13.87 0.42 0 0 0
-11.57 13.79 0.42 0 0 0
-11.48 13.79 0.30 0 0 0
-11.48 13.72 0.30 0 0 0
-11.36 13.73 0.16 0 0 0
-11.27 13.72 0.04 0 0 0
-11.27 13.65 0.04 0 0 0
-11.27 13.57 0.04 0 0 0
-11.27 13.50 0.04 0 0 0
-11.17 13.49 -0.08 0 0 0
-11.17 13.42 -0.08 0 0 0
-11.17 13.34 -0.08 0 0 0
-11.17 13.27 -0.08 0 0 0
-11.17 13.19 -0.08 0 0 0
-11.17 13.12 -0.08 0 0 0
-11.17 13.04 -0.08 0 0 0
-11.17 12.97 -0.08 0 0 0
-11.17 12.89 -0.08 0 0 0
-11.17 12.82 -0.08 0 0 0
-11.17 12.75 -0.08 0 0 0
-11.17 12.67 -0.08 0 0 0
-11.17 12.60 -0.08 0 0 0
-11.17 12.52 -0.08 0 0 0
-11.17 12.45 -0.08 0 0 0
-11.17 12.37 -0.08 0 0 0
-11.17 12.30 -0.08 0 0 0
-11.27 12.16 0.04 0 0 0
-11.36 12.02 0.16 0 0 0
-11.48 11.87 0.30 0 0 0
-11.57 11.73 0.42 0 0 0
-11.66 11.59 0.54 0 0 0
-11.75 11.46 0.66 0 0 0
-11.87 11.31 0.81 0 0 0
-11.87 11.23 0.81 0 0 0
-11.87 11.16 0.81 0 0 0
-11.75 11.17 0.66 0 0 0
-11.66 11.15 0.54 0 0 0
-11.48 11.20 0.30 0 0 0
-11.48 11.13 0.30 0 0 0
-11.06 11.33 -0.23 0 0 0
-10.96 11.31 -0.35 0 0 0
-10.96 11.24 -0.35 0 0 0
-10.85 11.24 -0.50 0 0 0
-10.75 11.22 -0.62 0 0 0
-10.75 11.15 -0.62 0 0 0
-10.75 11.07 -0.62 0 0 0
-10.64 11.07 -0.77 0 0 0
-10.55 11.05 -0.88 0 0 0
-10.55 10.97 -0.88 0 0 0
-10.43 10.97 -1.03 0 0 0
-10.43 10.89 -1.03 0 0 0
-10.43 10.82 -1.03 0 0 0
-10.31 10.81 -1.18 0 0 0
-10.31 10.73 -1.18 0 0 0
-10.31 10.66 -1.18 0 0 0
-10.31 10.58 -1.18 0 0 0
-10.31 10.50 -1.18 0 0 0
-10.31 10.43 -1.18 0 0 0
-10.31 10.35 -1.18 0 0 0
-10.31 10.27 -1.18 0 0 0
-10.31 10.20 -1.18 0 0 0
-10.31 10.12 -1.18 0 0 0
-10.31 10.04 -1.18 0 0 0
-10.31 9.97 -1.18 0 0 0
-10.31 9.89 -1.18 0 0 0
-10.43 9.74 -1.03 0 0 0
-10.43 9.67 -1.03 0 0 0
-10.43 9.59 -1.03 0 0 0
-10.43 9.51 -1.03 0 0 0
-10.43 9.44 -1.03 0 0 0
-10.43 9.36 -1.03 0 0 0
-10.43 9.28 -1.03 0 0 0
-10.43 9.21 -1.03 0 0 0
-10.31 9.04 -1.18 0 0 0
-10.31 8.97 -1.18 0 0 0
-10.31 8.89 -1.18 0 0 0
-10.31 8.81 -1.18 0 0 0
-10.31 8.73 -1.18 0 0 0
-10.31 8.66 -1.18 0 0 0
-10.31 8.58 -1.18 0 0 0
-10.31 8.50 -1.18 0 0 0
-10.31 8.43 -1.18 0 0 0
-10.31 8.35 -1.18 0 0 0
-10.31 8.27 -1.18 0 0 0
-10.31 8.20 -1.18 0 0 0
-10.31 8.12 -1.18 0 0 0
-10.31 8.04 -1.18 0 0 0
-10.31 7.97 -1.18 0 0 0
-10.31 7.89 -1.18 0 0 0
-10.31 7.81 -1.18 0 0 0
-10.31 7.73 -1.18 0 0 0
-10.31 7.66 -1.18 0 0 0
-10.31 7.58 -1.18 0 0 0
-10.31 7.50 -1.18 0 0 0
-10.31 7.43 -1.18 0 0 0
-10.31 7.35 -1.18 0 0 0
-10.31 7.27 -1.18 0 0 0
-10.31 7.20 -1.18 0 0 0
-10.31 7.12 -1.18 0 0 0
-10.31 7.04 -1.18 0 0 0
-10.31 6.97 -1.18 0 0 0
-10.43 6.83 -1.03 0 0 0
-10.43 6.76 -1.03 0 0 0
-10.43 6.68 -1.03 0 0 0
-10.43 6.60 -1.03 0 0 0
-10.43 6.53 -1.03 0 0 0
-10.43 6.45 -1.03 0 0 0
-10.43 6.37 -1.03 0 0 0
-10.43 6.30 -1.03 0 0 0
-10.43 6.22 -1.03 0 0 0
-10.43 6.14 -1.03 0 0 0
-10.43 6.07 -1.03 0 0 0
-10.55 5.94 -0.88 0 0 0
-10.55 5.86 -0.88 0 0 0
-10.43 5.84 -1.03 0 0 0
-10.43 5.76 -1.03 0 0 0
-10.55 5.63 -0.88 0 0 0
-10.55 5.56 -0.88 0 0 0
-10.55 5.48 -0.88 0 0 0
-10.55 5.40 -0.88 0 0 0
-10.55 5.33 -0.88 0 0 0
-10.55 5.25 -0.88 0 0 0
-10.55 5.17 -0.88 0 0 0
-10.43 5.15 -1.03 0 0 0
-10.43 5.07 -1.03 0 0 0
-10.43 4.99 -1.03 0 0 0
-10.43 4.92 -1.03 0 0 0
-10.43 4.84 -1.03 0 0 0
-10.43 4.76 -1.03 0 0 0
-10.43 4.69 -1.03 0 0 0
-10.43 4.61 -1.03 0 0 0
-10.43 4.53 -1.03 0 0 0
-10.43 4.46 -1.03 0 0 0
-10.43 4.38 -1.03 0 0 0
-10.31 4.35 -1.18 0 0 0
-10.43 4.23 -1.03 0 0 0
-10.43 4.15 -1.03 0 0 0
-10.43 4.07 -1.03 0 0 0
-10.43 4.00 -1.03 0 0 0
-10.43 3.92 -1.03 0 0 0
-10.43 3.84 -1.03 0 0 0
-10.43 3.77 -1.03 0 0 0
-10.43 3.69 -1.03 0 0 0
-10.43 3.61 -1.03 0 0 0
-10.43 3.54 -1.03 0 0 0
-10.43 3.46 -1.03 0 0 0
-10.43 3.38 -1.03 0 0 0
-10.43 3.31 -1.03 0 0 0
-10.43 3.23 -1.03 0 0 0
-10.31 3.20 -1.18 0 0 0
-10.31 3.12 -1.18 0 0 0
-10.43 3.00 -1.03 0 0 0
-10.43 2.92 -1.03 0 0 0
-10.43 2.85 -1.03 0 0 0
-10.43 2.77 -1.03 0 0 0
-10.43 2.69 -1.03 0 0 0
-10.43 2.62 -1.03 0 0 0
-10.43 2.54 -1.03 0 0 0
-10.43 2.47 -1.03 0 0 0
-10.43 2.39 -1.03 0 0 0
-10.43 2.31 -1.03 0 0 0
-10.43 2.24 -1.03 0 0 0
-10.43 2.16 -1.03 0 0 0
-10.43 2.08 -1.03 0 0 0
-10.43 2.01 -1.03 0 0 0
-10.43 1.93 -1.03 0 0 0
-10.43 1.85 -1.03 0 0 0
-10.43 1.78 -1.03 0 0 0
-10.43 1.70 -1.03 0 0 0
-10.43 1.62 -1.03 0 0 0
-10.43 1.55 -1.03 0 0 0
-10.43 1.47 -1.03 0 0 0
-10.43 1.39 -1.03 0 0 0
-10.43 1.32 -1.03 0 0 0
-10.43 1.24 -1.03 0 0 0
-10.31 1.20 -1.18 0 0 0
-10.31 1.12 -1.18 0 0 0
-10.43 1.01 -1.03 0 0 0
-10.43 0.93 -1.03 0 0 0
-10.43 0.86 -1.03 0 0 0
-10.43 0.78 -1.03 0 0 0
-10.43 0.70 -1.03 0 0 0
-10.43 0.63 -1.03 0 0 0
-10.43 0.55 -1.03 0 0 0
-10.43 0.47 -1.03 0 0 0
-10.43 0.40 -1.03 0 0 0
-10.43 0.32 -1.03 0 0 0
-10.43 0.24 -1.03 0 0 0
-10.43 0.17 -1.03 0 0 0
-10.43 0.09 -1.03 0 0 0
-10.43 0.01 -1.03 0 0 0
-10.43 -0.06 -1.03 0 0 0
-10.43 -0.14 -1.03 0 0 0
-10.43 -0.22 -1.03 0 0 0
-10.43 -0.29 -1.03 0 0 0
-10.43 -0.37 -1.03 0 0 0
-10.43 -0.45 -1.03 0 0 0
-10.43 -0.52 -1.03 0 0 0
-10.43 -0.60 -1.03 0 0 0
-10.43 -0.68 -1.03 0 0 0
-10.43 -0.75 -1.03 0 0 0
-10.43 -0.83 -1.03 0 0 0
-10.43 -0.91 -1.03 0 0 0
-10.43 -0.98 -1.03 0 0 0
-10.43 -1.06 -1.03 0 0 0
-10.43 -1.14 -1.03 0 0 0
-10.43 -1.21 -1.03 0 0 0
-10.43 -1.29 -1.03 0 0 0
-10.43 -1.37 -1.03 0 0 0
-10.43 -1.44 -1.03 0 0 0
-10.43 -1.52 -1.03 0 0 0
-10.55 -1.62 -0.88 0 0 0
-10.55 -1.70 -0.88 0 0 0
-10.55 -1.77 -0.88 0 0 0
-10.55 -1.85 -0.88 0 0 0
-10.55 -1.92 -0.88 0 0 0
-10.55 -2.00 -0.88 0 0 0
-10.55 -2.08 -0.88 0 0 0
-10.55 -2.15 -0.88 0 0 0
-10.55 -2.23 -0.88 0 0 0
-10.55 -2.31 -0.88 0 0 0
-10.43 -2.36 -1.03 0 0 0
-10.43 -2.44 -1.03 0 0 0
-10.43 -2.52 -1.03 0 0 0
-10.43 -2.59 -1.03 0 0 0
-10.43 -2.67 -1.03 0 0 0
-10.43 -2.75 -1.03 0 0 0
-10.43 -2.82 -1.03 0 0 0
-10.43 -2.90 -1.03 0 0 0
-10.43 -2.97 -1.03 0 0 0
-10.43 -3.05 -1.03 0 0 0
-10.43 -3.13 -1.03 0 0 0
-10.43 -3.20 -1.03 0 0 0
-10.43 -3.28 -1.03 0 0 0
-10.43 -3.36 -1.03 0 0 0
-10.43 -3.43 -1.03 0 0 0
-10.43 -3.51 -1.03 0 0 0
-10.43 -3.59 -1.03 0 0 0
-10.43 -3.66 -1.03 0 0 0
-10.43 -3.74 -1.03 0 0 0
-10.43 -3.82 -1.03 0 0 0
-10.43 -3.89 -1.03 0 0 0
-10.43 -3.97 -1.03 0 0 0
-10.43 -4.05 -1.03 0 0 0
-10.43 -4.12 -1.03 0 0 0
-10.43 -4.20 -1.03 0 0 0
-10.43 -4.28 -1.03 0 0 0
-10.43 -4.35 -1.03 0 0 0
-10.43 -4.43 -1.03 0 0 0
-10.43 -4.51 -1.03 0 0 0
-10.55 -4.60 -0.88 0 0 0
-10.55 -4.67 -0.88 0 0 0
-10.55 -4.75 -0.88 0 0 0
-10.55 -4.82 -0.88 0 0 0
-10.55 -4.90 -0.88 0 0 0
-10.55 -4.98 -0.88 0 0 0
-10.55 -5.05 -0.88 0 0 0
-10.55 -5.13 -0.88 0 0 0
-10.55 -5.21 -0.88 0 0 0
-10.55 -5.28 -0.88 0 0 0
-10.43 -5.35 -1.03 0 0 0
-10.43 -5.43 -1.03 0 0 0
-10.43 -5.50 -1.03 0 0 0
-10.43 -5.58 -1.03 0 0 0
-10.43 -5.66 -1.03 0 0 0
-10.43 -5.73 -1.03 0 0 0
-10.43 -5.81 -1.03 0 0 0
-10.43 -5.89 -1.03 0 0 0
-10.43 -5.96 -1.03 0 0 0
-10.43 -6.04 -1.03 0 0 0
-10.31 -6.11 -1.18 0 0 0
-10.31 -6.19 -1.18 0 0 0
-10.43 -6.27 -1.03 0 0 0
-10.55 -6.35 -0.88 0 0 0
-10.55 -6.43 -0.88 0 0 0
-10.55 -6.50 -0.88 0 0 0
-10.43 -6.58 -1.03 0 0 0
-10.43 -6.65 -1.03 0 0 0
-10.43 -6.73 -1.03 0 0 0
-10.43 -6.81 -1.03 0 0 0
-10.55 -6.88 -0.88 0 0 0
-10.55 -6.96 -0.88 0 0 0
-10.55 -7.04 -0.88 0 0 0
-10.43 -7.11 -1.03 0 0 0
-10.43 -7.19 -1.03 0 0 0
-10.43 -7.27 -1.03 0 0 0
-10.43 -7.34 -1.03 0 0 0
-10.43 -7.42 -1.03 0 0 0
-10.43 -7.50 -1.03 0 0 0
-10.43 -7.57 -1.03 0 0 0
-10.43 -7.65 -1.03 0 0 0
-10.43 -7.73 -1.03 0 0 0
-10.55 -7.80 -0.88 0 0 0
-10.55 -7.88 -0.88 0 0 0
-10.43 -7.96 -1.03 0 0 0
-10.43 -8.03 -1.03 0 0 0
-10.43 -8.11 -1.03 0 0 0
-10.55 -8.18 -0.88 0 0 0
-10.55 -8.26 -0.88 0 0 0
-10.55 -8.33 -0.88 0 0 0
-10.55 -8.41 -0.88 0 0 0
-10.55 -8.49 -0.88 0 0 0
-10.55 -8.56 -0.88 0 0 0
-10.55 -8.64 -0.88 0 0 0
-10.55 -8.72 -0.88 0 0 0
-10.55 -8.79 -0.88 0 0 0
-10.55 -8.87 -0.88 0 0 0
-10.55 -8.95 -0.88 0 0 0
-10.55 -9.02 -0.88 0 0 0
-10.55 -9.10 -0.88 0 0 0
-10.55 -9.17 -0.88 0 0 0
-10.55 -9.25 -0.88 0 0 0
-10.55 -9.33 -0.88 0 0 0
-10.55 -9.40 -0.88 0 0 0
-10.55 -9.48 -0.88 0 0 0
-10.55 -9.56 -0.88 0 0 0
-10.55 -9.63 -0.88 0 0 0
-10.43 -9.72 -1.03 0 0 0
-10.43 -9.79 -1.03 0 0 0
-10.43 -9.87 -1.03 0 0 0
-10.43 -9.95 -1.03 0 0 0
-10.43 -10.02 -1.03 0 0 0
-10.43 -10.10 -1.03 0 0 0
-10.43 -10.18 -1.03 0 0 0
-10.55 -10.24 -0.88 0 0 0
-10.55 -10.32 -0.88 0 0 0
-10.55 -10.40 -0.88 0 0 0
-10.55 -10.47 -0.88 0 0 0
-10.55 -10.55 -0.88 0 0 0
-10.55 -10.62 -0.88 0 0 0
-10.64 -10.69 -0.77 0 0 0
-10.64 -10.77 -0.77 0 0 0
-10.64 -10.84 -0.77 0 0 0
-10.64 -10.92 -0.77 0 0 0
-10.64 -10.99 -0.77 0 0 0
-10.64 -11.07 -0.77 0 0 0
-10.64 -11.15 -0.77 0 0 0
-10.64 -11.22 -0.77 0 0 0
-10.64 -11.30 -0.77 0 0 0
-10.64 -11.37 -0.77 0 0 0
-10.55 -11.46 -0.88 0 0 0
-10.55 -11.54 -0.88 0 0 0
-10.55 -11.62 -0.88 0 0 0
-10.55 -11.69 -0.88 0 0 0
-10.55 -11.77 -0.88 0 0 0
-10.55 -11.85 -0.88 0 0 0
-10.55 -11.92 -0.88 0 0 0
-10.55 -12.00 -0.88 0 0 0
-10.55 -12.07 -0.88 0 0 0
-10.55 -12.15 -0.88 0 0 0
-10.55 -12.23 -0.88 0 0 0
-10.55 -12.30 -0.88 0 0 0
-10.55 -12.38 -0.88 0 0 0
-10.64 -12.44 -0.77 0 0 0
-10.64 -12.52 -0.77 0 0 0
-10.64 -12.59 -0.77 0 0 0
-10.55 -12.68 -0.88 0 0 0
-10.55 -12.76 -0.88 0 0 0
-10.55 -12.84 -0.88 0 0 0
-10.55 -12.91 -0.88 0 0 0
-10.55 -12.99 -0.88 0 0 0
-10.55 -13.07 -0.88 0 0 0
-10.55 -13.14 -0.88 0 0 0
-10.55 -13.22 -0.88 0 0 0
-10.55 -13.30 -0.88 0 0 0
-10.55 -13.37 -0.88 0 0 0
-10.55 -13.45 -0.88 0 0 0
-10.55 -13.52 -0.88 0 0 0
-10.55 -13.60 -0.88 0 0 0
-10.55 -13.68 -0.88 0 0 0
