ply
format ascii 1.0
element vertex 1624
property float x
property float y
property float z
property uchar red
property uchar green
property uchar blue
end_header
-0.58 -2.17 -0.00 218 244 243
-0.76 -2.29 0.17 216 242 241
-0.76 -2.38 0.17 215 239 239
-0.76 -2.47 0.17 216 240 240
-0.76 -2.56 0.17 214 238 238
-0.76 -2.65 0.17 218 242 244
-0.76 -2.74 0.17 216 240 242
-0.76 -2.83 0.17 215 239 243
-0.76 -2.92 0.17 217 241 245
-0.76 -3.01 0.17 219 243 247
-0.76 -3.10 0.17 220 244 248
-0.92 -3.21 0.31 219 242 248
-0.92 -3.30 0.31 217 240 246
-0.92 -3.39 0.31 211 236 241
-0.92 -3.48 0.31 207 232 237
-0.92 -3.57 0.31 202 231 237
-0.92 -3.66 0.31 203 232 238
-0.92 -3.74 0.31 202 233 238
-0.92 -3.83 0.31 201 232 237
-0.92 -3.92 0.31 199 232 239
-1.08 -4.03 0.46 200 233 238
-1.08 -4.12 0.46 207 241 243
-0.92 -4.19 0.31 207 241 242
-0.92 -4.28 0.31 210 241 243
-0.92 -4.37 0.31 214 244 246
-0.92 -4.46 0.31 217 247 247
-0.92 -4.55 0.31 221 247 248
-0.92 -4.64 0.31 218 244 245
-0.92 -4.73 0.31 213 234 235
-0.92 -4.82 0.31 217 238 239
-0.76 -4.90 0.17 221 242 243
-0.76 -4.99 0.17 221 242 243
-3.55 -5.58 2.76 226 244 244
-3.42 -5.66 2.64 229 245 245
-3.42 -5.74 2.64 230 246 245
-3.26 -5.82 2.49 226 242 241
-3.26 -5.90 2.49 232 247 244
-3.26 -5.99 2.49 238 253 250
-3.26 -6.07 2.49 230 245 240
-3.26 -6.16 2.49 231 246 241
-3.26 -6.24 2.49 245 255 255
-3.26 -6.33 2.49 155 170 165
0.63 -6.49 -1.13 150 169 165
0.63 -6.58 -1.13 151 170 166
0.63 -6.68 -1.13 151 170 166
0.63 -6.77 -1.13 155 171 168
0.63 -6.86 -1.13 158 170 166
0.63 -6.96 -1.13 159 171 167
0.63 -7.05 -1.13 160 172 168
0.63 -7.14 -1.13 160 170 169
0.63 -7.24 -1.13 160 170 169
0.63 -7.33 -1.13 161 171 170
0.63 -7.42 -1.13 161 171 170
0.44 -7.52 -0.96 161 170 169
0.44 -7.61 -0.96 162 171 170
0.44 -7.70 -0.96 160 169 166
0.44 -7.80 -0.96 161 170 167
0.44 -7.89 -0.96 170 179 176
0.44 -7.98 -0.96 177 186 183
0.44 -8.07 -0.96 179 185 181
0.44 -8.17 -0.96 181 187 183
0.44 -8.26 -0.96 173 184 180
0.44 -8.35 -0.96 175 186 182
0.44 -8.45 -0.96 177 188 184
0.44 -8.54 -0.96 178 189 185
0.44 -8.63 -0.96 178 189 185
0.44 -8.72 -0.96 178 189 185
0.44 -8.82 -0.96 179 190 186
0.44 -8.91 -0.96 181 192 188
0.44 -9.00 -0.96 178 189 185
0.44 -9.10 -0.96 181 192 188
0.44 -9.19 -0.96 181 192 188
0.44 -9.28 -0.96 180 191 187
0.44 -9.37 -0.96 180 191 187
0.44 -9.47 -0.96 182 193 189
0.44 -9.56 -0.96 183 194 190
0.44 -9.65 -0.96 177 192 187
0.44 -9.75 -0.96 177 192 187
0.44 -9.84 -0.96 177 192 187
0.44 -9.93 -0.96 176 191 186
0.44 -10.02 -0.96 179 191 187
0.44 -10.12 -0.96 181 193 189
0.44 -10.21 -0.96 181 193 189
0.44 -10.30 -0.96 179 191 187
0.44 -10.40 -0.96 183 194 188
0.44 -10.49 -0.96 182 193 187
0.44 -10.58 -0.96 183 192 187
0.44 -10.67 -0.96 184 193 188
0.44 -10.77 -0.96 184 193 188
0.44 -10.86 -0.96 182 191 186
0.44 -10.95 -0.96 183 192 187
0.63 -11.06 -1.13 186 195 190
0.63 -11.16 -1.13 186 196 188
0.63 -11.25 -1.13 186 196 188
0.63 -11.34 -1.13 186 196 188
0.63 -11.44 -1.13 187 197 189
0.63 -11.53 -1.13 187 197 189
0.44 -11.60 -0.96 187 196 191
0.44 -11.70 -0.96 187 196 191
0.44 -11.79 -0.96 188 197 192
0.44 -11.88 -0.96 186 195 190
0.44 -11.97 -0.96 186 195 190
0.44 -12.07 -0.96 188 197 192
0.44 -12.16 -0.96 188 197 194
0.44 -12.25 -0.96 186 195 192
0.44 -12.35 -0.96 187 196 193
0.44 -12.44 -0.96 189 198 195
0.44 -12.53 -0.96 189 198 197
0.44 -12.62 -0.96 189 198 197
0.44 -12.72 -0.96 188 197 196
0.44 -12.81 -0.96 187 196 195
0.29 -12.88 -0.81 187 196 195
0.29 -12.97 -0.81 188 197 196
0.29 -13.07 -0.81 189 198 197
0.29 -13.16 -0.81 190 199 198
0.29 -13.25 -0.81 190 200 199
0.29 -13.34 -0.81 190 200 199
0.29 -13.44 -0.81 190 200 199
0.44 -13.55 -0.96 190 200 199
0.44 -13.65 -0.96 190 200 199
0.44 -13.74 -0.96 190 200 199
0.29 -13.81 -0.81 192 201 200
0.29 -13.90 -0.81 192 201 200
0.44 -14.02 -0.96 194 200 200
0.44 -14.11 -0.96 195 201 201
0.44 -14.20 -0.96 196 202 202
0.44 -14.30 -0.96 194 203 200
0.44 -14.39 -0.96 194 203 200
0.44 -14.48 -0.96 194 203 200
0.44 -14.57 -0.96 194 203 200
0.44 -14.67 -0.96 194 203 198
0.44 -14.76 -0.96 194 203 198
0.44 -14.85 -0.96 197 203 199
0.44 -14.95 -0.96 198 204 200
0.44 -15.04 -0.96 200 205 199
0.44 -15.13 -0.96 201 206 200
0.44 -15.22 -0.96 203 208 202
0.44 -15.32 -0.96 204 209 205
0.44 -15.41 -0.96 204 210 206
0.44 -15.50 -0.96 204 210 208
0.44 -15.60 -0.96 205 211 209
0.44 -15.69 -0.96 206 212 210
0.44 -15.78 -0.96 208 212 211
0.44 -15.87 -0.96 208 212 211
0.29 -15.93 -0.81 208 212 211
0.29 -16.03 -0.81 208 212 211
0.29 -16.12 -0.81 208 212 211
0.29 -16.21 -0.81 209 215 213
0.29 -16.30 -0.81 212 218 216
0.29 -16.40 -0.81 210 219 216
0.29 -16.49 -0.81 209 218 215
0.29 -16.58 -0.81 209 218 215
0.29 -16.67 -0.81 214 220 218
0.29 -16.77 -0.81 218 224 222
0.29 -16.86 -0.81 217 221 220
0.29 -16.95 -0.81 217 221 220
0.29 -17.04 -0.81 218 222 221
0.29 -17.14 -0.81 220 226 224
0.29 -17.23 -0.81 222 228 226
0.29 -17.32 -0.81 223 229 227
0.29 -17.41 -0.81 223 229 227
0.29 -17.51 -0.81 223 229 227
0.29 -17.60 -0.81 224 230 228
0.44 -17.73 -0.96 227 231 230
0.44 -17.83 -0.96 229 233 232
0.44 -17.92 -0.96 233 235 234
0.44 -18.01 -0.96 235 235 235
0.44 -18.10 -0.96 235 235 235
0.44 -18.20 -0.96 233 233 233
0.44 -18.29 -0.96 234 234 234
0.44 -18.38 -0.96 236 236 236
0.29 -18.43 -0.81 239 239 239
0.29 -18.52 -0.81 240 240 240
0.29 -18.62 -0.81 241 241 241
0.29 -18.71 -0.81 240 240 240
0.29 -18.80 -0.81 240 240 240
0.29 -18.89 -0.81 241 241 241
0.29 -18.99 -0.81 240 240 240
0.29 -19.08 -0.81 240 240 240
0.29 -19.17 -0.81 240 240 240
0.29 -19.26 -0.81 238 238 238
0.29 -19.36 -0.81 235 235 235
0.29 -19.45 -0.81 235 235 235
0.29 -19.54 -0.81 237 237 237
0.29 -19.63 -0.81 245 245 245
0.29 -19.73 -0.81 244 244 244
0.29 -19.82 -0.81 245 245 245
0.44 -19.96 -0.96 246 246 246
0.44 -20.05 -0.96 248 248 248
0.29 -20.10 -0.81 249 249 249
0.29 -20.19 -0.81 248 248 248
0.29 -20.28 -0.81 251 251 251
0.29 -20.37 -0.81 249 249 249
0.29 -20.47 -0.81 247 247 247
0.29 -20.56 -0.81 246 246 246
0.29 -20.65 -0.81 247 247 247
0.29 -20.74 -0.81 247 247 247
0.29 -20.84 -0.81 245 245 245
0.29 -20.93 -0.81 244 244 244
0.29 -21.02 -0.81 247 247 247
0.29 -21.11 -0.81 246 246 246
0.29 -21.21 -0.81 247 247 247
0.29 -21.30 -0.81 248 248 248
0.10 -21.33 -0.64 251 251 251
0.10 -21.42 -0.64 252 252 252
0.10 -21.51 -0.64 251 251 251
0.10 -21.60 -0.64 250 250 250
0.10 -21.70 -0.64 252 252 252
0.10 -21.79 -0.64 250 250 250
0.29 -21.95 -0.81 249 249 249
0.29 -22.04 -0.81 250 250 250
0.29 -22.13 -0.81 251 251 251
0.10 -22.16 -0.64 253 253 253
0.10 -22.25 -0.64 254 254 254
0.29 -22.41 -0.81 253 255 254
0.29 -22.50 -0.81 253 255 254
0.29 -22.59 -0.81 253 255 254
0.29 -22.69 -0.81 253 255 254
0.29 -22.78 -0.81 250 254 253
0.29 -22.87 -0.81 249 253 252
0.29 -22.96 -0.81 249 253 252
0.29 -23.06 -0.81 248 252 251
0.29 -23.15 -0.81 248 254 252
0.29 -23.24 -0.81 248 254 252
0.29 -23.33 -0.81 249 255 253
0.29 -23.43 -0.81 249 255 253
0.29 -23.52 -0.81 250 255 254
0.29 -23.61 -0.81 250 255 254
0.29 -23.70 -0.81 248 255 254
0.29 -23.80 -0.81 250 255 254
0.44 -23.95 -0.96 251 255 254
0.44 -24.05 -0.96 253 255 254
0.44 -24.14 -0.96 253 255 254
0.29 -24.17 -0.81 253 255 254
0.29 -24.26 -0.81 253 255 254
0.29 -24.35 -0.81 253 255 254
0.29 -24.44 -0.81 253 255 254
0.29 -24.54 -0.81 253 255 254
0.29 -24.63 -0.81 252 254 253
0.29 -24.72 -0.81 252 252 252
0.10 -24.73 -0.64 252 252 252
0.10 -24.83 -0.64 254 254 254
0.10 -24.92 -0.64 255 255 255
0.10 -25.01 -0.64 255 255 255
0.10 -25.10 -0.64 253 255 254
0.10 -25.19 -0.64 251 255 254
0.10 -25.29 -0.64 250 255 254
0.10 -25.38 -0.64 249 255 253
0.10 -25.47 -0.64 249 255 253
0.10 -25.56 -0.64 250 254 253
0.10 -25.66 -0.64 250 254 253
0.10 -25.75 -0.64 251 255 254
0.10 -25.84 -0.64 251 255 254
0.29 -26.02 -0.81 252 254 253
0.10 -26.02 -0.64 252 254 253
0.10 -26.12 -0.64 253 253 253
0.10 -26.21 -0.64 253 253 253
0.10 -26.30 -0.64 252 252 252
0.10 -26.39 -0.64 252 252 252
0.29 -26.57 -0.81 251 251 251
0.29 -26.66 -0.81 251 251 251
0.29 -26.76 -0.81 253 253 253
0.29 -26.85 -0.81 252 252 252
0.29 -26.94 -0.81 251 251 251
0.29 -27.03 -0.81 251 251 251
0.10 -27.04 -0.64 251 251 251
0.10 -27.13 -0.64 251 251 251
0.10 -27.22 -0.64 251 251 251
0.10 -27.31 -0.64 252 252 252
0.10 -27.40 -0.64 251 251 251
0.10 -27.50 -0.64 250 250 250
0.10 -27.59 -0.64 249 249 249
0.10 -27.68 -0.64 249 249 249
0.10 -27.77 -0.64 250 250 250
0.10 -28.05 -0.64 250 250 250
0.10 -28.14 -0.64 251 251 251
0.10 -28.23 -0.64 251 251 251
0.10 -28.33 -0.64 251 251 251
0.10 -28.42 -0.64 251 251 251
0.10 -28.51 -0.64 251 251 251
0.10 -28.60 -0.64 251 251 251
0.10 -28.69 -0.64 251 251 251
0.10 -28.79 -0.64 249 249 249
0.10 -28.88 -0.64 249 249 249
0.10 -28.97 -0.64 249 249 249
0.10 -29.06 -0.64 249 249 249
0.10 -29.15 -0.64 249 249 249
0.10 -29.25 -0.64 248 248 248
0.10 -29.34 -0.64 248 248 248
0.10 -29.43 -0.64 248 248 248
0.10 -29.52 -0.64 247 247 247
0.10 -29.61 -0.64 246 246 246
0.10 -29.71 -0.64 245 245 245
0.10 -29.80 -0.64 245 245 245
0.10 -29.89 -0.64 246 246 246
0.10 -29.98 -0.64 247 247 247
0.10 -30.07 -0.64 248 248 248
0.10 -30.17 -0.64 248 248 248
0.10 -30.26 -0.64 247 247 247
0.10 -30.35 -0.64 247 247 247
0.10 -30.44 -0.64 247 247 247
0.10 -30.54 -0.64 248 248 248
0.10 -30.63 -0.64 247 247 247
0.10 -30.72 -0.64 246 246 246
0.10 -30.81 -0.64 245 245 245
0.10 -30.90 -0.64 244 244 244
0.10 -31.00 -0.64 245 245 245
0.10 -31.09 -0.64 246 246 246
0.10 -31.18 -0.64 245 245 245
0.10 -31.27 -0.64 245 245 245
0.10 -31.36 -0.64 245 245 245
0.10 -31.46 -0.64 247 247 247
0.10 -31.55 -0.64 246 246 246
0.10 -31.64 -0.64 244 244 244
0.10 -31.73 -0.64 241 241 241
0.10 -31.82 -0.64 239 239 239
0.10 -31.92 -0.64 237 237 237
0.10 -32.01 -0.64 237 237 237
-0.08 -31.99 -0.47 238 238 238
-0.08 -32.08 -0.47 239 239 239
-0.08 -32.17 -0.47 237 239 238
-0.08 -32.26 -0.47 236 238 237
-0.08 -32.35 -0.47 237 237 237
-0.08 -32.45 -0.47 237 237 237
-0.08 -32.54 -0.47 240 238 239
-0.08 -32.63 -0.47 240 238 239
-0.08 -32.72 -0.47 241 237 238
-0.08 -32.81 -0.47 240 236 237
-0.08 -32.90 -0.47 240 236 237
-0.08 -32.99 -0.47 240 236 237
-0.08 -33.09 -0.47 240 236 237
-0.24 -33.08 -0.32 239 235 236
-0.24 -33.17 -0.32 237 233 234
-0.24 -33.26 -0.32 237 233 234
-0.24 -33.35 -0.32 235 233 234
-0.24 -33.44 -0.32 232 232 230
-0.08 -33.82 -0.47 247 249 246
-0.08 -33.91 -0.47 252 254 251
0.58 20.38 -1.21 111 102 93
0.58 20.28 -1.21 126 118 116
0.77 20.31 -1.38 125 117 115
0.58 20.10 -1.21 125 116 119
0.58 20.00 -1.21 123 114 117
0.77 20.03 -1.38 118 109 110
0.77 19.94 -1.38 125 117 115
0.77 19.85 -1.38 124 116 113
0.77 19.75 -1.38 122 115 109
0.77 19.66 -1.38 125 118 108
0.77 19.57 -1.38 126 119 109
0.77 19.47 -1.38 123 116 106
0.77 19.38 -1.38 124 117 107
0.77 19.28 -1.38 127 120 112
0.77 19.19 -1.38 126 119 113
0.77 19.10 -1.38 122 119 112
0.77 19.00 -1.38 121 118 113
0.77 18.91 -1.38 121 116 112
0.77 18.82 -1.38 122 117 113
0.58 18.60 -1.21 123 118 114
0.58 18.51 -1.21 124 119 115
0.58 18.42 -1.21 124 119 116
0.58 18.32 -1.21 123 118 115
0.58 18.23 -1.21 129 121 119
0.58 18.14 -1.21 128 120 118
0.58 18.04 -1.21 128 120 118
0.58 17.95 -1.21 128 120 118
0.58 17.86 -1.21 130 120 119
0.58 17.76 -1.21 130 120 119
0.58 17.67 -1.21 129 119 117
0.77 17.69 -1.38 130 119 113
0.77 17.60 -1.38 131 120 114
0.77 17.50 -1.38 131 122 115
0.77 17.41 -1.38 131 122 117
0.77 17.32 -1.38 128 123 119
0.77 17.22 -1.38 128 123 119
0.77 17.13 -1.38 125 124 120
0.77 17.03 -1.38 124 123 119
0.77 16.94 -1.38 126 125 123
0.77 16.85 -1.38 126 125 123
0.77 16.75 -1.38 126 125 121
0.77 16.66 -1.38 126 125 121
0.77 16.57 -1.38 128 125 118
0.77 16.47 -1.38 129 126 119
0.77 16.38 -1.38 130 126 117
0.77 16.29 -1.38 130 125 119
0.77 16.19 -1.38 130 125 121
0.77 16.10 -1.38 130 125 122
0.77 16.00 -1.38 131 126 123
0.77 15.91 -1.38 132 127 124
0.77 15.82 -1.38 132 127 123
0.77 15.72 -1.38 132 127 123
0.77 15.63 -1.38 132 127 123
0.77 15.54 -1.38 128 123 119
0.77 15.44 -1.38 129 124 120
0.77 15.35 -1.38 129 124 118
0.77 15.25 -1.38 129 124 118
0.77 15.16 -1.38 128 123 117
0.77 15.07 -1.38 127 122 116
0.77 14.97 -1.38 128 123 117
0.77 14.88 -1.38 130 125 119
0.77 14.79 -1.38 128 125 116
0.77 14.50 -1.38 133 130 121
0.77 14.41 -1.38 132 129 120
0.77 14.32 -1.38 133 130 121
0.77 14.22 -1.38 134 131 124
0.77 14.13 -1.38 134 131 124
0.77 14.04 -1.38 131 128 119
0.77 13.94 -1.38 129 126 117
0.77 13.85 -1.38 128 126 114
0.77 13.76 -1.38 129 127 115
0.77 13.66 -1.38 130 128 116
0.58 13.47 -1.21 130 128 116
0.58 13.38 -1.21 128 124 112
0.77 13.38 -1.38 130 126 115
0.77 13.29 -1.38 130 123 113
0.77 13.19 -1.38 128 121 113
0.58 13.01 -1.21 126 119 111
0.58 12.91 -1.21 125 120 114
0.58 12.82 -1.21 126 121 115
0.58 12.73 -1.21 128 123 117
0.58 12.63 -1.21 129 124 118
0.58 12.54 -1.21 131 126 120
0.58 12.45 -1.21 131 126 120
0.58 12.35 -1.21 130 125 119
0.58 12.26 -1.21 130 125 119
0.58 12.17 -1.21 132 125 117
0.58 12.07 -1.21 131 124 116
0.77 12.07 -1.38 130 121 112
0.77 11.97 -1.38 128 119 112
0.77 11.88 -1.38 130 123 115
0.58 11.70 -1.21 129 122 116
0.58 11.61 -1.21 127 122 116
0.58 11.51 -1.21 127 122 116
0.58 11.42 -1.21 126 123 118
0.58 11.33 -1.21 125 122 117
0.58 11.23 -1.21 123 122 117
0.58 11.14 -1.21 122 122 114
0.58 11.05 -1.21 122 122 114
0.58 10.95 -1.21 122 122 114
0.58 10.86 -1.21 122 122 114
0.58 10.77 -1.21 122 122 112
0.58 10.67 -1.21 122 122 112
0.58 10.58 -1.21 123 121 109
0.58 10.49 -1.21 123 120 111
0.58 10.39 -1.21 124 120 111
0.58 10.30 -1.21 121 116 110
0.58 10.21 -1.21 116 116 106
0.77 10.19 -1.38 117 117 107
0.77 10.10 -1.38 117 119 108
0.77 10.01 -1.38 117 119 108
0.77 9.91 -1.38 117 117 107
0.77 9.82 -1.38 116 116 108
0.77 9.73 -1.38 121 118 113
0.77 9.63 -1.38 113 112 110
0.77 9.54 -1.38 106 110 109
-3.30 7.76 2.42 111 121 122
-3.17 7.73 2.30 170 191 192
-3.30 7.59 2.42 149 179 181
-3.30 7.50 2.42 145 184 183
-3.30 7.42 2.42 146 187 189
-3.30 7.33 2.42 149 194 199
-3.30 7.25 2.42 152 196 199
-3.30 7.17 2.42 153 197 200
-3.30 7.08 2.42 152 196 197
-3.30 7.00 2.42 151 195 196
-3.30 6.91 2.42 153 195 194
-3.46 6.77 2.57 154 196 195
-3.46 6.68 2.57 155 195 194
-3.46 6.60 2.57 155 195 194
-3.46 6.52 2.57 157 196 195
-3.46 6.43 2.57 157 196 195
-3.46 6.35 2.57 156 194 195
-3.46 6.26 2.57 155 193 194
-3.46 6.18 2.57 157 192 194
-3.46 6.10 2.57 157 192 194
-3.59 5.96 2.69 158 198 200
-3.59 5.88 2.69 156 196 198
-3.59 5.80 2.69 155 195 197
-3.59 5.71 2.69 155 195 197
-3.75 5.57 2.84 158 198 200
-3.75 5.49 2.84 160 200 202
-3.75 5.41 2.84 160 199 204
-3.88 5.28 2.96 160 199 204
-3.88 5.19 2.96 161 200 205
-4.04 5.05 3.11 167 206 211
-4.04 4.97 3.11 167 206 211
-3.88 4.94 2.96 164 203 208
-3.88 4.86 2.96 161 200 205
-3.88 4.78 2.96 161 200 205
-3.88 4.69 2.96 162 201 206
-3.88 4.61 2.96 164 204 204
-3.88 4.53 2.96 167 207 207
-3.75 4.49 2.84 162 202 202
-3.75 4.41 2.84 120 160 160
-3.75 4.32 2.84 123 161 162
-3.59 4.29 2.69 168 206 207
-3.59 4.21 2.69 174 212 213
-3.59 4.12 2.69 171 209 210
-3.59 4.04 2.69 169 204 206
-3.46 4.00 2.57 172 207 209
-3.46 3.91 2.57 175 210 212
-3.46 3.83 2.57 176 211 213
-3.46 3.74 2.57 177 212 214
-3.46 3.66 2.57 177 212 214
-3.30 3.62 2.42 180 214 216
-3.30 3.54 2.42 180 215 217
-3.30 3.46 2.42 180 218 219
-3.30 3.37 2.42 177 217 217
-3.46 3.24 2.57 178 216 217
-3.59 2.95 2.69 189 220 222
-3.59 2.87 2.69 191 221 223
-3.46 2.82 2.57 196 224 227
-3.46 2.74 2.57 195 223 226
-3.46 2.65 2.57 198 226 229
-3.46 2.57 2.57 200 228 231
-3.46 2.49 2.57 197 227 229
-3.46 2.40 2.57 197 227 229
-3.46 2.32 2.57 199 231 230
-3.46 2.23 2.57 197 229 228
-3.46 2.15 2.57 197 228 230
-3.46 2.07 2.57 197 228 230
-3.30 2.02 2.42 197 228 230
-3.30 1.94 2.42 197 228 230
-3.30 1.85 2.42 198 229 231
-3.30 1.77 2.42 198 229 231
-3.17 1.72 2.30 199 229 231
-2.86 1.71 2.00 200 230 232
-1.28 1.65 0.53 200 230 230
-1.28 1.56 0.53 202 230 231
-1.12 1.51 0.38 202 230 231
-1.12 1.42 0.38 203 235 234
-1.12 1.33 0.38 202 234 233
-0.97 1.28 0.24 201 233 232
-0.97 1.19 0.24 201 233 232
-0.97 1.10 0.24 202 232 232
-0.97 1.01 0.24 201 231 231
-0.97 0.92 0.24 201 229 230
-0.81 0.86 0.09 200 228 229
-0.97 0.74 0.24 203 231 234
-0.97 0.65 0.24 203 231 234
-0.97 0.56 0.24 206 231 235
-0.97 0.47 0.24 207 232 236
-0.97 0.38 0.24 209 233 237
-0.97 0.29 0.24 209 233 237
-0.97 0.20 0.24 210 234 238
-0.97 0.11 0.24 210 234 238
-0.97 0.02 0.24 206 232 233
-0.97 -0.07 0.24 206 232 233
-0.97 -0.16 0.24 207 233 234
-0.97 -0.25 0.24 207 233 234
-0.97 -0.34 0.24 206 234 235
-0.97 -0.43 0.24 206 236 236
-0.97 -0.52 0.24 207 237 237
-0.97 -0.60 0.24 206 236 238
-0.97 -0.69 0.24 206 236 238
-0.97 -0.78 0.24 206 236 238
-0.97 -0.87 0.24 206 236 238
-0.97 -0.96 0.24 207 237 239
-0.97 -1.05 0.24 208 238 240
-0.81 -1.12 0.09 211 239 242
-0.81 -1.21 0.09 211 239 242
-0.81 -1.30 0.09 212 240 243
-0.81 -1.39 0.09 211 239 242
-0.81 -1.48 0.09 211 239 242
-0.81 -1.57 0.09 210 238 241
-0.81 -1.66 0.09 212 238 239
-0.63 -1.72 -0.08 211 237 238
-0.63 -1.81 -0.08 211 237 238
-0.63 -1.90 -0.08 211 237 238
-0.63 -1.99 -0.08 211 237 238
-0.81 -2.11 0.09 212 238 239
-0.81 -2.20 0.09 213 237 237
-0.81 -2.29 0.09 212 236 236
-0.81 -2.38 0.09 212 236 236
-0.81 -2.47 0.09 215 239 239
-0.81 -2.56 0.09 218 242 242
-0.97 -2.67 0.24 217 241 243
-0.97 -2.76 0.24 216 240 242
-0.97 -2.85 0.24 215 239 241
-0.97 -2.94 0.24 216 240 242
-0.97 -3.03 0.24 217 241 245
-0.97 -3.12 0.24 217 241 245
-0.97 -3.21 0.24 215 239 243
-0.97 -3.30 0.24 213 237 241
-0.97 -3.39 0.24 212 237 242
-0.97 -3.48 0.24 210 235 240
-0.97 -3.57 0.24 207 235 239
-0.97 -3.66 0.24 208 236 240
-0.97 -3.74 0.24 206 237 242
-0.97 -3.83 0.24 204 235 240
-1.12 -3.94 0.38 204 235 240
-1.12 -4.03 0.38 206 237 242
-1.12 -4.12 0.38 201 232 234
-1.12 -4.21 0.38 200 231 233
-1.12 -4.30 0.38 200 230 232
-1.12 -4.39 0.38 202 232 234
-0.97 -4.46 0.24 206 234 235
-0.97 -4.55 0.24 211 237 238
-0.97 -4.64 0.24 213 239 240
-0.97 -4.73 0.24 216 237 238
-0.97 -4.82 0.24 218 239 240
-0.97 -4.91 0.24 220 241 242
-0.81 -4.99 0.09 220 241 242
-3.75 -5.42 2.84 222 247 244
-3.59 -5.50 2.69 224 246 244
-3.59 -5.58 2.69 228 246 246
-3.59 -5.66 2.69 230 246 246
-3.46 -5.74 2.57 235 251 250
-3.46 -5.83 2.57 234 250 249
-3.46 -5.91 2.57 235 250 247
-3.30 -5.99 2.42 233 248 245
-3.30 -6.07 2.42 226 241 236
-3.30 -6.16 2.42 232 247 242
-3.46 -6.25 2.57 243 255 253
-3.46 -6.33 2.57 144 159 154
0.40 -6.50 -1.04 151 167 164
0.40 -6.59 -1.04 152 168 165
0.58 -6.68 -1.21 150 169 165
0.58 -6.77 -1.21 153 169 166
0.58 -6.86 -1.21 159 170 166
0.40 -6.96 -1.04 160 170 169
0.58 -7.24 -1.21 160 170 169
0.58 -7.33 -1.21 160 170 169
0.58 -7.42 -1.21 160 170 169
0.40 -7.52 -1.04 160 170 169
0.40 -7.61 -1.04 161 171 170
0.40 -7.70 -1.04 159 168 165
0.40 -7.80 -1.04 160 169 166
0.40 -7.89 -1.04 169 178 175
0.40 -7.98 -1.04 175 184 181
0.40 -8.07 -1.04 175 184 179
0.40 -8.17 -1.04 177 186 181
0.40 -8.26 -1.04 176 187 183
0.24 -8.35 -0.89 177 188 184
0.24 -8.44 -0.89 178 189 185
0.24 -8.53 -0.89 179 190 186
0.24 -8.63 -0.89 178 189 185
0.24 -8.72 -0.89 178 189 185
0.24 -8.81 -0.89 179 190 186
0.24 -8.90 -0.89 180 191 187
0.24 -9.00 -0.89 182 193 189
0.24 -9.09 -0.89 181 192 188
0.24 -9.18 -0.89 181 192 188
0.40 -9.28 -1.04 181 192 188
0.40 -9.37 -1.04 181 192 188
0.40 -9.47 -1.04 181 192 188
0.40 -9.56 -1.04 180 191 187
0.40 -9.65 -1.04 178 193 188
0.40 -9.75 -1.04 178 193 188
0.40 -9.84 -1.04 178 193 188
0.40 -9.93 -1.04 177 192 187
0.40 -10.02 -1.04 179 191 187
0.40 -10.12 -1.04 180 192 188
0.40 -10.21 -1.04 182 193 189
0.40 -10.30 -1.04 180 191 187
0.40 -10.40 -1.04 184 195 189
0.24 -10.48 -0.89 182 193 187
0.24 -10.57 -0.89 183 192 187
0.24 -10.66 -0.89 184 193 188
0.40 -10.77 -1.04 183 192 187
0.40 -10.86 -1.04 182 191 186
0.40 -10.95 -1.04 183 192 187
0.40 -11.05 -1.04 185 194 189
0.40 -11.14 -1.04 185 195 187
0.40 -11.23 -1.04 185 195 187
0.40 -11.32 -1.04 185 195 187
0.40 -11.42 -1.04 186 196 188
0.40 -11.51 -1.04 186 196 188
0.40 -11.60 -1.04 187 196 191
0.40 -11.70 -1.04 188 197 192
0.40 -11.79 -1.04 188 197 192
0.40 -11.88 -1.04 186 195 190
0.40 -11.97 -1.04 186 195 190
0.40 -12.07 -1.04 187 196 191
0.40 -12.16 -1.04 187 196 193
0.24 -12.23 -0.89 186 195 192
0.24 -12.33 -0.89 186 195 192
0.24 -12.42 -0.89 187 196 193
0.24 -12.51 -0.89 189 198 195
0.24 -12.60 -0.89 189 198 195
0.24 -12.70 -0.89 189 198 195
0.24 -12.79 -0.89 189 198 195
0.24 -12.88 -0.89 189 198 195
0.24 -12.97 -0.89 189 198 195
0.24 -13.07 -0.89 190 199 196
0.24 -13.16 -0.89 190 199 196
0.24 -13.25 -0.89 189 198 195
0.24 -13.34 -0.89 189 198 195
0.24 -13.44 -0.89 189 200 196
0.24 -13.53 -0.89 190 201 197
0.24 -13.62 -0.89 190 201 197
0.24 -13.71 -0.89 190 201 197
0.24 -13.81 -0.89 191 200 197
0.24 -13.90 -0.89 191 200 199
0.24 -13.99 -0.89 193 199 199
0.24 -14.08 -0.89 192 201 200
0.24 -14.18 -0.89 193 202 201
0.24 -14.27 -0.89 193 202 199
0.24 -14.36 -0.89 193 202 199
0.24 -14.45 -0.89 193 202 199
0.24 -14.55 -0.89 193 202 199
0.24 -14.64 -0.89 195 204 199
0.24 -14.73 -0.89 196 205 200
0.24 -14.82 -0.89 198 204 200
0.24 -14.92 -0.89 198 204 200
0.24 -15.01 -0.89 198 205 198
0.24 -15.10 -0.89 199 206 199
0.24 -15.19 -0.89 201 206 200
0.24 -15.29 -0.89 203 208 204
0.24 -15.38 -0.89 199 208 203
0.24 -15.47 -0.89 199 208 205
0.24 -15.56 -0.89 202 208 206
0.40 -15.69 -1.04 202 208 206
0.40 -15.78 -1.04 206 210 209
0.24 -15.84 -0.89 207 211 210
0.24 -15.93 -0.89 208 212 211
0.24 -16.03 -0.89 207 211 210
0.24 -16.12 -0.89 207 211 210
0.24 -16.21 -0.89 209 213 212
0.24 -16.30 -0.89 211 215 214
0.24 -16.40 -0.89 211 217 215
0.24 -16.49 -0.89 210 216 214
0.06 -16.54 -0.72 212 218 216
0.06 -16.63 -0.72 215 221 219
0.24 -16.77 -0.89 215 219 218
0.24 -16.86 -0.89 215 219 218
0.06 -16.91 -0.72 216 220 219
0.06 -17.00 -0.72 218 222 221
0.06 -17.09 -0.72 220 226 224
0.06 -17.18 -0.72 222 228 226
0.06 -17.28 -0.72 223 229 227
0.06 -17.37 -0.72 223 229 227
0.24 -17.51 -0.89 222 228 226
0.24 -17.60 -0.89 223 229 227
0.24 -17.69 -0.89 225 229 228
0.40 -17.83 -1.04 226 230 229
0.40 -17.92 -1.04 229 231 230
0.40 -18.01 -1.04 231 231 231
0.24 -18.06 -0.89 231 231 231
0.24 -18.15 -0.89 235 235 235
0.24 -18.25 -0.89 235 235 235
0.24 -18.34 -0.89 237 237 237
0.24 -18.43 -0.89 238 238 238
0.24 -18.52 -0.89 239 239 239
0.24 -18.62 -0.89 240 240 240
0.06 -18.66 -0.72 240 240 240
0.06 -18.75 -0.72 240 240 240
0.06 -18.84 -0.72 242 242 242
0.06 -18.93 -0.72 241 241 241
0.06 -19.03 -0.72 241 241 241
0.06 -19.12 -0.72 242 242 242
0.06 -19.21 -0.72 241 241 241
0.06 -19.30 -0.72 239 239 239
0.06 -19.39 -0.72 239 239 239
0.06 -19.49 -0.72 241 241 241
0.06 -19.58 -0.72 239 239 239
0.06 -19.67 -0.72 239 239 239
0.06 -19.76 -0.72 240 240 240
0.24 -19.91 -0.89 241 241 241
0.24 -20.00 -0.89 244 244 244
0.24 -20.10 -0.89 245 245 245
0.24 -20.19 -0.89 245 245 245
0.24 -20.28 -0.89 246 246 246
0.24 -20.37 -0.89 246 246 246
0.06 -20.41 -0.72 247 247 247
0.06 -20.50 -0.72 248 248 248
0.06 -20.59 -0.72 248 248 248
0.06 -20.68 -0.72 248 248 248
0.06 -20.78 -0.72 248 248 248
0.06 -20.87 -0.72 248 248 248
0.06 -20.96 -0.72 248 248 248
0.06 -21.05 -0.72 248 248 248
0.06 -21.14 -0.72 248 248 248
0.06 -21.24 -0.72 249 249 249
0.06 -21.33 -0.72 251 251 251
0.06 -21.42 -0.72 252 252 252
0.06 -21.51 -0.72 251 251 251
0.06 -21.60 -0.72 250 250 250
0.06 -21.70 -0.72 251 251 251
0.06 -21.79 -0.72 250 250 250
0.06 -21.88 -0.72 249 249 249
0.06 -21.97 -0.72 250 250 250
0.06 -22.06 -0.72 250 250 250
0.06 -22.16 -0.72 251 251 251
0.06 -22.25 -0.72 250 250 250
0.06 -22.34 -0.72 251 253 252
0.06 -22.43 -0.72 252 254 253
0.06 -22.52 -0.72 252 254 253
0.06 -22.62 -0.72 253 255 254
0.06 -22.71 -0.72 253 255 254
0.24 -22.87 -0.89 253 255 254
0.24 -22.96 -0.89 251 255 254
0.24 -23.06 -0.89 251 255 254
0.24 -23.15 -0.89 249 253 252
0.24 -23.24 -0.89 249 253 252
0.24 -23.33 -0.89 249 255 253
0.24 -23.43 -0.89 249 255 253
0.06 -23.45 -0.72 250 255 254
0.06 -23.54 -0.72 250 255 254
0.06 -23.63 -0.72 248 255 254
0.24 -23.80 -0.89 250 255 254
0.24 -23.89 -0.89 250 255 254
0.24 -23.98 -0.89 251 255 254
0.24 -24.07 -0.89 251 255 254
0.24 -24.17 -0.89 251 255 254
0.24 -24.26 -0.89 251 255 254
0.24 -24.35 -0.89 251 255 254
0.24 -24.44 -0.89 253 255 254
0.24 -24.54 -0.89 253 255 254
0.06 -24.55 -0.72 250 252 251
0.06 -24.64 -0.72 249 251 250
0.06 -24.73 -0.72 250 252 251
0.06 -24.83 -0.72 252 254 253
0.06 -24.92 -0.72 253 255 254
0.06 -25.01 -0.72 252 254 253
0.06 -25.10 -0.72 251 253 252
0.06 -25.19 -0.72 249 255 253
0.06 -25.29 -0.72 249 255 253
0.06 -25.38 -0.72 249 255 253
0.06 -25.47 -0.72 249 255 253
0.06 -25.56 -0.72 250 254 253
0.06 -25.66 -0.72 250 254 253
0.06 -25.75 -0.72 250 254 253
0.06 -25.84 -0.72 250 254 253
0.06 -25.93 -0.72 252 254 253
0.06 -26.02 -0.72 252 254 253
0.06 -26.12 -0.72 253 253 253
0.06 -26.21 -0.72 253 253 253
0.06 -26.30 -0.72 253 253 253
0.06 -26.39 -0.72 252 252 252
0.06 -26.48 -0.72 252 252 252
0.06 -26.58 -0.72 252 252 252
0.06 -26.67 -0.72 253 253 253
0.06 -26.76 -0.72 252 252 252
0.06 -26.85 -0.72 252 252 252
0.06 -26.94 -0.72 251 251 251
0.06 -27.04 -0.72 251 251 251
0.06 -27.13 -0.72 251 251 251
0.06 -27.22 -0.72 252 252 252
0.06 -27.31 -0.72 251 251 251
0.06 -27.40 -0.72 251 251 251
0.06 -27.50 -0.72 250 250 250
0.06 -27.59 -0.72 250 250 250
0.06 -27.68 -0.72 250 250 250
0.06 -27.77 -0.72 250 250 250
0.06 -27.87 -0.72 251 251 251
0.06 -27.96 -0.72 251 251 251
-0.13 -27.95 -0.55 251 251 251
0.06 -28.14 -0.72 250 250 250
-0.13 -28.14 -0.55 250 250 250
-0.13 -28.23 -0.55 249 249 249
-0.13 -28.32 -0.55 249 249 249
0.06 -28.51 -0.72 250 250 250
0.06 -28.60 -0.72 250 250 250
0.06 -28.69 -0.72 251 251 251
0.06 -28.79 -0.72 253 253 253
0.06 -28.88 -0.72 252 252 252
0.06 -28.97 -0.72 250 250 250
0.06 -29.06 -0.72 250 250 250
0.06 -29.15 -0.72 250 250 250
0.06 -29.25 -0.72 250 250 250
0.06 -29.34 -0.72 250 250 250
0.06 -29.43 -0.72 250 250 250
0.06 -29.52 -0.72 249 249 249
0.06 -29.61 -0.72 248 248 248
0.06 -29.71 -0.72 247 247 247
-0.13 -29.70 -0.55 247 247 247
0.06 -30.07 -0.72 248 248 248
-0.13 -30.06 -0.55 248 248 248
-0.13 -30.15 -0.55 247 247 247
-0.13 -30.25 -0.55 246 246 246
-0.13 -30.34 -0.55 245 245 245
-0.13 -30.43 -0.55 246 246 246
-0.13 -30.52 -0.55 246 246 246
-0.13 -30.61 -0.55 246 246 246
-0.13 -30.70 -0.55 245 245 245
-0.13 -30.80 -0.55 245 245 245
-0.13 -30.89 -0.55 245 245 245
-0.13 -30.98 -0.55 245 245 245
0.06 -31.18 -0.72 243 243 243
0.06 -31.27 -0.72 243 243 243
0.06 -31.36 -0.72 244 244 244
0.06 -31.46 -0.72 244 244 244
0.06 -31.55 -0.72 242 242 242
0.06 -31.64 -0.72 241 241 241
0.06 -31.73 -0.72 241 241 241
0.06 -31.82 -0.72 240 240 240
0.06 -31.92 -0.72 240 240 240
-0.13 -31.90 -0.55 240 240 240
-0.13 -31.99 -0.55 241 241 241
-0.13 -32.08 -0.55 242 242 242
-0.13 -32.17 -0.55 238 240 239
-0.13 -32.26 -0.55 237 239 238
-0.13 -32.35 -0.55 238 238 238
-0.13 -32.45 -0.55 239 239 239
-0.13 -32.54 -0.55 241 239 240
-0.13 -32.63 -0.55 242 240 241
-0.13 -32.72 -0.55 243 239 240
-0.13 -32.81 -0.55 242 238 239
-0.13 -32.90 -0.55 242 238 239
-0.13 -32.99 -0.55 242 238 239
-0.28 -32.98 -0.40 242 238 239
-0.28 -33.08 -0.40 241 237 238
-0.28 -33.17 -0.40 239 235 236
-0.47 -33.14 -0.23 239 235 236
-0.47 -33.23 -0.23 240 236 237
-0.47 -33.32 -0.23 238 238 236
-0.28 -33.53 -0.40 235 235 233
-0.28 -33.62 -0.40 232 232 230
-0.13 -33.82 -0.55 232 232 230
-0.28 -33.81 -0.40 233 233 231
-0.28 -33.90 -0.40 235 235 233
-0.28 -33.99 -0.40 239 239 239
-0.47 -33.96 -0.23 242 242 242
-0.47 -34.05 -0.23 252 252 252
-0.47 -34.14 -0.23 252 252 252
-0.47 -34.23 -0.23 253 251 254
0.54 20.38 -1.29 131 122 115
0.54 20.28 -1.29 127 119 117
0.54 20.19 -1.29 121 112 113
0.54 20.10 -1.29 126 117 120
0.54 20.00 -1.29 123 114 119
0.54 19.91 -1.29 121 112 113
0.72 19.94 -1.46 127 119 117
0.72 19.85 -1.46 125 117 114
0.72 19.75 -1.46 123 116 110
0.72 19.66 -1.46 126 119 109
0.72 19.57 -1.46 127 120 110
0.72 19.47 -1.46 124 117 107
0.72 19.38 -1.46 125 118 108
0.72 19.28 -1.46 128 121 111
0.72 19.19 -1.46 126 119 111
0.54 18.98 -1.29 125 120 114
0.54 18.88 -1.29 125 120 116
0.54 18.79 -1.29 125 120 116
0.54 18.70 -1.29 126 121 117
0.54 18.60 -1.29 128 123 120
0.54 18.51 -1.29 128 123 120
0.54 18.42 -1.29 128 123 120
0.54 18.32 -1.29 127 122 119
0.54 18.23 -1.29 127 122 119
0.54 18.14 -1.29 126 121 118
0.54 18.04 -1.29 125 120 117
0.54 17.95 -1.29 126 121 118
0.54 17.86 -1.29 128 122 122
0.54 17.76 -1.29 127 121 121
0.54 17.67 -1.29 128 120 118
0.54 17.58 -1.29 128 120 117
0.54 17.48 -1.29 130 121 116
0.54 17.39 -1.29 131 123 120
0.54 17.30 -1.29 132 124 121
0.54 17.20 -1.29 129 125 122
0.54 17.11 -1.29 129 125 122
0.72 17.13 -1.46 126 125 121
0.72 17.03 -1.46 126 125 121
0.72 16.94 -1.46 126 125 121
0.54 16.74 -1.29 126 125 121
0.54 16.64 -1.29 127 126 121
0.54 16.55 -1.29 127 126 121
0.54 16.46 -1.29 129 126 119
0.54 16.36 -1.29 129 126 119
0.54 16.27 -1.29 128 125 116
0.54 16.18 -1.29 128 125 118
0.54 16.08 -1.29 130 125 119
0.54 15.99 -1.29 130 125 121
0.54 15.90 -1.29 130 125 121
0.54 15.80 -1.29 131 126 122
0.54 15.71 -1.29 131 126 122
0.54 15.62 -1.29 131 126 120
0.54 15.53 -1.29 131 126 120
0.54 15.43 -1.29 133 128 122
0.54 15.34 -1.29 133 128 122
0.54 15.25 -1.29 133 128 122
0.72 15.25 -1.46 133 128 122
0.72 15.16 -1.46 133 128 122
0.72 15.07 -1.46 133 128 122
0.72 14.97 -1.46 134 129 123
0.72 14.88 -1.46 135 130 124
0.72 14.79 -1.46 132 129 120
0.72 14.50 -1.46 132 129 120
0.72 14.41 -1.46 131 128 121
0.72 14.32 -1.46 132 129 122
0.72 14.22 -1.46 132 129 122
0.72 14.13 -1.46 132 129 122
0.72 14.04 -1.46 132 129 122
0.54 13.85 -1.29 131 128 121
0.54 13.75 -1.29 131 128 119
0.54 13.66 -1.29 131 128 119
0.54 13.57 -1.29 132 130 118
0.54 13.47 -1.29 132 130 118
0.54 13.38 -1.29 129 125 114
0.54 13.29 -1.29 136 132 123
0.54 13.19 -1.29 135 128 120
0.54 13.10 -1.29 133 126 118
0.54 13.01 -1.29 132 125 117
0.54 12.91 -1.29 131 127 118
0.54 12.82 -1.29 132 128 119
0.54 12.73 -1.29 133 128 122
0.54 12.63 -1.29 133 128 122
0.54 12.54 -1.29 131 128 121
0.54 12.45 -1.29 131 128 121
0.54 12.35 -1.29 131 127 118
0.54 12.26 -1.29 130 126 117
0.54 12.17 -1.29 130 126 117
0.54 12.07 -1.29 129 125 116
0.54 11.98 -1.29 130 123 113
0.54 11.89 -1.29 129 122 112
0.54 11.79 -1.29 128 124 115
0.54 11.70 -1.29 126 122 113
0.54 11.61 -1.29 125 122 113
0.54 11.51 -1.29 125 122 113
0.54 11.42 -1.29 127 124 117
0.54 11.33 -1.29 127 124 117
0.54 11.23 -1.29 123 123 115
0.54 11.14 -1.29 121 121 113
0.54 11.05 -1.29 119 119 111
0.54 10.95 -1.29 119 119 109
0.54 10.86 -1.29 119 119 109
0.54 10.77 -1.29 123 121 109
0.54 10.67 -1.29 123 121 109
0.54 10.58 -1.29 122 120 108
0.54 10.49 -1.29 120 117 108
0.54 10.39 -1.29 123 119 110
0.54 10.30 -1.29 121 116 110
0.54 10.21 -1.29 118 118 110
0.54 10.11 -1.29 119 119 111
0.54 10.02 -1.29 118 120 109
0.54 9.93 -1.29 116 118 107
0.54 9.83 -1.29 115 115 107
0.54 9.74 -1.29 115 114 109
0.54 9.65 -1.29 119 118 113
0.54 9.55 -1.29 109 109 107
0.54 9.46 -1.29 105 109 108
-3.34 7.76 2.35 118 128 129
-3.34 7.67 2.35 173 193 194
-3.34 7.59 2.35 153 181 184
-3.34 7.50 2.35 148 184 184
-3.34 7.42 2.35 148 189 191
-3.34 7.33 2.35 146 191 196
-3.34 7.25 2.35 149 194 197
-3.34 7.17 2.35 151 196 199
-3.34 7.08 2.35 152 196 199
-3.34 7.00 2.35 153 197 200
-3.50 6.85 2.49 157 198 200
-3.50 6.77 2.49 158 199 201
-3.50 6.68 2.49 157 199 198
-3.50 6.60 2.49 157 199 198
-3.50 6.52 2.49 159 199 199
-3.50 6.43 2.49 159 199 199
-3.50 6.35 2.49 159 197 198
-3.50 6.26 2.49 159 197 198
-3.63 6.13 2.62 160 198 201
-3.63 6.05 2.62 160 198 201
-3.63 5.96 2.62 158 198 200
-3.63 5.88 2.62 157 197 199
-3.63 5.80 2.62 156 196 198
-3.63 5.71 2.62 157 197 199
-3.79 5.57 2.76 160 200 202
-3.79 5.49 2.76 161 201 203
-3.79 5.41 2.76 160 199 204
-3.79 5.32 2.76 158 197 202
-3.92 5.19 2.89 163 202 207
-3.92 5.11 2.89 170 209 214
-3.92 5.03 2.89 172 211 216
-3.92 4.94 2.89 171 210 215
-3.92 4.86 2.89 168 207 212
-3.92 4.78 2.89 167 206 213
-3.92 4.69 2.89 166 205 210
-3.92 4.61 2.89 173 211 214
-3.92 4.53 2.89 168 206 207
-3.79 4.49 2.76 177 215 216
-3.79 4.41 2.76 183 221 222
-3.79 4.32 2.76 186 224 225
-3.63 4.29 2.62 184 222 223
-3.63 4.21 2.62 174 209 211
-3.63 4.12 2.62 173 208 210
-3.63 4.04 2.62 178 213 215
-3.63 3.96 2.62 178 213 215
-3.50 3.91 2.49 179 214 216
-3.50 3.83 2.49 179 214 216
-3.50 3.74 2.49 179 214 216
-3.50 3.66 2.49 177 212 214
-3.50 3.58 2.49 175 210 212
-3.50 3.49 2.49 174 209 211
-3.50 3.41 2.49 171 209 210
-3.50 3.32 2.49 174 212 213
-3.50 3.24 2.49 178 213 215
-3.63 2.95 2.62 195 224 228
-3.63 2.87 2.62 197 225 229
-3.63 2.78 2.62 194 222 226
-3.63 2.70 2.62 193 221 225
-3.63 2.62 2.62 197 225 228
-3.63 2.53 2.62 199 227 230
-3.63 2.45 2.62 197 225 228
-3.63 2.37 2.62 198 226 229
-3.63 2.28 2.62 200 230 232
-3.50 2.23 2.49 198 228 230
-3.50 2.15 2.49 196 230 231
-3.50 2.07 2.49 196 230 231
-3.50 1.98 2.49 196 230 231
-3.50 1.90 2.49 196 230 231
-3.34 1.85 2.35 197 231 230
-3.34 1.77 2.35 198 232 231
-3.34 1.69 2.35 199 233 232
-3.21 1.63 2.22 199 233 232
-1.33 1.65 0.45 201 233 232
-1.33 1.56 0.45 200 232 231
-1.17 1.51 0.31 199 231 230
-1.17 1.42 0.31 201 233 230
-1.17 1.33 0.31 200 232 229
-1.17 1.24 0.31 200 232 229
-1.01 1.19 0.16 200 232 229
-1.01 1.10 0.16 202 232 230
-1.01 1.01 0.16 204 234 232
-1.01 0.92 0.16 204 234 234
-1.01 0.83 0.16 205 235 235
-1.01 0.74 0.16 201 231 231
-1.01 0.65 0.16 202 232 232
-1.01 0.56 0.16 204 232 233
-1.01 0.47 0.16 204 232 233
-1.01 0.38 0.16 205 233 234
-1.01 0.29 0.16 205 233 234
-1.01 0.20 0.16 205 233 234
-1.01 0.11 0.16 205 233 234
-1.01 0.02 0.16 205 233 234
-1.01 -0.07 0.16 205 233 234
-1.01 -0.16 0.16 206 234 235
-1.01 -0.25 0.16 207 235 236
-1.01 -0.34 0.16 206 236 236
-1.01 -0.43 0.16 206 238 237
-1.01 -0.52 0.16 206 238 237
-1.01 -0.60 0.16 207 239 238
-1.01 -0.69 0.16 207 239 238
-1.01 -0.78 0.16 207 239 238
-1.01 -0.87 0.16 206 238 237
-1.01 -0.96 0.16 208 238 240
-1.01 -1.05 0.16 208 238 240
-0.85 -1.12 0.01 209 239 241
-0.85 -1.21 0.01 211 239 242
-0.85 -1.30 0.01 209 237 240
-0.85 -1.39 0.01 211 236 240
-0.85 -1.48 0.01 211 236 240
-0.85 -1.57 0.01 211 236 240
-0.85 -1.66 0.01 212 238 239
-0.85 -1.75 0.01 213 239 240
-0.85 -1.84 0.01 214 240 241
-0.85 -1.93 0.01 215 241 242
-0.85 -2.02 0.01 214 238 240
-0.85 -2.11 0.01 215 239 241
-0.85 -2.20 0.01 215 239 241
-0.85 -2.29 0.01 214 238 240
-1.01 -2.40 0.16 214 238 240
-1.01 -2.49 0.16 216 240 242
-1.01 -2.58 0.16 218 242 244
-1.01 -2.67 0.16 219 243 245
-1.01 -2.76 0.16 218 242 244
-1.01 -2.85 0.16 218 242 244
-1.01 -2.94 0.16 218 242 244
-1.01 -3.03 0.16 221 242 245
-1.01 -3.12 0.16 220 241 244
-1.01 -3.21 0.16 216 240 244
-1.01 -3.30 0.16 214 238 242
-1.01 -3.39 0.16 213 237 241
-1.01 -3.48 0.16 211 235 239
-1.01 -3.57 0.16 207 235 239
-1.01 -3.66 0.16 206 234 238
-1.01 -3.74 0.16 203 232 236
-1.01 -3.83 0.16 200 229 233
-1.17 -3.94 0.31 199 230 233
-1.17 -4.03 0.31 200 231 234
-1.17 -4.12 0.31 205 235 237
-1.17 -4.21 0.31 205 235 237
-1.17 -4.30 0.31 207 235 238
-1.17 -4.39 0.31 208 236 239
-1.17 -4.47 0.31 211 236 240
-1.01 -4.55 0.16 212 237 241
-1.01 -4.64 0.16 214 238 240
-1.01 -4.73 0.16 217 241 241
-1.01 -4.82 0.16 218 242 242
-1.01 -4.91 0.16 219 240 241
-0.85 -4.99 0.01 219 240 241
-3.79 -5.42 2.76 224 246 244
-3.79 -5.51 2.76 225 245 244
-3.79 -5.59 2.76 232 250 250
-3.63 -5.66 2.62 227 243 243
-3.63 -5.75 2.62 227 243 242
-3.63 -5.83 2.62 229 245 244
-3.50 -5.91 2.49 234 248 248
-3.50 -5.99 2.49 234 248 248
-3.50 -6.08 2.49 232 247 244
-3.50 -6.16 2.49 245 255 255
-3.50 -6.25 2.49 243 255 255
-3.50 -6.33 2.49 131 146 143
0.35 -6.50 -1.12 152 167 164
0.35 -6.59 -1.12 152 167 164
0.35 -6.68 -1.12 152 168 165
0.35 -6.77 -1.12 153 168 165
0.35 -6.87 -1.12 160 169 168
0.35 -6.96 -1.12 161 170 169
0.35 -7.24 -1.12 160 169 168
0.35 -7.33 -1.12 159 169 170
0.35 -7.42 -1.12 159 169 170
0.35 -7.52 -1.12 160 170 169
0.35 -7.61 -1.12 162 172 171
0.35 -7.70 -1.12 159 170 166
0.35 -7.80 -1.12 160 171 167
0.35 -7.89 -1.12 168 179 175
0.35 -7.98 -1.12 174 185 181
0.35 -8.07 -1.12 175 186 180
0.35 -8.17 -1.12 177 188 182
0.35 -8.26 -1.12 176 187 183
0.19 -8.35 -0.97 177 188 184
0.19 -8.44 -0.97 178 189 185
0.19 -8.53 -0.97 178 189 185
0.19 -8.63 -0.97 177 188 184
0.19 -8.72 -0.97 177 188 184
0.19 -8.81 -0.97 177 188 184
0.19 -8.90 -0.97 177 188 184
0.19 -9.00 -0.97 180 191 187
0.19 -9.09 -0.97 179 190 186
0.19 -9.18 -0.97 180 191 187
0.19 -9.27 -0.97 183 194 190
0.35 -9.37 -1.12 184 195 191
0.35 -9.47 -1.12 184 195 191
0.19 -9.55 -0.97 182 193 189
0.19 -9.64 -0.97 181 193 189
0.19 -9.74 -0.97 182 194 190
0.35 -9.84 -1.12 181 193 189
0.35 -9.93 -1.12 179 191 187
0.19 -10.01 -0.97 179 191 187
0.19 -10.11 -0.97 180 192 188
0.19 -10.20 -0.97 181 192 188
0.19 -10.29 -0.97 180 191 187
0.19 -10.38 -0.97 183 194 188
0.19 -10.48 -0.97 181 192 186
0.19 -10.57 -0.97 181 190 185
0.19 -10.66 -0.97 182 191 186
0.19 -10.75 -0.97 183 192 187
0.19 -10.85 -0.97 183 192 187
0.19 -10.94 -0.97 183 192 187
0.19 -11.03 -0.97 185 194 189
0.19 -11.12 -0.97 185 194 189
0.19 -11.22 -0.97 185 194 189
0.19 -11.31 -0.97 184 193 188
0.19 -11.40 -0.97 184 193 188
0.35 -11.51 -1.12 186 195 190
0.35 -11.60 -1.12 187 196 191
0.19 -11.68 -0.97 189 198 193
0.19 -11.77 -0.97 187 196 191
0.19 -11.86 -0.97 186 195 190
0.19 -11.96 -0.97 186 195 190
0.19 -12.05 -0.97 187 196 191
0.19 -12.14 -0.97 186 195 192
0.19 -12.23 -0.97 185 194 191
0.19 -12.33 -0.97 185 194 191
0.19 -12.42 -0.97 186 195 192
0.19 -12.51 -0.97 187 196 193
0.19 -12.60 -0.97 188 197 194
0.19 -12.70 -0.97 189 198 195
0.19 -12.79 -0.97 189 198 195
0.19 -12.88 -0.97 190 199 196
0.01 -12.95 -0.80 190 199 196
0.01 -13.04 -0.80 189 198 195
0.01 -13.13 -0.80 189 198 195
0.01 -13.22 -0.80 187 196 193
0.19 -13.34 -0.97 188 197 194
0.19 -13.44 -0.97 189 198 195
0.19 -13.53 -0.97 191 200 197
0.19 -13.62 -0.97 191 200 197
0.19 -13.71 -0.97 191 200 197
0.19 -13.81 -0.97 191 200 197
0.19 -13.90 -0.97 191 200 199
0.19 -13.99 -0.97 191 200 199
0.19 -14.08 -0.97 191 200 199
0.19 -14.18 -0.97 191 200 199
0.19 -14.27 -0.97 191 202 198
0.19 -14.36 -0.97 191 202 198
0.19 -14.45 -0.97 192 203 199
0.19 -14.55 -0.97 192 203 199
0.19 -14.64 -0.97 194 205 199
0.19 -14.73 -0.97 195 206 200
0.19 -14.82 -0.97 196 205 200
0.19 -14.92 -0.97 196 205 200
0.19 -15.01 -0.97 198 205 198
0.19 -15.10 -0.97 199 206 199
0.19 -15.19 -0.97 200 207 200
0.19 -15.29 -0.97 201 207 203
0.19 -15.38 -0.97 200 209 204
0.19 -15.47 -0.97 200 209 206
0.19 -15.56 -0.97 199 208 205
0.19 -15.66 -0.97 200 209 206
0.19 -15.75 -0.97 205 211 209
0.19 -15.84 -0.97 207 211 210
0.19 -15.93 -0.97 208 212 211
0.01 -15.99 -0.80 208 212 211
0.01 -16.08 -0.80 207 211 210
0.01 -16.17 -0.80 208 212 211
0.01 -16.26 -0.80 210 214 213
0.01 -16.36 -0.80 211 215 214
0.01 -16.45 -0.80 212 216 215
0.01 -16.54 -0.80 214 218 217
0.01 -16.63 -0.80 217 221 220
0.01 -16.72 -0.80 213 217 216
0.01 -16.82 -0.80 215 219 218
0.01 -16.91 -0.80 217 221 220
0.01 -17.00 -0.80 219 223 222
0.01 -17.09 -0.80 219 225 223
0.01 -17.18 -0.80 220 226 224
0.01 -17.28 -0.80 221 227 225
0.01 -17.37 -0.80 221 227 225
0.01 -17.46 -0.80 223 229 227
0.01 -17.55 -0.80 223 229 227
0.01 -17.64 -0.80 225 229 228
0.19 -17.78 -0.97 226 230 229
0.19 -17.88 -0.97 229 231 230
0.19 -17.97 -0.97 231 231 231
0.01 -18.01 -0.80 231 231 231
0.01 -18.10 -0.80 235 235 235
0.01 -18.20 -0.80 235 235 235
0.01 -18.29 -0.80 236 236 236
0.01 -18.38 -0.80 237 237 237
0.01 -18.47 -0.80 237 237 237
0.01 -18.57 -0.80 238 238 238
0.01 -18.66 -0.80 238 238 238
0.01 -18.75 -0.80 238 238 238
0.01 -18.84 -0.80 240 240 240
0.01 -18.93 -0.80 240 240 240
0.01 -19.03 -0.80 241 241 241
0.01 -19.12 -0.80 242 242 242
0.01 -19.21 -0.80 242 242 242
0.01 -19.30 -0.80 241 241 241
0.01 -19.39 -0.80 242 242 242
0.01 -19.49 -0.80 243 243 243
0.01 -19.58 -0.80 238 238 238
0.01 -19.67 -0.80 238 238 238
0.01 -19.76 -0.80 239 239 239
0.01 -19.85 -0.80 240 240 240
0.01 -19.95 -0.80 242 242 242
0.19 -20.10 -0.97 243 243 243
0.01 -20.13 -0.80 243 243 243
0.01 -20.22 -0.80 241 241 241
0.01 -20.31 -0.80 243 243 243
0.01 -20.41 -0.80 245 245 245
0.01 -20.50 -0.80 246 246 246
0.01 -20.59 -0.80 246 246 246
0.01 -20.68 -0.80 246 246 246
0.01 -20.78 -0.80 248 248 248
0.01 -20.87 -0.80 250 250 250
0.01 -20.96 -0.80 249 249 249
0.01 -21.05 -0.80 249 249 249
0.01 -21.14 -0.80 249 249 249
0.01 -21.24 -0.80 250 250 250
-0.17 -21.26 -0.63 250 250 250
-0.17 -21.36 -0.63 251 251 251
-0.17 -21.45 -0.63 251 251 251
-0.17 -21.54 -0.63 250 250 250
-0.17 -21.63 -0.63 251 251 251
-0.17 -21.72 -0.63 250 250 250
0.01 -21.88 -0.80 250 250 250
0.01 -21.97 -0.80 250 250 250
0.01 -22.06 -0.80 251 251 251
0.01 -22.16 -0.80 250 250 250
0.01 -22.25 -0.80 249 249 249
0.01 -22.34 -0.80 250 252 251
0.01 -22.43 -0.80 250 252 251
0.01 -22.52 -0.80 251 253 252
0.01 -22.62 -0.80 252 254 253
0.01 -22.71 -0.80 252 254 253
0.01 -22.80 -0.80 253 255 254
0.01 -22.89 -0.80 251 255 254
0.01 -22.98 -0.80 251 255 254
0.01 -23.08 -0.80 249 253 252
0.01 -23.17 -0.80 249 253 252
0.01 -23.26 -0.80 249 255 253
0.01 -23.35 -0.80 249 255 253
0.01 -23.45 -0.80 250 255 254
0.01 -23.54 -0.80 250 255 254
0.01 -23.63 -0.80 250 255 254
0.01 -23.72 -0.80 249 255 253
0.19 -23.89 -0.97 250 255 254
0.19 -23.98 -0.97 250 255 254
0.19 -24.07 -0.97 250 255 254
0.01 -24.09 -0.80 250 255 254
0.01 -24.18 -0.80 251 255 254
0.01 -24.27 -0.80 251 255 254
0.01 -24.37 -0.80 251 255 254
0.01 -24.46 -0.80 251 255 254
0.01 -24.55 -0.80 248 252 251
0.01 -24.64 -0.80 247 251 250
0.01 -24.73 -0.80 248 252 251
-0.17 -24.75 -0.63 251 253 252
-0.17 -24.84 -0.63 252 254 253
-0.17 -24.93 -0.63 252 254 253
-0.17 -25.02 -0.63 251 253 252
-0.17 -25.11 -0.63 250 254 253
-0.17 -25.20 -0.63 250 254 253
-0.17 -25.30 -0.63 250 254 253
-0.17 -25.39 -0.63 250 254 253
-0.17 -25.48 -0.63 250 254 253
0.01 -25.66 -0.80 250 254 253
0.01 -25.75 -0.80 252 254 253
-0.17 -25.75 -0.63 252 254 253
0.01 -25.93 -0.80 252 254 253
0.01 -26.02 -0.80 253 255 254
0.01 -26.12 -0.80 253 255 254
-0.17 -26.12 -0.63 253 255 254
-0.17 -26.21 -0.63 253 253 253
-0.17 -26.30 -0.63 253 253 253
0.01 -26.48 -0.80 253 253 253
0.01 -26.58 -0.80 252 252 252
0.01 -26.67 -0.80 254 254 254
0.01 -26.76 -0.80 253 253 253
0.01 -26.85 -0.80 252 252 252
0.01 -26.94 -0.80 252 252 252
0.01 -27.04 -0.80 252 252 252
0.01 -27.13 -0.80 252 252 252
0.01 -27.22 -0.80 252 252 252
0.01 -27.31 -0.80 251 251 251
0.01 -27.40 -0.80 251 251 251
-0.17 -27.40 -0.63 251 251 251
-0.17 -27.50 -0.63 251 251 251
-0.17 -27.59 -0.63 251 251 251
-0.17 -27.68 -0.63 251 251 251
-0.17 -27.77 -0.63 251 251 251
0.01 -27.96 -0.80 251 251 251
0.01 -28.05 -0.80 251 251 251
-0.17 -28.05 -0.63 250 250 250
-0.17 -28.14 -0.63 249 249 249
-0.17 -28.23 -0.63 248 248 248
-0.17 -28.32 -0.63 248 248 248
-0.17 -28.41 -0.63 249 249 249
-0.17 -28.50 -0.63 250 250 250
-0.17 -28.60 -0.63 251 251 251
0.01 -28.79 -0.80 252 252 252
0.01 -28.88 -0.80 250 250 250
0.01 -28.97 -0.80 247 247 247
0.01 -29.06 -0.80 247 247 247
0.01 -29.15 -0.80 248 248 248
0.01 -29.25 -0.80 249 249 249
0.01 -29.34 -0.80 250 250 250
0.01 -29.43 -0.80 251 251 251
0.01 -29.52 -0.80 251 251 251
0.01 -29.61 -0.80 250 250 250
-0.17 -29.60 -0.63 249 249 249
-0.17 -29.70 -0.63 248 248 248
-0.17 -29.97 -0.63 248 248 248
-0.17 -30.06 -0.63 248 248 248
-0.17 -30.15 -0.63 247 247 247
-0.17 -30.25 -0.63 245 245 245
-0.17 -30.34 -0.63 245 245 245
-0.17 -30.43 -0.63 245 245 245
-0.17 -30.52 -0.63 246 246 246
-0.17 -30.61 -0.63 246 246 246
-0.17 -30.70 -0.63 246 246 246
-0.17 -30.80 -0.63 248 248 248
-0.17 -30.89 -0.63 246 246 246
-0.17 -30.98 -0.63 245 245 245
-0.17 -31.07 -0.63 243 243 243
-0.17 -31.16 -0.63 243 243 243
0.01 -31.36 -0.80 243 243 243
0.01 -31.46 -0.80 242 242 242
0.01 -31.55 -0.80 243 243 243
-0.17 -31.53 -0.63 243 243 243
0.01 -31.73 -0.80 243 243 243
0.01 -31.82 -0.80 242 242 242
-0.17 -31.80 -0.63 242 242 242
-0.17 -31.90 -0.63 241 241 241
-0.17 -31.99 -0.63 240 240 240
-0.17 -32.08 -0.63 240 240 240
-0.17 -32.17 -0.63 239 241 240
-0.17 -32.26 -0.63 239 241 240
-0.17 -32.35 -0.63 240 240 240
-0.17 -32.45 -0.63 240 240 240
-0.17 -32.54 -0.63 242 240 241
-0.17 -32.63 -0.63 242 240 241
-0.33 -32.62 -0.48 244 240 241
-0.33 -32.71 -0.48 243 239 240
-0.33 -32.80 -0.48 243 239 240
-0.33 -32.89 -0.48 243 239 240
-0.33 -32.98 -0.48 243 239 240
-0.51 -32.96 -0.31 242 238 239
-0.51 -33.05 -0.31 241 237 238
-0.51 -33.14 -0.31 241 237 238
-0.51 -33.23 -0.31 242 238 239
-0.51 -33.32 -0.31 243 242 240
-0.51 -33.41 -0.31 241 240 238
-0.33 -33.62 -0.48 239 238 236
-0.33 -33.71 -0.48 240 239 237
-0.51 -33.68 -0.31 240 239 237
-0.67 -33.67 -0.16 240 239 237
-0.67 -33.76 -0.16 240 240 240
-0.51 -33.96 -0.31 241 241 241
-0.51 -34.05 -0.31 241 241 241
-0.51 -34.14 -0.31 236 236 236
-0.51 -34.23 -0.31 229 229 231
0.31 20.44 -1.20 128 115 98
0.31 20.34 -1.20 126 114 100
0.49 20.38 -1.37 124 115 110
0.49 20.28 -1.37 119 110 111
0.49 20.19 -1.37 120 111 112
0.49 20.10 -1.37 123 114 119
0.49 20.00 -1.37 121 112 117
0.49 19.91 -1.37 124 115 116
0.49 19.82 -1.37 129 121 119
0.67 19.85 -1.55 125 117 114
0.67 19.75 -1.55 123 116 110
0.67 19.66 -1.55 126 119 109
0.67 19.57 -1.55 127 120 110
0.49 19.35 -1.37 125 119 107
0.49 19.26 -1.37 126 120 108
0.49 19.16 -1.37 129 122 112
0.49 19.07 -1.37 127 120 112
0.49 18.98 -1.37 124 119 113
0.49 18.88 -1.37 124 119 115
0.49 18.79 -1.37 124 119 115
0.31 18.58 -1.20 124 119 115
0.31 18.49 -1.20 124 119 116
0.31 18.39 -1.20 124 119 116
0.31 18.30 -1.20 124 119 116
0.31 18.21 -1.20 123 118 115
0.31 18.11 -1.20 125 121 118
0.31 18.02 -1.20 125 121 118
0.31 17.93 -1.20 125 121 118
0.31 17.84 -1.20 125 121 118
0.31 17.74 -1.20 126 122 121
0.31 17.65 -1.20 126 122 121
0.49 17.67 -1.37 127 121 121
0.49 17.58 -1.37 127 122 118
0.49 17.48 -1.37 130 122 119
0.49 17.39 -1.37 129 124 121
0.49 17.30 -1.37 130 125 122
0.49 17.20 -1.37 129 125 122
0.49 17.11 -1.37 129 125 122
0.49 17.02 -1.37 127 126 122
0.49 16.92 -1.37 126 125 121
0.49 16.83 -1.37 125 126 121
0.49 16.74 -1.37 125 126 121
0.49 16.64 -1.37 126 125 120
0.49 16.55 -1.37 126 125 120
0.49 16.46 -1.37 126 126 118
0.49 16.36 -1.37 126 126 118
0.49 16.27 -1.37 128 125 116
0.49 16.18 -1.37 128 125 116
0.49 16.08 -1.37 129 124 118
0.49 15.99 -1.37 129 124 118
0.49 15.90 -1.37 129 124 118
0.49 15.80 -1.37 129 124 118
0.49 15.71 -1.37 130 125 119
0.49 15.62 -1.37 129 124 118
0.49 15.53 -1.37 129 124 118
0.49 15.43 -1.37 131 126 120
0.49 15.34 -1.37 132 127 121
0.49 15.25 -1.37 132 127 121
0.49 15.15 -1.37 132 127 121
0.49 15.06 -1.37 132 127 121
0.67 15.07 -1.55 132 127 121
0.67 14.97 -1.55 132 129 120
0.67 14.88 -1.55 132 129 120
0.67 14.79 -1.55 133 130 121
0.67 14.32 -1.55 131 128 121
0.67 14.22 -1.55 130 127 120
0.67 14.13 -1.55 129 126 119
0.67 14.04 -1.55 134 131 124
0.49 13.85 -1.37 133 130 123
0.49 13.75 -1.37 132 129 122
0.49 13.66 -1.37 132 129 122
0.49 13.57 -1.37 133 130 121
0.49 13.47 -1.37 132 129 120
0.49 13.38 -1.37 130 126 115
0.49 13.29 -1.37 134 130 121
0.49 13.19 -1.37 135 128 120
0.49 13.10 -1.37 131 127 118
0.49 13.01 -1.37 132 128 119
0.49 12.91 -1.37 132 128 119
0.49 12.82 -1.37 132 128 119
0.49 12.73 -1.37 129 126 117
0.49 12.63 -1.37 127 124 115
0.31 12.45 -1.20 130 127 118
0.31 12.36 -1.20 130 127 118
0.31 12.26 -1.20 129 126 117
0.31 12.17 -1.20 128 125 116
0.31 12.08 -1.20 129 125 114
0.31 11.98 -1.20 129 125 114
0.31 11.89 -1.20 130 126 115
0.49 11.89 -1.37 130 126 115
0.49 11.79 -1.37 125 122 113
0.49 11.70 -1.37 124 121 112
0.49 11.61 -1.37 124 121 112
0.49 11.51 -1.37 125 122 113
0.49 11.42 -1.37 126 123 114
0.49 11.33 -1.37 126 123 114
0.49 11.23 -1.37 124 121 112
0.31 11.06 -1.20 121 121 111
0.31 10.96 -1.20 120 120 110
0.31 10.87 -1.20 121 118 109
0.31 10.78 -1.20 121 118 109
0.31 10.68 -1.20 121 119 107
0.31 10.59 -1.20 120 118 106
0.31 10.50 -1.20 119 117 105
0.31 10.41 -1.20 118 115 106
0.31 10.31 -1.20 121 116 110
0.31 10.22 -1.20 119 116 111
0.31 10.13 -1.20 117 116 111
0.31 10.03 -1.20 117 118 112
0.31 9.94 -1.20 116 119 110
0.31 9.85 -1.20 114 117 108
0.49 9.83 -1.37 115 116 108
0.49 9.74 -1.37 116 117 111
0.49 9.65 -1.37 116 115 110
-3.54 7.86 2.42 114 114 112
-3.39 7.84 2.27 109 113 112
-3.54 7.69 2.42 113 123 124
-3.39 7.67 2.27 157 177 176
-3.39 7.59 2.27 155 183 184
-3.39 7.50 2.27 159 193 192
-3.39 7.42 2.27 152 192 192
-3.39 7.33 2.27 152 197 202
-3.39 7.25 2.27 153 198 201
-3.39 7.17 2.27 152 197 200
-3.54 7.02 2.42 152 196 199
-3.54 6.94 2.42 152 196 199
-3.54 6.85 2.42 152 196 199
-3.54 6.77 2.42 153 197 200
-3.54 6.68 2.42 153 194 196
-3.54 6.60 2.42 154 195 197
