ply
format ascii 1.0
element vertex 1671
property float x
property float y
property float z
property uchar red
property uchar green
property uchar blue
end_header
-1.30 -34.81 -0.77 0 0 0
-1.30 -34.90 -0.77 0 0 0
-1.30 -34.99 -0.77 0 0 0
-1.30 -35.08 -0.77 0 0 0
-1.30 -35.17 -0.77 0 0 0
-1.30 -35.26 -0.77 0 0 0
-1.30 -35.35 -0.77 0 0 0
-1.30 -35.44 -0.77 0 0 0
-1.30 -35.53 -0.77 0 0 0
-1.30 -35.62 -0.77 0 0 0
-1.30 -35.71 -0.77 0 0 0
-1.30 -35.80 -0.77 0 0 0
-1.01 21.11 -1.17 59 49 48
-1.01 21.02 -1.17 87 77 76
-1.01 20.93 -1.17 135 127 124
-1.01 20.84 -1.17 143 135 132
-1.01 20.74 -1.17 131 126 120
-1.17 20.54 -1.02 135 130 124
-1.17 20.45 -1.02 139 134 128
-1.17 20.36 -1.02 126 121 115
-1.17 20.27 -1.02 133 129 120
-1.17 20.18 -1.02 133 129 120
-1.17 20.09 -1.02 133 128 122
-1.17 20.00 -1.02 135 130 124
-1.17 19.91 -1.02 137 130 124
-1.17 19.82 -1.02 136 129 123
-1.17 19.73 -1.02 136 129 123
-1.17 19.64 -1.02 138 131 125
-1.17 19.55 -1.02 138 131 121
-1.17 19.46 -1.02 138 131 121
-1.35 19.24 -0.85 138 131 121
-1.35 19.15 -0.85 140 133 125
-1.35 19.06 -0.85 141 134 126
-1.17 19.09 -1.02 142 135 129
-1.17 19.00 -1.02 143 136 130
-1.17 18.91 -1.02 141 134 128
-1.17 18.82 -1.02 140 133 127
-1.17 18.73 -1.02 139 134 128
-1.01 18.75 -1.17 139 134 128
-1.01 18.65 -1.17 140 135 129
-10.12 12.47 7.68 141 136 130
-10.12 12.40 7.68 141 137 128
-10.05 12.10 7.61 142 137 131
-10.12 11.98 7.68 141 136 130
-10.05 11.96 7.61 141 136 130
-10.05 11.89 7.61 140 137 128
-10.05 11.82 7.61 141 138 129
-10.05 11.75 7.61 141 138 129
-10.05 11.68 7.61 143 140 131
-10.05 11.61 7.61 141 138 131
-9.94 11.61 7.51 139 136 129
-9.94 11.54 7.51 144 141 134
-9.94 11.47 7.51 136 133 126
-9.94 11.40 7.51 126 119 111
-9.94 11.33 7.51 100 90 81
-9.84 11.33 7.41 89 72 64
-9.84 11.25 7.41 78 58 51
-9.84 11.18 7.41 78 53 48
-9.84 11.11 7.41 81 50 45
-9.74 11.11 7.31 83 48 44
-9.74 11.04 7.31 91 54 48
-9.74 10.97 7.31 102 63 58
-9.74 10.90 7.31 100 60 52
-9.74 10.83 7.31 104 61 52
-9.74 10.76 7.31 105 63 51
-9.63 10.75 7.21 111 65 52
-9.63 10.68 7.21 119 72 56
-9.63 10.61 7.21 129 77 63
-9.63 10.54 7.21 133 82 63
-9.63 10.46 7.21 135 82 64
-9.63 10.39 7.21 136 84 63
-9.63 10.32 7.21 137 85 64
-9.63 10.25 7.21 138 86 64
-9.53 10.24 7.11 139 87 65
-9.53 10.17 7.11 141 89 67
-9.53 10.10 7.11 151 99 75
-9.53 10.03 7.11 155 103 79
-9.53 9.96 7.11 155 104 77
-9.43 9.95 7.00 159 108 81
-9.43 9.88 7.00 162 110 86
-9.43 9.80 7.00 162 110 86
-9.32 9.79 6.90 163 111 87
-9.32 9.72 6.90 165 113 89
-9.32 9.65 6.90 167 115 91
-9.32 9.58 6.90 167 115 91
-9.32 9.51 6.90 169 119 96
-9.22 9.49 6.80 168 118 95
-9.22 9.42 6.80 170 118 94
-9.22 9.35 6.80 174 122 98
-9.22 9.28 6.80 177 123 97
-9.12 9.26 6.70 176 122 96
-9.12 9.19 6.70 178 122 95
-9.12 9.12 6.70 181 125 98
-9.01 9.10 6.60 183 128 98
-9.01 9.03 6.60 182 127 97
-8.91 9.01 6.50 180 125 95
-8.91 8.94 6.50 179 124 94
-8.91 8.87 6.50 179 126 95
-8.80 8.85 6.40 182 129 98
-8.80 8.78 6.40 185 134 103
-8.80 8.70 6.40 184 133 104
-8.80 8.63 6.40 185 134 105
-8.80 8.56 6.40 187 136 105
-8.70 8.54 6.30 189 138 107
-8.70 8.47 6.30 189 138 107
-8.70 8.39 6.30 190 139 108
-8.57 8.39 6.17 190 140 107
-8.57 8.31 6.17 191 141 108
-8.57 8.24 6.17 192 142 109
-8.57 8.17 6.17 191 141 108
-8.47 8.14 6.07 191 141 106
-8.47 8.07 6.07 191 141 106
-8.47 8.00 6.07 190 140 105
-8.36 7.97 5.97 190 140 105
-8.36 7.90 5.97 193 143 108
-8.36 7.83 5.97 197 147 112
-8.36 7.75 5.97 194 144 111
-8.26 7.73 5.87 194 144 111
-8.26 7.66 5.87 193 144 111
-8.26 7.58 5.87 194 145 112
-8.13 7.57 5.75 193 144 111
-8.13 7.50 5.75 192 143 110
-0.83 10.47 -1.35 189 135 107
-0.83 10.38 -1.35 183 133 106
-0.83 10.29 -1.35 178 131 103
-0.83 10.20 -1.35 172 127 98
-0.83 10.10 -1.35 164 124 98
-1.01 9.93 -1.17 160 128 103
-1.01 9.84 -1.17 156 129 108
-1.01 9.75 -1.17 156 131 111
-1.01 9.66 -1.17 154 133 116
-1.01 9.57 -1.17 150 134 121
-1.01 9.48 -1.17 147 134 125
-1.01 9.39 -1.17 142 136 124
-1.01 9.30 -1.17 138 136 124
-0.83 9.28 -1.35 132 132 120
-0.83 9.19 -1.35 131 133 120
-0.83 9.10 -1.35 130 132 121
-4.38 7.52 2.10 128 129 121
-4.53 7.37 2.25 127 127 119
-4.53 7.29 2.25 124 123 119
-4.53 7.20 2.25 124 120 117
-4.38 7.18 2.10 123 119 116
-4.38 7.10 2.10 114 116 105
-4.38 7.02 2.10 110 112 101
-4.38 6.94 2.10 108 110 99
-4.38 6.85 2.10 108 108 98
-4.38 6.77 2.10 107 107 99
-4.38 6.69 2.10 102 103 95
-4.38 6.60 2.10 100 101 96
-4.38 6.52 2.10 102 104 99
-4.38 6.44 2.10 95 99 98
-4.38 6.35 2.10 25 31 31
-4.38 6.27 2.10 11 19 22
-4.38 6.19 2.10 17 28 32
-4.38 6.11 2.10 15 25 34
-4.25 6.07 1.97 12 27 34
-4.25 5.99 1.97 12 26 35
-4.38 5.86 2.10 5 22 30
-4.38 5.77 2.10 5 22 30
-4.38 5.69 2.10 4 22 32
-4.38 5.61 2.10 4 22 32
-4.38 5.52 2.10 5 23 33
-4.38 5.44 2.10 7 25 35
-4.38 5.36 2.10 9 27 37
-4.38 5.28 2.10 10 28 38
-4.38 5.19 2.10 7 25 35
-4.38 5.11 2.10 8 28 37
-4.38 5.03 2.10 8 28 37
-4.38 4.94 2.10 7 27 34
-4.38 4.86 2.10 5 25 32
-4.38 4.78 2.10 6 26 33
-4.38 4.69 2.10 8 27 34
-4.38 4.61 2.10 11 28 38
-4.25 4.57 1.97 12 26 37
-4.25 4.49 1.97 10 24 35
-4.25 4.41 1.97 10 24 35
-4.25 4.32 1.97 8 25 35
-4.25 4.24 1.97 8 25 35
-4.25 4.16 1.97 7 24 34
-4.25 4.07 1.97 6 23 33
-4.25 3.99 1.97 8 24 37
-4.25 3.91 1.97 10 26 39
-4.38 3.78 2.10 12 28 41
-4.38 3.70 2.10 10 26 39
-4.38 3.62 2.10 9 25 38
-4.38 3.53 2.10 10 26 39
-4.53 3.40 2.25 13 29 42
-4.53 3.32 2.25 14 30 43
-4.53 3.24 2.25 5 25 34
-4.53 3.15 2.25 6 26 35
-4.53 3.07 2.25 7 27 36
-4.53 2.66 2.25 5 24 39
-4.53 2.58 2.25 6 25 40
-4.38 2.54 2.10 7 26 41
-4.38 2.45 2.10 8 27 42
-4.38 2.37 2.10 9 28 45
-4.38 2.29 2.10 10 29 46
-4.38 2.21 2.10 12 31 48
-4.38 2.12 2.10 13 31 51
-4.38 2.04 2.10 9 27 47
-4.38 1.96 2.10 9 27 49
-4.38 1.87 2.10 9 27 49
-4.38 1.79 2.10 10 28 50
-4.53 1.67 2.25 12 30 52
-4.53 1.58 2.25 14 32 54
-4.53 1.50 2.25 13 34 55
-4.53 1.42 2.25 14 35 56
-4.53 1.34 2.25 10 31 52
-4.53 1.25 2.25 10 31 52
-4.53 1.17 2.25 10 32 53
-4.38 1.13 2.10 11 33 54
-4.38 1.04 2.10 13 35 56
-4.38 0.96 2.10 13 35 56
-4.38 0.88 2.10 12 34 55
-4.38 0.79 2.10 12 34 55
-4.38 0.71 2.10 12 34 55
-4.38 0.63 2.10 12 34 55
-4.38 0.55 2.10 12 34 55
-4.38 0.46 2.10 12 34 55
-4.38 0.38 2.10 12 34 55
-4.38 0.30 2.10 12 34 55
-4.38 0.21 2.10 12 34 55
-4.38 0.13 2.10 11 33 56
-4.38 0.05 2.10 12 34 57
-4.38 -0.04 2.10 13 35 59
-4.38 -0.12 2.10 13 35 59
-4.38 -0.20 2.10 14 35 62
-4.38 -0.28 2.10 15 36 63
-4.38 -0.37 2.10 16 37 66
-4.38 -0.45 2.10 17 38 67
-4.38 -0.53 2.10 14 37 68
-4.53 -0.65 2.25 16 39 70
-4.53 -0.73 2.25 13 36 67
-4.53 -0.81 2.25 11 34 65
-4.53 -0.89 2.25 14 37 69
-4.53 -0.98 2.25 13 38 69
-4.53 -1.06 2.25 16 41 72
-4.53 -1.14 2.25 14 38 72
-4.38 -1.20 2.10 12 36 70
-4.38 -1.28 2.10 11 35 69
-4.38 -1.36 2.10 11 35 69
-4.53 -1.47 2.25 12 36 70
-4.53 -1.55 2.25 12 36 70
-4.53 -1.64 2.25 10 34 68
-4.53 -1.72 2.25 8 33 63
-4.53 -1.80 2.25 10 36 59
-4.53 -1.89 2.25 13 40 59
-4.53 -1.97 2.25 15 42 63
-4.53 -2.05 2.25 15 41 64
-4.53 -2.13 2.25 15 41 64
-4.53 -2.22 2.25 15 41 68
-4.53 -2.30 2.25 16 40 68
-4.53 -2.38 2.25 15 38 69
-4.53 -2.46 2.25 16 39 71
-4.53 -2.55 2.25 17 40 72
-4.53 -2.63 2.25 17 40 72
-4.53 -2.71 2.25 17 40 72
-4.66 -2.81 2.37 16 39 70
-4.53 -2.88 2.25 15 38 69
-4.53 -2.96 2.25 16 39 71
-4.53 -3.04 2.25 16 41 72
-4.53 -3.12 2.25 15 39 73
-4.53 -3.21 2.25 15 39 73
-4.53 -3.29 2.25 16 40 74
-4.53 -3.37 2.25 16 42 77
-4.53 -3.46 2.25 17 43 78
-4.53 -3.54 2.25 16 44 81
-4.53 -3.62 2.25 16 44 81
-4.53 -3.70 2.25 17 45 82
-4.53 -3.79 2.25 16 44 81
-4.53 -3.87 2.25 14 43 77
-4.66 -3.96 2.37 12 41 75
-4.66 -4.05 2.37 13 39 74
-4.66 -4.13 2.37 13 39 74
-4.66 -4.21 2.37 14 40 73
-4.66 -4.29 2.37 15 41 74
-4.66 -4.37 2.37 16 45 75
-4.66 -4.46 2.37 15 44 74
-4.66 -4.54 2.37 15 44 74
-4.66 -4.62 2.37 17 46 76
-4.66 -4.70 2.37 18 47 79
-4.66 -4.79 2.37 16 45 77
-4.66 -4.87 2.37 14 43 77
-4.66 -4.95 2.37 16 45 79
-4.66 -5.03 2.37 17 46 80
-4.66 -5.12 2.37 18 48 82
-4.66 -5.20 2.37 19 49 83
-4.66 -5.28 2.37 21 52 83
-4.66 -5.36 2.37 24 55 86
-4.66 -5.45 2.37 27 58 89
-4.66 -5.53 2.37 30 61 89
-4.66 -5.61 2.37 49 80 101
-4.66 -5.69 2.37 123 150 167
-4.66 -5.77 2.37 126 150 160
-4.53 -5.85 2.25 130 147 154
-4.66 -5.94 2.37 139 150 152
-4.66 -6.02 2.37 144 153 152
-4.66 -6.10 2.37 146 152 148
-4.66 -6.19 2.37 152 161 158
-1.35 -6.16 -0.85 141 152 148
-1.35 -6.25 -0.85 149 161 161
-1.17 -6.34 -1.02 143 159 158
-1.17 -6.43 -1.02 148 162 163
-1.17 -6.52 -1.02 148 162 162
-1.17 -6.61 -1.02 155 165 166
-1.17 -6.70 -1.02 156 167 163
-1.17 -6.79 -1.02 159 168 165
-1.17 -6.88 -1.02 156 168 166
-1.17 -6.97 -1.02 157 169 167
-1.17 -7.06 -1.02 158 170 168
-1.17 -7.15 -1.02 159 171 169
-1.17 -7.24 -1.02 159 171 169
-1.17 -7.33 -1.02 161 171 170
-1.17 -7.42 -1.02 161 171 170
-1.17 -7.51 -1.02 163 173 172
-1.17 -7.60 -1.02 162 172 171
-1.17 -7.69 -1.02 167 176 173
-1.17 -7.79 -1.02 165 174 171
-1.17 -7.88 -1.02 168 177 174
-1.17 -7.97 -1.02 175 184 181
-1.17 -8.06 -1.02 174 183 180
-1.17 -8.15 -1.02 177 186 183
-1.17 -8.24 -1.02 179 185 183
-1.17 -8.33 -1.02 179 185 183
-1.17 -8.42 -1.02 179 185 183
-1.17 -8.51 -1.02 180 186 184
-1.17 -8.60 -1.02 178 187 184
-1.17 -8.69 -1.02 178 187 184
-1.17 -8.78 -1.02 178 187 184
-1.17 -8.87 -1.02 178 187 184
-1.17 -8.96 -1.02 178 187 184
-1.17 -9.05 -1.02 177 188 184
-1.17 -9.14 -1.02 178 189 185
-1.17 -9.23 -1.02 179 190 186
-1.17 -9.32 -1.02 180 191 187
-1.17 -9.41 -1.02 178 189 185
-1.17 -9.50 -1.02 177 188 184
-1.17 -9.60 -1.02 179 188 185
-1.17 -9.69 -1.02 181 190 187
-1.17 -9.78 -1.02 184 190 188
-1.17 -9.87 -1.02 185 191 189
-1.17 -9.96 -1.02 185 191 189
-1.17 -10.05 -1.02 185 191 189
-1.17 -10.14 -1.02 186 190 189
-1.17 -10.23 -1.02 186 190 189
-1.17 -10.32 -1.02 186 190 189
-1.17 -10.41 -1.02 186 190 189
-1.17 -10.50 -1.02 185 191 189
-1.17 -10.59 -1.02 185 191 189
-1.17 -10.68 -1.02 185 191 189
-1.17 -10.77 -1.02 185 191 189
-1.17 -10.86 -1.02 183 192 189
-1.17 -10.95 -1.02 184 193 190
-1.17 -11.04 -1.02 183 192 189
-1.17 -11.13 -1.02 184 193 190
-1.17 -11.22 -1.02 185 194 191
-1.17 -11.31 -1.02 186 195 192
-1.17 -11.41 -1.02 186 195 192
-1.17 -11.50 -1.02 186 195 192
-1.17 -11.59 -1.02 186 195 192
-1.17 -11.68 -1.02 184 193 190
-1.17 -11.77 -1.02 184 193 190
-1.17 -11.86 -1.02 186 195 192
-1.17 -11.95 -1.02 187 196 193
-1.17 -12.04 -1.02 187 196 193
-1.17 -12.13 -1.02 186 195 192
-1.17 -12.22 -1.02 186 195 192
-1.17 -12.31 -1.02 187 196 193
-1.17 -12.40 -1.02 187 198 194
-1.17 -12.49 -1.02 186 197 193
-1.35 -12.56 -0.85 185 196 192
-1.35 -12.65 -0.85 185 196 192
-1.35 -12.74 -0.85 185 196 192
-1.35 -12.83 -0.85 185 196 192
-1.35 -12.92 -0.85 186 195 192
-1.35 -13.01 -0.85 185 194 191
-1.35 -13.10 -0.85 188 197 194
-1.35 -13.19 -0.85 188 197 194
-1.17 -13.31 -1.02 189 198 195
-1.17 -13.40 -1.02 190 196 194
-1.17 -13.49 -1.02 191 197 195
-1.17 -13.58 -1.02 193 199 197
-1.17 -13.67 -1.02 194 200 198
-1.17 -13.76 -1.02 192 198 196
-1.17 -13.85 -1.02 193 199 197
-1.17 -13.94 -1.02 192 201 198
-1.17 -14.03 -1.02 193 202 199
-1.17 -14.12 -1.02 193 202 199
-1.35 -14.18 -0.85 194 203 200
-1.35 -14.27 -0.85 193 202 199
-1.35 -14.36 -0.85 193 202 199
-1.35 -14.45 -0.85 194 203 200
-1.35 -14.54 -0.85 193 202 199
-1.35 -14.63 -0.85 194 200 198
-1.35 -14.72 -0.85 194 200 198
-1.35 -14.81 -0.85 197 201 200
-1.35 -14.90 -0.85 199 203 202
-1.35 -14.99 -0.85 201 205 204
-1.35 -15.08 -0.85 202 206 205
-1.35 -15.17 -0.85 201 203 202
-1.35 -15.26 -0.85 201 203 202
-1.35 -15.35 -0.85 202 204 203
-1.35 -15.44 -0.85 203 205 204
-1.35 -15.53 -0.85 206 208 207
-1.35 -15.62 -0.85 207 209 208
-1.35 -15.71 -0.85 208 210 209
-1.17 -15.84 -1.02 208 210 209
-1.17 -15.93 -1.02 209 211 210
-1.17 -16.02 -1.02 209 211 210
-1.35 -16.07 -0.85 210 212 211
-1.35 -16.16 -0.85 211 211 211
-1.35 -16.25 -0.85 211 211 211
-1.35 -16.34 -0.85 212 212 212
-1.35 -16.43 -0.85 213 213 213
-1.35 -16.52 -0.85 211 213 212
-1.35 -16.61 -0.85 213 215 214
-1.35 -16.70 -0.85 215 217 216
-1.35 -16.79 -0.85 216 218 217
-1.35 -16.88 -0.85 214 218 217
-1.35 -16.97 -0.85 215 219 218
-1.35 -17.06 -0.85 215 219 218
-1.35 -17.15 -0.85 216 220 219
-1.35 -17.24 -0.85 213 217 216
-1.35 -17.33 -0.85 216 220 219
-1.35 -17.42 -0.85 218 222 221
-1.35 -17.51 -0.85 217 221 220
-1.35 -17.60 -0.85 218 222 221
-1.35 -17.69 -0.85 218 222 221
-1.35 -17.78 -0.85 217 221 220
-1.35 -18.05 -0.85 219 223 222
-1.35 -18.14 -0.85 220 224 223
-1.35 -18.23 -0.85 220 224 223
-1.35 -18.32 -0.85 220 224 223
-1.35 -18.41 -0.85 223 227 226
-1.35 -18.50 -0.85 226 230 229
-1.35 -18.59 -0.85 228 230 229
-1.35 -18.68 -0.85 228 230 229
-1.35 -18.77 -0.85 229 229 229
-1.35 -18.86 -0.85 229 229 229
-1.35 -18.95 -0.85 230 230 230
-1.35 -19.04 -0.85 232 232 232
-1.35 -19.13 -0.85 233 233 233
-1.35 -19.22 -0.85 233 233 233
-1.35 -19.31 -0.85 232 232 232
-1.35 -19.40 -0.85 233 233 233
-1.35 -19.49 -0.85 233 233 233
-1.35 -19.58 -0.85 233 233 233
-1.35 -19.67 -0.85 233 233 233
-1.50 -19.71 -0.70 233 233 233
-1.35 -20.03 -0.85 235 235 235
-1.50 -20.07 -0.70 235 235 235
-1.50 -20.16 -0.70 235 235 235
-1.50 -20.25 -0.70 234 234 234
-1.50 -20.34 -0.70 234 234 234
-1.50 -20.43 -0.70 234 234 234
-1.50 -20.52 -0.70 234 234 234
-1.50 -20.61 -0.70 235 235 235
-1.50 -20.70 -0.70 236 236 236
-1.50 -20.79 -0.70 237 237 237
-1.50 -20.88 -0.70 237 237 237
-1.35 -21.02 -0.85 237 237 237
-1.35 -21.11 -0.85 238 238 238
-1.35 -21.21 -0.85 239 239 239
-1.35 -21.30 -0.85 240 240 240
-1.35 -21.39 -0.85 237 237 237
-1.35 -21.48 -0.85 240 240 240
-1.35 -21.57 -0.85 242 242 242
-1.35 -21.66 -0.85 243 243 243
-1.35 -21.75 -0.85 243 243 243
-1.35 -21.84 -0.85 243 243 243
-1.35 -21.93 -0.85 244 244 244
-1.35 -22.02 -0.85 247 247 247
-1.50 -22.05 -0.70 246 246 246
-1.50 -22.14 -0.70 247 247 247
-1.50 -22.23 -0.70 249 249 249
-1.50 -22.32 -0.70 250 250 250
-1.50 -22.41 -0.70 249 249 249
-1.50 -22.49 -0.70 249 249 249
-1.50 -22.58 -0.70 250 250 250
-1.50 -22.67 -0.70 249 249 249
-1.50 -22.76 -0.70 249 249 249
-1.50 -22.85 -0.70 248 248 248
-1.50 -22.94 -0.70 248 248 248
-1.50 -23.03 -0.70 249 249 249
-1.50 -23.12 -0.70 250 250 250
-1.50 -23.21 -0.70 251 251 251
-1.50 -23.30 -0.70 252 252 252
-1.50 -23.39 -0.70 251 251 251
-1.50 -23.48 -0.70 252 252 252
-1.50 -23.57 -0.70 253 253 253
-1.50 -23.66 -0.70 252 252 252
-1.35 -23.82 -0.85 250 250 250
-1.35 -23.91 -0.85 250 250 250
-1.35 -24.00 -0.85 251 251 251
-1.50 -24.02 -0.70 253 253 253
-1.50 -24.11 -0.70 251 251 251
-1.50 -24.20 -0.70 250 250 250
-1.50 -24.29 -0.70 250 250 250
-1.50 -24.38 -0.70 251 251 251
-1.50 -24.47 -0.70 252 252 252
-1.50 -24.56 -0.70 252 252 252
-1.50 -24.65 -0.70 251 251 251
-1.50 -24.74 -0.70 250 250 250
-1.50 -24.83 -0.70 250 250 250
-1.50 -24.92 -0.70 250 250 250
-1.50 -25.01 -0.70 250 250 250
-1.50 -25.10 -0.70 250 250 250
-1.50 -25.19 -0.70 250 250 250
-1.50 -25.28 -0.70 250 250 250
-1.50 -25.37 -0.70 250 250 250
-1.50 -25.46 -0.70 249 249 249
-1.35 -25.62 -0.85 249 249 249
-1.35 -25.71 -0.85 250 250 250
-1.35 -25.80 -0.85 250 250 250
-1.35 -25.89 -0.85 250 250 250
-1.35 -25.98 -0.85 250 250 250
-1.35 -26.07 -0.85 251 251 251
-1.50 -26.08 -0.70 251 251 251
-1.50 -26.17 -0.70 253 253 253
-1.35 -26.34 -0.85 252 252 252
-1.35 -26.43 -0.85 252 252 252
-1.50 -26.44 -0.70 252 252 252
-1.50 -26.53 -0.70 251 251 251
-1.50 -26.62 -0.70 250 250 250
-1.66 -26.63 -0.55 251 251 251
-1.50 -26.80 -0.70 251 251 251
-1.50 -26.89 -0.70 252 252 252
-1.50 -26.98 -0.70 252 252 252
-1.50 -27.07 -0.70 252 252 252
-1.50 -27.16 -0.70 253 253 253
-1.50 -27.25 -0.70 253 253 253
-1.50 -27.34 -0.70 253 253 253
-1.50 -27.43 -0.70 253 253 253
-1.50 -27.52 -0.70 253 253 253
-1.50 -27.61 -0.70 252 252 252
-1.35 -27.78 -0.85 250 250 250
-1.50 -27.79 -0.70 250 250 250
-1.50 -27.88 -0.70 250 250 250
-1.50 -27.97 -0.70 251 251 251
-1.50 -28.06 -0.70 251 251 251
-1.50 -28.15 -0.70 251 251 251
-1.50 -28.24 -0.70 250 250 250
-1.50 -28.33 -0.70 251 251 251
-1.50 -28.42 -0.70 251 251 251
-1.50 -28.51 -0.70 250 250 250
-1.50 -28.60 -0.70 250 250 250
-1.66 -28.60 -0.55 251 251 251
-1.66 -28.69 -0.55 251 251 251
-1.66 -28.78 -0.55 248 248 248
-1.66 -28.87 -0.55 248 248 248
-1.66 -28.96 -0.55 248 248 248
-1.66 -29.05 -0.55 248 248 248
-1.66 -29.13 -0.55 248 248 248
-1.66 -29.22 -0.55 249 249 249
-1.66 -29.31 -0.55 249 249 249
-1.66 -29.40 -0.55 250 250 250
-1.50 -29.58 -0.70 248 248 248
-1.50 -29.67 -0.70 249 249 249
-1.50 -29.76 -0.70 249 249 249
-1.50 -29.85 -0.70 248 248 248
-1.50 -29.94 -0.70 248 248 248
-1.50 -30.03 -0.70 247 247 247
-1.50 -30.12 -0.70 246 246 246
-1.50 -30.21 -0.70 246 246 246
-1.50 -30.30 -0.70 246 246 246
-1.50 -30.39 -0.70 245 245 245
-1.50 -30.48 -0.70 245 245 245
-1.50 -30.57 -0.70 245 245 245
-1.50 -30.66 -0.70 244 244 244
-1.50 -30.75 -0.70 245 245 245
-1.50 -30.84 -0.70 245 245 245
-1.35 -31.02 -0.85 245 245 245
-1.35 -31.11 -0.85 244 244 244
-1.35 -31.20 -0.85 243 243 243
-1.35 -31.29 -0.85 242 242 242
-1.35 -31.38 -0.85 241 241 241
-1.35 -31.47 -0.85 242 242 242
-1.35 -31.56 -0.85 243 243 243
-1.35 -31.65 -0.85 244 244 244
-1.50 -31.65 -0.70 239 241 240
-1.50 -31.74 -0.70 239 241 240
-1.50 -31.83 -0.70 238 240 239
-1.50 -31.91 -0.70 239 241 240
-1.50 -32.00 -0.70 240 242 241
-1.50 -32.09 -0.70 240 242 241
-1.50 -32.18 -0.70 239 241 240
-1.50 -32.27 -0.70 238 240 239
-1.50 -32.36 -0.70 244 244 244
-1.50 -32.45 -0.70 244 244 244
-1.50 -32.54 -0.70 243 243 243
-1.50 -32.63 -0.70 242 242 242
-1.50 -32.72 -0.70 240 240 240
-1.50 -32.81 -0.70 241 241 241
-1.50 -32.90 -0.70 241 241 241
-1.50 -32.99 -0.70 242 242 242
-1.50 -33.08 -0.70 242 242 242
-1.50 -33.17 -0.70 243 243 243
-1.50 -33.26 -0.70 244 244 244
-1.50 -33.35 -0.70 245 245 245
-1.50 -33.44 -0.70 245 245 245
-1.50 -33.53 -0.70 246 246 246
-1.50 -33.62 -0.70 246 246 246
-1.50 -33.71 -0.70 246 246 246
-1.50 -33.80 -0.70 245 245 245
-1.50 -33.89 -0.70 245 245 245
-1.50 -33.98 -0.70 243 243 243
-1.50 -34.07 -0.70 242 242 242
-1.50 -34.16 -0.70 242 242 242
-1.50 -34.25 -0.70 242 242 242
-1.50 -34.34 -0.70 243 243 243
-1.50 -34.43 -0.70 0 0 0
-1.50 -34.52 -0.70 0 0 0
-1.50 -34.61 -0.70 0 0 0
-1.35 -34.81 -0.85 0 0 0
-1.35 -34.90 -0.85 0 0 0
-1.35 -34.99 -0.85 0 0 0
-1.35 -35.08 -0.85 0 0 0
-1.35 -35.17 -0.85 0 0 0
-1.35 -35.26 -0.85 0 0 0
-1.35 -35.35 -0.85 0 0 0
-1.35 -35.44 -0.85 0 0 0
-1.50 -35.41 -0.70 0 0 0
-1.50 -35.50 -0.70 0 0 0
-1.50 -35.59 -0.70 0 0 0
-1.50 -35.68 -0.70 0 0 0
-1.06 21.11 -1.25 129 123 125
-1.06 21.02 -1.25 128 122 124
-1.06 20.93 -1.25 131 125 125
-1.06 20.84 -1.25 130 124 124
-1.06 20.74 -1.25 125 120 117
-1.21 20.54 -1.10 128 123 120
-1.21 20.45 -1.10 124 121 114
-1.21 20.36 -1.10 133 130 123
-1.21 20.27 -1.10 133 130 123
-1.21 20.18 -1.10 132 129 122
-1.21 20.09 -1.10 134 129 123
-1.21 20.00 -1.10 136 131 125
-1.21 19.91 -1.10 138 131 125
-1.21 19.82 -1.10 136 129 123
-1.21 19.73 -1.10 137 130 124
-1.21 19.64 -1.10 139 132 124
-1.21 19.55 -1.10 138 131 121
-1.21 19.46 -1.10 138 132 120
-1.21 19.37 -1.10 138 131 121
-1.39 19.15 -0.93 139 132 124
-1.39 19.06 -0.93 140 133 125
-1.21 19.09 -1.10 141 134 128
-1.21 19.00 -1.10 141 134 128
-1.21 18.91 -1.10 141 134 128
-1.21 18.82 -1.10 141 134 128
-1.21 18.73 -1.10 139 134 128
-1.21 18.64 -1.10 140 135 129
-1.06 18.65 -1.25 141 137 128
-10.08 12.52 7.55 142 138 129
-10.08 12.45 7.55 142 138 129
-10.08 12.10 7.55 143 136 130
-10.08 12.03 7.55 141 134 126
-10.08 11.96 7.55 140 133 125
-10.08 11.89 7.55 140 133 125
-10.08 11.82 7.55 141 134 126
-10.08 11.75 7.55 140 133 125
-10.08 11.68 7.55 143 136 128
-9.98 11.68 7.45 142 138 129
-9.98 11.61 7.45 138 134 125
-9.87 11.61 7.35 139 134 128
-9.87 11.54 7.35 142 137 133
-9.87 11.47 7.35 142 139 134
-9.87 11.40 7.35 142 142 132
-9.87 11.33 7.35 126 126 116
-9.87 11.25 7.35 108 105 96
-9.87 11.18 7.35 93 86 78
-9.77 11.18 7.25 78 69 62
-9.77 11.11 7.25 68 55 49
-9.77 11.04 7.25 66 53 45
-9.77 10.97 7.25 73 56 49
-9.77 10.90 7.25 78 61 51
-9.77 10.83 7.25 81 61 50
-9.67 10.82 7.14 84 62 49
-9.67 10.75 7.14 89 63 48
-9.67 10.68 7.14 97 65 50
-9.67 10.61 7.14 106 70 54
-9.67 10.54 7.14 112 74 55
-9.67 10.46 7.14 115 72 55
-9.67 10.39 7.14 123 75 55
-9.67 10.32 7.14 127 76 57
-9.56 10.31 7.04 129 78 57
-9.56 10.24 7.04 131 80 59
-9.56 10.17 7.04 133 83 60
-9.56 10.10 7.04 143 93 68
-9.56 10.03 7.04 148 98 73
-9.46 10.02 6.94 148 98 71
-9.46 9.95 6.94 153 103 76
-9.46 9.88 6.94 157 107 80
-9.46 9.80 6.94 158 108 81
-9.36 9.79 6.84 159 109 82
-9.36 9.72 6.84 161 111 84
-9.36 9.65 6.84 163 113 88
-9.36 9.58 6.84 163 113 88
-9.36 9.51 6.84 163 115 92
-9.25 9.49 6.74 162 114 91
-9.25 9.42 6.74 167 117 92
-9.25 9.35 6.74 172 120 96
-9.25 9.28 6.74 174 123 96
-9.15 9.26 6.64 174 120 94
-9.15 9.19 6.64 175 120 90
-9.15 9.12 6.64 179 124 94
-9.15 9.05 6.64 182 127 96
-9.05 9.03 6.54 180 125 94
-9.05 8.96 6.54 179 124 93
-8.94 8.94 6.44 178 123 92
-8.94 8.87 6.44 176 126 93
-8.94 8.79 6.44 178 128 95
-8.94 8.72 6.44 183 132 101
-8.84 8.70 6.34 183 132 101
-8.84 8.63 6.34 184 133 104
-8.84 8.56 6.34 186 135 104
-8.84 8.49 6.34 188 137 106
-8.74 8.47 6.24 189 138 107
-8.74 8.39 6.24 189 138 107
-8.74 8.32 6.24 190 140 107
-8.61 8.31 6.11 191 141 108
-8.61 8.24 6.11 192 142 109
-8.61 8.17 6.11 191 141 108
-8.50 8.14 6.01 191 141 106
-8.50 8.07 6.01 191 141 106
-8.50 8.00 6.01 189 139 104
-8.50 7.92 6.01 188 138 103
-8.40 7.90 5.91 190 140 105
-8.40 7.83 5.91 194 144 109
-8.40 7.75 5.91 196 143 109
-8.40 7.68 5.91 196 143 109
-8.30 7.66 5.81 193 144 111
-8.30 7.58 5.81 194 145 112
-8.30 7.51 5.81 192 146 112
-8.17 7.50 5.68 193 144 111
-0.88 10.47 -1.43 191 134 107
-0.88 10.38 -1.43 191 137 109
-1.06 10.20 -1.25 190 136 108
-1.06 10.11 -1.25 182 133 103
-1.06 10.02 -1.25 174 127 99
-1.06 9.93 -1.25 167 123 94
-1.06 9.84 -1.25 164 124 98
-1.06 9.75 -1.25 161 125 101
-1.06 9.66 -1.25 158 127 107
-1.06 9.57 -1.25 155 129 112
-1.06 9.48 -1.25 149 131 117
-1.06 9.39 -1.25 143 131 117
-1.06 9.30 -1.25 137 131 119
-1.06 9.20 -1.25 133 131 118
-0.88 9.19 -1.43 131 131 119
-0.88 9.10 -1.43 129 131 120
-4.57 7.45 2.18 127 128 120
-4.57 7.37 2.18 126 125 120
-4.57 7.29 2.18 123 122 120
-4.57 7.20 2.18 122 118 117
-4.57 7.12 2.18 120 116 115
-4.57 7.04 2.18 111 112 106
-4.42 7.02 2.03 110 110 102
-4.42 6.94 2.03 109 109 101
-4.42 6.85 2.03 109 109 101
-4.42 6.77 2.03 109 109 101
-4.42 6.69 2.03 107 108 100
-4.42 6.60 2.03 106 107 101
-4.42 6.52 2.03 102 107 100
-4.42 6.44 2.03 106 111 107
-4.29 6.40 1.90 45 54 49
-4.29 6.32 1.90 10 20 19
-4.29 6.24 1.90 15 27 27
-4.29 6.15 1.90 14 28 29
-4.29 6.07 1.90 14 29 32
-4.29 5.99 1.90 10 25 30
-4.29 5.91 1.90 9 27 31
-4.29 5.82 1.90 8 25 32
-4.29 5.74 1.90 7 24 31
-4.29 5.66 1.90 7 24 31
-4.42 5.52 2.03 7 24 32
-4.42 5.44 2.03 7 24 32
-4.42 5.36 2.03 7 25 35
-4.42 5.28 2.03 7 25 35
-4.42 5.19 2.03 10 28 38
-4.29 5.16 1.90 5 24 31
-4.29 5.07 1.90 4 23 30
-4.29 4.99 1.90 3 22 29
-4.42 4.86 2.03 3 22 29
-4.42 4.78 2.03 5 24 30
-4.29 4.74 1.90 10 27 35
-4.29 4.66 1.90 5 22 30
-4.29 4.57 1.90 6 20 31
-4.29 4.49 1.90 4 21 31
-4.29 4.41 1.90 6 23 33
-4.29 4.32 1.90 7 25 35
-4.29 4.24 1.90 8 26 36
-4.29 4.16 1.90 7 27 38
-4.29 4.07 1.90 7 27 38
-4.29 3.99 1.90 3 23 34
-4.29 3.91 1.90 6 26 37
-4.42 3.78 2.03 7 27 38
-4.42 3.70 2.03 6 26 37
-4.42 3.62 2.03 6 24 36
-4.42 3.53 2.03 7 25 37
-4.42 3.45 2.03 9 27 41
-4.42 3.37 2.03 9 27 41
-4.42 3.28 2.03 11 31 40
-4.42 3.20 2.03 13 33 42
-4.42 3.12 2.03 12 32 41
-4.57 2.66 2.18 10 29 43
-4.42 2.62 2.03 10 29 43
-4.42 2.54 2.03 11 30 45
-4.42 2.45 2.03 10 29 44
-4.42 2.37 2.03 10 27 43
-4.42 2.29 2.03 10 27 43
-4.42 2.21 2.03 11 28 46
-4.42 2.12 2.03 12 29 49
-4.42 2.04 2.03 13 30 50
-4.42 1.96 2.03 13 29 52
-4.42 1.87 2.03 12 30 52
-4.42 1.79 2.03 12 30 52
-4.42 1.71 2.03 11 29 51
-4.57 1.58 2.18 11 29 51
-4.57 1.50 2.18 11 29 51
-4.57 1.42 2.18 10 28 50
-4.57 1.34 2.18 12 33 54
-4.57 1.25 2.18 12 33 54
-4.42 1.21 2.03 11 32 53
-4.42 1.13 2.03 11 32 53
-4.42 1.04 2.03 9 31 52
-4.42 0.96 2.03 9 31 52
-4.42 0.88 2.03 9 31 52
-4.42 0.79 2.03 11 33 54
-4.42 0.71 2.03 11 33 54
-4.42 0.63 2.03 10 32 53
-4.42 0.55 2.03 10 32 53
-4.42 0.46 2.03 10 32 53
-4.42 0.38 2.03 10 32 53
-4.42 0.30 2.03 11 33 56
-4.42 0.21 2.03 12 34 57
-4.42 0.13 2.03 14 36 59
-4.42 0.05 2.03 14 36 60
-4.42 -0.04 2.03 14 36 60
-4.42 -0.12 2.03 13 34 61
-4.42 -0.20 2.03 11 32 61
-4.42 -0.28 2.03 11 32 61
-4.42 -0.37 2.03 11 32 63
-4.42 -0.45 2.03 12 33 62
-4.42 -0.53 2.03 9 34 54
-4.42 -0.62 2.03 11 37 54
-4.42 -0.70 2.03 9 35 52
-4.42 -0.78 2.03 8 34 51
-4.42 -0.87 2.03 12 38 55
-4.42 -0.95 2.03 11 38 57
-4.42 -1.03 2.03 14 41 60
-4.42 -1.11 2.03 13 40 61
-4.42 -1.20 2.03 11 38 59
-4.42 -1.28 2.03 10 37 58
-4.42 -1.36 2.03 11 38 59
-4.42 -1.45 2.03 13 39 62
-4.42 -1.53 2.03 13 39 62
-4.42 -1.61 2.03 12 38 61
-4.42 -1.69 2.03 10 36 59
-4.42 -1.78 2.03 10 35 57
-4.42 -1.86 2.03 13 38 60
-4.57 -1.97 2.18 14 38 62
-4.57 -2.05 2.18 13 37 63
-4.57 -2.13 2.18 13 37 63
-4.57 -2.22 2.18 14 37 68
-4.57 -2.30 2.18 14 37 68
-4.57 -2.38 2.18 13 36 68
-4.57 -2.46 2.18 11 34 68
-4.57 -2.55 2.18 12 35 69
-4.57 -2.63 2.18 11 36 67
-4.57 -2.71 2.18 11 36 67
-4.57 -2.79 2.18 11 36 66
-4.57 -2.88 2.18 10 35 65
-4.57 -2.96 2.18 11 36 66
-4.57 -3.04 2.18 10 35 66
-4.57 -3.12 2.18 11 35 69
-4.57 -3.21 2.18 11 37 70
-4.42 -3.27 2.03 11 37 70
-4.57 -3.37 2.18 11 37 72
-4.57 -3.46 2.18 11 37 72
-4.57 -3.54 2.18 10 39 73
-4.57 -3.62 2.18 11 40 74
-4.57 -3.70 2.18 14 43 77
-4.57 -3.79 2.18 14 43 77
-4.57 -3.87 2.18 12 41 75
-4.57 -3.95 2.18 9 38 72
-4.57 -4.03 2.18 7 36 68
-4.57 -4.12 2.18 8 37 69
-4.57 -4.20 2.18 14 40 73
-4.57 -4.28 2.18 18 44 77
-4.57 -4.36 2.18 14 43 73
-4.70 -4.46 2.30 12 41 71
-4.70 -4.54 2.30 11 40 72
-4.70 -4.62 2.30 12 41 73
-4.70 -4.70 2.30 13 42 76
-4.70 -4.79 2.30 13 42 76
-4.70 -4.87 2.30 13 43 77
-4.70 -4.95 2.30 12 42 78
-4.70 -5.03 2.30 11 41 77
-4.70 -5.12 2.30 12 42 76
-4.70 -5.20 2.30 14 44 78
-4.70 -5.28 2.30 16 49 82
-4.57 -5.36 2.18 21 54 87
-4.57 -5.44 2.18 25 58 91
-4.70 -5.53 2.30 26 59 90
-4.70 -5.61 2.30 53 88 110
-4.57 -5.69 2.18 125 156 174
-4.57 -5.77 2.18 126 150 162
-4.57 -5.85 2.18 130 147 154
-4.70 -5.94 2.30 135 147 145
-4.70 -6.02 2.30 145 154 149
-4.70 -6.10 2.30 145 152 144
-4.70 -6.19 2.30 139 149 141
-1.39 -6.16 -0.93 144 155 151
-1.39 -6.25 -0.93 146 160 160
-1.21 -6.34 -1.10 147 163 163
-1.21 -6.43 -1.10 151 166 169
-1.21 -6.52 -1.10 146 162 162
-1.21 -6.61 -1.10 155 167 167
-1.21 -6.70 -1.10 154 164 163
-1.21 -6.79 -1.10 159 168 167
-1.39 -6.88 -0.93 156 168 168
-1.39 -6.97 -0.93 157 169 169
-1.39 -7.06 -0.93 158 170 170
-1.39 -7.15 -0.93 159 171 171
-1.39 -7.24 -0.93 160 172 172
-1.39 -7.33 -0.93 161 171 170
-1.21 -7.42 -1.10 160 170 169
-1.21 -7.51 -1.10 163 173 172
-1.21 -7.60 -1.10 162 172 171
-1.39 -7.69 -0.93 168 177 176
-1.39 -7.78 -0.93 166 175 174
-1.21 -7.88 -1.10 169 178 177
-1.21 -7.97 -1.10 175 184 183
-1.21 -8.06 -1.10 176 182 180
-1.21 -8.15 -1.10 178 184 182
-1.21 -8.24 -1.10 179 185 183
-1.21 -8.33 -1.10 180 186 184
-1.21 -8.42 -1.10 180 186 184
-1.21 -8.51 -1.10 180 186 184
-1.21 -8.60 -1.10 181 187 185
-1.21 -8.69 -1.10 181 187 185
-1.21 -8.78 -1.10 179 188 185
-1.21 -8.87 -1.10 179 188 185
-1.21 -8.96 -1.10 177 188 184
-1.21 -9.05 -1.10 179 190 186
-1.21 -9.14 -1.10 179 190 186
-1.21 -9.23 -1.10 179 191 187
-1.21 -9.32 -1.10 178 190 186
-1.39 -9.40 -0.93 178 190 186
-1.39 -9.50 -0.93 178 189 185
-1.21 -9.60 -1.10 180 191 187
-1.21 -9.69 -1.10 181 190 187
-1.21 -9.78 -1.10 184 190 188
-1.39 -9.86 -0.93 184 190 188
-1.39 -9.95 -0.93 185 191 189
-1.39 -10.04 -0.93 185 191 189
-1.39 -10.13 -0.93 186 190 189
-1.39 -10.22 -0.93 186 190 189
-1.39 -10.31 -0.93 187 191 190
-1.39 -10.40 -0.93 186 190 189
-1.39 -10.49 -0.93 185 191 189
-1.39 -10.58 -0.93 185 191 189
-1.39 -10.67 -0.93 185 191 189
-1.39 -10.76 -0.93 185 191 189
-1.39 -10.85 -0.93 183 192 189
-1.39 -10.94 -0.93 183 192 189
-1.39 -11.03 -0.93 182 191 188
-1.39 -11.12 -0.93 182 191 188
-1.39 -11.21 -0.93 184 193 190
-1.39 -11.30 -0.93 184 193 190
-1.39 -11.39 -0.93 185 194 191
-1.39 -11.48 -0.93 186 195 192
-1.39 -11.57 -0.93 186 195 192
-1.39 -11.66 -0.93 184 193 190
-1.21 -11.77 -1.10 184 193 190
-1.21 -11.86 -1.10 185 194 191
-1.39 -11.93 -0.93 187 196 193
-1.39 -12.02 -0.93 187 196 193
-1.39 -12.11 -0.93 185 194 191
-1.39 -12.20 -0.93 186 195 192
-1.39 -12.29 -0.93 188 197 194
-1.39 -12.38 -0.93 187 198 194
-1.39 -12.47 -0.93 186 197 193
-1.39 -12.56 -0.93 185 196 192
-1.39 -12.65 -0.93 185 196 192
-1.39 -12.74 -0.93 185 196 192
-1.39 -12.83 -0.93 186 197 193
-1.39 -12.92 -0.93 185 196 192
-1.39 -13.01 -0.93 185 196 192
-1.39 -13.10 -0.93 188 197 194
-1.39 -13.19 -0.93 189 198 195
-1.39 -13.28 -0.93 189 198 195
-1.39 -13.37 -0.93 189 198 195
-1.39 -13.46 -0.93 189 198 195
-1.39 -13.55 -0.93 190 199 196
-1.39 -13.64 -0.93 191 200 197
-1.21 -13.76 -1.10 192 201 198
-1.21 -13.85 -1.10 192 201 198
-1.21 -13.94 -1.10 192 201 198
-1.39 -14.00 -0.93 192 201 198
-1.39 -14.09 -0.93 192 201 198
-1.39 -14.18 -0.93 193 202 199
-1.39 -14.27 -0.93 193 202 199
-1.39 -14.36 -0.93 193 202 199
-1.39 -14.45 -0.93 195 201 199
-1.39 -14.54 -0.93 195 201 199
-1.39 -14.63 -0.93 196 200 199
-1.39 -14.72 -0.93 196 200 199
-1.39 -14.81 -0.93 199 201 200
-1.39 -14.90 -0.93 201 203 202
-1.39 -14.99 -0.93 203 203 203
-1.39 -15.08 -0.93 204 204 204
-1.39 -15.17 -0.93 201 203 202
-1.39 -15.26 -0.93 201 203 202
-1.39 -15.35 -0.93 202 204 203
-1.39 -15.44 -0.93 202 204 203
-1.39 -15.53 -0.93 206 208 207
-1.39 -15.62 -0.93 208 210 209
-1.39 -15.71 -0.93 209 211 210
-1.39 -15.80 -0.93 208 208 208
-1.39 -15.89 -0.93 208 208 208
-1.39 -15.98 -0.93 208 208 208
-1.39 -16.07 -0.93 208 208 208
-1.39 -16.16 -0.93 209 209 209
-1.39 -16.25 -0.93 211 211 211
-1.39 -16.34 -0.93 211 211 211
-1.39 -16.43 -0.93 211 211 211
-1.39 -16.52 -0.93 212 212 212
-1.39 -16.61 -0.93 213 213 213
-1.39 -16.70 -0.93 215 215 215
-1.39 -16.79 -0.93 217 217 217
-1.39 -16.88 -0.93 216 218 217
-1.39 -16.97 -0.93 217 219 218
-1.39 -17.06 -0.93 217 219 218
-1.39 -17.15 -0.93 218 220 219
-1.39 -17.24 -0.93 217 219 218
-1.39 -17.33 -0.93 219 221 220
-1.39 -17.42 -0.93 218 222 221
-1.55 -17.47 -0.77 217 221 220
-1.55 -17.56 -0.77 217 221 220
-1.55 -17.65 -0.77 219 223 222
-1.39 -17.78 -0.93 218 222 221
-1.39 -18.05 -0.93 220 224 223
-1.39 -18.14 -0.93 220 224 223
-1.39 -18.23 -0.93 218 222 221
-1.39 -18.32 -0.93 217 221 220
-1.39 -18.41 -0.93 221 225 224
-1.39 -18.50 -0.93 226 230 229
-1.39 -18.59 -0.93 227 229 228
-1.39 -18.68 -0.93 227 229 228
-1.39 -18.77 -0.93 228 228 228
-1.39 -18.86 -0.93 229 229 229
-1.39 -18.95 -0.93 230 230 230
-1.39 -19.04 -0.93 231 231 231
-1.39 -19.13 -0.93 231 231 231
-1.39 -19.22 -0.93 231 231 231
-1.39 -19.31 -0.93 232 232 232
-1.39 -19.40 -0.93 232 232 232
-1.39 -19.49 -0.93 232 232 232
-1.39 -19.58 -0.93 231 231 231
-1.39 -19.67 -0.93 231 231 231
-1.55 -19.71 -0.77 231 231 231
-1.55 -19.98 -0.77 232 232 232
-1.55 -20.07 -0.77 233 233 233
-1.55 -20.16 -0.77 234 234 234
-1.55 -20.25 -0.77 235 235 235
-1.55 -20.34 -0.77 235 235 235
-1.55 -20.43 -0.77 236 236 236
-1.55 -20.52 -0.77 236 236 236
-1.70 -20.56 -0.62 236 236 236
-1.70 -20.65 -0.62 236 236 236
-1.55 -20.79 -0.77 237 237 237
-1.55 -20.88 -0.77 237 237 237
-1.55 -20.97 -0.77 237 237 237
-1.55 -21.06 -0.77 238 238 238
-1.55 -21.15 -0.77 238 238 238
-1.55 -21.24 -0.77 239 239 239
-1.55 -21.33 -0.77 239 239 239
-1.55 -21.42 -0.77 240 240 240
-1.55 -21.51 -0.77 241 241 241
-1.55 -21.60 -0.77 242 242 242
-1.55 -21.69 -0.77 243 243 243
-1.55 -21.78 -0.77 243 243 243
-1.55 -21.87 -0.77 243 243 243
-1.55 -21.96 -0.77 246 246 246
-1.55 -22.05 -0.77 244 244 244
-1.55 -22.14 -0.77 245 245 245
-1.55 -22.23 -0.77 247 247 247
-1.70 -22.26 -0.62 249 249 249
-1.70 -22.34 -0.62 249 249 249
-1.70 -22.43 -0.62 250 250 250
-1.70 -22.52 -0.62 251 251 251
-1.70 -22.61 -0.62 250 250 250
-1.70 -22.70 -0.62 249 249 249
-1.70 -22.79 -0.62 249 249 249
-1.70 -22.88 -0.62 249 249 249
-1.70 -22.97 -0.62 249 249 249
-1.70 -23.06 -0.62 249 249 249
-1.70 -23.15 -0.62 250 250 250
-1.70 -23.24 -0.62 250 250 250
-1.70 -23.33 -0.62 249 249 249
-1.70 -23.42 -0.62 249 249 249
-1.70 -23.51 -0.62 250 250 250
-1.70 -23.60 -0.62 250 250 250
-1.70 -23.68 -0.62 250 250 250
-1.55 -23.84 -0.77 251 251 251
-1.55 -23.93 -0.77 251 251 251
-1.55 -24.02 -0.77 252 252 252
-1.55 -24.11 -0.77 250 250 250
-1.70 -24.13 -0.62 249 249 249
-1.70 -24.22 -0.62 250 250 250
-1.70 -24.31 -0.62 253 253 253
-1.70 -24.40 -0.62 254 254 254
-1.70 -24.49 -0.62 254 254 254
-1.70 -24.58 -0.62 253 253 253
-1.70 -24.67 -0.62 252 252 252
-1.70 -24.76 -0.62 252 252 252
-1.70 -24.85 -0.62 252 252 252
-1.70 -24.94 -0.62 251 251 251
-1.70 -25.02 -0.62 251 251 251
-1.70 -25.11 -0.62 251 251 251
-1.70 -25.20 -0.62 251 251 251
-1.70 -25.29 -0.62 251 251 251
-1.70 -25.38 -0.62 251 251 251
-1.70 -25.47 -0.62 250 250 250
-1.70 -25.56 -0.62 250 250 250
-1.39 -25.80 -0.93 250 250 250
-1.39 -25.89 -0.93 250 250 250
-1.39 -25.98 -0.93 250 250 250
-1.70 -25.92 -0.62 250 250 250
-1.70 -26.01 -0.62 249 249 249
-1.70 -26.10 -0.62 253 253 253
-1.55 -26.26 -0.77 252 252 252
-1.55 -26.35 -0.77 253 253 253
-1.70 -26.37 -0.62 252 252 252
-1.70 -26.45 -0.62 250 250 250
-1.70 -26.54 -0.62 250 250 250
-1.70 -26.63 -0.62 251 251 251
-1.70 -26.72 -0.62 251 251 251
-1.70 -26.81 -0.62 252 252 252
-1.70 -26.90 -0.62 252 252 252
-1.70 -26.99 -0.62 252 252 252
-1.70 -27.08 -0.62 252 252 252
-1.70 -27.17 -0.62 252 252 252
-1.70 -27.26 -0.62 252 252 252
-1.70 -27.35 -0.62 252 252 252
-1.70 -27.44 -0.62 252 252 252
-1.55 -27.61 -0.77 251 251 251
-1.55 -27.70 -0.77 250 250 250
-1.55 -27.79 -0.77 250 250 250
-1.55 -27.88 -0.77 251 251 251
-1.55 -27.97 -0.77 251 251 251
-1.55 -28.06 -0.77 251 251 251
-1.55 -28.15 -0.77 251 251 251
-1.55 -28.24 -0.77 251 251 251
-1.55 -28.33 -0.77 252 252 252
-1.55 -28.42 -0.77 252 252 252
-1.55 -28.51 -0.77 251 251 251
-1.70 -28.51 -0.62 251 251 251
-1.70 -28.60 -0.62 252 252 252
-1.70 -28.69 -0.62 252 252 252
-1.70 -28.78 -0.62 249 249 249
-1.70 -28.87 -0.62 249 249 249
-1.70 -28.96 -0.62 249 249 249
-1.70 -29.05 -0.62 249 249 249
-1.70 -29.13 -0.62 249 249 249
-1.70 -29.22 -0.62 249 249 249
-1.70 -29.31 -0.62 249 249 249
-1.70 -29.40 -0.62 249 249 249
-1.70 -29.49 -0.62 246 246 246
-1.55 -29.67 -0.77 247 247 247
-1.55 -29.76 -0.77 248 248 248
-1.70 -29.76 -0.62 249 249 249
-1.70 -29.85 -0.62 250 250 250
-1.70 -29.94 -0.62 250 250 250
-1.70 -30.03 -0.62 249 249 249
-1.70 -30.12 -0.62 248 248 248
-1.70 -30.21 -0.62 247 247 247
-1.70 -30.30 -0.62 246 246 246
-1.70 -30.39 -0.62 246 246 246
-1.70 -30.48 -0.62 245 245 245
-1.70 -30.56 -0.62 245 245 245
-1.70 -30.65 -0.62 245 245 245
-1.70 -30.74 -0.62 245 245 245
-1.55 -30.93 -0.77 244 244 244
-1.55 -31.02 -0.77 244 244 244
-1.55 -31.11 -0.77 244 244 244
-1.55 -31.20 -0.77 244 244 244
-1.55 -31.29 -0.77 243 243 243
-1.39 -31.47 -0.93 243 243 243
-1.39 -31.56 -0.93 243 243 243
-1.55 -31.56 -0.77 243 243 243
-1.70 -31.55 -0.62 241 243 242
-1.70 -31.64 -0.62 240 242 241
-1.70 -31.73 -0.62 239 241 240
-1.70 -31.82 -0.62 238 240 239
-1.70 -31.90 -0.62 239 241 240
-1.70 -31.99 -0.62 240 242 241
-1.70 -32.08 -0.62 240 242 241
-1.70 -32.17 -0.62 240 242 241
-1.70 -32.26 -0.62 241 243 242
-1.70 -32.35 -0.62 242 244 243
-1.70 -32.44 -0.62 242 244 243
-1.70 -32.53 -0.62 241 243 242
-1.70 -32.62 -0.62 240 242 241
-1.70 -32.71 -0.62 240 242 241
-1.70 -32.80 -0.62 240 242 241
-1.70 -32.89 -0.62 241 241 241
-1.70 -32.98 -0.62 242 242 242
-1.70 -33.07 -0.62 243 243 243
-1.55 -33.26 -0.77 243 243 243
-1.55 -33.35 -0.77 244 244 244
-1.55 -33.44 -0.77 245 245 245
-1.70 -33.42 -0.62 245 245 245
-1.70 -33.51 -0.62 245 245 245
-1.70 -33.60 -0.62 246 246 246
-1.70 -33.69 -0.62 245 245 245
-1.70 -33.78 -0.62 244 244 244
-1.70 -33.87 -0.62 243 243 243
-1.55 -34.07 -0.77 244 244 244
-1.55 -34.16 -0.77 245 245 245
-1.55 -34.25 -0.77 244 244 244
-1.55 -34.34 -0.77 242 242 242
-1.55 -34.43 -0.77 0 0 0
-1.55 -34.52 -0.77 0 0 0
-1.55 -34.61 -0.77 0 0 0
-1.55 -34.70 -0.77 0 0 0
-1.55 -34.79 -0.77 0 0 0
-1.39 -34.99 -0.93 0 0 0
-1.39 -35.08 -0.93 0 0 0
-1.39 -35.17 -0.93 0 0 0
-1.39 -35.26 -0.93 0 0 0
-1.55 -35.23 -0.77 0 0 0
-1.55 -35.32 -0.77 0 0 0
-1.55 -35.41 -0.77 0 0 0
-1.55 -35.50 -0.77 0 0 0
-1.55 -35.59 -0.77 0 0 0
-1.70 -35.57 -0.62 0 0 0
-1.10 21.11 -1.33 130 124 128
-1.26 20.90 -1.18 129 123 127
-1.26 20.81 -1.18 128 124 125
-1.10 20.84 -1.33 132 128 129
-1.26 20.63 -1.18 128 124 121
-1.26 20.54 -1.18 139 135 132
-1.26 20.45 -1.18 131 128 123
-1.26 20.36 -1.18 132 129 124
-1.26 20.27 -1.18 132 129 122
-1.26 20.18 -1.18 131 128 121
-1.26 20.09 -1.18 133 128 122
-1.26 20.00 -1.18 134 129 123
-1.26 19.91 -1.18 136 129 123
-1.26 19.82 -1.18 135 128 122
-1.26 19.73 -1.18 136 129 123
-1.26 19.64 -1.18 137 130 122
-1.26 19.55 -1.18 139 132 122
-1.44 19.33 -1.00 139 133 121
-1.44 19.24 -1.00 139 132 122
-1.44 19.15 -1.00 139 132 124
-1.44 19.06 -1.00 139 132 124
-1.44 18.97 -1.00 139 132 126
-1.26 19.00 -1.18 139 132 126
-1.26 18.91 -1.18 140 133 127
-1.26 18.82 -1.18 139 132 126
-1.26 18.73 -1.18 137 132 126
-1.26 18.64 -1.18 139 134 128
-1.10 18.65 -1.33 140 136 127
-1.26 18.46 -1.18 141 137 128
-1.26 18.37 -1.18 140 136 125
-1.26 18.28 -1.18 139 135 126
-1.26 18.19 -1.18 140 133 127
-1.26 18.10 -1.18 141 133 130
-1.44 17.89 -1.00 141 134 128
-1.44 17.80 -1.00 142 135 129
-1.44 17.71 -1.00 144 135 128
-1.44 17.62 -1.00 144 135 128
-1.44 17.53 -1.00 145 136 127
-10.12 11.82 7.49 145 136 127
-10.01 11.82 7.39 144 135 126
-10.01 11.75 7.39 142 133 124
-10.01 11.68 7.39 142 133 126
-9.91 11.68 7.29 144 135 128
-9.91 11.61 7.29 142 135 129
-9.91 11.54 7.29 142 135 129
-9.91 11.47 7.29 144 137 131
-9.81 11.46 7.18 139 136 129
-9.81 11.39 7.18 146 141 135
-9.81 11.32 7.18 150 145 141
-9.81 11.25 7.18 147 137 135
-9.81 11.18 7.18 130 120 118
-9.81 11.11 7.18 107 96 94
-9.81 11.04 7.18 88 74 71
-9.81 10.97 7.18 76 62 59
-9.81 10.90 7.18 71 56 49
-9.81 10.83 7.18 74 57 49
-9.70 10.82 7.08 79 57 46
-9.70 10.75 7.08 82 54 42
-9.70 10.68 7.08 87 55 42
-9.70 10.61 7.08 94 57 41
-9.70 10.54 7.08 101 58 42
-9.70 10.46 7.08 104 57 41
-9.70 10.39 7.08 106 59 41
-9.60 10.38 6.98 111 62 45
-9.60 10.31 6.98 116 68 48
-9.60 10.24 6.98 121 73 53
-9.60 10.17 6.98 124 76 54
-9.60 10.10 6.98 131 84 58
-9.60 10.03 6.98 134 87 61
-9.50 10.02 6.88 139 92 64
-9.50 9.95 6.88 145 98 70
-9.50 9.88 6.88 150 103 75
-9.50 9.80 6.88 153 106 78
-9.39 9.79 6.78 154 107 79
-9.39 9.72 6.78 155 108 80
-9.39 9.65 6.78 156 109 81
-9.39 9.58 6.78 156 109 83
-9.39 9.51 6.78 158 111 85
-9.39 9.43 6.78 157 109 86
-9.29 9.42 6.68 163 113 88
-9.29 9.35 6.68 169 117 93
-9.29 9.28 6.68 171 120 91
-9.29 9.21 6.68 170 116 88
-9.19 9.19 6.58 171 116 86
-9.19 9.12 6.58 174 119 89
-9.19 9.05 6.58 179 122 92
-9.08 9.03 6.48 179 122 92
-9.08 8.96 6.48 179 125 91
-9.08 8.88 6.48 180 126 92
-8.98 8.87 6.38 178 128 95
-8.98 8.79 6.38 178 128 95
-8.98 8.72 6.38 179 128 97
-8.98 8.65 6.38 182 131 100
-8.88 8.63 6.27 185 131 103
-8.88 8.56 6.27 187 134 103
-8.88 8.49 6.27 189 136 105
-8.77 8.47 6.17 189 136 105
-8.77 8.39 6.17 191 138 107
-8.77 8.32 6.17 192 139 107
-8.64 8.31 6.05 193 140 108
-8.64 8.24 6.05 194 141 109
-8.64 8.17 6.05 194 141 109
-8.64 8.09 6.05 194 141 107
-8.54 8.07 5.95 194 141 107
-8.54 8.00 5.95 192 139 105
-8.54 7.92 5.95 190 137 103
-8.54 7.85 5.95 191 138 104
-8.44 7.83 5.85 195 142 108
-8.44 7.75 5.85 195 142 108
-8.44 7.68 5.85 195 142 108
-8.33 7.66 5.74 192 144 108
-8.33 7.58 5.74 193 145 109
-8.33 7.51 5.74 191 145 111
-8.33 7.43 5.74 194 145 112
-8.33 7.36 5.74 193 144 112
-8.21 7.35 5.62 191 137 109
-1.10 10.20 -1.33 190 134 107
-1.10 10.11 -1.33 186 135 106
-1.10 10.02 -1.33 183 132 103
-1.10 9.93 -1.33 184 135 103
-1.10 9.84 -1.33 180 133 103
-1.26 9.68 -1.18 172 130 105
-1.26 9.59 -1.18 166 130 108
-1.26 9.50 -1.18 161 130 110
-1.26 9.41 -1.18 153 130 114
-1.26 9.32 -1.18 146 130 115
-1.26 9.23 -1.18 140 130 118
-1.26 9.14 -1.18 138 135 120
-1.26 9.05 -1.18 135 133 121
-1.26 8.96 -1.18 128 130 119
-1.26 8.87 -1.18 126 127 121
-1.26 8.78 -1.18 125 124 119
-1.44 8.61 -1.00 122 121 119
-1.44 8.52 -1.00 121 117 118
-1.44 8.43 -1.00 119 114 118
-1.44 8.34 -1.00 117 116 114
-4.46 6.85 1.95 111 110 105
-4.46 6.77 1.95 111 110 105
-4.46 6.69 1.95 110 110 102
-4.46 6.60 1.95 110 110 102
-4.46 6.52 1.95 109 112 105
-4.33 6.49 1.83 108 113 107
-4.33 6.40 1.83 66 73 66
-4.33 6.32 1.83 13 24 20
-4.33 6.24 1.83 16 28 24
-4.33 6.15 1.83 16 30 30
-4.33 6.07 1.83 16 32 31
-4.33 5.99 1.83 10 26 26
-4.33 5.91 1.83 13 28 31
-4.33 5.82 1.83 13 28 31
-4.33 5.74 1.83 12 27 32
-4.33 5.66 1.83 12 27 32
-4.33 5.57 1.83 12 27 34
-4.33 5.49 1.83 12 27 34
-4.33 5.41 1.83 10 27 35
-4.33 5.32 1.83 10 27 35
-4.33 5.24 1.83 10 27 37
-4.18 5.21 1.68 8 25 33
-4.18 5.13 1.68 10 27 35
-4.33 4.99 1.83 12 26 35
-4.33 4.91 1.83 10 24 33
-4.33 4.82 1.83 10 25 32
-4.33 4.74 1.83 11 25 34
-4.18 4.71 1.68 12 29 37
-4.18 4.62 1.68 11 28 38
-4.18 4.54 1.68 10 28 38
-4.18 4.46 1.68 10 28 38
-4.18 4.37 1.68 9 29 38
-4.18 4.29 1.68 8 28 37
-4.18 4.21 1.68 5 27 38
-4.18 4.12 1.68 4 26 37
-4.33 3.99 1.83 6 28 39
-4.33 3.91 1.83 5 27 38
-4.33 3.82 1.83 4 26 37
-4.46 3.70 1.95 3 25 36
-4.46 3.62 1.95 8 27 41
-4.46 3.53 1.95 9 28 42
-4.46 3.45 1.95 8 27 41
-4.46 3.37 1.95 4 23 37
-4.46 3.28 1.95 6 24 36
-4.46 3.20 1.95 9 27 39
-4.46 3.12 1.95 11 29 41
-4.62 2.99 2.11 10 28 40
-4.46 2.95 1.95 11 29 41
-4.46 2.87 1.95 11 29 41
-4.46 2.79 1.95 9 27 39
-4.46 2.70 1.95 10 26 41
-4.46 2.62 1.95 11 27 42
-4.46 2.54 1.95 12 28 43
-4.46 2.45 1.95 11 27 42
-4.46 2.37 1.95 11 27 43
-4.46 2.29 1.95 11 27 43
-4.46 2.21 1.95 12 28 44
-4.46 2.12 1.95 14 29 48
-4.46 2.04 1.95 10 25 44
-4.46 1.96 1.95 11 26 47
-4.46 1.87 1.95 10 27 47
-4.46 1.79 1.95 11 28 48
-4.46 1.71 1.95 12 29 49
-4.46 1.62 1.95 12 29 49
-4.46 1.54 1.95 13 30 50
-4.46 1.46 1.95 13 30 50
-4.46 1.38 1.95 12 30 50
-4.46 1.29 1.95 11 29 49
-4.46 1.21 1.95 9 30 49
-4.46 1.13 1.95 9 30 49
-4.46 0.71 1.95 11 33 54
-4.46 0.63 1.95 10 32 53
-4.33 0.57 1.83 10 32 53
-4.33 0.49 1.83 10 33 51
-4.33 0.41 1.83 11 34 52
-4.46 0.30 1.95 13 34 55
-4.46 0.21 1.95 13 34 55
-4.46 0.13 1.95 10 30 54
-4.46 0.05 1.95 11 31 55
-4.46 -0.04 1.95 12 32 57
-4.46 -0.12 1.95 12 32 57
-4.46 -0.20 1.95 12 32 59
-4.46 -0.28 1.95 12 32 59
-4.46 -0.37 1.95 14 33 63
-4.46 -0.45 1.95 15 35 62
-4.46 -0.53 1.95 8 32 56
-4.46 -0.62 1.95 11 36 58
-4.46 -0.70 1.95 11 35 59
-4.46 -0.78 1.95 11 35 59
-4.46 -0.87 1.95 14 38 62
-4.46 -0.95 1.95 9 33 59
-4.46 -1.03 1.95 11 35 61
-4.33 -1.09 1.83 11 35 63
-4.33 -1.17 1.83 10 34 62
-4.46 -1.28 1.95 9 34 64
-4.46 -1.36 1.95 9 34 64
-4.46 -1.45 1.95 10 35 65
-4.46 -1.53 1.95 11 36 66
-4.46 -1.61 1.95 10 35 65
-4.46 -1.69 1.95 11 35 63
-4.46 -1.78 1.95 12 36 60
-4.46 -1.86 1.95 15 37 60
-4.46 -1.94 1.95 14 36 60
-4.46 -2.03 1.95 10 31 58
-4.46 -2.11 1.95 10 31 58
-4.46 -2.19 1.95 13 34 65
-4.62 -2.30 2.11 14 37 68
-4.62 -2.38 2.11 14 37 69
-4.62 -2.46 2.11 13 36 68
-4.62 -2.55 2.11 13 36 68
-4.62 -2.63 2.11 13 38 68
-4.62 -2.71 2.11 12 37 67
-4.62 -2.79 2.11 11 37 64
-4.62 -2.88 2.11 10 36 63
-4.62 -2.96 2.11 11 37 64
-4.62 -3.04 2.11 13 39 66
-4.62 -3.12 2.11 14 39 69
-4.46 -3.19 1.95 15 40 71
-4.46 -3.27 1.95 14 39 70
-4.46 -3.35 1.95 11 38 68
-4.62 -3.46 2.11 10 37 67
-4.62 -3.54 2.11 8 37 69
-4.62 -3.62 2.11 8 37 69
-4.62 -3.70 2.11 2 31 63
-4.62 -3.79 2.11 7 36 68
-4.62 -3.87 2.11 12 41 71
-4.62 -3.95 2.11 13 42 72
-4.62 -4.03 2.11 12 39 68
-4.62 -4.12 2.11 11 38 67
-4.62 -4.20 2.11 12 39 68
-4.62 -4.28 2.11 15 42 71
-4.62 -4.36 2.11 10 40 68
-4.62 -4.45 2.11 10 40 68
-4.62 -4.53 2.11 11 40 70
-4.62 -4.61 2.11 13 42 72
-4.62 -4.69 2.11 12 41 73
-4.62 -4.78 2.11 11 40 72
-4.75 -4.87 2.23 12 41 73
-4.75 -4.95 2.23 14 44 78
-4.75 -5.03 2.23 11 41 75
-4.75 -5.12 2.23 9 39 73
-4.75 -5.20 2.23 11 41 75
-4.62 -5.27 2.11 16 47 78
-4.62 -5.36 2.11 21 52 83
-4.62 -5.44 2.11 24 55 86
-4.62 -5.52 2.11 24 55 84
-4.62 -5.60 2.11 62 98 120
-4.62 -5.69 2.11 121 154 171
-4.62 -5.77 2.11 121 148 159
-4.62 -5.85 2.11 134 153 159
-4.75 -5.94 2.23 133 145 143
-4.75 -6.02 2.23 141 150 145
-4.75 -6.10 2.23 149 156 148
-4.75 -6.19 2.23 145 155 147
-1.44 -6.16 -1.00 149 161 157
-1.44 -6.25 -1.00 139 155 154
-1.26 -6.34 -1.18 140 158 158
-1.44 -6.43 -1.00 151 169 171
-1.44 -6.52 -1.00 145 163 163
-1.44 -6.61 -1.00 154 168 168
-1.44 -6.70 -1.00 152 162 161
-1.44 -6.79 -1.00 161 171 170
-1.44 -6.88 -1.00 153 167 167
-1.44 -6.97 -1.00 157 169 169
-1.44 -7.06 -1.00 158 170 170
-1.44 -7.15 -1.00 159 171 171
-1.44 -7.24 -1.00 160 172 172
-1.44 -7.33 -1.00 160 170 171
-1.44 -7.42 -1.00 160 170 171
-1.44 -7.51 -1.00 161 171 170
-1.44 -7.60 -1.00 160 170 169
-1.44 -7.69 -1.00 167 176 175
-1.44 -7.78 -1.00 166 175 174
-1.44 -7.87 -1.00 169 178 177
-1.44 -7.96 -1.00 175 184 183
-1.44 -8.05 -1.00 174 180 180
-1.44 -8.14 -1.00 176 182 182
-1.44 -8.23 -1.00 178 184 182
-1.44 -8.32 -1.00 179 185 183
-1.44 -8.41 -1.00 180 186 184
-1.44 -8.50 -1.00 181 187 185
-1.44 -8.59 -1.00 181 187 185
-1.26 -8.69 -1.18 182 188 186
-1.26 -8.78 -1.18 180 189 186
-1.26 -8.87 -1.18 180 189 186
-1.26 -8.96 -1.18 178 189 185
-1.26 -9.05 -1.18 181 192 188
-1.26 -9.14 -1.18 181 192 188
-1.44 -9.22 -1.00 180 192 188
-1.44 -9.31 -1.00 179 191 187
-1.44 -9.40 -1.00 179 191 187
-1.44 -9.50 -1.00 180 191 187
-1.44 -9.59 -1.00 182 193 189
-1.44 -9.68 -1.00 182 191 188
-1.44 -9.77 -1.00 183 189 187
-1.44 -9.86 -1.00 183 189 187
-1.44 -9.95 -1.00 185 189 188
-1.44 -10.04 -1.00 186 190 189
-1.44 -10.13 -1.00 186 190 189
-1.44 -10.22 -1.00 186 190 189
-1.44 -10.31 -1.00 187 191 190
-1.44 -10.40 -1.00 186 190 189
-1.44 -10.49 -1.00 186 190 189
-1.44 -10.58 -1.00 186 190 189
-1.44 -10.67 -1.00 185 191 189
-1.44 -10.76 -1.00 185 191 189
-1.44 -10.85 -1.00 183 192 189
-1.44 -10.94 -1.00 183 192 189
-1.44 -11.03 -1.00 182 191 188
-1.44 -11.12 -1.00 182 191 188
-1.44 -11.21 -1.00 182 191 188
-1.44 -11.30 -1.00 183 192 189
-1.44 -11.39 -1.00 183 192 189
-1.44 -11.48 -1.00 184 193 190
-1.44 -11.57 -1.00 184 193 190
-1.44 -11.66 -1.00 185 194 191
-1.44 -11.75 -1.00 184 193 190
-1.44 -11.84 -1.00 184 193 190
-1.44 -11.93 -1.00 187 196 193
-1.44 -12.02 -1.00 187 196 193
-1.44 -12.11 -1.00 185 194 191
-1.44 -12.20 -1.00 186 195 192
-1.44 -12.29 -1.00 189 198 195
-1.44 -12.38 -1.00 188 197 194
-1.59 -12.45 -0.85 187 196 193
-1.59 -12.54 -0.85 187 196 193
-1.59 -12.63 -0.85 187 196 193
-1.59 -12.72 -0.85 188 197 194
-1.59 -12.81 -0.85 188 197 194
-1.59 -12.90 -0.85 187 198 194
-1.59 -12.99 -0.85 187 198 194
-1.59 -13.08 -0.85 187 198 194
-1.44 -13.19 -1.00 187 198 194
-1.44 -13.28 -1.00 188 199 195
-1.44 -13.37 -1.00 187 198 194
-1.44 -13.46 -1.00 187 198 194
-1.44 -13.55 -1.00 187 198 194
-1.44 -13.64 -1.00 188 199 195
-1.44 -13.73 -1.00 192 201 198
-1.44 -13.82 -1.00 192 201 198
-1.44 -13.91 -1.00 191 200 197
-1.44 -14.00 -1.00 190 199 196
-1.44 -14.09 -1.00 190 199 196
-1.59 -14.15 -0.85 191 200 197
-1.59 -14.24 -0.85 192 201 198
-1.59 -14.33 -0.85 192 201 198
-1.59 -14.42 -0.85 193 199 197
-1.59 -14.51 -0.85 195 199 198
-1.59 -14.60 -0.85 197 201 200
-1.59 -14.69 -0.85 201 203 202
-1.59 -14.78 -0.85 202 202 202
-1.59 -14.87 -0.85 201 201 201
-1.59 -14.96 -0.85 201 199 200
-1.44 -15.08 -1.00 199 199 199
-1.44 -15.17 -1.00 201 203 202
-1.44 -15.26 -1.00 199 203 202
-1.44 -15.35 -1.00 200 202 201
-1.44 -15.44 -1.00 200 202 201
-1.44 -15.53 -1.00 202 204 203
-1.59 -15.59 -0.85 203 205 204
-1.59 -15.68 -0.85 204 206 205
-1.59 -15.77 -0.85 208 208 208
-1.44 -15.89 -1.00 206 206 206
-1.44 -15.98 -1.00 205 205 205
-1.44 -16.07 -1.00 206 206 206
-1.59 -16.13 -0.85 208 208 208
-1.59 -16.22 -0.85 210 210 210
-1.59 -16.30 -0.85 211 211 211
-1.44 -16.43 -1.00 210 210 210
-1.44 -16.52 -1.00 212 212 212
-1.44 -16.61 -1.00 213 213 213
-1.44 -16.70 -1.00 216 216 216
-1.44 -16.79 -1.00 217 217 217
-1.44 -16.88 -1.00 218 218 218
-1.44 -16.97 -1.00 218 218 218
-1.44 -17.06 -1.00 219 219 219
-1.44 -17.15 -1.00 219 219 219
-1.59 -17.20 -0.85 217 219 218
-1.59 -17.29 -0.85 218 220 219
-1.59 -17.38 -0.85 219 221 220
-1.59 -17.47 -0.85 218 220 219
-1.59 -17.56 -0.85 219 221 220
-1.59 -17.65 -0.85 223 225 224
-1.59 -17.74 -0.85 223 225 224
-1.44 -17.87 -1.00 219 225 223
-1.44 -17.96 -1.00 220 226 224
-1.44 -18.05 -1.00 222 226 225
-1.59 -18.10 -0.85 221 225 224
-1.59 -18.19 -0.85 218 222 221
-1.59 -18.28 -0.85 216 220 219
-1.59 -18.37 -0.85 220 224 223
-1.59 -18.46 -0.85 226 230 229
-1.59 -18.55 -0.85 226 228 227
-1.59 -18.64 -0.85 226 228 227
-1.59 -18.73 -0.85 228 228 228
