ply
format ascii 1.0
element vertex 1899
property float x
property float y
property float z
property uchar red
property uchar green
property uchar blue
end_header
-10.71 -25.90 -0.90 0 0 0
-10.71 -25.98 -0.90 0 0 0
-10.71 -26.06 -0.90 0 0 0
-10.71 -26.13 -0.90 0 0 0
-10.71 -26.21 -0.90 0 0 0
-10.71 -26.29 -0.90 0 0 0
-10.71 -26.36 -0.90 0 0 0
-10.83 -26.36 -0.75 0 0 0
-10.83 -26.44 -0.75 0 0 0
-10.83 -26.51 -0.75 0 0 0
-10.83 -26.59 -0.75 0 0 0
-10.83 -26.66 -0.75 0 0 0
-10.83 -26.74 -0.75 0 0 0
-10.83 -26.82 -0.75 0 0 0
-10.83 -26.89 -0.75 0 0 0
-10.83 -26.97 -0.75 0 0 0
-10.83 -27.04 -0.75 0 0 0
-10.83 -27.12 -0.75 0 0 0
-10.83 -27.19 -0.75 0 0 0
-10.83 -27.27 -0.75 0 0 0
-10.83 -27.35 -0.75 0 0 0
-10.83 -27.42 -0.75 0 0 0
-10.83 -27.50 -0.75 0 0 0
-10.83 -27.57 -0.75 0 0 0
-10.71 -27.73 -0.90 0 0 0
-10.71 -27.81 -0.90 0 0 0
-10.71 -27.88 -0.90 0 0 0
-10.71 -27.96 -0.90 0 0 0
-10.71 -28.03 -0.90 0 0 0
-10.71 -28.11 -0.90 0 0 0
-10.71 -28.19 -0.90 0 0 0
-10.71 -28.26 -0.90 0 0 0
-10.71 -28.34 -0.90 0 0 0
-10.71 -28.42 -0.90 0 0 0
-10.71 -28.49 -0.90 0 0 0
-10.71 -28.57 -0.90 0 0 0
-10.71 -28.64 -0.90 0 0 0
-10.71 -28.72 -0.90 0 0 0
-10.71 -28.80 -0.90 0 0 0
-10.83 -28.79 -0.75 0 0 0
-10.83 -28.86 -0.75 0 0 0
-10.83 -28.94 -0.75 0 0 0
-10.83 -29.01 -0.75 0 0 0
-10.83 -29.09 -0.75 0 0 0
-10.71 -29.25 -0.90 0 0 0
-10.71 -29.33 -0.90 0 0 0
-10.71 -29.40 -0.90 0 0 0
-10.71 -29.48 -0.90 0 0 0
-10.71 -29.56 -0.90 0 0 0
-10.71 -29.63 -0.90 0 0 0
-10.71 -29.71 -0.90 0 0 0
-10.71 -29.78 -0.90 0 0 0
-10.71 -29.86 -0.90 0 0 0
-10.71 -29.94 -0.90 0 0 0
-10.71 -30.01 -0.90 0 0 0
-10.71 -30.09 -0.90 0 0 0
-10.71 -30.17 -0.90 0 0 0
-10.71 -30.24 -0.90 0 0 0
-10.71 -30.32 -0.90 0 0 0
-10.71 -30.39 -0.90 0 0 0
-10.83 -30.38 -0.75 0 0 0
-10.83 -30.45 -0.75 0 0 0
-10.83 -30.53 -0.75 0 0 0
-10.83 -30.60 -0.75 0 0 0
-10.83 -30.68 -0.75 0 0 0
-10.83 -30.76 -0.75 0 0 0
-10.83 -30.83 -0.75 0 0 0
-10.83 -30.91 -0.75 0 0 0
-10.83 -30.98 -0.75 0 0 0
-10.83 -31.06 -0.75 0 0 0
-10.83 -31.14 -0.75 0 0 0
-10.83 -31.21 -0.75 0 0 0
-10.83 -31.29 -0.75 0 0 0
-10.87 17.13 -0.81 0 0 0
-10.87 17.06 -0.81 0 0 0
-10.87 16.98 -0.81 0 0 0
-10.87 16.90 -0.81 0 0 0
-10.75 16.93 -0.96 0 0 0
-10.75 16.85 -0.96 0 0 0
-10.75 16.77 -0.96 0 0 0
-10.75 16.70 -0.96 0 0 0
-10.75 16.62 -0.96 0 0 0
-10.66 16.62 -1.08 0 0 0
-10.66 16.54 -1.08 0 0 0
-10.66 16.47 -1.08 0 0 0
-10.54 16.49 -1.23 0 0 0
-10.43 16.50 -1.38 0 0 0
-10.43 16.43 -1.38 0 0 0
-10.43 16.35 -1.38 0 0 0
-12.07 14.95 0.74 0 0 0
-12.07 14.88 0.74 0 0 0
-12.07 14.80 0.74 0 0 0
-12.07 14.73 0.74 0 0 0
-12.07 14.66 0.74 0 0 0
-12.07 14.59 0.74 0 0 0
-12.07 14.51 0.74 0 0 0
-12.07 14.44 0.74 0 0 0
-12.07 14.37 0.74 0 0 0
-12.07 14.30 0.74 0 0 0
-12.07 14.22 0.74 0 0 0
-12.07 14.15 0.74 0 0 0
-12.07 14.08 0.74 0 0 0
-11.98 14.08 0.62 0 0 0
-11.86 14.09 0.47 0 0 0
-11.77 14.09 0.35 0 0 0
-11.68 14.09 0.23 0 0 0
-11.68 14.01 0.23 0 0 0
-11.68 13.94 0.23 0 0 0
-11.68 13.87 0.23 0 0 0
-11.59 13.86 0.11 0 0 0
-11.59 13.79 0.11 0 0 0
-11.47 13.80 -0.04 0 0 0
-11.47 13.73 -0.04 0 0 0
-11.38 13.72 -0.16 0 0 0
-11.38 13.65 -0.16 0 0 0
-11.38 13.57 -0.16 0 0 0
-11.38 13.50 -0.16 0 0 0
-11.29 13.49 -0.28 0 0 0
-11.29 13.42 -0.28 0 0 0
-11.29 13.34 -0.28 0 0 0
-11.29 13.27 -0.28 0 0 0
-11.29 13.19 -0.28 0 0 0
-11.17 13.20 -0.43 0 0 0
-11.17 13.13 -0.43 0 0 0
-11.17 13.05 -0.43 0 0 0
-11.17 12.98 -0.43 0 0 0
-11.17 12.90 -0.43 0 0 0
-11.08 12.89 -0.54 0 0 0
-11.08 12.82 -0.54 0 0 0
-11.17 12.68 -0.43 0 0 0
-11.17 12.60 -0.43 0 0 0
-11.17 12.53 -0.43 0 0 0
-11.17 12.45 -0.43 0 0 0
-11.29 12.30 -0.28 0 0 0
-11.29 12.22 -0.28 0 0 0
-11.86 11.61 0.47 0 0 0
-11.98 11.45 0.62 0 0 0
-12.07 11.32 0.74 0 0 0
-12.07 11.25 0.74 0 0 0
-12.07 11.17 0.74 0 0 0
-12.07 11.10 0.74 0 0 0
-12.07 11.03 0.74 0 0 0
-11.98 11.02 0.62 0 0 0
-11.08 11.54 -0.54 0 0 0
-11.08 11.46 -0.54 0 0 0
-10.96 11.46 -0.69 0 0 0
-10.96 11.39 -0.69 0 0 0
-10.96 11.31 -0.69 0 0 0
-10.87 11.30 -0.81 0 0 0
-10.87 11.22 -0.81 0 0 0
-10.87 11.15 -0.81 0 0 0
-10.87 11.07 -0.81 0 0 0
-10.87 10.99 -0.81 0 0 0
-10.75 10.99 -0.96 0 0 0
-10.75 10.92 -0.96 0 0 0
-10.75 10.84 -0.96 0 0 0
-10.66 10.82 -1.08 0 0 0
-10.54 10.82 -1.23 0 0 0
-10.66 10.67 -1.08 0 0 0
-10.54 10.66 -1.23 0 0 0
-10.54 10.59 -1.23 0 0 0
-10.54 10.51 -1.23 0 0 0
-10.54 10.43 -1.23 0 0 0
-10.54 10.36 -1.23 0 0 0
-10.54 10.28 -1.23 0 0 0
-10.54 10.20 -1.23 0 0 0
-10.54 10.13 -1.23 0 0 0
-10.54 10.05 -1.23 0 0 0
-10.66 9.91 -1.08 0 0 0
-10.66 9.83 -1.08 0 0 0
-10.66 9.75 -1.08 0 0 0
-10.66 9.68 -1.08 0 0 0
-10.66 9.60 -1.08 0 0 0
-10.66 9.52 -1.08 0 0 0
-10.66 9.45 -1.08 0 0 0
-10.66 9.37 -1.08 0 0 0
-10.66 9.29 -1.08 0 0 0
-10.66 9.22 -1.08 0 0 0
-10.66 9.14 -1.08 0 0 0
-10.66 9.07 -1.08 0 0 0
-10.66 8.99 -1.08 0 0 0
-10.66 8.91 -1.08 0 0 0
-10.66 8.84 -1.08 0 0 0
-10.66 8.76 -1.08 0 0 0
-10.66 8.68 -1.08 0 0 0
-10.66 8.61 -1.08 0 0 0
-10.66 8.53 -1.08 0 0 0
-10.66 8.46 -1.08 0 0 0
-10.66 8.38 -1.08 0 0 0
-10.66 8.30 -1.08 0 0 0
-10.66 8.23 -1.08 0 0 0
-10.66 8.15 -1.08 0 0 0
-10.66 8.07 -1.08 0 0 0
-10.66 8.00 -1.08 0 0 0
-10.54 7.98 -1.23 0 0 0
-10.54 7.91 -1.23 0 0 0
-10.54 7.83 -1.23 0 0 0
-10.54 7.75 -1.23 0 0 0
-10.54 7.68 -1.23 0 0 0
-10.54 7.60 -1.23 0 0 0
-10.66 7.46 -1.08 0 0 0
-10.66 7.39 -1.08 0 0 0
-10.66 7.31 -1.08 0 0 0
-10.66 7.23 -1.08 0 0 0
-10.66 7.16 -1.08 0 0 0
-10.66 7.08 -1.08 0 0 0
-10.66 7.01 -1.08 0 0 0
-10.66 6.93 -1.08 0 0 0
-10.66 6.85 -1.08 0 0 0
-10.66 6.78 -1.08 0 0 0
-10.66 6.70 -1.08 0 0 0
-10.66 6.62 -1.08 0 0 0
-10.66 6.55 -1.08 0 0 0
-10.66 6.47 -1.08 0 0 0
-10.75 6.35 -0.96 0 0 0
-10.75 6.27 -0.96 0 0 0
-10.75 6.20 -0.96 0 0 0
-10.75 6.12 -0.96 0 0 0
-10.75 6.05 -0.96 0 0 0
-10.75 5.97 -0.96 0 0 0
-10.75 5.89 -0.96 0 0 0
-10.75 5.82 -0.96 0 0 0
-10.75 5.74 -0.96 0 0 0
-10.75 5.67 -0.96 0 0 0
-10.75 5.59 -0.96 0 0 0
-10.75 5.51 -0.96 0 0 0
-10.75 5.44 -0.96 0 0 0
-10.75 5.36 -0.96 0 0 0
-10.75 5.29 -0.96 0 0 0
-10.75 5.21 -0.96 0 0 0
-10.75 5.13 -0.96 0 0 0
-10.75 5.06 -0.96 0 0 0
-10.75 4.98 -0.96 0 0 0
-10.66 4.79 -1.08 0 0 0
-10.66 4.72 -1.08 0 0 0
-10.54 4.69 -1.23 0 0 0
-10.54 4.61 -1.23 0 0 0
-10.54 4.53 -1.23 0 0 0
-10.54 4.46 -1.23 0 0 0
-10.54 4.38 -1.23 0 0 0
-10.54 4.30 -1.23 0 0 0
-10.66 4.18 -1.08 0 0 0
-10.66 4.11 -1.08 0 0 0
-10.66 4.03 -1.08 0 0 0
-10.66 3.95 -1.08 0 0 0
-10.66 3.88 -1.08 0 0 0
-10.66 3.80 -1.08 0 0 0
-10.66 3.72 -1.08 0 0 0
-10.75 3.61 -0.96 0 0 0
-10.75 3.54 -0.96 0 0 0
-10.75 3.46 -0.96 0 0 0
-10.75 3.38 -0.96 0 0 0
-10.75 3.31 -0.96 0 0 0
-10.75 3.23 -0.96 0 0 0
-10.75 3.16 -0.96 0 0 0
-10.75 3.08 -0.96 0 0 0
-10.75 3.00 -0.96 0 0 0
-10.75 2.78 -0.96 0 0 0
-10.75 2.70 -0.96 0 0 0
-10.75 2.62 -0.96 0 0 0
-10.75 2.55 -0.96 0 0 0
-10.75 2.47 -0.96 0 0 0
-10.75 2.39 -0.96 0 0 0
-10.75 2.32 -0.96 0 0 0
-10.75 2.24 -0.96 0 0 0
-10.75 2.17 -0.96 0 0 0
-10.75 2.09 -0.96 0 0 0
-10.75 2.01 -0.96 0 0 0
-10.75 1.94 -0.96 0 0 0
-10.66 1.89 -1.08 0 0 0
-10.66 1.82 -1.08 0 0 0
-10.75 1.71 -0.96 0 0 0
-10.75 1.63 -0.96 0 0 0
-10.75 1.56 -0.96 0 0 0
-10.75 1.48 -0.96 0 0 0
-10.75 1.41 -0.96 0 0 0
-10.75 1.33 -0.96 0 0 0
-10.75 1.25 -0.96 0 0 0
-10.75 1.18 -0.96 0 0 0
-10.66 1.13 -1.08 0 0 0
-10.66 1.05 -1.08 0 0 0
-10.66 0.98 -1.08 0 0 0
-10.75 0.87 -0.96 0 0 0
-10.75 0.80 -0.96 0 0 0
-10.75 0.72 -0.96 0 0 0
-10.75 0.65 -0.96 0 0 0
-10.75 0.57 -0.96 0 0 0
-10.66 0.52 -1.08 0 0 0
-10.66 0.44 -1.08 0 0 0
-10.66 0.37 -1.08 0 0 0
-10.75 0.26 -0.96 0 0 0
-10.75 0.19 -0.96 0 0 0
-10.75 0.11 -0.96 0 0 0
-10.75 0.04 -0.96 0 0 0
-10.75 -0.04 -0.96 0 0 0
-10.75 -0.12 -0.96 0 0 0
-10.75 -0.19 -0.96 0 0 0
-10.75 -0.27 -0.96 0 0 0
-10.75 -0.34 -0.96 0 0 0
-10.75 -0.42 -0.96 0 0 0
-10.75 -0.50 -0.96 0 0 0
-10.75 -0.57 -0.96 0 0 0
-10.75 -0.65 -0.96 0 0 0
-10.75 -0.72 -0.96 0 0 0
-10.75 -0.80 -0.96 0 0 0
-10.75 -0.88 -0.96 0 0 0
-10.75 -0.95 -0.96 0 0 0
-10.75 -1.03 -0.96 0 0 0
-10.75 -1.10 -0.96 0 0 0
-10.75 -1.18 -0.96 0 0 0
-10.75 -1.26 -0.96 0 0 0
-10.75 -1.33 -0.96 0 0 0
-10.75 -1.41 -0.96 0 0 0
-10.75 -1.48 -0.96 0 0 0
-10.75 -1.56 -0.96 0 0 0
-10.75 -1.64 -0.96 0 0 0
-10.75 -1.71 -0.96 0 0 0
-10.75 -1.79 -0.96 0 0 0
-10.75 -1.87 -0.96 0 0 0
-10.75 -1.94 -0.96 0 0 0
-10.75 -2.02 -0.96 0 0 0
-10.75 -2.09 -0.96 0 0 0
-10.75 -2.17 -0.96 0 0 0
-10.75 -2.25 -0.96 0 0 0
-10.75 -2.32 -0.96 0 0 0
-10.75 -2.40 -0.96 0 0 0
-10.75 -2.47 -0.96 0 0 0
-10.75 -2.55 -0.96 0 0 0
-10.66 -2.61 -1.08 0 0 0
-10.66 -2.69 -1.08 0 0 0
-10.66 -2.76 -1.08 0 0 0
-10.75 -2.85 -0.96 0 0 0
-10.75 -2.93 -0.96 0 0 0
-10.66 -2.99 -1.08 0 0 0
-10.66 -3.07 -1.08 0 0 0
-10.75 -3.16 -0.96 0 0 0
-10.75 -3.23 -0.96 0 0 0
-10.75 -3.31 -0.96 0 0 0
-10.75 -3.39 -0.96 0 0 0
-10.75 -3.46 -0.96 0 0 0
-10.75 -3.54 -0.96 0 0 0
-10.75 -3.62 -0.96 0 0 0
-10.75 -3.69 -0.96 0 0 0
-10.75 -3.77 -0.96 0 0 0
-10.75 -3.84 -0.96 0 0 0
-10.75 -3.92 -0.96 0 0 0
-10.75 -4.00 -0.96 0 0 0
-10.75 -4.07 -0.96 0 0 0
-10.75 -4.15 -0.96 0 0 0
-10.75 -4.22 -0.96 0 0 0
-10.75 -4.30 -0.96 0 0 0
-10.75 -4.38 -0.96 0 0 0
-10.75 -4.45 -0.96 0 0 0
-10.75 -4.53 -0.96 0 0 0
-10.75 -4.60 -0.96 0 0 0
-10.75 -4.68 -0.96 0 0 0
-10.87 -4.77 -0.81 0 0 0
-10.87 -4.84 -0.81 0 0 0
-10.87 -4.92 -0.81 0 0 0
-10.87 -4.99 -0.81 0 0 0
-10.87 -5.07 -0.81 0 0 0
-10.87 -5.15 -0.81 0 0 0
-10.87 -5.22 -0.81 0 0 0
-10.75 -5.29 -0.96 0 0 0
-10.75 -5.36 -0.96 0 0 0
-10.75 -5.44 -0.96 0 0 0
-10.75 -5.52 -0.96 0 0 0
-10.75 -5.59 -0.96 0 0 0
-10.75 -5.67 -0.96 0 0 0
-10.75 -5.75 -0.96 0 0 0
-10.75 -5.82 -0.96 0 0 0
-10.75 -5.90 -0.96 0 0 0
-10.75 -5.97 -0.96 0 0 0
-10.75 -6.05 -0.96 0 0 0
-10.75 -6.13 -0.96 0 0 0
-10.75 -6.20 -0.96 0 0 0
-10.75 -6.28 -0.96 0 0 0
-10.75 -6.35 -0.96 0 0 0
-10.75 -6.43 -0.96 0 0 0
-10.75 -6.51 -0.96 0 0 0
-10.75 -6.58 -0.96 0 0 0
-10.75 -6.66 -0.96 0 0 0
-10.75 -6.73 -0.96 0 0 0
-10.75 -6.81 -0.96 0 0 0
-10.75 -6.89 -0.96 0 0 0
-10.75 -6.96 -0.96 0 0 0
-10.75 -7.04 -0.96 0 0 0
-10.75 -7.11 -0.96 0 0 0
-10.75 -7.19 -0.96 0 0 0
-10.75 -7.27 -0.96 0 0 0
-10.75 -7.34 -0.96 0 0 0
-10.75 -7.42 -0.96 0 0 0
-10.75 -7.49 -0.96 0 0 0
-10.75 -7.57 -0.96 0 0 0
-10.75 -7.65 -0.96 0 0 0
-10.75 -7.72 -0.96 0 0 0
-10.75 -7.80 -0.96 0 0 0
-10.75 -7.88 -0.96 0 0 0
-10.75 -7.95 -0.96 0 0 0
-10.75 -8.03 -0.96 0 0 0
-10.75 -8.10 -0.96 0 0 0
-10.75 -8.18 -0.96 0 0 0
-10.87 -8.25 -0.81 0 0 0
-10.87 -8.33 -0.81 0 0 0
-10.87 -8.40 -0.81 0 0 0
-10.87 -8.48 -0.81 0 0 0
-10.87 -8.56 -0.81 0 0 0
-10.75 -8.64 -0.96 0 0 0
-10.75 -8.71 -0.96 0 0 0
-10.75 -8.79 -0.96 0 0 0
-10.75 -8.86 -0.96 0 0 0
-10.75 -8.94 -0.96 0 0 0
-10.75 -9.02 -0.96 0 0 0
-10.75 -9.09 -0.96 0 0 0
-10.75 -9.17 -0.96 0 0 0
-10.75 -9.24 -0.96 0 0 0
-10.75 -9.32 -0.96 0 0 0
-10.75 -9.40 -0.96 0 0 0
-10.75 -9.47 -0.96 0 0 0
-10.75 -9.55 -0.96 0 0 0
-10.75 -9.62 -0.96 0 0 0
-10.75 -9.70 -0.96 0 0 0
-10.75 -9.78 -0.96 0 0 0
-10.75 -9.85 -0.96 0 0 0
-10.75 -9.93 -0.96 0 0 0
-10.75 -10.01 -0.96 0 0 0
-10.75 -10.08 -0.96 0 0 0
-10.75 -10.16 -0.96 0 0 0
-10.75 -10.23 -0.96 0 0 0
-10.75 -10.31 -0.96 0 0 0
-10.87 -10.37 -0.81 0 0 0
-10.87 -10.45 -0.81 0 0 0
-10.87 -10.53 -0.81 0 0 0
-10.87 -10.60 -0.81 0 0 0
-10.87 -10.68 -0.81 0 0 0
-10.87 -10.75 -0.81 0 0 0
-10.87 -10.83 -0.81 0 0 0
-10.87 -10.90 -0.81 0 0 0
-10.87 -10.98 -0.81 0 0 0
-10.87 -11.06 -0.81 0 0 0
-10.87 -11.13 -0.81 0 0 0
-10.87 -11.21 -0.81 0 0 0
-10.87 -11.28 -0.81 0 0 0
-10.87 -11.36 -0.81 0 0 0
-10.87 -11.43 -0.81 0 0 0
-10.75 -11.53 -0.96 0 0 0
-10.75 -11.60 -0.96 0 0 0
-10.75 -11.68 -0.96 0 0 0
-10.75 -11.75 -0.96 0 0 0
-10.75 -11.83 -0.96 0 0 0
-10.75 -11.91 -0.96 0 0 0
-10.87 -11.96 -0.81 0 0 0
-10.87 -12.04 -0.81 0 0 0
-10.87 -12.12 -0.81 0 0 0
-10.87 -12.19 -0.81 0 0 0
-10.87 -12.27 -0.81 0 0 0
-10.87 -12.34 -0.81 0 0 0
-10.87 -12.42 -0.81 0 0 0
-10.87 -12.50 -0.81 0 0 0
-10.87 -12.57 -0.81 0 0 0
-10.87 -12.65 -0.81 0 0 0
-10.87 -12.72 -0.81 0 0 0
-10.87 -12.80 -0.81 0 0 0
-10.87 -12.87 -0.81 0 0 0
-10.75 -12.97 -0.96 0 0 0
-10.75 -13.05 -0.96 0 0 0
-10.75 -13.12 -0.96 0 0 0
-10.75 -13.20 -0.96 0 0 0
-10.75 -13.28 -0.96 0 0 0
-10.75 -13.35 -0.96 0 0 0
-10.75 -13.43 -0.96 0 0 0
-10.75 -13.50 -0.96 0 0 0
-10.75 -13.58 -0.96 0 0 0
-10.75 -13.66 -0.96 0 0 0
-10.75 -13.73 -0.96 0 0 0
-10.75 -13.81 -0.96 0 0 0
-10.75 -13.89 -0.96 0 0 0
-10.87 -13.93 -0.81 0 0 0
-10.87 -14.01 -0.81 0 0 0
-10.75 -14.11 -0.96 0 0 0
-10.75 -14.19 -0.96 0 0 0
-10.75 -14.27 -0.96 0 0 0
-10.75 -14.34 -0.96 0 0 0
-10.87 -14.39 -0.81 0 0 0
-10.87 -14.47 -0.81 0 0 0
-10.87 -14.54 -0.81 0 0 0
-10.87 -14.62 -0.81 0 0 0
-10.87 -14.69 -0.81 0 0 0
-10.87 -14.77 -0.81 0 0 0
-10.87 -14.84 -0.81 0 0 0
-10.87 -14.92 -0.81 0 0 0
-10.87 -15.00 -0.81 0 0 0
-10.87 -15.07 -0.81 0 0 0
-10.87 -15.15 -0.81 0 0 0
-10.87 -15.22 -0.81 0 0 0
-10.87 -15.30 -0.81 0 0 0
-10.87 -15.37 -0.81 0 0 0
-10.87 -15.45 -0.81 0 0 0
-10.87 -15.53 -0.81 0 0 0
-10.87 -15.60 -0.81 0 0 0
-10.87 -15.68 -0.81 0 0 0
-10.87 -15.75 -0.81 0 0 0
-10.87 -15.83 -0.81 0 0 0
-10.87 -15.91 -0.81 0 0 0
-10.87 -15.98 -0.81 0 0 0
-10.87 -16.06 -0.81 0 0 0
-10.87 -16.13 -0.81 0 0 0
-10.87 -16.21 -0.81 0 0 0
-10.87 -16.28 -0.81 0 0 0
-10.87 -16.36 -0.81 0 0 0
-10.87 -16.44 -0.81 0 0 0
-10.87 -16.51 -0.81 0 0 0
-10.87 -16.59 -0.81 0 0 0
-10.87 -16.66 -0.81 0 0 0
-10.87 -16.74 -0.81 0 0 0
-10.87 -16.81 -0.81 0 0 0
-10.87 -16.89 -0.81 0 0 0
-10.87 -16.97 -0.81 0 0 0
-10.87 -17.04 -0.81 0 0 0
-10.87 -17.12 -0.81 0 0 0
-10.87 -17.19 -0.81 0 0 0
-10.87 -17.27 -0.81 0 0 0
-10.87 -17.34 -0.81 0 0 0
-10.75 -17.46 -0.96 0 0 0
-10.75 -17.54 -0.96 0 0 0
-10.75 -17.61 -0.96 0 0 0
-10.75 -17.69 -0.96 0 0 0
-10.75 -17.76 -0.96 0 0 0
-10.75 -17.84 -0.96 0 0 0
-10.75 -17.92 -0.96 0 0 0
-10.75 -17.99 -0.96 0 0 0
-10.75 -18.07 -0.96 0 0 0
-10.75 -18.15 -0.96 0 0 0
-10.75 -18.22 -0.96 0 0 0
-10.75 -18.30 -0.96 0 0 0
-10.75 -18.37 -0.96 0 0 0
-10.87 -18.41 -0.81 0 0 0
-10.87 -18.48 -0.81 0 0 0
-10.87 -18.56 -0.81 0 0 0
-10.87 -18.63 -0.81 0 0 0
-10.87 -18.71 -0.81 0 0 0
-10.87 -18.78 -0.81 0 0 0
-10.87 -18.86 -0.81 0 0 0
-10.87 -18.94 -0.81 0 0 0
-10.87 -19.01 -0.81 0 0 0
-10.87 -19.09 -0.81 0 0 0
-10.87 -19.16 -0.81 0 0 0
-10.87 -19.24 -0.81 0 0 0
-10.87 -19.31 -0.81 0 0 0
-10.87 -19.39 -0.81 0 0 0
-10.87 -19.47 -0.81 0 0 0
-10.87 -19.54 -0.81 0 0 0
-10.87 -19.62 -0.81 0 0 0
-10.87 -19.69 -0.81 0 0 0
-10.87 -19.77 -0.81 0 0 0
-10.87 -20.00 -0.81 0 0 0
-10.87 -20.07 -0.81 0 0 0
-10.87 -20.15 -0.81 0 0 0
-10.87 -20.22 -0.81 0 0 0
-10.75 -20.35 -0.96 0 0 0
-10.75 -20.43 -0.96 0 0 0
-10.87 -20.45 -0.81 0 0 0
-10.87 -20.53 -0.81 0 0 0
-10.87 -20.60 -0.81 0 0 0
-10.87 -20.68 -0.81 0 0 0
-10.87 -20.75 -0.81 0 0 0
-10.87 -20.83 -0.81 0 0 0
-10.87 -20.91 -0.81 0 0 0
-10.87 -20.98 -0.81 0 0 0
-10.87 -21.06 -0.81 0 0 0
-10.87 -21.13 -0.81 0 0 0
-10.87 -21.21 -0.81 0 0 0
-10.87 -21.28 -0.81 0 0 0
-10.87 -21.66 -0.81 0 0 0
-10.87 -21.74 -0.81 0 0 0
-10.87 -21.82 -0.81 0 0 0
-10.87 -21.89 -0.81 0 0 0
-10.87 -21.97 -0.81 0 0 0
-10.87 -22.04 -0.81 0 0 0
-10.96 -22.07 -0.69 0 0 0
-10.96 -22.15 -0.69 0 0 0
-11.08 -22.16 -0.54 0 0 0
-11.08 -22.24 -0.54 0 0 0
-11.17 -22.27 -0.43 0 0 0
-11.17 -22.34 -0.43 0 0 0
-11.17 -22.42 -0.43 0 0 0
-11.29 -22.43 -0.28 0 0 0
-11.29 -22.50 -0.28 0 0 0
-11.29 -22.58 -0.28 0 0 0
-11.38 -22.60 -0.16 0 0 0
-11.47 -22.63 -0.04 0 0 0
-11.47 -22.70 -0.04 0 0 0
-11.59 -22.71 0.11 0 0 0
-11.59 -22.79 0.11 0 0 0
-11.59 -22.86 0.11 0 0 0
-11.59 -22.94 0.11 0 0 0
-11.59 -23.01 0.11 0 0 0
-11.47 -23.30 -0.04 0 0 0
-11.47 -23.37 -0.04 0 0 0
-11.47 -23.44 -0.04 0 0 0
-11.47 -23.52 -0.04 0 0 0
-11.47 -23.59 -0.04 0 0 0
-11.47 -23.67 -0.04 0 0 0
-11.47 -23.74 -0.04 0 0 0
-11.47 -23.82 -0.04 0 0 0
-11.47 -23.89 -0.04 0 0 0
-11.59 -23.90 0.11 0 0 0
-11.59 -23.97 0.11 0 0 0
-11.59 -24.04 0.11 0 0 0
-11.59 -24.12 0.11 0 0 0
-11.59 -24.19 0.11 0 0 0
-11.59 -24.27 0.11 0 0 0
-11.59 -24.34 0.11 0 0 0
-11.59 -24.41 0.11 0 0 0
-11.47 -24.56 -0.04 0 0 0
-11.47 -24.63 -0.04 0 0 0
-11.29 -24.82 -0.28 0 0 0
-11.29 -24.89 -0.28 0 0 0
-11.08 -25.10 -0.54 0 0 0
-11.08 -25.17 -0.54 0 0 0
-10.87 -25.38 -0.81 0 0 0
-10.87 -25.45 -0.81 0 0 0
-10.87 -25.53 -0.81 0 0 0
-10.75 -25.68 -0.96 0 0 0
-10.75 -25.75 -0.96 0 0 0
-10.75 -25.83 -0.96 0 0 0
-10.75 -25.90 -0.96 0 0 0
-10.75 -25.98 -0.96 0 0 0
-10.75 -26.06 -0.96 0 0 0
-10.75 -26.13 -0.96 0 0 0
-10.75 -26.21 -0.96 0 0 0
-10.87 -26.21 -0.81 0 0 0
-10.87 -26.29 -0.81 0 0 0
-10.87 -26.36 -0.81 0 0 0
-10.87 -26.44 -0.81 0 0 0
-10.87 -26.51 -0.81 0 0 0
-10.87 -26.59 -0.81 0 0 0
-10.87 -26.66 -0.81 0 0 0
-10.96 -26.68 -0.69 0 0 0
-10.96 -26.75 -0.69 0 0 0
-10.96 -26.83 -0.69 0 0 0
-10.87 -26.97 -0.81 0 0 0
-10.87 -27.04 -0.81 0 0 0
-10.87 -27.12 -0.81 0 0 0
-10.87 -27.19 -0.81 0 0 0
-10.87 -27.27 -0.81 0 0 0
-10.87 -27.35 -0.81 0 0 0
-10.87 -27.42 -0.81 0 0 0
-10.87 -27.50 -0.81 0 0 0
-10.87 -27.57 -0.81 0 0 0
-10.87 -27.65 -0.81 0 0 0
-10.87 -27.73 -0.81 0 0 0
-10.87 -27.80 -0.81 0 0 0
-10.87 -27.88 -0.81 0 0 0
-10.87 -27.95 -0.81 0 0 0
-10.87 -28.03 -0.81 0 0 0
-10.75 -28.19 -0.96 0 0 0
-10.75 -28.26 -0.96 0 0 0
-10.75 -28.34 -0.96 0 0 0
-10.75 -28.42 -0.96 0 0 0
-10.75 -28.49 -0.96 0 0 0
-10.75 -28.57 -0.96 0 0 0
-10.75 -28.64 -0.96 0 0 0
-10.75 -28.72 -0.96 0 0 0
-10.87 -28.71 -0.81 0 0 0
-10.87 -28.79 -0.81 0 0 0
-10.87 -28.86 -0.81 0 0 0
-10.87 -28.94 -0.81 0 0 0
-10.87 -29.01 -0.81 0 0 0
-10.87 -29.09 -0.81 0 0 0
-10.87 -29.17 -0.81 0 0 0
-10.87 -29.24 -0.81 0 0 0
-10.87 -29.32 -0.81 0 0 0
-10.87 -29.39 -0.81 0 0 0
-10.75 -29.56 -0.96 0 0 0
-10.75 -29.63 -0.96 0 0 0
-10.75 -29.71 -0.96 0 0 0
-10.75 -29.78 -0.96 0 0 0
-10.75 -29.86 -0.96 0 0 0
-10.75 -29.94 -0.96 0 0 0
-10.75 -30.01 -0.96 0 0 0
-10.75 -30.09 -0.96 0 0 0
-10.75 -30.17 -0.96 0 0 0
-10.75 -30.24 -0.96 0 0 0
-10.75 -30.32 -0.96 0 0 0
-10.87 -30.30 -0.81 0 0 0
-10.87 -30.38 -0.81 0 0 0
-10.87 -30.45 -0.81 0 0 0
-10.87 -30.53 -0.81 0 0 0
-10.87 -30.60 -0.81 0 0 0
-10.87 -30.68 -0.81 0 0 0
-10.87 -30.76 -0.81 0 0 0
-10.87 -30.83 -0.81 0 0 0
-10.87 -30.91 -0.81 0 0 0
-10.87 -30.98 -0.81 0 0 0
-10.96 -30.98 -0.69 0 0 0
-10.96 -31.06 -0.69 0 0 0
-10.96 -31.13 -0.69 0 0 0
-10.96 -31.21 -0.69 0 0 0
-10.91 17.13 -0.88 0 0 0
-10.91 17.06 -0.88 0 0 0
-10.91 16.98 -0.88 0 0 0
-10.91 16.90 -0.88 0 0 0
-10.91 16.83 -0.88 0 0 0
-10.79 16.85 -1.03 0 0 0
-10.79 16.77 -1.03 0 0 0
-10.91 16.60 -0.88 0 0 0
-10.79 16.62 -1.03 0 0 0
-10.79 16.54 -1.03 0 0 0
-10.91 16.37 -0.88 0 0 0
-10.91 16.30 -0.88 0 0 0
-10.79 16.32 -1.03 0 0 0
-10.47 16.50 -1.45 0 0 0
-10.47 16.43 -1.45 0 0 0
-10.47 16.35 -1.45 0 0 0
-12.11 14.95 0.68 0 0 0
-12.11 14.88 0.68 0 0 0
-12.11 14.80 0.68 0 0 0
-12.11 14.73 0.68 0 0 0
-12.11 14.66 0.68 0 0 0
-12.11 14.59 0.68 0 0 0
-12.20 14.44 0.80 0 0 0
-12.20 14.37 0.80 0 0 0
-12.11 14.37 0.68 0 0 0
-12.11 14.30 0.68 0 0 0
-12.11 14.22 0.68 0 0 0
-12.11 14.15 0.68 0 0 0
-12.11 14.08 0.68 0 0 0
-12.02 14.08 0.56 0 0 0
-11.90 14.09 0.41 0 0 0
-11.81 14.09 0.29 0 0 0
-11.72 14.09 0.17 0 0 0
-11.72 14.01 0.17 0 0 0
-11.72 13.94 0.17 0 0 0
-11.62 13.94 0.05 0 0 0
-11.62 13.86 0.05 0 0 0
-11.51 13.88 -0.10 0 0 0
-11.51 13.80 -0.10 0 0 0
-11.41 13.80 -0.22 0 0 0
-11.41 13.72 -0.22 0 0 0
-11.41 13.65 -0.22 0 0 0
-11.41 13.57 -0.22 0 0 0
-11.32 13.57 -0.34 0 0 0
-11.32 13.49 -0.34 0 0 0
-11.32 13.42 -0.34 0 0 0
-11.32 13.34 -0.34 0 0 0
-11.21 13.35 -0.49 0 0 0
-11.21 13.28 -0.49 0 0 0
-11.21 13.20 -0.49 0 0 0
-11.21 13.13 -0.49 0 0 0
-11.21 13.05 -0.49 0 0 0
-11.11 13.04 -0.61 0 0 0
-11.11 12.97 -0.61 0 0 0
-11.11 12.89 -0.61 0 0 0
-11.11 12.82 -0.61 0 0 0
-11.11 12.74 -0.61 0 0 0
-11.21 12.60 -0.49 0 0 0
-11.21 12.53 -0.49 0 0 0
-11.21 12.45 -0.49 0 0 0
-11.21 12.38 -0.49 0 0 0
-11.21 12.30 -0.49 0 0 0
-12.02 11.53 0.56 0 0 0
-12.11 11.39 0.68 0 0 0
-12.11 11.32 0.68 0 0 0
-12.11 11.25 0.68 0 0 0
-12.11 11.17 0.68 0 0 0
-12.11 11.10 0.68 0 0 0
-12.11 11.03 0.68 0 0 0
-12.11 10.96 0.68 0 0 0
-11.11 11.54 -0.61 0 0 0
-11.11 11.46 -0.61 0 0 0
-11.11 11.39 -0.61 0 0 0
-11.00 11.39 -0.76 0 0 0
-11.00 11.31 -0.76 0 0 0
-10.91 11.30 -0.88 0 0 0
-10.91 11.22 -0.88 0 0 0
-10.91 11.15 -0.88 0 0 0
-10.91 11.07 -0.88 0 0 0
-10.91 10.99 -0.88 0 0 0
-10.79 10.99 -1.03 0 0 0
-10.79 10.92 -1.03 0 0 0
-10.79 10.84 -1.03 0 0 0
-10.79 10.76 -1.03 0 0 0
-10.70 10.74 -1.15 0 0 0
-10.70 10.67 -1.15 0 0 0
-10.70 10.59 -1.15 0 0 0
-10.70 10.52 -1.15 0 0 0
-10.70 10.44 -1.15 0 0 0
-10.70 10.36 -1.15 0 0 0
-10.70 10.29 -1.15 0 0 0
-10.70 10.21 -1.15 0 0 0
-10.70 10.13 -1.15 0 0 0
-10.70 10.06 -1.15 0 0 0
-10.70 9.98 -1.15 0 0 0
-10.70 9.91 -1.15 0 0 0
-10.70 9.83 -1.15 0 0 0
-10.70 9.75 -1.15 0 0 0
-10.70 9.68 -1.15 0 0 0
-10.70 9.60 -1.15 0 0 0
-10.70 9.52 -1.15 0 0 0
-10.70 9.45 -1.15 0 0 0
-10.70 9.37 -1.15 0 0 0
-10.79 9.24 -1.03 0 0 0
-10.79 9.17 -1.03 0 0 0
-10.79 9.09 -1.03 0 0 0
-10.79 9.01 -1.03 0 0 0
-10.79 8.94 -1.03 0 0 0
-10.79 8.86 -1.03 0 0 0
-10.70 8.84 -1.15 0 0 0
-10.70 8.76 -1.15 0 0 0
-10.79 8.63 -1.03 0 0 0
-10.79 8.56 -1.03 0 0 0
-10.79 8.48 -1.03 0 0 0
-10.79 8.40 -1.03 0 0 0
-10.79 8.33 -1.03 0 0 0
-10.70 8.30 -1.15 0 0 0
-10.70 8.23 -1.15 0 0 0
-10.70 8.15 -1.15 0 0 0
-10.70 8.07 -1.15 0 0 0
-10.70 8.00 -1.15 0 0 0
-10.70 7.92 -1.15 0 0 0
-10.70 7.84 -1.15 0 0 0
-10.70 7.77 -1.15 0 0 0
-10.70 7.69 -1.15 0 0 0
-10.70 7.62 -1.15 0 0 0
-10.70 7.54 -1.15 0 0 0
-10.70 7.46 -1.15 0 0 0
-10.70 7.39 -1.15 0 0 0
-10.79 7.26 -1.03 0 0 0
-10.79 7.19 -1.03 0 0 0
-10.79 7.11 -1.03 0 0 0
-10.79 7.04 -1.03 0 0 0
-10.79 6.96 -1.03 0 0 0
-10.79 6.88 -1.03 0 0 0
-10.70 6.85 -1.15 0 0 0
-10.70 6.78 -1.15 0 0 0
-10.70 6.70 -1.15 0 0 0
-10.79 6.58 -1.03 0 0 0
-10.79 6.50 -1.03 0 0 0
-10.79 6.43 -1.03 0 0 0
-10.79 6.35 -1.03 0 0 0
-10.91 6.22 -0.88 0 0 0
-10.91 6.14 -0.88 0 0 0
-10.91 6.07 -0.88 0 0 0
-10.91 5.99 -0.88 0 0 0
-10.79 5.97 -1.03 0 0 0
-10.79 5.89 -1.03 0 0 0
-10.91 5.77 -0.88 0 0 0
-10.91 5.69 -0.88 0 0 0
-10.91 5.61 -0.88 0 0 0
-10.91 5.54 -0.88 0 0 0
-10.79 5.51 -1.03 0 0 0
-10.79 5.44 -1.03 0 0 0
-10.79 5.36 -1.03 0 0 0
-10.79 5.29 -1.03 0 0 0
-10.79 5.21 -1.03 0 0 0
-10.79 5.13 -1.03 0 0 0
-10.79 5.06 -1.03 0 0 0
-10.79 4.98 -1.03 0 0 0
-10.70 4.79 -1.15 0 0 0
-10.70 4.72 -1.15 0 0 0
-10.70 4.64 -1.15 0 0 0
-10.70 4.56 -1.15 0 0 0
-10.70 4.49 -1.15 0 0 0
-10.70 4.41 -1.15 0 0 0
-10.70 4.33 -1.15 0 0 0
-10.70 4.26 -1.15 0 0 0
-10.70 4.18 -1.15 0 0 0
-10.70 4.11 -1.15 0 0 0
-10.79 3.99 -1.03 0 0 0
-10.79 3.92 -1.03 0 0 0
-10.79 3.84 -1.03 0 0 0
-10.79 3.76 -1.03 0 0 0
-10.79 3.69 -1.03 0 0 0
-10.79 3.61 -1.03 0 0 0
-10.79 3.54 -1.03 0 0 0
-10.79 3.46 -1.03 0 0 0
-10.79 3.38 -1.03 0 0 0
-10.79 3.31 -1.03 0 0 0
-10.79 3.23 -1.03 0 0 0
-10.79 3.16 -1.03 0 0 0
-10.79 3.08 -1.03 0 0 0
-10.79 3.00 -1.03 0 0 0
-10.79 2.78 -1.03 0 0 0
-10.79 2.70 -1.03 0 0 0
-10.79 2.62 -1.03 0 0 0
-10.79 2.55 -1.03 0 0 0
-10.79 2.47 -1.03 0 0 0
-10.79 2.39 -1.03 0 0 0
-10.79 2.32 -1.03 0 0 0
-10.79 2.24 -1.03 0 0 0
-10.79 2.17 -1.03 0 0 0
-10.79 2.09 -1.03 0 0 0
-10.79 2.01 -1.03 0 0 0
-10.79 1.94 -1.03 0 0 0
-10.79 1.86 -1.03 0 0 0
-10.79 1.79 -1.03 0 0 0
-10.79 1.71 -1.03 0 0 0
-10.79 1.63 -1.03 0 0 0
-10.79 1.56 -1.03 0 0 0
-10.79 1.48 -1.03 0 0 0
-10.79 1.41 -1.03 0 0 0
-10.79 1.33 -1.03 0 0 0
-10.79 1.25 -1.03 0 0 0
-10.79 1.18 -1.03 0 0 0
-10.79 1.10 -1.03 0 0 0
-10.79 1.03 -1.03 0 0 0
-10.79 0.95 -1.03 0 0 0
-10.79 0.87 -1.03 0 0 0
-10.79 0.80 -1.03 0 0 0
-10.79 0.72 -1.03 0 0 0
-10.79 0.65 -1.03 0 0 0
-10.79 0.57 -1.03 0 0 0
-10.79 0.49 -1.03 0 0 0
-10.79 0.42 -1.03 0 0 0
-10.79 0.34 -1.03 0 0 0
-10.79 0.26 -1.03 0 0 0
-10.79 0.19 -1.03 0 0 0
-10.79 0.11 -1.03 0 0 0
-10.79 0.04 -1.03 0 0 0
-10.79 -0.04 -1.03 0 0 0
-10.79 -0.12 -1.03 0 0 0
-10.79 -0.19 -1.03 0 0 0
-10.79 -0.27 -1.03 0 0 0
-10.79 -0.34 -1.03 0 0 0
-10.79 -0.42 -1.03 0 0 0
-10.79 -0.50 -1.03 0 0 0
-10.79 -0.57 -1.03 0 0 0
-10.79 -0.65 -1.03 0 0 0
-10.79 -0.72 -1.03 0 0 0
-10.79 -0.80 -1.03 0 0 0
-10.79 -0.88 -1.03 0 0 0
-10.79 -0.95 -1.03 0 0 0
-10.79 -1.03 -1.03 0 0 0
-10.79 -1.10 -1.03 0 0 0
-10.79 -1.18 -1.03 0 0 0
-10.79 -1.26 -1.03 0 0 0
-10.79 -1.33 -1.03 0 0 0
-10.79 -1.41 -1.03 0 0 0
-10.79 -1.48 -1.03 0 0 0
-10.91 -1.58 -0.88 0 0 0
-10.91 -1.66 -0.88 0 0 0
-10.91 -1.74 -0.88 0 0 0
-10.91 -1.81 -0.88 0 0 0
-10.91 -1.89 -0.88 0 0 0
-10.91 -1.96 -0.88 0 0 0
-10.91 -2.04 -0.88 0 0 0
-10.91 -2.11 -0.88 0 0 0
-10.91 -2.19 -0.88 0 0 0
-10.91 -2.27 -0.88 0 0 0
-10.79 -2.32 -1.03 0 0 0
-10.79 -2.40 -1.03 0 0 0
-10.79 -2.47 -1.03 0 0 0
-10.79 -2.55 -1.03 0 0 0
-10.79 -2.63 -1.03 0 0 0
-10.79 -2.70 -1.03 0 0 0
-10.79 -2.78 -1.03 0 0 0
-10.79 -2.85 -1.03 0 0 0
-10.79 -2.93 -1.03 0 0 0
-10.79 -3.01 -1.03 0 0 0
-10.79 -3.08 -1.03 0 0 0
-10.79 -3.16 -1.03 0 0 0
-10.79 -3.23 -1.03 0 0 0
-10.79 -3.31 -1.03 0 0 0
-10.79 -3.39 -1.03 0 0 0
-10.79 -3.46 -1.03 0 0 0
-10.79 -3.54 -1.03 0 0 0
-10.79 -3.62 -1.03 0 0 0
-10.79 -3.69 -1.03 0 0 0
-10.79 -3.77 -1.03 0 0 0
-10.79 -3.84 -1.03 0 0 0
-10.79 -3.92 -1.03 0 0 0
-10.79 -4.00 -1.03 0 0 0
-10.79 -4.07 -1.03 0 0 0
-10.79 -4.15 -1.03 0 0 0
-10.79 -4.22 -1.03 0 0 0
-10.79 -4.30 -1.03 0 0 0
-10.79 -4.38 -1.03 0 0 0
-10.79 -4.45 -1.03 0 0 0
-10.79 -4.53 -1.03 0 0 0
-10.91 -4.62 -0.88 0 0 0
-10.91 -4.69 -0.88 0 0 0
-10.91 -4.77 -0.88 0 0 0
-10.91 -4.84 -0.88 0 0 0
-10.91 -4.92 -0.88 0 0 0
-10.91 -4.99 -0.88 0 0 0
-10.91 -5.07 -0.88 0 0 0
-10.91 -5.15 -0.88 0 0 0
-10.91 -5.22 -0.88 0 0 0
-10.91 -5.30 -0.88 0 0 0
-10.91 -5.37 -0.88 0 0 0
-10.91 -5.45 -0.88 0 0 0
-10.91 -5.52 -0.88 0 0 0
-10.91 -5.60 -0.88 0 0 0
-10.91 -5.68 -0.88 0 0 0
-10.91 -5.75 -0.88 0 0 0
-10.91 -5.83 -0.88 0 0 0
-10.91 -5.90 -0.88 0 0 0
-10.91 -5.98 -0.88 0 0 0
-10.91 -6.05 -0.88 0 0 0
-10.91 -6.13 -0.88 0 0 0
-10.91 -6.21 -0.88 0 0 0
-10.91 -6.28 -0.88 0 0 0
-10.91 -6.36 -0.88 0 0 0
-10.79 -6.43 -1.03 0 0 0
-10.91 -6.51 -0.88 0 0 0
-10.91 -6.59 -0.88 0 0 0
-10.91 -6.66 -0.88 0 0 0
-10.91 -6.74 -0.88 0 0 0
-10.91 -6.81 -0.88 0 0 0
-10.91 -6.89 -0.88 0 0 0
-10.79 -6.96 -1.03 0 0 0
-10.79 -7.04 -1.03 0 0 0
-10.79 -7.11 -1.03 0 0 0
-10.79 -7.19 -1.03 0 0 0
-10.79 -7.27 -1.03 0 0 0
-10.79 -7.34 -1.03 0 0 0
-10.79 -7.42 -1.03 0 0 0
-10.79 -7.49 -1.03 0 0 0
-10.79 -7.57 -1.03 0 0 0
-10.79 -7.65 -1.03 0 0 0
-10.79 -7.72 -1.03 0 0 0
-10.91 -7.80 -0.88 0 0 0
-10.91 -7.87 -0.88 0 0 0
-10.91 -7.95 -0.88 0 0 0
-10.79 -8.03 -1.03 0 0 0
-10.79 -8.10 -1.03 0 0 0
-10.91 -8.18 -0.88 0 0 0
-10.91 -8.25 -0.88 0 0 0
-10.91 -8.33 -0.88 0 0 0
-10.91 -8.40 -0.88 0 0 0
-10.91 -8.48 -0.88 0 0 0
-10.91 -8.56 -0.88 0 0 0
-10.91 -8.63 -0.88 0 0 0
-10.91 -8.71 -0.88 0 0 0
-10.91 -8.78 -0.88 0 0 0
-10.91 -8.86 -0.88 0 0 0
-10.91 -8.93 -0.88 0 0 0
-10.91 -9.01 -0.88 0 0 0
-10.91 -9.09 -0.88 0 0 0
-10.91 -9.16 -0.88 0 0 0
-10.91 -9.24 -0.88 0 0 0
-10.91 -9.31 -0.88 0 0 0
-10.91 -9.39 -0.88 0 0 0
-10.91 -9.46 -0.88 0 0 0
-10.91 -9.54 -0.88 0 0 0
-10.91 -9.62 -0.88 0 0 0
-10.91 -9.69 -0.88 0 0 0
-10.79 -9.78 -1.03 0 0 0
-10.79 -9.85 -1.03 0 0 0
-10.79 -9.93 -1.03 0 0 0
-10.91 -9.99 -0.88 0 0 0
-10.91 -10.07 -0.88 0 0 0
-10.91 -10.15 -0.88 0 0 0
-10.91 -10.22 -0.88 0 0 0
-10.91 -10.30 -0.88 0 0 0
-10.91 -10.37 -0.88 0 0 0
-10.91 -10.45 -0.88 0 0 0
-10.91 -10.53 -0.88 0 0 0
-10.91 -10.60 -0.88 0 0 0
-10.91 -10.68 -0.88 0 0 0
-10.91 -10.75 -0.88 0 0 0
-11.00 -10.82 -0.76 0 0 0
-11.00 -10.89 -0.76 0 0 0
-11.00 -10.97 -0.76 0 0 0
-11.00 -11.04 -0.76 0 0 0
-10.91 -11.13 -0.88 0 0 0
-10.91 -11.21 -0.88 0 0 0
-10.91 -11.28 -0.88 0 0 0
-10.91 -11.36 -0.88 0 0 0
-10.91 -11.43 -0.88 0 0 0
-10.91 -11.51 -0.88 0 0 0
-10.91 -11.59 -0.88 0 0 0
-10.91 -11.66 -0.88 0 0 0
-10.91 -11.74 -0.88 0 0 0
-10.91 -11.81 -0.88 0 0 0
-10.91 -11.89 -0.88 0 0 0
-10.91 -11.96 -0.88 0 0 0
-10.91 -12.04 -0.88 0 0 0
-10.91 -12.12 -0.88 0 0 0
-10.91 -12.19 -0.88 0 0 0
-10.91 -12.27 -0.88 0 0 0
-10.91 -12.34 -0.88 0 0 0
-10.91 -12.42 -0.88 0 0 0
-10.91 -12.50 -0.88 0 0 0
-10.91 -12.57 -0.88 0 0 0
-10.91 -12.65 -0.88 0 0 0
-10.91 -12.72 -0.88 0 0 0
-10.91 -12.80 -0.88 0 0 0
-10.91 -12.87 -0.88 0 0 0
-10.91 -12.95 -0.88 0 0 0
-10.91 -13.03 -0.88 0 0 0
-10.91 -13.10 -0.88 0 0 0
-10.79 -13.20 -1.03 0 0 0
-10.79 -13.28 -1.03 0 0 0
-10.79 -13.35 -1.03 0 0 0
-10.91 -13.40 -0.88 0 0 0
-10.91 -13.48 -0.88 0 0 0
-10.91 -13.56 -0.88 0 0 0
-10.91 -13.63 -0.88 0 0 0
-10.91 -13.71 -0.88 0 0 0
-10.91 -13.78 -0.88 0 0 0
-10.91 -13.86 -0.88 0 0 0
-10.91 -13.93 -0.88 0 0 0
-10.91 -14.01 -0.88 0 0 0
-10.91 -14.09 -0.88 0 0 0
-10.91 -14.16 -0.88 0 0 0
-10.91 -14.24 -0.88 0 0 0
-10.91 -14.31 -0.88 0 0 0
-10.91 -14.39 -0.88 0 0 0
-10.91 -14.47 -0.88 0 0 0
-10.91 -14.54 -0.88 0 0 0
-10.91 -14.62 -0.88 0 0 0
-10.91 -14.69 -0.88 0 0 0
-10.91 -14.77 -0.88 0 0 0
-11.00 -14.82 -0.76 0 0 0
-10.91 -14.92 -0.88 0 0 0
-10.91 -15.00 -0.88 0 0 0
-10.91 -15.07 -0.88 0 0 0
-11.00 -15.12 -0.76 0 0 0
-11.00 -15.20 -0.76 0 0 0
-11.00 -15.27 -0.76 0 0 0
-11.00 -15.35 -0.76 0 0 0
-11.00 -15.42 -0.76 0 0 0
-11.00 -15.50 -0.76 0 0 0
-10.91 -15.60 -0.88 0 0 0
-10.91 -15.68 -0.88 0 0 0
-10.91 -15.75 -0.88 0 0 0
-10.91 -15.83 -0.88 0 0 0
-10.91 -15.91 -0.88 0 0 0
-10.91 -15.98 -0.88 0 0 0
-10.91 -16.06 -0.88 0 0 0
-10.91 -16.13 -0.88 0 0 0
-10.91 -16.21 -0.88 0 0 0
-10.91 -16.28 -0.88 0 0 0
-10.91 -16.36 -0.88 0 0 0
-10.91 -16.44 -0.88 0 0 0
-10.91 -16.51 -0.88 0 0 0
-10.91 -16.59 -0.88 0 0 0
-10.91 -16.66 -0.88 0 0 0
-10.91 -16.74 -0.88 0 0 0
-11.00 -16.78 -0.76 0 0 0
-11.00 -16.86 -0.76 0 0 0
-11.00 -16.94 -0.76 0 0 0
-11.00 -17.01 -0.76 0 0 0
-11.00 -17.09 -0.76 0 0 0
-11.00 -17.16 -0.76 0 0 0
-10.91 -17.27 -0.88 0 0 0
-10.91 -17.34 -0.88 0 0 0
-10.91 -17.42 -0.88 0 0 0
-10.91 -17.50 -0.88 0 0 0
-10.91 -17.57 -0.88 0 0 0
-10.91 -17.65 -0.88 0 0 0
-10.91 -17.72 -0.88 0 0 0
-10.79 -17.84 -1.03 0 0 0
-10.79 -17.92 -1.03 0 0 0
-10.79 -17.99 -1.03 0 0 0
-10.79 -18.07 -1.03 0 0 0
-10.91 -18.10 -0.88 0 0 0
-10.79 -18.22 -1.03 0 0 0
-10.91 -18.25 -0.88 0 0 0
-10.91 -18.33 -0.88 0 0 0
-10.91 -18.41 -0.88 0 0 0
-10.91 -18.48 -0.88 0 0 0
-10.91 -18.56 -0.88 0 0 0
-10.91 -18.63 -0.88 0 0 0
-10.91 -18.71 -0.88 0 0 0
-10.91 -18.78 -0.88 0 0 0
-10.91 -18.86 -0.88 0 0 0
-10.91 -18.94 -0.88 0 0 0
-10.91 -19.01 -0.88 0 0 0
-10.91 -19.09 -0.88 0 0 0
-10.91 -19.16 -0.88 0 0 0
-11.00 -19.20 -0.76 0 0 0
-11.00 -19.28 -0.76 0 0 0
-11.00 -19.35 -0.76 0 0 0
-11.00 -19.43 -0.76 0 0 0
-11.00 -19.50 -0.76 0 0 0
-11.00 -19.58 -0.76 0 0 0
-10.91 -19.69 -0.88 0 0 0
-10.91 -19.77 -0.88 0 0 0
-10.91 -20.00 -0.88 0 0 0
-10.91 -20.07 -0.88 0 0 0
-10.91 -20.15 -0.88 0 0 0
-10.91 -20.22 -0.88 0 0 0
-10.91 -20.30 -0.88 0 0 0
-10.91 -20.38 -0.88 0 0 0
-10.91 -20.45 -0.88 0 0 0
-10.91 -20.53 -0.88 0 0 0
-10.91 -20.60 -0.88 0 0 0
-10.91 -20.68 -0.88 0 0 0
-10.91 -20.75 -0.88 0 0 0
-10.91 -20.83 -0.88 0 0 0
-10.91 -20.91 -0.88 0 0 0
-10.91 -20.98 -0.88 0 0 0
-10.91 -21.06 -0.88 0 0 0
-10.91 -21.13 -0.88 0 0 0
-10.91 -21.21 -0.88 0 0 0
-10.91 -21.28 -0.88 0 0 0
-10.91 -21.66 -0.88 0 0 0
-10.91 -21.74 -0.88 0 0 0
-10.91 -21.82 -0.88 0 0 0
-10.91 -21.89 -0.88 0 0 0
-11.00 -21.92 -0.76 0 0 0
-11.00 -22.00 -0.76 0 0 0
-11.00 -22.07 -0.76 0 0 0
-11.00 -22.15 -0.76 0 0 0
-11.11 -22.16 -0.61 0 0 0
-11.11 -22.24 -0.61 0 0 0
-11.11 -22.31 -0.61 0 0 0
-11.21 -22.34 -0.49 0 0 0
-11.21 -22.42 -0.49 0 0 0
-11.21 -22.49 -0.49 0 0 0
-11.32 -22.50 -0.34 0 0 0
-11.32 -22.58 -0.34 0 0 0
-11.41 -22.60 -0.22 0 0 0
-11.51 -22.63 -0.10 0 0 0
-11.51 -22.70 -0.10 0 0 0
-11.62 -22.71 0.05 0 0 0
-11.62 -22.79 0.05 0 0 0
-11.62 -22.86 0.05 0 0 0
-11.62 -22.94 0.05 0 0 0
-11.62 -23.01 0.05 0 0 0
-11.51 -23.30 -0.10 0 0 0
-11.62 -23.30 0.05 0 0 0
-11.62 -23.38 0.05 0 0 0
-11.62 -23.45 0.05 0 0 0
-11.62 -23.53 0.05 0 0 0
-11.62 -23.60 0.05 0 0 0
-11.62 -23.67 0.05 0 0 0
-11.62 -23.75 0.05 0 0 0
-11.62 -23.82 0.05 0 0 0
-11.62 -23.90 0.05 0 0 0
-11.62 -23.97 0.05 0 0 0
-11.62 -24.04 0.05 0 0 0
-11.62 -24.12 0.05 0 0 0
-11.72 -24.14 0.17 0 0 0
-11.62 -24.27 0.05 0 0 0
-11.62 -24.34 0.05 0 0 0
-11.62 -24.41 0.05 0 0 0
-11.51 -24.56 -0.10 0 0 0
-11.51 -24.63 -0.10 0 0 0
-11.32 -24.82 -0.34 0 0 0
-11.32 -24.89 -0.34 0 0 0
-11.21 -25.04 -0.49 0 0 0
-11.21 -25.11 -0.49 0 0 0
-11.11 -25.25 -0.61 0 0 0
-10.91 -25.45 -0.88 0 0 0
-10.91 -25.53 -0.88 0 0 0
-10.91 -25.60 -0.88 0 0 0
-10.79 -25.75 -1.03 0 0 0
-10.79 -25.83 -1.03 0 0 0
-10.79 -25.90 -1.03 0 0 0
-10.79 -25.98 -1.03 0 0 0
-10.79 -26.06 -1.03 0 0 0
-10.91 -26.06 -0.88 0 0 0
-10.91 -26.13 -0.88 0 0 0
-10.91 -26.21 -0.88 0 0 0
-10.91 -26.29 -0.88 0 0 0
-10.91 -26.36 -0.88 0 0 0
-10.91 -26.44 -0.88 0 0 0
-11.00 -26.45 -0.76 0 0 0
-11.00 -26.53 -0.76 0 0 0
-11.00 -26.60 -0.76 0 0 0
-11.00 -26.68 -0.76 0 0 0
-11.00 -26.75 -0.76 0 0 0
-11.00 -26.83 -0.76 0 0 0
-11.00 -26.91 -0.76 0 0 0
-11.00 -26.98 -0.76 0 0 0
-11.00 -27.06 -0.76 0 0 0
-11.00 -27.13 -0.76 0 0 0
-11.00 -27.21 -0.76 0 0 0
-11.00 -27.28 -0.76 0 0 0
-11.00 -27.36 -0.76 0 0 0
-11.00 -27.43 -0.76 0 0 0
-10.91 -27.57 -0.88 0 0 0
-10.91 -27.65 -0.88 0 0 0
-10.91 -27.73 -0.88 0 0 0
-10.91 -27.80 -0.88 0 0 0
-10.91 -27.88 -0.88 0 0 0
-10.91 -27.95 -0.88 0 0 0
-10.91 -28.03 -0.88 0 0 0
-10.91 -28.10 -0.88 0 0 0
-10.91 -28.18 -0.88 0 0 0
-10.91 -28.26 -0.88 0 0 0
-10.91 -28.33 -0.88 0 0 0
-10.91 -28.41 -0.88 0 0 0
-10.91 -28.48 -0.88 0 0 0
-10.91 -28.56 -0.88 0 0 0
-10.91 -28.63 -0.88 0 0 0
-10.91 -28.71 -0.88 0 0 0
-10.91 -28.79 -0.88 0 0 0
-10.91 -28.86 -0.88 0 0 0
-10.91 -28.94 -0.88 0 0 0
-10.91 -29.01 -0.88 0 0 0
-10.91 -29.09 -0.88 0 0 0
-10.91 -29.17 -0.88 0 0 0
-10.91 -29.24 -0.88 0 0 0
-10.91 -29.32 -0.88 0 0 0
-10.91 -29.39 -0.88 0 0 0
-10.91 -29.47 -0.88 0 0 0
-10.91 -29.54 -0.88 0 0 0
-10.79 -29.71 -1.03 0 0 0
-10.79 -29.78 -1.03 0 0 0
-10.79 -29.86 -1.03 0 0 0
-10.79 -29.94 -1.03 0 0 0
-10.79 -30.01 -1.03 0 0 0
-10.91 -30.00 -0.88 0 0 0
-10.91 -30.07 -0.88 0 0 0
-10.91 -30.15 -0.88 0 0 0
-10.91 -30.23 -0.88 0 0 0
-10.91 -30.30 -0.88 0 0 0
-10.91 -30.38 -0.88 0 0 0
-10.91 -30.45 -0.88 0 0 0
-10.91 -30.53 -0.88 0 0 0
-10.91 -30.60 -0.88 0 0 0
-10.91 -30.68 -0.88 0 0 0
-10.91 -30.76 -0.88 0 0 0
-10.91 -30.83 -0.88 0 0 0
-10.91 -30.91 -0.88 0 0 0
-11.00 -30.91 -0.76 0 0 0
-11.00 -30.98 -0.76 0 0 0
-11.00 -31.06 -0.76 0 0 0
-11.00 -31.13 -0.76 0 0 0
-11.00 -31.21 -0.76 0 0 0
-10.94 17.13 -0.95 0 0 0
-10.94 17.06 -0.95 0 0 0
-10.94 16.98 -0.95 0 0 0
-10.94 16.90 -0.95 0 0 0
-10.94 16.83 -0.95 0 0 0
-10.94 16.75 -0.95 0 0 0
-10.94 16.68 -0.95 0 0 0
-10.94 16.60 -0.95 0 0 0
-10.94 16.53 -0.95 0 0 0
-10.94 16.45 -0.95 0 0 0
-10.94 16.37 -0.95 0 0 0
-10.94 16.30 -0.95 0 0 0
-12.14 14.95 0.61 0 0 0
-12.24 14.80 0.73 0 0 0
-12.24 14.73 0.73 0 0 0
-12.14 14.73 0.61 0 0 0
-12.14 14.66 0.61 0 0 0
-12.24 14.51 0.73 0 0 0
-12.24 14.44 0.73 0 0 0
-12.24 14.37 0.73 0 0 0
-12.24 14.30 0.73 0 0 0
-12.14 14.30 0.61 0 0 0
-12.14 14.22 0.61 0 0 0
-12.14 14.15 0.61 0 0 0
-12.05 14.15 0.49 0 0 0
-11.94 14.17 0.34 0 0 0
-11.84 14.16 0.22 0 0 0
-11.75 14.16 0.10 0 0 0
-11.75 14.09 0.10 0 0 0
-11.75 14.01 0.10 0 0 0
-11.66 14.01 -0.02 0 0 0
-11.66 13.94 -0.02 0 0 0
-11.54 13.95 -0.17 0 0 0
-11.54 13.88 -0.17 0 0 0
-11.45 13.87 -0.29 0 0 0
-11.45 13.80 -0.29 0 0 0
-11.45 13.72 -0.29 0 0 0
-11.45 13.65 -0.29 0 0 0
-11.36 13.64 -0.41 0 0 0
-11.36 13.57 -0.41 0 0 0
-11.36 13.49 -0.41 0 0 0
-11.36 13.42 -0.41 0 0 0
-11.36 13.34 -0.41 0 0 0
-11.24 13.35 -0.56 0 0 0
-11.24 13.28 -0.56 0 0 0
-11.24 13.20 -0.56 0 0 0
-11.24 13.13 -0.56 0 0 0
-11.15 13.12 -0.68 0 0 0
-11.15 13.04 -0.68 0 0 0
-11.15 12.97 -0.68 0 0 0
-11.15 12.89 -0.68 0 0 0
-11.15 12.82 -0.68 0 0 0
-11.15 12.74 -0.68 0 0 0
-11.24 12.60 -0.56 0 0 0
-11.24 12.53 -0.56 0 0 0
-11.24 12.45 -0.56 0 0 0
-12.14 11.46 0.61 0 0 0
-12.14 11.39 0.61 0 0 0
-12.14 11.32 0.61 0 0 0
-12.24 11.18 0.73 0 0 0
-12.24 11.11 0.73 0 0 0
-12.24 11.04 0.73 0 0 0
-12.14 11.03 0.61 0 0 0
-12.14 10.96 0.61 0 0 0
-11.15 11.39 -0.68 0 0 0
-11.15 11.31 -0.68 0 0 0
-11.04 11.31 -0.83 0 0 0
-10.94 11.30 -0.95 0 0 0
-10.94 11.22 -0.95 0 0 0
-10.94 11.15 -0.95 0 0 0
-10.94 11.07 -0.95 0 0 0
-10.94 10.99 -0.95 0 0 0
-10.94 10.92 -0.95 0 0 0
-10.94 10.84 -0.95 0 0 0
-10.83 10.84 -1.10 0 0 0
-10.83 10.76 -1.10 0 0 0
-10.83 10.69 -1.10 0 0 0
-10.83 10.61 -1.10 0 0 0
-10.83 10.53 -1.10 0 0 0
-10.83 10.46 -1.10 0 0 0
-10.83 10.38 -1.10 0 0 0
-10.83 10.31 -1.10 0 0 0
-10.74 10.29 -1.22 0 0 0
-10.74 10.21 -1.22 0 0 0
-10.74 10.13 -1.22 0 0 0
-10.74 10.06 -1.22 0 0 0
-10.74 9.98 -1.22 0 0 0
-10.83 9.85 -1.10 0 0 0
-10.83 9.77 -1.10 0 0 0
-10.83 9.70 -1.10 0 0 0
-10.83 9.62 -1.10 0 0 0
-10.83 9.55 -1.10 0 0 0
-10.83 9.47 -1.10 0 0 0
-10.83 9.39 -1.10 0 0 0
-10.83 9.32 -1.10 0 0 0
-10.83 9.24 -1.10 0 0 0
-10.83 9.17 -1.10 0 0 0
-10.83 9.09 -1.10 0 0 0
-10.83 9.01 -1.10 0 0 0
-10.83 8.94 -1.10 0 0 0
-10.83 8.86 -1.10 0 0 0
-10.83 8.79 -1.10 0 0 0
-10.83 8.71 -1.10 0 0 0
-10.83 8.63 -1.10 0 0 0
-10.83 8.56 -1.10 0 0 0
-10.83 8.48 -1.10 0 0 0
-10.83 8.40 -1.10 0 0 0
-10.83 8.33 -1.10 0 0 0
-10.83 8.25 -1.10 0 0 0
-10.83 8.18 -1.10 0 0 0
-10.83 8.10 -1.10 0 0 0
-10.83 8.02 -1.10 0 0 0
-10.83 7.95 -1.10 0 0 0
-10.83 7.87 -1.10 0 0 0
-10.83 7.80 -1.10 0 0 0
-10.83 7.72 -1.10 0 0 0
-10.83 7.64 -1.10 0 0 0
-10.83 7.57 -1.10 0 0 0
-10.83 7.49 -1.10 0 0 0
-10.83 7.42 -1.10 0 0 0
-10.83 7.34 -1.10 0 0 0
-10.83 7.26 -1.10 0 0 0
-10.83 7.19 -1.10 0 0 0
-10.83 7.11 -1.10 0 0 0
-10.83 7.04 -1.10 0 0 0
-10.83 6.96 -1.10 0 0 0
-10.83 6.88 -1.10 0 0 0
-10.83 6.81 -1.10 0 0 0
-10.83 6.73 -1.10 0 0 0
-10.83 6.66 -1.10 0 0 0
-10.83 6.58 -1.10 0 0 0
-10.94 6.45 -0.95 0 0 0
-10.94 6.37 -0.95 0 0 0
-10.94 6.30 -0.95 0 0 0
-10.94 6.22 -0.95 0 0 0
-10.94 6.14 -0.95 0 0 0
-10.94 6.07 -0.95 0 0 0
-10.94 5.99 -0.95 0 0 0
-10.94 5.92 -0.95 0 0 0
-10.94 5.84 -0.95 0 0 0
-10.94 5.77 -0.95 0 0 0
-10.94 5.69 -0.95 0 0 0
-10.94 5.61 -0.95 0 0 0
-10.94 5.54 -0.95 0 0 0
-10.94 5.46 -0.95 0 0 0
-10.94 5.39 -0.95 0 0 0
-10.94 5.31 -0.95 0 0 0
-10.94 5.24 -0.95 0 0 0
-10.94 5.16 -0.95 0 0 0
-10.94 5.08 -0.95 0 0 0
-10.94 5.01 -0.95 0 0 0
-10.83 4.98 -1.10 0 0 0
-10.83 4.91 -1.10 0 0 0
-10.74 4.87 -1.22 0 0 0
-10.74 4.79 -1.22 0 0 0
-10.83 4.68 -1.10 0 0 0
-10.74 4.64 -1.22 0 0 0
-10.74 4.56 -1.22 0 0 0
-10.74 4.49 -1.22 0 0 0
-10.74 4.41 -1.22 0 0 0
-10.74 4.33 -1.22 0 0 0
-10.74 4.26 -1.22 0 0 0
-10.83 4.14 -1.10 0 0 0
-10.83 4.07 -1.10 0 0 0
-10.83 3.99 -1.10 0 0 0
-10.83 3.92 -1.10 0 0 0
-10.83 3.84 -1.10 0 0 0
-10.83 3.76 -1.10 0 0 0
-10.83 3.69 -1.10 0 0 0
-10.83 3.61 -1.10 0 0 0
-10.83 3.54 -1.10 0 0 0
-10.83 3.46 -1.10 0 0 0
-10.83 3.38 -1.10 0 0 0
-10.83 3.31 -1.10 0 0 0
-10.83 3.23 -1.10 0 0 0
-10.83 3.16 -1.10 0 0 0
-10.83 3.08 -1.10 0 0 0
-10.83 3.00 -1.10 0 0 0
-10.94 2.73 -0.95 0 0 0
-10.83 2.70 -1.10 0 0 0
-10.83 2.62 -1.10 0 0 0
-10.83 2.55 -1.10 0 0 0
-10.83 2.47 -1.10 0 0 0
-10.83 2.39 -1.10 0 0 0
-10.83 2.32 -1.10 0 0 0
-10.83 2.24 -1.10 0 0 0
-10.83 2.17 -1.10 0 0 0
-10.83 2.09 -1.10 0 0 0
-10.83 2.01 -1.10 0 0 0
-10.83 1.94 -1.10 0 0 0
-10.83 1.86 -1.10 0 0 0
-10.83 1.79 -1.10 0 0 0
-10.83 1.71 -1.10 0 0 0
-10.83 1.63 -1.10 0 0 0
-10.83 1.56 -1.10 0 0 0
-10.83 1.48 -1.10 0 0 0
-10.83 1.41 -1.10 0 0 0
-10.94 1.30 -0.95 0 0 0
-10.94 1.22 -0.95 0 0 0
-10.94 1.14 -0.95 0 0 0
-10.83 0.95 -1.10 0 0 0
-10.83 0.87 -1.10 0 0 0
-10.83 0.80 -1.10 0 0 0
-10.94 0.69 -0.95 0 0 0
-10.94 0.61 -0.95 0 0 0
-10.83 0.57 -1.10 0 0 0
-10.83 0.49 -1.10 0 0 0
-10.83 0.42 -1.10 0 0 0
-10.83 0.34 -1.10 0 0 0
-10.83 0.26 -1.10 0 0 0
-10.83 0.19 -1.10 0 0 0
-10.83 0.11 -1.10 0 0 0
-10.83 0.04 -1.10 0 0 0
-10.83 -0.04 -1.10 0 0 0
-10.83 -0.12 -1.10 0 0 0
-10.94 -0.22 -0.95 0 0 0
-10.94 -0.30 -0.95 0 0 0
-10.94 -0.37 -0.95 0 0 0
-10.94 -0.45 -0.95 0 0 0
-10.94 -0.52 -0.95 0 0 0
-10.94 -0.60 -0.95 0 0 0
-10.94 -0.67 -0.95 0 0 0
-10.94 -0.75 -0.95 0 0 0
-10.94 -0.83 -0.95 0 0 0
-10.83 -0.88 -1.10 0 0 0
-10.83 -0.95 -1.10 0 0 0
-10.94 -1.05 -0.95 0 0 0
-10.94 -1.13 -0.95 0 0 0
-10.94 -1.21 -0.95 0 0 0
-10.94 -1.28 -0.95 0 0 0
-10.94 -1.36 -0.95 0 0 0
-10.94 -1.43 -0.95 0 0 0
-10.94 -1.51 -0.95 0 0 0
-10.94 -1.58 -0.95 0 0 0
-10.94 -1.66 -0.95 0 0 0
-10.94 -1.74 -0.95 0 0 0
-10.94 -1.81 -0.95 0 0 0
-10.94 -1.89 -0.95 0 0 0
-10.94 -1.96 -0.95 0 0 0
-10.94 -2.04 -0.95 0 0 0
-10.94 -2.11 -0.95 0 0 0
-10.94 -2.19 -0.95 0 0 0
-10.94 -2.27 -0.95 0 0 0
-10.94 -2.34 -0.95 0 0 0
-10.94 -2.42 -0.95 0 0 0
-10.94 -2.49 -0.95 0 0 0
-10.94 -2.57 -0.95 0 0 0
-10.83 -2.63 -1.10 0 0 0
-10.83 -2.70 -1.10 0 0 0
-10.83 -2.78 -1.10 0 0 0
-10.94 -2.87 -0.95 0 0 0
-10.83 -2.93 -1.10 0 0 0
-10.83 -3.01 -1.10 0 0 0
-10.83 -3.08 -1.10 0 0 0
-10.83 -3.16 -1.10 0 0 0
-10.83 -3.23 -1.10 0 0 0
-10.94 -3.33 -0.95 0 0 0
-10.83 -3.39 -1.10 0 0 0
-10.94 -3.48 -0.95 0 0 0
-10.94 -3.55 -0.95 0 0 0
-10.94 -3.63 -0.95 0 0 0
-10.94 -3.71 -0.95 0 0 0
-10.94 -3.78 -0.95 0 0 0
-10.94 -3.86 -0.95 0 0 0
-10.94 -3.93 -0.95 0 0 0
-10.94 -4.01 -0.95 0 0 0
-10.94 -4.08 -0.95 0 0 0
-10.94 -4.16 -0.95 0 0 0
-10.94 -4.24 -0.95 0 0 0
-10.94 -4.31 -0.95 0 0 0
-10.94 -4.39 -0.95 0 0 0
-10.94 -4.46 -0.95 0 0 0
-10.94 -4.54 -0.95 0 0 0
-10.94 -4.62 -0.95 0 0 0
-10.94 -4.69 -0.95 0 0 0
-10.94 -4.77 -0.95 0 0 0
-10.94 -4.84 -0.95 0 0 0
-10.94 -4.92 -0.95 0 0 0
-10.94 -4.99 -0.95 0 0 0
-10.94 -5.07 -0.95 0 0 0
-10.94 -5.15 -0.95 0 0 0
-10.94 -5.22 -0.95 0 0 0
-10.94 -5.30 -0.95 0 0 0
-10.94 -5.37 -0.95 0 0 0
-10.94 -5.45 -0.95 0 0 0
-10.94 -5.52 -0.95 0 0 0
-10.94 -5.60 -0.95 0 0 0
-10.94 -5.68 -0.95 0 0 0
-10.94 -5.75 -0.95 0 0 0
-10.94 -5.83 -0.95 0 0 0
-10.94 -5.90 -0.95 0 0 0
-10.94 -5.98 -0.95 0 0 0
-10.94 -6.05 -0.95 0 0 0
-10.94 -6.13 -0.95 0 0 0
-10.94 -6.21 -0.95 0 0 0
-10.94 -6.28 -0.95 0 0 0
-10.94 -6.36 -0.95 0 0 0
-10.94 -6.43 -0.95 0 0 0
-10.94 -6.51 -0.95 0 0 0
-10.94 -6.59 -0.95 0 0 0
-10.94 -6.66 -0.95 0 0 0
-10.94 -6.74 -0.95 0 0 0
-10.94 -6.81 -0.95 0 0 0
-10.94 -6.89 -0.95 0 0 0
-10.94 -6.96 -0.95 0 0 0
-10.94 -7.04 -0.95 0 0 0
-10.94 -7.12 -0.95 0 0 0
-10.94 -7.19 -0.95 0 0 0
-10.94 -7.27 -0.95 0 0 0
-10.94 -7.34 -0.95 0 0 0
-10.94 -7.42 -0.95 0 0 0
-10.94 -7.49 -0.95 0 0 0
-10.94 -7.57 -0.95 0 0 0
-10.94 -7.65 -0.95 0 0 0
-10.94 -7.72 -0.95 0 0 0
-10.94 -7.80 -0.95 0 0 0
-10.94 -7.87 -0.95 0 0 0
-10.94 -7.95 -0.95 0 0 0
-10.94 -8.02 -0.95 0 0 0
-10.94 -8.10 -0.95 0 0 0
-10.94 -8.18 -0.95 0 0 0
-10.94 -8.25 -0.95 0 0 0
-11.04 -8.32 -0.83 0 0 0
-11.04 -8.40 -0.83 0 0 0
-11.04 -8.48 -0.83 0 0 0
-11.04 -8.55 -0.83 0 0 0
-10.94 -8.63 -0.95 0 0 0
-10.94 -8.71 -0.95 0 0 0
-10.94 -8.78 -0.95 0 0 0
-10.94 -8.86 -0.95 0 0 0
-10.94 -8.93 -0.95 0 0 0
-10.94 -9.01 -0.95 0 0 0
-10.94 -9.09 -0.95 0 0 0
-10.94 -9.16 -0.95 0 0 0
-10.94 -9.24 -0.95 0 0 0
-10.94 -9.31 -0.95 0 0 0
-10.94 -9.39 -0.95 0 0 0
-10.94 -9.46 -0.95 0 0 0
-11.04 -9.53 -0.83 0 0 0
-11.04 -9.61 -0.83 0 0 0
-11.04 -9.68 -0.83 0 0 0
-10.94 -9.77 -0.95 0 0 0
-10.94 -9.84 -0.95 0 0 0
-10.94 -9.92 -0.95 0 0 0
-10.94 -9.99 -0.95 0 0 0
-10.94 -10.07 -0.95 0 0 0
-10.94 -10.15 -0.95 0 0 0
-10.94 -10.22 -0.95 0 0 0
-10.94 -10.30 -0.95 0 0 0
-11.04 -10.36 -0.83 0 0 0
-11.04 -10.44 -0.83 0 0 0
-11.04 -10.52 -0.83 0 0 0
-11.04 -10.59 -0.83 0 0 0
-11.04 -10.67 -0.83 0 0 0
-11.04 -10.74 -0.83 0 0 0
-11.04 -10.82 -0.83 0 0 0
-11.04 -10.89 -0.83 0 0 0
-11.04 -10.97 -0.83 0 0 0
-11.04 -11.04 -0.83 0 0 0
-11.04 -11.12 -0.83 0 0 0
-11.04 -11.20 -0.83 0 0 0
-11.04 -11.27 -0.83 0 0 0
-11.04 -11.35 -0.83 0 0 0
-11.04 -11.42 -0.83 0 0 0
-10.94 -11.51 -0.95 0 0 0
-10.94 -11.59 -0.95 0 0 0
-10.94 -11.66 -0.95 0 0 0
-10.94 -11.74 -0.95 0 0 0
-10.94 -11.81 -0.95 0 0 0
-10.94 -11.89 -0.95 0 0 0
-10.94 -11.96 -0.95 0 0 0
-10.94 -12.04 -0.95 0 0 0
-10.94 -12.12 -0.95 0 0 0
-10.94 -12.19 -0.95 0 0 0
-10.94 -12.27 -0.95 0 0 0
-10.94 -12.34 -0.95 0 0 0
-10.94 -12.42 -0.95 0 0 0
-10.94 -12.50 -0.95 0 0 0
-10.94 -12.57 -0.95 0 0 0
-10.94 -12.65 -0.95 0 0 0
-10.94 -12.72 -0.95 0 0 0
-10.94 -12.80 -0.95 0 0 0
-10.94 -12.87 -0.95 0 0 0
-10.94 -12.95 -0.95 0 0 0
-10.94 -13.03 -0.95 0 0 0
-10.94 -13.10 -0.95 0 0 0
-10.94 -13.18 -0.95 0 0 0
-10.94 -13.25 -0.95 0 0 0
-10.94 -13.33 -0.95 0 0 0
-10.94 -13.40 -0.95 0 0 0
-10.94 -13.48 -0.95 0 0 0
-10.94 -13.56 -0.95 0 0 0
-10.94 -13.63 -0.95 0 0 0
-10.94 -13.71 -0.95 0 0 0
-10.94 -13.78 -0.95 0 0 0
-10.94 -13.86 -0.95 0 0 0
-11.04 -13.91 -0.83 0 0 0
-11.04 -13.99 -0.83 0 0 0
-10.94 -14.09 -0.95 0 0 0
-10.94 -14.16 -0.95 0 0 0
-10.94 -14.24 -0.95 0 0 0
-11.04 -14.29 -0.83 0 0 0
-11.04 -14.37 -0.83 0 0 0
-11.04 -14.44 -0.83 0 0 0
-11.04 -14.52 -0.83 0 0 0
-11.04 -14.59 -0.83 0 0 0
-11.04 -14.67 -0.83 0 0 0
-11.04 -14.74 -0.83 0 0 0
-11.04 -14.82 -0.83 0 0 0
-11.04 -14.90 -0.83 0 0 0
-11.04 -14.97 -0.83 0 0 0
-11.04 -15.05 -0.83 0 0 0
-11.04 -15.12 -0.83 0 0 0
-11.04 -15.20 -0.83 0 0 0
-11.04 -15.27 -0.83 0 0 0
-11.04 -15.35 -0.83 0 0 0
-11.04 -15.42 -0.83 0 0 0
-11.04 -15.50 -0.83 0 0 0
-11.04 -15.58 -0.83 0 0 0
-11.04 -15.65 -0.83 0 0 0
-11.04 -15.73 -0.83 0 0 0
-11.04 -15.80 -0.83 0 0 0
-11.04 -15.88 -0.83 0 0 0
-10.94 -15.98 -0.95 0 0 0
-10.94 -16.06 -0.95 0 0 0
-11.04 -16.10 -0.83 0 0 0
-11.04 -16.18 -0.83 0 0 0
-11.04 -16.26 -0.83 0 0 0
-11.04 -16.33 -0.83 0 0 0
-11.04 -16.41 -0.83 0 0 0
-11.04 -16.48 -0.83 0 0 0
-10.94 -16.59 -0.95 0 0 0
-11.04 -16.63 -0.83 0 0 0
-11.04 -16.71 -0.83 0 0 0
-11.04 -16.78 -0.83 0 0 0
-11.04 -16.86 -0.83 0 0 0
-11.04 -16.94 -0.83 0 0 0
-11.04 -17.01 -0.83 0 0 0
-11.04 -17.09 -0.83 0 0 0
-11.04 -17.16 -0.83 0 0 0
-11.04 -17.24 -0.83 0 0 0
-11.04 -17.31 -0.83 0 0 0
-11.04 -17.39 -0.83 0 0 0
-10.94 -17.50 -0.95 0 0 0
-10.94 -17.57 -0.95 0 0 0
-10.94 -17.65 -0.95 0 0 0
-10.94 -17.72 -0.95 0 0 0
-10.94 -17.80 -0.95 0 0 0
-10.94 -17.88 -0.95 0 0 0
-10.94 -17.95 -0.95 0 0 0
-10.94 -18.03 -0.95 0 0 0
-10.94 -18.10 -0.95 0 0 0
-10.94 -18.18 -0.95 0 0 0
-10.94 -18.25 -0.95 0 0 0
-10.94 -18.33 -0.95 0 0 0
-11.04 -18.37 -0.83 0 0 0
-11.04 -18.45 -0.83 0 0 0
-11.04 -18.52 -0.83 0 0 0
-11.04 -18.60 -0.83 0 0 0
-11.04 -18.67 -0.83 0 0 0
-11.04 -18.75 -0.83 0 0 0
-11.04 -18.82 -0.83 0 0 0
-11.04 -18.90 -0.83 0 0 0
-11.04 -18.97 -0.83 0 0 0
-11.04 -19.05 -0.83 0 0 0
-11.04 -19.13 -0.83 0 0 0
-11.04 -19.20 -0.83 0 0 0
-11.04 -19.28 -0.83 0 0 0
-11.04 -19.35 -0.83 0 0 0
-11.04 -19.43 -0.83 0 0 0
-11.04 -19.50 -0.83 0 0 0
-11.04 -19.58 -0.83 0 0 0
-11.04 -19.65 -0.83 0 0 0
-11.04 -19.73 -0.83 0 0 0
-10.94 -19.85 -0.95 0 0 0
-10.94 -19.92 -0.95 0 0 0
-10.94 -20.00 -0.95 0 0 0
-11.04 -20.03 -0.83 0 0 0
-11.04 -20.11 -0.83 0 0 0
-11.04 -20.18 -0.83 0 0 0
-10.94 -20.30 -0.95 0 0 0
-10.94 -20.38 -0.95 0 0 0
-10.94 -20.45 -0.95 0 0 0
-11.04 -20.49 -0.83 0 0 0
-11.04 -20.56 -0.83 0 0 0
-11.04 -20.64 -0.83 0 0 0
-11.04 -20.71 -0.83 0 0 0
-11.04 -20.79 -0.83 0 0 0
-11.04 -20.86 -0.83 0 0 0
-11.04 -20.94 -0.83 0 0 0
-11.04 -21.01 -0.83 0 0 0
-11.04 -21.09 -0.83 0 0 0
-11.04 -21.16 -0.83 0 0 0
-11.04 -21.24 -0.83 0 0 0
-11.04 -21.32 -0.83 0 0 0
-11.04 -21.39 -0.83 0 0 0
-11.04 -21.47 -0.83 0 0 0
-11.04 -21.54 -0.83 0 0 0
-11.04 -21.62 -0.83 0 0 0
-11.04 -21.69 -0.83 0 0 0
-11.04 -21.77 -0.83 0 0 0
-11.04 -21.84 -0.83 0 0 0
-11.04 -21.92 -0.83 0 0 0
-11.04 -22.00 -0.83 0 0 0
-11.15 -22.01 -0.68 0 0 0
-11.15 -22.09 -0.68 0 0 0
-11.15 -22.16 -0.68 0 0 0
-11.15 -22.24 -0.68 0 0 0
-11.15 -22.31 -0.68 0 0 0
-11.24 -22.34 -0.56 0 0 0
-11.24 -22.42 -0.56 0 0 0
-11.24 -22.49 -0.56 0 0 0
-11.36 -22.50 -0.41 0 0 0
-11.36 -22.58 -0.41 0 0 0
-11.45 -22.60 -0.29 0 0 0
-11.54 -22.63 -0.17 0 0 0
-11.66 -22.64 -0.02 0 0 0
-11.66 -22.71 -0.02 0 0 0
-11.66 -22.79 -0.02 0 0 0
-11.66 -22.86 -0.02 0 0 0
-11.66 -23.23 -0.02 0 0 0
-11.66 -23.30 -0.02 0 0 0
-11.66 -23.38 -0.02 0 0 0
-11.66 -23.45 -0.02 0 0 0
-11.66 -23.53 -0.02 0 0 0
-11.66 -23.60 -0.02 0 0 0
-11.66 -23.67 -0.02 0 0 0
-11.66 -23.75 -0.02 0 0 0
-11.66 -23.82 -0.02 0 0 0
-11.66 -23.90 -0.02 0 0 0
-11.66 -23.97 -0.02 0 0 0
-11.66 -24.04 -0.02 0 0 0
-11.66 -24.12 -0.02 0 0 0
-11.75 -24.14 0.10 0 0 0
-11.66 -24.27 -0.02 0 0 0
-11.66 -24.34 -0.02 0 0 0
-11.66 -24.41 -0.02 0 0 0
-11.66 -24.49 -0.02 0 0 0
-11.45 -24.84 -0.29 0 0 0
-11.36 -24.97 -0.41 0 0 0
-11.24 -25.11 -0.56 0 0 0
-11.24 -25.19 -0.56 0 0 0
-11.15 -25.32 -0.68 0 0 0
-11.04 -25.47 -0.83 0 0 0
-11.04 -25.55 -0.83 0 0 0
-10.94 -25.68 -0.95 0 0 0
-10.94 -25.76 -0.95 0 0 0
-10.94 -25.83 -0.95 0 0 0
-10.94 -25.91 -0.95 0 0 0
-10.94 -25.98 -0.95 0 0 0
-10.94 -26.06 -0.95 0 0 0
-10.94 -26.13 -0.95 0 0 0
-10.94 -26.21 -0.95 0 0 0
-10.94 -26.29 -0.95 0 0 0
-11.04 -26.30 -0.83 0 0 0
-11.04 -26.38 -0.83 0 0 0
-11.04 -26.45 -0.83 0 0 0
-11.04 -26.53 -0.83 0 0 0
-11.15 -26.53 -0.68 0 0 0
-11.15 -26.60 -0.68 0 0 0
-11.15 -26.68 -0.68 0 0 0
-11.15 -26.75 -0.68 0 0 0
-11.15 -26.83 -0.68 0 0 0
-11.15 -26.90 -0.68 0 0 0
-11.15 -26.98 -0.68 0 0 0
-11.15 -27.05 -0.68 0 0 0
-11.15 -27.13 -0.68 0 0 0
-11.15 -27.20 -0.68 0 0 0
-11.15 -27.28 -0.68 0 0 0
-11.15 -27.35 -0.68 0 0 0
-11.15 -27.43 -0.68 0 0 0
-11.15 -27.50 -0.68 0 0 0
-11.15 -27.58 -0.68 0 0 0
-10.94 -27.80 -0.95 0 0 0
