ply
format ascii 1.0
element vertex 1617
property float x
property float y
property float z
property uchar red
property uchar green
property uchar blue
end_header
-5.81 10.73 -1.15 123 113 114
-5.81 10.65 -1.15 124 113 117
-5.81 10.56 -1.15 125 114 118
-5.81 10.48 -1.15 124 114 115
-5.81 10.40 -1.15 123 113 114
-5.81 10.31 -1.15 123 113 111
-5.81 10.23 -1.15 124 115 110
-5.96 9.90 -0.99 124 116 103
-5.96 9.82 -0.99 123 115 104
-5.96 9.74 -0.99 121 117 105
-5.96 9.65 -0.99 119 115 104
-9.87 7.61 3.36 121 114 106
-9.87 7.53 3.36 125 118 110
-9.87 7.46 3.36 128 119 114
-9.87 7.39 3.36 126 117 112
-9.87 7.31 3.36 124 116 113
-9.87 7.24 3.36 123 118 112
-9.87 7.02 3.36 124 114 105
-9.87 6.94 3.36 119 105 94
-9.87 6.87 3.36 116 98 88
-9.87 6.80 3.36 119 100 86
-9.87 6.72 3.36 130 104 91
-9.87 6.65 3.36 133 101 88
-9.87 6.58 3.36 142 104 91
-9.87 6.50 3.36 149 112 94
-9.87 6.43 3.36 158 116 100
-9.87 6.35 3.36 163 120 101
-9.87 6.28 3.36 168 123 102
-9.78 6.25 3.25 171 126 103
-9.78 6.18 3.25 173 129 104
-9.78 6.10 3.25 169 130 99
-9.78 6.03 3.25 170 131 100
-9.78 5.96 3.25 171 132 99
-9.78 5.88 3.25 171 132 99
-9.78 5.81 3.25 170 129 99
-9.78 5.73 3.25 170 126 97
-9.78 5.66 3.25 168 124 95
-9.78 5.59 3.25 168 123 94
-9.78 5.51 3.25 170 125 96
-9.78 5.44 3.25 172 126 100
-9.78 5.37 3.25 174 128 104
-9.78 5.29 3.25 175 129 106
-9.78 5.22 3.25 178 131 113
-9.78 5.14 3.25 184 137 119
-9.78 5.07 3.25 190 143 127
-9.65 5.05 3.11 194 151 135
-9.65 4.97 3.11 197 154 138
-9.65 4.90 3.11 193 154 137
-9.65 4.82 3.11 190 151 134
-9.65 4.75 3.11 187 152 132
-9.65 4.68 3.11 187 152 132
-9.65 4.60 3.11 182 150 127
-9.65 4.53 3.11 179 144 122
-9.65 4.45 3.11 169 131 112
-9.55 4.42 3.00 168 127 109
-9.55 4.34 3.00 166 125 105
-9.55 4.27 3.00 166 125 105
-9.46 4.23 2.89 168 127 105
-9.46 4.16 2.89 173 132 110
-9.46 4.08 2.89 185 143 119
-9.46 4.01 2.89 193 151 127
-9.33 3.98 2.76 199 157 133
-9.33 3.90 2.76 210 168 144
-9.33 3.83 2.76 212 170 146
-9.33 3.75 2.76 210 168 144
-9.23 3.71 2.65 207 165 141
-9.23 3.64 2.65 207 165 143
-9.23 3.56 2.65 209 163 147
-9.23 3.49 2.65 214 166 156
-9.23 3.41 2.65 214 161 155
-9.11 3.38 2.51 168 111 102
-9.11 3.31 2.51 148 84 74
-9.11 3.23 2.51 171 97 86
-9.11 3.16 2.51 189 105 95
-9.11 3.08 2.51 204 114 103
-9.11 3.00 2.51 207 117 106
-9.11 2.93 2.51 209 127 113
-9.11 2.85 2.51 201 133 114
-9.01 2.81 2.40 197 143 119
-9.01 2.73 2.40 183 139 112
-9.01 2.66 2.40 172 133 102
-9.01 2.58 2.40 183 144 113
-9.01 2.51 2.40 197 152 119
-5.69 3.32 -1.29 203 162 134
-5.69 3.24 -1.29 207 165 140
-5.69 3.16 -1.29 199 152 132
-5.81 3.04 -1.15 204 158 142
-5.81 2.95 -1.15 196 159 141
-5.96 2.82 -0.99 184 152 137
-5.96 2.74 -0.99 158 136 122
-5.96 2.66 -0.99 146 132 119
-5.96 2.57 -0.99 140 134 122
-5.96 2.49 -0.99 140 140 130
-5.96 2.41 -0.99 140 143 134
-5.96 2.32 -0.99 133 138 132
-5.96 2.24 -0.99 130 132 127
-5.96 2.16 -0.99 130 132 129
-5.96 2.07 -0.99 131 131 131
-5.96 1.99 -0.99 131 131 131
-5.81 1.95 -1.15 131 131 129
-5.81 1.86 -1.15 130 130 128
-5.81 1.78 -1.15 128 130 125
-5.81 1.70 -1.15 126 128 123
-5.81 1.61 -1.15 124 127 120
-5.81 1.53 -1.15 123 126 119
-5.81 1.45 -1.15 128 131 124
-5.81 1.36 -1.15 128 131 124
-5.81 1.28 -1.15 127 132 125
-5.96 1.16 -0.99 127 132 125
-5.96 1.07 -0.99 128 133 127
-5.96 0.99 -0.99 128 133 127
-5.96 0.91 -0.99 128 133 127
-5.96 0.82 -0.99 124 130 120
-5.96 0.74 -0.99 127 133 123
-5.96 0.66 -0.99 130 137 129
-5.96 0.57 -0.99 131 138 130
-5.96 0.49 -0.99 128 135 128
-5.81 0.44 -1.15 123 130 123
-5.81 0.36 -1.15 122 128 124
-5.81 0.27 -1.15 124 130 126
-5.81 0.19 -1.15 130 140 132
-5.81 0.11 -1.15 127 137 129
-5.81 0.02 -1.15 124 134 125
-5.96 -0.09 -0.99 125 135 126
-5.96 -0.17 -0.99 129 140 126
-5.96 -0.26 -0.99 132 143 129
-5.96 -0.34 -0.99 131 142 126
-5.96 -0.42 -0.99 129 140 124
-5.96 -0.51 -0.99 127 141 126
-5.96 -0.59 -0.99 128 142 127
-5.96 -0.67 -0.99 129 143 130
-5.96 -0.76 -0.99 130 143 133
-5.96 -0.84 -0.99 130 141 133
-5.96 -0.92 -0.99 130 139 136
-5.96 -1.01 -0.99 132 138 138
-5.96 -1.09 -0.99 131 136 139
-5.96 -1.17 -0.99 134 138 141
-5.81 -1.23 -1.15 134 135 137
-5.81 -1.31 -1.15 134 135 137
-5.81 -1.40 -1.15 140 140 140
-5.81 -1.48 -1.15 140 140 140
-5.81 -1.57 -1.15 138 138 136
-5.81 -1.65 -1.15 139 141 138
-5.81 -1.73 -1.15 137 142 136
-5.81 -1.82 -1.15 135 142 135
-5.81 -1.90 -1.15 136 141 137
-5.81 -1.98 -1.15 136 141 137
-5.81 -2.07 -1.15 138 140 139
-5.96 -2.17 -0.99 138 140 139
-5.96 -2.26 -0.99 140 140 142
-5.96 -2.34 -0.99 140 140 142
-5.96 -2.42 -0.99 143 143 143
-5.96 -2.51 -0.99 141 141 141
-5.96 -2.59 -0.99 140 142 139
-5.96 -2.67 -0.99 142 144 141
-5.96 -2.76 -0.99 141 146 139
-5.96 -2.84 -0.99 140 145 138
-5.96 -2.92 -0.99 143 151 140
-5.96 -3.01 -0.99 136 148 138
-5.96 -3.09 -0.99 137 150 140
-5.96 -3.17 -0.99 140 151 143
-5.96 -3.26 -0.99 139 150 142
-5.96 -3.34 -0.99 138 149 143
-5.96 -3.42 -0.99 139 150 144
-5.96 -3.51 -0.99 141 152 146
-5.96 -3.59 -0.99 144 155 149
-5.96 -3.67 -0.99 143 154 150
-5.96 -3.76 -0.99 142 153 149
-5.96 -3.84 -0.99 143 152 149
-5.96 -3.92 -0.99 145 154 151
-5.96 -4.01 -0.99 145 154 149
-5.96 -4.09 -0.99 144 153 148
-5.96 -4.17 -0.99 145 154 149
-5.96 -4.26 -0.99 150 156 152
-5.96 -4.34 -0.99 148 154 150
-5.96 -4.42 -0.99 151 156 152
-5.96 -4.51 -0.99 153 158 154
-5.96 -4.59 -0.99 154 159 155
-5.81 -4.66 -1.15 153 159 157
-5.81 -4.74 -1.15 152 158 156
-5.81 -4.83 -1.15 153 159 157
-5.96 -4.92 -0.99 152 161 158
-5.96 -5.01 -0.99 153 162 159
-5.96 -5.09 -0.99 154 163 160
-5.96 -5.17 -0.99 155 164 161
-5.96 -5.26 -0.99 154 165 159
-5.96 -5.34 -0.99 154 165 159
-5.96 -5.42 -0.99 153 164 158
-5.96 -5.51 -0.99 153 164 158
-5.96 -5.59 -0.99 155 165 156
-5.96 -5.67 -0.99 156 166 157
-5.96 -5.76 -0.99 156 166 157
-5.96 -5.84 -0.99 157 167 158
-5.96 -5.92 -0.99 157 167 159
-5.96 -6.01 -0.99 157 167 159
-5.96 -6.09 -0.99 157 167 159
-5.96 -6.17 -0.99 157 167 159
-5.96 -6.26 -0.99 158 169 163
-5.96 -6.34 -0.99 158 169 163
-5.96 -6.42 -0.99 158 169 163
-5.96 -6.50 -0.99 158 169 163
-5.96 -6.59 -0.99 159 170 166
-5.96 -6.67 -0.99 160 171 167
-5.96 -6.75 -0.99 161 172 168
-5.96 -6.84 -0.99 161 172 168
-5.96 -6.92 -0.99 159 168 167
-5.96 -7.00 -0.99 158 169 165
-5.96 -7.09 -0.99 159 170 166
-5.96 -7.17 -0.99 158 171 164
-5.96 -7.25 -0.99 157 170 163
-5.96 -7.34 -0.99 159 172 163
-5.96 -7.42 -0.99 162 175 166
-5.96 -7.50 -0.99 160 173 164
-5.96 -7.59 -0.99 163 176 167
-5.96 -7.67 -0.99 168 179 173
-5.96 -7.75 -0.99 171 182 176
-5.96 -7.84 -0.99 173 182 179
-5.96 -7.92 -0.99 173 182 179
-5.96 -8.00 -0.99 176 182 180
-5.96 -8.09 -0.99 177 181 180
-5.96 -8.17 -0.99 180 184 183
-5.96 -8.25 -0.99 181 183 182
-5.96 -8.34 -0.99 177 181 180
-5.96 -8.42 -0.99 176 180 179
-5.96 -8.50 -0.99 175 181 179
-5.96 -8.59 -0.99 176 182 180
-5.96 -8.67 -0.99 175 184 181
-5.96 -8.75 -0.99 176 185 182
-5.96 -8.84 -0.99 178 187 184
-5.96 -8.92 -0.99 177 186 183
-5.96 -9.00 -0.99 179 188 185
-5.96 -9.09 -0.99 181 187 185
-5.96 -9.17 -0.99 179 185 183
-5.96 -9.25 -0.99 178 184 182
-5.96 -9.34 -0.99 179 185 183
-5.96 -9.42 -0.99 179 185 185
-5.96 -9.50 -0.99 177 183 183
-5.96 -9.59 -0.99 178 184 184
-5.96 -9.67 -0.99 181 187 187
-5.96 -9.75 -0.99 183 189 189
-5.96 -9.84 -0.99 181 187 187
-5.96 -9.92 -0.99 180 186 184
-5.96 -10.00 -0.99 181 187 185
-5.96 -10.09 -0.99 180 184 183
-5.96 -10.17 -0.99 181 185 184
-5.96 -10.25 -0.99 178 182 181
-5.96 -10.34 -0.99 183 187 186
-5.96 -10.42 -0.99 184 189 185
-5.96 -10.50 -0.99 179 184 180
-5.96 -10.59 -0.99 183 185 182
-5.96 -10.67 -0.99 180 182 179
-5.96 -10.75 -0.99 181 185 184
-5.96 -10.84 -0.99 179 183 182
-6.08 -10.91 -0.85 185 189 188
-6.08 -10.99 -0.85 184 188 187
-6.08 -11.07 -0.85 180 184 183
-6.08 -11.16 -0.85 183 187 186
-6.08 -11.24 -0.85 252 255 255
-5.96 -11.34 -0.99 251 255 254
-5.96 -11.42 -0.99 251 255 254
-5.96 -11.50 -0.99 251 255 254
-5.96 -11.59 -0.99 251 255 254
-5.96 -11.67 -0.99 251 255 254
-5.96 -11.75 -0.99 251 255 254
-5.96 -11.84 -0.99 251 255 254
-5.96 -11.92 -0.99 251 255 254
-5.96 -12.00 -0.99 249 255 253
-5.96 -12.09 -0.99 250 255 254
-5.96 -12.17 -0.99 251 255 255
-5.96 -12.25 -0.99 247 253 251
-5.96 -12.34 -0.99 214 220 218
-5.96 -12.42 -0.99 177 183 181
-5.96 -12.50 -0.99 170 174 173
-5.96 -12.58 -0.99 183 187 186
-5.96 -12.67 -0.99 192 196 195
-5.96 -12.75 -0.99 187 191 190
-5.96 -12.83 -0.99 188 192 191
-5.96 -12.92 -0.99 190 194 193
-5.96 -13.00 -0.99 188 192 191
-5.96 -13.08 -0.99 189 193 192
-5.96 -13.17 -0.99 188 192 191
-5.96 -13.25 -0.99 186 191 187
-5.96 -13.33 -0.99 191 196 192
-5.96 -13.42 -0.99 195 197 194
-5.96 -13.50 -0.99 192 194 191
-5.96 -13.58 -0.99 189 191 188
-5.96 -13.67 -0.99 191 193 190
-5.96 -13.75 -0.99 194 194 192
-5.96 -13.83 -0.99 194 194 192
-5.96 -13.92 -0.99 194 194 194
-5.96 -14.00 -0.99 194 194 194
-6.08 -14.06 -0.85 195 195 195
-6.08 -14.14 -0.85 195 195 195
-5.96 -14.58 -0.99 198 200 199
-5.96 -14.67 -0.99 196 196 196
-5.96 -14.75 -0.99 195 195 195
-5.96 -14.83 -0.99 197 197 197
-5.96 -14.92 -0.99 197 197 197
-5.96 -15.00 -0.99 198 198 198
-5.96 -15.08 -0.99 199 199 199
-5.96 -15.17 -0.99 195 195 195
-5.96 -15.25 -0.99 197 197 197
-5.96 -15.33 -0.99 199 199 199
-5.96 -15.42 -0.99 197 197 197
-5.96 -15.50 -0.99 195 195 195
-5.96 -15.58 -0.99 194 194 194
-5.96 -15.67 -0.99 194 194 194
-5.96 -15.75 -0.99 192 192 192
-6.08 -15.80 -0.85 187 187 187
-6.08 -15.89 -0.85 185 185 187
-6.08 -15.97 -0.85 189 189 191
-6.08 -16.05 -0.85 189 188 194
-6.08 -16.13 -0.85 69 72 77
-6.08 -16.22 -0.85 0 2 23
-6.08 -16.30 -0.85 55 58 103
-6.08 -16.38 -0.85 51 54 121
-6.08 -16.47 -0.85 53 58 139
-6.08 -16.55 -0.85 47 53 139
-6.23 -16.59 -0.69 41 52 132
-6.23 -16.67 -0.69 42 53 133
-6.23 -16.76 -0.69 48 56 141
-6.35 -16.81 -0.55 45 52 130
-6.47 -16.85 -0.41 42 48 124
-6.47 -16.93 -0.41 48 57 132
-6.60 -16.98 -0.28 50 59 126
-6.60 -17.06 -0.28 42 52 101
-6.60 -17.14 -0.28 43 51 87
-6.60 -17.23 -0.28 75 81 105
-6.60 -17.31 -0.28 116 119 134
-6.60 -17.39 -0.28 123 126 131
-6.60 -17.47 -0.28 106 108 105
-6.60 -17.55 -0.28 57 59 46
-6.60 -17.63 -0.28 50 52 38
-6.60 -17.72 -0.28 88 88 78
-6.60 -17.80 -0.28 149 146 141
-6.60 -17.88 -0.28 176 171 167
-6.60 -17.96 -0.28 181 172 165
-6.60 -18.04 -0.28 183 176 157
-6.60 -18.12 -0.28 184 176 153
-6.60 -18.21 -0.28 181 176 154
-6.47 -18.33 -0.41 181 176 156
-6.47 -18.41 -0.41 180 175 155
-6.47 -18.49 -0.41 178 173 153
-6.47 -18.57 -0.41 172 169 150
-6.47 -18.66 -0.41 170 167 148
-6.35 -18.78 -0.55 170 167 150
-6.23 -18.91 -0.69 169 167 152
-6.23 -18.99 -0.69 168 166 153
-6.23 -19.07 -0.69 167 165 152
-6.23 -19.15 -0.69 166 163 154
-6.35 -19.19 -0.55 163 163 153
-6.35 -19.27 -0.55 163 163 155
-6.35 -19.36 -0.55 163 162 157
-6.47 -19.39 -0.41 162 161 157
-6.47 -19.48 -0.41 166 167 162
-6.47 -19.56 -0.41 165 165 163
-6.60 -19.60 -0.28 163 164 158
-6.60 -19.68 -0.28 153 154 148
-6.60 -19.76 -0.28 128 128 120
-6.60 -19.84 -0.28 86 86 78
-6.74 -19.87 -0.11 49 46 41
-6.74 -19.95 -0.11 25 21 18
-6.74 -20.03 -0.11 37 33 32
-6.74 -20.11 -0.11 31 27 28
-6.74 -20.19 -0.11 28 22 26
-6.87 -20.23 0.02 41 35 39
-6.87 -20.31 0.02 81 72 77
-6.87 -20.39 0.02 122 113 118
-6.87 -20.47 0.02 135 126 127
-6.87 -20.55 0.02 115 101 92
-6.87 -20.63 0.02 120 102 92
-6.87 -20.71 0.02 119 105 94
-6.87 -20.79 0.02 91 78 70
-6.87 -20.87 0.02 90 81 74
-6.87 -20.95 0.02 64 59 55
-6.99 -20.98 0.16 25 22 17
-6.99 -21.07 0.16 35 34 32
-6.99 -21.15 0.16 44 46 43
-6.99 -21.23 0.16 52 54 53
-6.99 -21.31 0.16 57 61 62
-6.99 -21.39 0.16 58 62 63
-7.11 -21.42 0.30 57 61 60
-7.11 -21.50 0.30 58 62 61
-7.11 -21.58 0.30 61 63 62
-7.24 -21.60 0.43 61 63 62
-7.24 -21.68 0.43 74 74 76
-7.36 -21.71 0.57 79 78 83
-6.23 -22.95 -0.69 38 32 32
-6.35 -22.98 -0.55 50 45 42
-6.35 -23.06 -0.55 60 55 52
-6.35 -23.14 -0.55 69 65 64
-6.35 -23.23 -0.55 148 147 145
-6.08 -23.44 -0.85 234 236 233
-6.08 -23.52 -0.85 226 228 225
-6.08 -23.60 -0.85 219 221 216
-6.08 -23.69 -0.85 220 219 215
-6.08 -23.77 -0.85 221 220 215
-6.08 -23.85 -0.85 224 220 217
-6.08 -23.93 -0.85 223 218 215
-6.08 -24.02 -0.85 222 216 218
-6.08 -24.10 -0.85 223 221 222
-6.08 -24.18 -0.85 222 220 223
-6.08 -24.27 -0.85 221 219 224
-6.08 -24.35 -0.85 222 220 225
-6.08 -24.43 -0.85 225 221 222
-6.08 -24.52 -0.85 226 222 223
-6.08 -24.60 -0.85 226 221 218
-6.08 -24.68 -0.85 225 219 219
-6.08 -24.76 -0.85 220 219 217
-6.08 -24.85 -0.85 222 220 221
-6.08 -24.93 -0.85 224 222 223
-6.08 -25.01 -0.85 225 223 224
-6.08 -25.10 -0.85 226 224 225
-6.08 -25.18 -0.85 225 223 224
-6.08 -25.26 -0.85 224 222 223
-6.08 -25.35 -0.85 225 223 224
-6.08 -25.43 -0.85 224 222 223
-6.08 -25.51 -0.85 225 223 224
-6.08 -25.59 -0.85 226 224 225
-6.08 -25.68 -0.85 226 224 225
-6.08 -25.76 -0.85 224 222 223
-6.08 -25.84 -0.85 225 223 224
-6.08 -25.93 -0.85 227 225 226
-6.08 -26.01 -0.85 229 225 226
-6.08 -26.09 -0.85 228 224 225
-6.08 -26.18 -0.85 227 223 224
-6.23 -26.18 -0.69 227 223 224
-6.23 -26.26 -0.69 228 224 225
-6.08 -26.42 -0.85 229 225 226
-6.08 -26.51 -0.85 230 226 227
-6.23 -26.51 -0.69 229 225 226
-6.23 -26.59 -0.69 230 226 227
-6.23 -26.67 -0.69 229 225 226
-6.23 -26.75 -0.69 228 224 225
-6.08 -26.92 -0.85 227 223 224
-6.08 -27.01 -0.85 228 224 225
-6.08 -27.09 -0.85 229 225 226
-6.08 -27.17 -0.85 229 225 226
-6.08 -27.25 -0.85 227 223 224
-6.08 -27.34 -0.85 228 224 225
-6.08 -27.42 -0.85 228 224 225
-6.08 -27.50 -0.85 228 224 225
-6.08 -27.59 -0.85 228 224 225
-6.08 -27.67 -0.85 228 224 225
-6.23 -27.66 -0.69 229 225 226
-6.23 -27.75 -0.69 230 226 227
-6.23 -27.83 -0.69 228 224 225
-6.23 -27.91 -0.69 228 224 225
-6.23 -27.99 -0.69 229 225 226
-6.23 -28.08 -0.69 229 225 226
-6.23 -28.16 -0.69 229 225 226
-6.23 -28.24 -0.69 229 225 226
-6.23 -28.32 -0.69 228 224 225
-6.23 -28.41 -0.69 228 224 225
-6.23 -28.49 -0.69 228 224 225
-6.23 -28.57 -0.69 229 225 226
-6.23 -28.65 -0.69 229 225 226
-6.23 -28.74 -0.69 229 225 226
-6.23 -28.82 -0.69 229 225 226
-6.23 -28.90 -0.69 230 226 227
-6.23 -28.98 -0.69 231 227 228
-6.23 -29.07 -0.69 227 225 226
-6.23 -29.15 -0.69 228 226 227
-6.23 -29.23 -0.69 229 227 228
-6.23 -29.32 -0.69 228 226 227
-6.23 -29.40 -0.69 228 226 227
-6.23 -29.48 -0.69 229 227 228
-6.23 -29.56 -0.69 230 228 229
-6.23 -29.65 -0.69 230 228 229
-6.23 -29.73 -0.69 227 226 224
-6.23 -29.81 -0.69 229 228 226
-6.08 -29.99 -0.85 232 231 229
-6.08 -30.08 -0.85 232 231 229
-6.08 -30.16 -0.85 230 228 229
-6.08 -30.24 -0.85 229 227 228
-6.08 -30.32 -0.85 232 228 229
-6.08 -30.41 -0.85 233 229 230
-6.08 -30.49 -0.85 232 228 229
-6.08 -30.57 -0.85 232 228 229
-6.08 -30.66 -0.85 233 227 229
-6.08 -30.74 -0.85 233 227 229
-6.08 -30.82 -0.85 233 227 227
-6.08 -30.91 -0.85 236 228 226
-6.08 -30.99 -0.85 236 228 226
-6.08 -31.07 -0.85 232 228 227
-6.08 -31.15 -0.85 231 227 226
-6.23 -31.13 -0.69 231 227 226
-6.23 -31.22 -0.69 232 228 227
-6.23 -31.30 -0.69 234 230 229
-6.23 -31.38 -0.69 235 231 230
-6.23 -31.46 -0.69 234 230 229
-6.23 -31.55 -0.69 233 229 228
-6.23 -31.63 -0.69 236 232 233
-6.23 -31.71 -0.69 235 231 232
-6.23 -31.79 -0.69 235 231 232
-6.23 -31.88 -0.69 235 231 232
-6.08 -32.07 -0.85 236 232 233
-6.08 -32.15 -0.85 237 233 234
-6.08 -32.23 -0.85 237 233 234
-6.08 -32.32 -0.85 236 232 233
-6.08 -32.40 -0.85 0 0 0
-6.08 -32.48 -0.85 0 0 0
-6.08 -32.57 -0.85 0 0 0
-6.08 -32.65 -0.85 0 0 0
-6.08 -32.73 -0.85 0 0 0
-6.23 -32.70 -0.69 0 0 0
-6.23 -32.79 -0.69 0 0 0
-6.23 -32.87 -0.69 0 0 0
-6.23 -32.95 -0.69 0 0 0
-6.23 -33.03 -0.69 0 0 0
-6.23 -33.12 -0.69 0 0 0
-6.23 -33.20 -0.69 0 0 0
-6.23 -33.28 -0.69 0 0 0
-6.23 -33.36 -0.69 0 0 0
-6.23 -33.45 -0.69 0 0 0
-5.73 19.78 -1.36 0 0 0
-5.73 19.70 -1.36 0 0 0
-5.85 19.51 -1.22 0 0 0
-5.85 19.43 -1.22 0 0 0
-5.85 19.35 -1.22 0 0 0
-5.73 19.36 -1.36 0 0 0
-5.73 19.28 -1.36 0 0 0
-5.85 19.10 -1.22 0 0 0
-5.85 19.01 -1.22 0 0 0
-5.85 18.93 -1.22 119 110 103
-5.85 18.85 -1.22 119 110 103
-5.85 18.76 -1.22 119 110 105
-5.73 18.77 -1.36 119 110 105
-5.73 18.69 -1.36 117 107 106
-5.73 18.60 -1.36 114 106 104
-5.73 18.52 -1.36 114 105 106
-5.73 18.44 -1.36 113 108 104
-5.73 18.35 -1.36 114 109 103
-5.85 18.18 -1.22 114 110 101
-5.85 18.09 -1.22 112 108 97
-5.85 18.01 -1.22 111 108 93
-5.85 17.93 -1.22 112 109 94
-5.85 17.84 -1.22 114 111 96
-5.85 17.76 -1.22 115 112 97
-5.85 17.67 -1.22 117 111 99
-5.85 17.59 -1.22 116 109 99
-6.00 17.40 -1.06 117 108 99
-6.00 17.32 -1.06 116 107 100
-6.00 17.23 -1.06 116 107 100
-6.00 17.15 -1.06 118 111 103
-5.85 17.17 -1.22 118 111 103
-5.85 17.09 -1.22 115 111 102
-5.85 17.01 -1.22 114 110 101
-5.73 17.01 -1.36 114 110 101
-5.73 16.93 -1.36 114 110 101
-5.73 16.84 -1.36 117 110 102
-5.85 16.67 -1.22 117 110 102
-5.85 16.59 -1.22 118 109 102
-6.00 16.40 -1.06 118 109 102
-6.00 16.32 -1.06 118 109 102
-6.00 16.23 -1.06 119 110 103
-6.00 16.15 -1.06 118 109 102
-6.00 16.07 -1.06 118 109 102
-6.00 15.98 -1.06 117 108 101
-5.85 16.00 -1.22 118 109 102
-5.85 15.92 -1.22 118 109 102
-5.85 15.83 -1.22 117 108 101
-5.85 15.75 -1.22 114 107 99
-5.85 15.67 -1.22 112 105 97
-5.85 15.58 -1.22 114 107 99
-5.85 15.50 -1.22 115 108 100
-5.85 15.42 -1.22 116 109 103
-5.85 15.33 -1.22 116 109 103
-5.85 15.25 -1.22 115 108 102
-5.73 15.25 -1.36 115 108 102
-5.73 15.16 -1.36 114 106 103
-5.73 15.08 -1.36 113 105 102
-5.73 14.99 -1.36 113 105 103
-5.73 14.91 -1.36 114 107 101
-5.73 14.83 -1.36 114 107 99
-5.73 14.74 -1.36 114 107 97
-5.73 14.66 -1.36 114 108 96
-5.73 14.57 -1.36 114 108 92
-5.73 14.49 -1.36 113 107 91
-5.85 14.33 -1.22 114 108 92
-5.85 14.24 -1.22 115 109 95
-5.85 14.16 -1.22 117 109 96
-5.85 14.08 -1.22 117 108 99
-5.85 13.99 -1.22 117 108 99
-5.85 13.91 -1.22 116 107 102
-5.85 13.83 -1.22 116 107 102
-5.85 13.74 -1.22 116 106 104
-5.85 13.66 -1.22 113 108 102
-5.85 13.58 -1.22 111 106 100
-5.85 13.49 -1.22 110 106 97
-5.85 13.41 -1.22 111 107 98
-5.85 13.32 -1.22 113 106 96
-5.85 13.24 -1.22 113 107 95
-5.85 13.16 -1.22 114 108 96
-5.85 13.07 -1.22 113 107 93
-5.85 12.99 -1.22 113 107 93
-5.85 12.91 -1.22 114 106 93
-5.85 12.82 -1.22 115 107 94
-5.85 12.74 -1.22 116 108 95
-5.85 12.66 -1.22 117 109 96
-5.85 12.57 -1.22 117 109 98
-5.85 12.49 -1.22 117 108 99
-5.85 12.40 -1.22 119 108 102
-5.73 12.39 -1.36 119 108 104
-5.73 12.31 -1.36 118 109 104
-5.85 12.15 -1.22 119 110 105
-5.85 12.07 -1.22 119 110 103
-5.85 11.99 -1.22 119 110 103
-5.85 11.90 -1.22 118 109 100
-5.85 11.82 -1.22 118 109 100
-5.85 11.74 -1.22 118 109 100
-6.00 11.57 -1.06 118 109 100
-6.00 11.49 -1.06 118 111 103
-6.00 11.40 -1.06 117 110 102
-6.00 11.32 -1.06 117 110 102
-6.00 11.24 -1.06 117 110 102
-6.00 11.15 -1.06 120 113 107
-6.00 11.07 -1.06 121 113 110
-6.00 10.99 -1.06 122 114 111
-6.00 10.90 -1.06 122 114 112
-6.00 10.82 -1.06 122 114 112
-6.00 10.74 -1.06 121 112 113
-6.00 10.65 -1.06 121 112 113
-6.00 10.57 -1.06 121 112 115
-5.85 10.56 -1.22 121 112 115
-5.85 10.48 -1.22 120 111 112
-5.85 10.40 -1.22 120 111 112
-5.85 10.31 -1.22 120 112 109
-6.00 10.15 -1.06 121 114 108
-6.00 10.07 -1.06 122 115 107
-6.00 9.99 -1.06 123 116 106
-6.00 9.90 -1.06 122 116 102
-6.00 9.82 -1.06 121 115 103
-6.00 9.74 -1.06 119 117 104
-6.12 9.59 -0.92 118 116 104
-9.91 7.61 3.29 119 115 106
-9.91 7.53 3.29 121 117 108
-9.91 7.46 3.29 124 117 111
-9.91 7.39 3.29 123 116 110
-9.91 7.31 3.29 124 116 113
-9.91 7.24 3.29 124 119 113
-9.91 7.16 3.29 124 119 113
-9.91 7.09 3.29 126 119 109
-9.91 7.02 3.29 125 116 107
-9.91 6.94 3.29 123 111 99
-9.91 6.87 3.29 120 103 93
-9.91 6.80 3.29 120 102 90
-9.91 6.72 3.29 126 102 92
-9.91 6.65 3.29 131 101 90
-9.91 6.58 3.29 139 102 93
-9.91 6.50 3.29 143 107 93
-9.91 6.43 3.29 149 110 95
-9.91 6.35 3.29 154 112 96
-9.91 6.28 3.29 160 117 100
-9.91 6.21 3.29 166 124 102
-9.81 6.18 3.18 170 128 106
-9.81 6.10 3.18 166 126 100
-9.81 6.03 3.18 167 127 101
-9.81 5.96 3.18 167 128 99
-9.81 5.88 3.18 167 128 99
-9.81 5.81 3.18 168 127 99
-9.81 5.73 3.18 169 125 98
-9.81 5.66 3.18 169 125 98
-9.81 5.59 3.18 170 124 98
-9.81 5.51 3.18 169 123 97
-9.81 5.29 3.18 174 128 105
-9.81 5.22 3.18 178 131 113
-9.81 5.14 3.18 183 138 119
-9.81 5.07 3.18 189 143 127
-9.69 5.05 3.05 193 150 133
-9.69 4.97 3.05 199 156 139
-9.69 4.90 3.05 201 160 142
-9.69 4.82 3.05 198 157 139
-9.69 4.75 3.05 194 157 138
-9.69 4.68 3.05 193 156 137
-9.69 4.60 3.05 190 155 133
-9.69 4.53 3.05 188 152 130
-9.69 4.45 3.05 179 141 122
-9.69 4.38 3.05 175 134 116
-9.59 4.34 2.94 169 128 108
-9.59 4.27 2.94 165 124 104
-9.59 4.19 2.94 166 125 103
-9.49 4.16 2.83 170 129 107
-9.49 4.08 2.83 178 137 115
-9.49 4.01 2.83 186 145 123
-9.37 3.98 2.69 192 150 126
-9.37 3.90 2.69 203 161 139
-9.37 3.83 2.69 209 167 145
-9.37 3.75 2.69 212 170 148
-9.37 3.68 2.69 212 170 148
-9.27 3.64 2.58 211 169 147
-9.27 3.56 2.58 211 166 147
-9.27 3.49 2.58 212 166 151
-9.27 3.41 2.58 202 153 139
-9.15 3.38 2.45 108 56 42
-9.15 3.31 2.45 50 0 0
-9.15 3.23 2.45 82 17 0
-9.15 3.16 2.45 112 39 22
-9.15 3.08 2.45 133 56 36
-9.15 3.00 2.45 155 77 57
-9.05 2.96 2.34 169 98 78
-9.05 2.89 2.34 172 110 87
-9.05 2.81 2.34 182 131 104
-9.05 2.73 2.34 182 137 108
-9.05 2.66 2.34 180 135 104
-9.05 2.58 2.34 187 138 108
-9.05 2.51 2.34 195 138 109
-9.05 2.43 2.34 198 141 114
-9.05 2.36 2.34 192 147 118
-9.05 2.28 2.34 200 156 129
-9.05 2.20 2.34 202 158 133
-6.00 2.91 -1.06 200 162 143
-6.00 2.82 -1.06 192 159 142
-6.00 2.74 -1.06 172 149 133
-6.00 2.66 -1.06 165 149 134
-6.00 2.57 -1.06 161 153 140
-6.00 2.49 -1.06 160 158 146
-6.00 2.41 -1.06 159 159 149
-6.00 2.32 -1.06 154 155 149
-6.00 2.24 -1.06 150 153 146
-6.00 2.16 -1.06 151 153 148
-6.00 2.07 -1.06 151 151 149
-6.00 1.99 -1.06 152 152 150
-6.00 1.91 -1.06 152 153 148
-6.00 1.82 -1.06 152 153 148
-6.00 1.74 -1.06 150 153 146
-6.00 1.66 -1.06 149 152 145
-6.00 1.57 -1.06 148 151 144
-5.85 1.53 -1.22 147 150 143
-5.85 1.45 -1.22 154 157 148
-5.85 1.36 -1.22 153 156 147
-6.00 1.24 -1.06 150 155 148
-6.00 1.16 -1.06 149 154 147
-6.00 1.07 -1.06 148 153 146
-6.00 0.99 -1.06 148 153 147
-6.00 0.91 -1.06 148 153 147
-6.00 0.82 -1.06 148 154 144
-6.00 0.74 -1.06 148 154 144
-6.00 0.66 -1.06 150 155 148
-6.00 0.57 -1.06 152 157 150
-6.00 0.49 -1.06 151 156 150
-6.00 0.41 -1.06 149 154 148
-6.00 0.32 -1.06 147 153 149
-6.00 0.24 -1.06 147 153 149
-6.00 0.16 -1.06 144 151 144
-6.00 0.07 -1.06 143 150 143
-6.00 -0.01 -1.06 142 149 141
-6.00 -0.09 -1.06 144 151 143
-6.00 -0.17 -1.06 147 155 142
-6.00 -0.26 -1.06 149 157 144
-6.00 -0.34 -1.06 146 157 141
-6.00 -0.42 -1.06 144 155 139
-6.00 -0.51 -1.06 138 151 134
-6.00 -0.59 -1.06 139 151 137
-6.00 -0.67 -1.06 141 152 138
-6.00 -0.76 -1.06 142 152 143
-6.00 -0.84 -1.06 142 152 143
-6.00 -0.92 -1.06 144 150 146
-6.00 -1.01 -1.06 144 150 148
-6.00 -1.09 -1.06 146 152 152
-6.00 -1.17 -1.06 147 153 153
-6.00 -1.26 -1.06 146 150 151
-6.00 -1.34 -1.06 145 149 150
-6.00 -1.42 -1.06 150 152 151
-6.00 -1.51 -1.06 148 150 149
-6.00 -1.59 -1.06 145 147 144
-6.00 -1.67 -1.06 146 148 145
-6.00 -1.76 -1.06 144 151 144
-6.00 -1.84 -1.06 144 151 144
-6.00 -1.92 -1.06 144 150 146
-6.00 -2.01 -1.06 144 150 146
-6.00 -2.09 -1.06 146 150 149
-6.00 -2.17 -1.06 147 151 150
-6.00 -2.26 -1.06 149 150 152
-6.00 -2.34 -1.06 150 151 153
-6.00 -2.42 -1.06 147 149 148
-6.00 -2.51 -1.06 145 147 146
-6.00 -2.59 -1.06 143 148 144
-6.00 -2.67 -1.06 145 150 146
-6.00 -2.76 -1.06 146 151 144
-6.00 -2.84 -1.06 145 150 143
-6.00 -2.92 -1.06 146 154 143
-6.00 -3.01 -1.06 144 156 146
-6.00 -3.09 -1.06 144 156 146
-6.00 -3.17 -1.06 144 156 146
-6.00 -3.26 -1.06 144 156 146
-6.00 -3.34 -1.06 146 156 148
-6.00 -3.42 -1.06 146 156 148
-6.00 -3.51 -1.06 147 156 151
-6.00 -3.59 -1.06 147 156 151
-6.00 -3.67 -1.06 149 158 153
-6.00 -3.76 -1.06 148 157 152
-6.00 -3.84 -1.06 148 157 152
-6.00 -3.92 -1.06 149 158 153
-6.00 -4.01 -1.06 152 158 154
-6.00 -4.09 -1.06 151 157 153
-6.00 -4.17 -1.06 153 160 153
-6.00 -4.26 -1.06 156 163 156
-6.00 -4.34 -1.06 155 160 156
-6.00 -4.42 -1.06 156 161 157
-6.00 -4.51 -1.06 157 162 158
-6.00 -4.59 -1.06 158 163 159
-6.00 -4.67 -1.06 156 162 160
-6.00 -4.76 -1.06 156 162 160
-6.00 -4.84 -1.06 157 163 161
-6.00 -4.92 -1.06 157 166 163
-6.00 -5.01 -1.06 157 166 163
-6.00 -5.09 -1.06 157 166 161
-6.00 -5.17 -1.06 157 166 161
-6.00 -5.26 -1.06 157 167 159
-6.00 -5.34 -1.06 158 168 160
-6.00 -5.42 -1.06 158 169 161
-6.00 -5.51 -1.06 158 169 161
-6.00 -5.59 -1.06 157 167 158
-6.00 -5.67 -1.06 157 167 158
-6.00 -5.76 -1.06 158 168 159
-6.00 -5.84 -1.06 158 168 159
-6.00 -5.92 -1.06 159 169 161
-6.00 -6.01 -1.06 160 170 162
-6.00 -6.09 -1.06 160 170 162
-6.00 -6.17 -1.06 160 170 162
-6.00 -6.26 -1.06 158 169 163
-6.12 -6.34 -0.92 158 169 163
-6.12 -6.43 -0.92 159 170 164
-6.12 -6.51 -0.92 159 170 164
-6.12 -6.59 -0.92 159 170 166
-6.00 -6.67 -1.06 158 169 165
-6.00 -6.75 -1.06 157 168 164
-6.00 -6.84 -1.06 157 168 164
-6.00 -6.92 -1.06 159 169 168
-6.00 -7.00 -1.06 159 170 166
-6.00 -7.09 -1.06 160 171 167
-6.00 -7.17 -1.06 159 172 165
-6.00 -7.25 -1.06 159 172 165
-6.00 -7.34 -1.06 161 174 167
-6.00 -7.42 -1.06 164 177 170
-6.00 -7.50 -1.06 165 176 170
-6.00 -7.59 -1.06 167 178 172
-6.00 -7.67 -1.06 171 180 175
-6.00 -7.75 -1.06 173 182 177
-6.12 -7.84 -0.92 175 181 179
-6.12 -7.92 -0.92 175 181 179
-6.12 -8.00 -0.92 175 181 179
-6.12 -8.08 -0.92 176 180 179
-6.12 -8.17 -0.92 176 180 179
-6.12 -8.25 -0.92 179 181 180
-6.12 -8.33 -0.92 178 182 181
-6.12 -8.42 -0.92 177 181 180
-6.12 -8.50 -0.92 176 182 180
-6.12 -8.58 -0.92 176 182 180
-6.00 -8.67 -1.06 175 184 181
-6.00 -8.75 -1.06 177 186 183
-6.00 -8.84 -1.06 176 185 182
-6.12 -8.91 -0.92 176 185 182
-6.12 -9.00 -0.92 178 187 184
-6.12 -9.08 -0.92 180 186 184
-6.00 -9.17 -1.06 178 184 182
-6.00 -9.25 -1.06 178 184 182
-6.00 -9.34 -1.06 179 185 183
-6.00 -9.42 -1.06 180 186 186
-6.00 -9.50 -1.06 178 184 184
-6.00 -9.59 -1.06 177 183 183
-6.00 -9.67 -1.06 180 186 186
-6.00 -9.75 -1.06 181 187 187
-6.00 -9.84 -1.06 181 187 187
-6.00 -9.92 -1.06 182 186 185
-6.00 -10.00 -1.06 182 186 185
-6.00 -10.09 -1.06 183 187 186
-6.00 -10.17 -1.06 184 188 187
-6.00 -10.25 -1.06 179 183 182
-6.00 -10.34 -1.06 183 187 186
-6.00 -10.42 -1.06 183 188 184
-6.00 -10.50 -1.06 179 184 180
-6.00 -10.59 -1.06 183 188 184
-6.00 -10.67 -1.06 182 187 183
-6.00 -10.75 -1.06 186 190 189
-6.12 -10.82 -0.92 189 193 192
-6.12 -10.91 -0.92 181 185 184
-6.12 -10.99 -0.92 182 186 185
-6.12 -11.07 -0.92 179 183 182
-6.12 -11.16 -0.92 252 255 255
-6.12 -11.24 -0.92 248 252 251
-6.12 -11.32 -0.92 251 255 254
-6.12 -11.40 -0.92 251 255 254
-6.12 -11.49 -0.92 251 255 254
-6.12 -11.57 -0.92 251 255 254
-6.12 -11.65 -0.92 251 255 254
-6.12 -11.74 -0.92 251 255 254
-6.12 -11.82 -0.92 251 255 254
-6.12 -11.90 -0.92 251 255 254
-6.12 -11.99 -0.92 249 255 253
-6.12 -12.07 -0.92 247 253 251
-6.12 -12.15 -0.92 246 252 250
-6.00 -12.25 -1.06 249 255 253
-6.00 -12.34 -1.06 251 255 255
-6.00 -12.42 -1.06 241 247 245
-6.00 -12.50 -1.06 209 213 212
-6.00 -12.58 -1.06 178 182 181
-6.00 -12.67 -1.06 177 181 180
-6.00 -12.75 -1.06 190 194 193
-6.00 -12.83 -1.06 192 196 195
-6.00 -12.92 -1.06 190 194 193
-6.00 -13.00 -1.06 189 193 192
-6.00 -13.08 -1.06 185 189 188
-6.00 -13.17 -1.06 189 193 192
-6.00 -13.25 -1.06 196 198 193
-6.00 -13.33 -1.06 193 195 190
-6.00 -13.42 -1.06 190 192 187
-6.12 -13.48 -0.92 188 190 185
-6.12 -13.56 -0.92 190 190 188
-6.12 -13.64 -0.92 192 192 190
-6.12 -13.73 -0.92 194 194 192
-6.12 -13.81 -0.92 194 194 192
-6.12 -13.89 -0.92 193 193 191
-6.12 -13.98 -0.92 193 193 191
-6.12 -14.06 -0.92 193 195 192
-6.12 -14.14 -0.92 193 195 192
-6.12 -14.23 -0.92 193 195 194
-6.12 -14.31 -0.92 193 195 194
-6.00 -14.42 -1.06 192 196 195
-6.00 -14.50 -1.06 194 196 195
-6.00 -14.58 -1.06 195 197 196
-6.00 -14.67 -1.06 194 194 194
-6.00 -14.75 -1.06 194 194 194
-6.00 -14.83 -1.06 196 196 196
-6.00 -14.92 -1.06 197 197 197
-6.00 -15.00 -1.06 196 196 196
-6.00 -15.08 -1.06 197 197 197
-6.00 -15.17 -1.06 196 196 196
-6.00 -15.25 -1.06 198 198 198
-6.00 -15.33 -1.06 198 198 198
-6.00 -15.42 -1.06 196 196 196
-6.12 -15.47 -0.92 195 195 195
-6.12 -15.55 -0.92 194 194 194
-6.12 -15.64 -0.92 193 193 193
-6.12 -15.72 -0.92 191 191 191
-6.12 -15.80 -0.92 188 188 186
-6.12 -15.89 -0.92 176 176 176
-6.12 -15.97 -0.92 180 180 180
-6.12 -16.05 -0.92 159 158 163
-6.12 -16.13 -0.92 0 1 4
-6.27 -16.34 -0.76 52 56 120
-6.12 -16.47 -0.92 45 52 130
-6.12 -16.55 -0.92 46 54 137
-6.27 -16.59 -0.76 46 59 138
-6.27 -16.67 -0.76 44 57 136
-6.27 -16.76 -0.76 41 51 136
-6.39 -16.81 -0.62 42 51 128
-6.51 -16.85 -0.48 46 54 127
-6.64 -16.90 -0.35 52 60 132
-6.64 -16.98 -0.35 43 52 111
-6.64 -17.06 -0.35 51 61 96
-6.79 -17.10 -0.18 81 89 108
-6.79 -17.18 -0.18 110 117 125
-6.79 -17.26 -0.18 130 134 135
-6.79 -17.34 -0.18 143 148 144
-6.79 -17.43 -0.18 157 160 151
-6.79 -17.51 -0.18 159 161 147
-6.64 -17.63 -0.35 133 136 119
-6.64 -17.72 -0.35 137 138 122
-6.79 -17.75 -0.18 169 167 155
-6.79 -17.83 -0.18 181 178 169
-6.64 -17.96 -0.35 177 170 162
-6.64 -18.04 -0.35 179 172 156
-6.64 -18.12 -0.35 187 178 161
-6.64 -18.21 -0.35 183 178 159
-6.51 -18.33 -0.48 183 178 159
-6.51 -18.41 -0.48 183 178 159
-6.51 -18.49 -0.48 182 177 158
-6.51 -18.57 -0.48 179 176 157
-6.51 -18.66 -0.48 177 174 155
-6.39 -18.78 -0.62 175 172 155
-6.27 -18.91 -0.76 174 172 157
-6.27 -18.99 -0.76 173 171 158
-6.27 -19.07 -0.76 170 171 157
-6.27 -19.15 -0.76 168 168 158
-6.39 -19.19 -0.62 167 167 157
-6.39 -19.27 -0.62 165 165 157
-6.39 -19.36 -0.62 163 163 155
-6.39 -19.44 -0.62 162 161 156
-6.51 -19.48 -0.48 162 161 156
-6.51 -19.56 -0.48 162 161 157
-6.64 -19.60 -0.35 160 160 152
-6.64 -19.68 -0.35 161 161 153
-6.64 -19.76 -0.35 168 168 158
-6.64 -19.84 -0.35 164 164 156
-6.64 -19.92 -0.35 137 134 127
-6.79 -19.95 -0.18 104 100 97
-6.79 -20.03 -0.18 40 36 33
-6.79 -20.11 -0.18 27 23 24
-6.79 -20.19 -0.18 21 15 17
-6.79 -20.27 -0.18 26 20 24
-6.91 -20.31 -0.05 34 28 30
-6.91 -20.39 -0.05 47 41 43
-6.91 -20.47 -0.05 74 68 68
-6.91 -20.55 -0.05 114 101 93
-6.91 -20.63 -0.05 128 114 105
-6.91 -20.71 -0.05 129 119 109
-6.91 -20.79 -0.05 99 90 83
-6.91 -20.87 -0.05 87 80 74
-7.03 -20.90 0.09 38 33 30
-7.03 -20.98 0.09 17 16 12
-7.03 -21.07 0.09 25 24 22
-7.03 -21.15 0.09 21 23 22
-7.03 -21.23 0.09 28 30 29
-7.03 -21.31 0.09 38 39 41
-7.15 -21.34 0.23 47 48 50
-7.15 -21.42 0.23 55 57 56
-7.15 -21.50 0.23 62 64 63
-7.28 -21.52 0.37 63 65 62
-7.28 -21.60 0.37 61 63 62
-7.28 -21.68 0.37 59 59 59
-7.40 -21.71 0.50 62 62 64
-7.40 -21.79 0.50 67 68 72
-7.40 -21.87 0.50 73 74 78
-7.28 -22.00 0.37 71 74 79
-7.28 -22.08 0.37 60 63 68
-7.28 -22.17 0.37 41 45 48
-7.28 -22.25 0.37 28 29 33
-7.03 -22.44 0.09 12 7 11
-7.03 -22.52 0.09 14 10 9
-6.51 -22.84 -0.48 20 14 14
-6.51 -22.92 -0.48 34 25 26
-6.51 -23.00 -0.48 20 11 12
-6.51 -23.09 -0.48 60 51 54
-6.27 -23.61 -0.76 217 216 214
-6.27 -23.70 -0.76 219 218 214
-6.27 -23.78 -0.76 222 218 215
-6.27 -23.86 -0.76 221 217 216
-6.27 -23.95 -0.76 220 216 215
-6.27 -24.03 -0.76 219 217 218
-6.27 -24.11 -0.76 220 218 219
-6.27 -24.19 -0.76 221 219 222
-6.27 -24.28 -0.76 221 219 222
-6.27 -24.36 -0.76 222 218 219
-6.27 -24.44 -0.76 221 217 218
-6.27 -24.52 -0.76 222 216 216
-6.27 -24.61 -0.76 221 215 215
-6.27 -24.69 -0.76 220 218 219
-6.27 -24.77 -0.76 221 219 220
-6.27 -24.85 -0.76 223 221 222
-6.27 -24.94 -0.76 224 222 223
-6.27 -25.02 -0.76 225 223 224
-6.27 -25.10 -0.76 224 222 223
-6.12 -25.26 -0.92 223 221 222
-6.12 -25.35 -0.92 224 222 223
-6.27 -25.35 -0.76 223 221 222
-6.27 -25.43 -0.76 223 221 222
-6.27 -25.51 -0.76 224 222 223
-6.27 -25.60 -0.76 223 221 222
-6.27 -25.68 -0.76 221 219 220
-6.27 -25.76 -0.76 221 219 220
-6.27 -25.85 -0.76 223 221 222
-6.27 -25.93 -0.76 227 223 224
-6.27 -26.01 -0.76 226 222 223
-6.27 -26.09 -0.76 226 222 223
-6.27 -26.18 -0.76 227 223 224
-6.27 -26.26 -0.76 228 224 225
-6.27 -26.34 -0.76 228 224 225
-6.27 -26.42 -0.76 228 224 225
-6.27 -26.51 -0.76 227 223 224
-6.27 -26.59 -0.76 227 223 224
-6.27 -26.67 -0.76 227 223 224
-6.27 -26.75 -0.76 227 223 224
-6.27 -26.84 -0.76 227 223 224
-6.27 -26.92 -0.76 228 224 225
-6.12 -27.09 -0.92 229 225 226
-6.27 -27.08 -0.76 229 225 226
-6.27 -27.17 -0.76 228 224 225
-6.27 -27.25 -0.76 228 224 225
-6.27 -27.33 -0.76 228 224 225
-6.27 -27.42 -0.76 228 224 225
-6.27 -27.50 -0.76 228 224 225
-6.27 -27.58 -0.76 228 224 225
-6.27 -27.66 -0.76 228 224 225
-6.27 -27.75 -0.76 229 225 226
-6.27 -27.83 -0.76 228 224 225
-6.39 -27.84 -0.62 228 224 225
-6.39 -27.92 -0.62 228 224 225
-6.39 -28.00 -0.62 229 225 226
-6.39 -28.08 -0.62 228 224 225
-6.39 -28.16 -0.62 228 224 225
-6.39 -28.25 -0.62 228 224 225
-6.39 -28.33 -0.62 227 223 224
-6.39 -28.41 -0.62 225 221 222
-6.39 -28.49 -0.62 226 222 223
-6.39 -28.58 -0.62 227 223 224
-6.39 -28.66 -0.62 228 224 225
-6.27 -28.82 -0.76 228 224 225
-6.39 -28.82 -0.62 229 225 226
-6.39 -28.91 -0.62 230 226 227
-6.39 -28.99 -0.62 228 224 225
-6.27 -29.15 -0.76 230 226 227
-6.27 -29.23 -0.76 228 226 227
-6.27 -29.32 -0.76 227 225 226
-6.27 -29.40 -0.76 227 225 226
-6.27 -29.48 -0.76 228 226 227
-6.27 -29.56 -0.76 229 227 228
-6.27 -29.65 -0.76 228 226 227
-6.27 -29.73 -0.76 225 224 222
-6.27 -29.81 -0.76 228 227 225
-6.27 -29.89 -0.76 230 229 227
-6.27 -29.98 -0.76 230 229 227
-6.27 -30.06 -0.76 229 227 228
-6.27 -30.14 -0.76 228 226 227
-6.27 -30.22 -0.76 231 227 228
-6.12 -30.41 -0.92 232 228 229
-6.12 -30.49 -0.92 232 228 229
-6.12 -30.57 -0.92 232 228 229
-6.12 -30.66 -0.92 233 227 227
-6.12 -30.74 -0.92 232 226 226
-6.12 -30.82 -0.92 232 226 226
-6.27 -30.80 -0.76 234 226 224
-6.27 -30.89 -0.76 234 226 224
-6.27 -30.97 -0.76 230 226 223
-6.27 -31.05 -0.76 231 227 224
-6.27 -31.13 -0.76 232 228 225
-6.39 -31.13 -0.62 232 228 225
-6.39 -31.21 -0.62 232 228 227
-6.39 -31.29 -0.62 233 229 228
-6.39 -31.38 -0.62 233 229 228
-6.39 -31.46 -0.62 233 229 228
-6.51 -31.45 -0.48 235 231 230
-6.51 -31.53 -0.48 234 230 229
-6.39 -31.70 -0.62 234 230 229
-6.39 -31.79 -0.62 234 230 229
-6.39 -31.87 -0.62 236 232 233
-6.27 -32.04 -0.76 236 232 233
-6.27 -32.12 -0.76 236 232 233
-6.27 -32.21 -0.76 235 231 232
-6.27 -32.29 -0.76 0 0 0
-6.27 -32.37 -0.76 0 0 0
-6.27 -32.46 -0.76 0 0 0
-6.27 -32.54 -0.76 0 0 0
-6.27 -32.62 -0.76 0 0 0
-6.39 -32.61 -0.62 0 0 0
-6.39 -32.69 -0.62 0 0 0
-6.39 -32.77 -0.62 0 0 0
-6.39 -32.86 -0.62 0 0 0
-6.39 -32.94 -0.62 0 0 0
-6.39 -33.02 -0.62 0 0 0
-6.39 -33.10 -0.62 0 0 0
-6.39 -33.19 -0.62 0 0 0
-6.39 -33.27 -0.62 0 0 0
-6.27 -33.45 -0.76 0 0 0
-5.89 19.68 -1.29 0 0 0
-5.89 19.60 -1.29 0 0 0
-5.89 19.51 -1.29 0 0 0
-5.89 19.43 -1.29 0 0 0
-5.89 19.35 -1.29 0 0 0
-5.89 19.26 -1.29 0 0 0
-5.89 19.18 -1.29 0 0 0
-5.89 19.10 -1.29 0 0 0
-5.89 19.01 -1.29 0 0 0
-5.89 18.93 -1.29 118 109 104
-5.89 18.85 -1.29 118 109 104
-5.89 18.76 -1.29 118 108 106
-5.89 18.68 -1.29 116 106 104
-5.89 18.59 -1.29 115 105 104
-5.89 18.51 -1.29 113 104 105
-5.89 18.43 -1.29 114 105 106
-5.89 18.34 -1.29 113 108 105
-5.89 18.26 -1.29 115 110 106
-5.89 18.18 -1.29 115 110 104
-5.89 18.09 -1.29 114 110 101
-6.04 17.90 -1.13 113 109 97
-6.04 17.82 -1.13 113 109 97
-6.04 17.73 -1.13 114 110 98
-6.04 17.65 -1.13 115 111 99
-6.04 17.57 -1.13 118 111 101
-6.04 17.48 -1.13 118 111 101
-6.04 17.40 -1.13 117 110 102
-6.04 17.32 -1.13 117 110 102
-6.04 17.23 -1.13 117 110 102
-6.04 17.15 -1.13 116 111 105
-6.04 17.07 -1.13 116 111 105
-6.04 16.98 -1.13 116 111 105
-6.04 16.90 -1.13 115 110 104
-6.04 16.82 -1.13 115 110 104
-5.89 16.84 -1.29 116 111 105
-5.89 16.75 -1.29 116 111 105
-6.04 16.57 -1.13 116 111 105
-6.04 16.48 -1.13 118 111 105
-6.04 16.40 -1.13 118 111 105
-6.04 16.32 -1.13 118 111 105
-6.04 16.23 -1.13 119 112 106
-6.04 16.15 -1.13 119 110 105
-6.04 16.07 -1.13 119 110 105
-6.04 15.98 -1.13 120 111 106
-6.04 15.90 -1.13 120 111 106
-6.04 15.82 -1.13 120 113 107
-6.04 15.73 -1.13 118 111 105
-6.04 15.65 -1.13 116 109 101
-6.04 15.57 -1.13 115 108 100
-5.89 15.58 -1.29 114 107 99
-5.89 15.50 -1.29 116 109 101
-5.89 15.42 -1.29 118 111 103
-5.89 15.33 -1.29 117 110 102
-5.89 15.25 -1.29 112 108 99
-5.89 15.16 -1.29 112 108 99
-5.89 15.08 -1.29 113 108 102
-5.89 15.00 -1.29 111 106 100
-5.89 14.91 -1.29 112 107 103
-5.89 14.83 -1.29 112 107 101
-5.77 14.83 -1.43 113 108 102
-5.77 14.74 -1.43 114 107 97
-5.77 14.66 -1.43 113 106 96
-5.89 14.50 -1.29 112 106 94
-5.89 14.41 -1.29 111 105 93
-5.89 14.33 -1.29 113 107 95
-5.89 14.24 -1.29 113 107 95
-5.89 14.16 -1.29 115 109 97
-6.04 13.98 -1.13 116 109 99
-6.04 13.90 -1.13 116 107 98
-6.04 13.82 -1.13 115 106 99
-6.04 13.73 -1.13 113 104 99
-6.04 13.65 -1.13 112 103 98
-6.04 13.57 -1.13 114 106 103
-6.04 13.48 -1.13 112 104 101
-6.04 13.40 -1.13 112 105 99
-6.04 13.32 -1.13 113 106 100
-6.04 13.23 -1.13 112 105 97
-6.04 13.15 -1.13 111 104 94
-6.04 13.07 -1.13 113 106 96
-6.04 12.98 -1.13 113 107 95
-6.04 12.90 -1.13 113 107 95
-6.04 12.82 -1.13 113 107 95
-6.04 12.73 -1.13 113 107 95
-6.04 12.65 -1.13 115 107 96
-6.04 12.57 -1.13 116 108 97
-6.04 12.48 -1.13 117 109 98
-6.04 12.40 -1.13 118 109 100
-6.04 12.32 -1.13 118 109 102
-6.04 12.23 -1.13 117 108 103
-5.89 12.24 -1.29 117 108 103
-5.89 12.15 -1.29 116 107 102
-6.04 11.99 -1.13 116 107 100
-6.04 11.90 -1.13 117 108 101
-6.04 11.82 -1.13 117 110 102
-6.04 11.74 -1.13 118 111 103
-6.04 11.65 -1.13 115 108 100
-6.04 11.57 -1.13 115 108 100
-6.04 11.49 -1.13 115 108 100
-6.04 11.40 -1.13 115 108 100
-6.04 11.32 -1.13 115 108 102
-6.04 11.24 -1.13 116 109 103
-6.04 11.15 -1.13 118 113 109
-6.04 11.07 -1.13 117 112 108
-6.04 10.99 -1.13 118 113 110
-6.04 10.90 -1.13 119 114 111
-6.04 10.82 -1.13 119 114 111
-6.04 10.74 -1.13 118 112 112
-6.04 10.65 -1.13 118 112 112
-6.04 10.57 -1.13 118 112 114
-6.04 10.49 -1.13 118 112 114
-6.04 10.40 -1.13 117 111 111
-6.04 10.32 -1.13 118 113 110
-6.04 10.24 -1.13 120 115 111
-6.04 10.15 -1.13 121 117 108
-6.04 10.07 -1.13 121 117 106
-6.04 9.99 -1.13 121 117 105
-6.04 9.90 -1.13 121 118 103
-6.04 9.82 -1.13 122 118 106
-6.04 9.74 -1.13 117 117 105
-6.16 9.59 -0.99 119 116 107
-9.95 7.61 3.23 119 116 109
-9.95 7.53 3.23 120 115 109
-9.95 7.46 3.23 121 114 108
-9.95 7.39 3.23 120 113 107
-9.95 7.31 3.23 121 116 112
-9.95 7.24 3.23 122 119 112
-9.95 7.16 3.23 121 118 111
-9.95 7.09 3.23 122 118 109
-9.95 7.02 3.23 124 117 109
-9.95 6.94 3.23 125 115 105
-9.95 6.87 3.23 123 109 100
-9.95 6.80 3.23 119 102 94
-9.95 6.72 3.23 121 98 92
-9.95 6.65 3.23 126 99 90
-9.95 6.58 3.23 132 99 92
-9.95 6.50 3.23 135 103 92
-9.95 6.43 3.23 140 104 92
-9.95 6.35 3.23 146 106 94
-9.95 6.28 3.23 152 110 94
-9.95 6.21 3.23 160 117 100
-9.95 6.13 3.23 165 122 103
-9.85 6.10 3.12 168 128 103
-9.85 6.03 3.12 168 128 103
-9.85 5.96 3.12 167 127 102
-9.85 5.88 3.12 166 126 101
-9.85 5.81 3.12 166 124 99
-9.85 5.73 3.12 168 124 99
-9.85 5.66 3.12 168 123 100
-9.85 5.59 3.12 170 124 101
-9.85 5.51 3.12 167 123 96
-9.85 5.29 3.12 171 125 102
-9.85 5.22 3.12 174 127 107
-9.85 5.14 3.12 178 133 114
-9.85 5.07 3.12 183 138 119
-9.85 5.00 3.12 192 146 130
-9.85 4.92 3.12 200 154 138
-9.85 4.85 3.12 204 161 144
-9.73 4.82 2.98 204 161 144
-9.73 4.75 2.98 202 161 141
-9.73 4.68 2.98 201 160 140
-9.73 4.60 2.98 200 159 139
-9.73 4.53 2.98 198 157 137
-9.73 4.45 2.98 191 150 132
-9.73 4.38 2.98 184 143 125
-9.63 4.34 2.87 175 134 116
-9.63 4.27 2.87 170 129 111
-9.63 4.19 2.87 168 127 107
-9.53 4.16 2.76 169 128 108
-9.53 4.08 2.76 173 132 110
-9.53 4.01 2.76 177 136 114
-9.41 3.98 2.63 184 143 121
-9.41 3.90 2.63 193 152 130
-9.41 3.83 2.63 201 160 138
-9.41 3.75 2.63 210 167 148
-9.41 3.68 2.63 213 170 151
-9.31 3.64 2.52 211 168 149
-9.31 3.56 2.52 205 167 146
-9.31 3.49 2.52 203 177 154
-9.31 3.41 2.52 212 186 161
-9.19 3.38 2.38 139 105 80
-9.19 3.31 2.38 69 23 0
-9.19 3.23 2.38 76 14 0
-9.19 3.16 2.38 99 22 4
-9.19 3.08 2.38 110 21 5
-9.09 3.04 2.27 108 15 0
-9.09 2.96 2.27 112 24 10
-9.09 2.89 2.27 119 40 23
-9.09 2.81 2.27 134 72 51
-9.09 2.73 2.27 146 92 68
-9.09 2.66 2.27 154 109 80
-9.09 2.58 2.27 163 118 89
-9.09 2.51 2.27 167 118 88
-9.09 2.43 2.27 176 126 99
-9.09 2.36 2.27 182 135 107
-9.09 2.28 2.27 189 142 116
-9.09 2.20 2.27 192 144 121
-6.04 2.91 -1.13 199 156 137
-6.04 2.82 -1.13 195 158 140
-6.04 2.74 -1.13 183 154 138
-6.04 2.66 -1.13 181 159 145
-6.16 2.54 -0.99 177 164 148
-6.16 2.45 -0.99 174 166 153
-6.16 2.37 -0.99 170 166 155
-6.16 2.29 -0.99 168 165 156
-6.16 2.21 -0.99 165 166 158
-6.04 2.16 -1.13 166 167 161
-6.04 2.07 -1.13 164 165 159
-6.04 1.99 -1.13 165 166 161
-6.04 1.91 -1.13 165 166 160
-6.04 1.82 -1.13 166 167 161
-6.04 1.74 -1.13 165 168 161
-6.04 1.66 -1.13 164 167 160
-6.04 1.57 -1.13 164 167 158
-6.04 1.49 -1.13 163 166 157
-6.04 1.41 -1.13 169 172 163
-6.04 1.32 -1.13 168 171 162
-6.04 1.24 -1.13 166 169 160
-6.04 1.16 -1.13 164 167 158
-6.04 1.07 -1.13 162 165 156
-6.04 0.99 -1.13 162 165 158
-6.04 0.91 -1.13 162 165 158
-6.04 0.82 -1.13 162 165 156
-6.16 0.71 -0.99 159 162 153
-6.16 0.63 -0.99 157 160 153
-6.16 0.55 -0.99 159 162 155
-6.04 0.49 -1.13 161 163 158
-6.04 0.41 -1.13 161 163 158
-6.04 0.32 -1.13 157 162 158
-6.04 0.24 -1.13 157 162 158
-6.04 0.16 -1.13 155 160 156
-6.04 0.07 -1.13 156 161 157
-6.04 -0.01 -1.13 157 162 156
-6.04 -0.09 -1.13 159 164 158
-6.04 -0.17 -1.13 161 167 157
-6.04 -0.26 -1.13 161 167 157
-6.16 -0.37 -0.99 160 166 154
-6.16 -0.45 -0.99 159 165 153
-6.16 -0.53 -0.99 155 161 149
-6.16 -0.62 -0.99 156 162 150
-6.04 -0.67 -1.13 156 162 152
-6.04 -0.76 -1.13 156 162 152
-6.04 -0.84 -1.13 154 161 153
-6.16 -0.95 -0.99 155 162 155
-6.16 -1.03 -0.99 156 162 158
-6.16 -1.11 -0.99 154 160 156
-6.16 -1.20 -0.99 156 162 158
-6.04 -1.26 -1.13 155 161 157
-6.04 -1.34 -1.13 154 160 156
-6.04 -1.42 -1.13 157 163 159
-6.04 -1.51 -1.13 156 162 158
-6.04 -1.59 -1.13 153 160 153
-6.04 -1.67 -1.13 154 161 154
-6.04 -1.76 -1.13 154 161 154
-6.04 -1.84 -1.13 154 161 154
-6.04 -1.92 -1.13 154 161 154
-6.04 -2.01 -1.13 154 161 154
-6.16 -2.11 -0.99 156 161 157
-6.16 -2.19 -0.99 156 161 157
-6.16 -2.28 -0.99 157 161 160
-6.16 -2.36 -0.99 157 161 160
-6.16 -2.44 -0.99 154 158 157
-6.16 -2.52 -0.99 153 157 156
-6.16 -2.61 -0.99 153 158 154
-6.04 -2.67 -1.13 155 160 156
-6.04 -2.76 -1.13 156 163 155
-6.04 -2.84 -1.13 155 162 154
-6.16 -2.94 -0.99 153 161 150
-6.16 -3.02 -0.99 154 164 153
-6.16 -3.11 -0.99 152 162 151
-6.16 -3.19 -0.99 154 161 153
-6.16 -3.27 -0.99 154 161 153
-6.16 -3.35 -0.99 156 163 156
-6.16 -3.44 -0.99 157 164 157
-6.16 -3.52 -0.99 156 163 156
-6.16 -3.60 -0.99 154 161 154
-6.16 -3.69 -0.99 155 161 157
-6.16 -3.77 -0.99 154 160 156
-6.16 -3.85 -0.99 155 160 154
-6.16 -3.94 -0.99 156 161 155
-6.16 -4.02 -0.99 157 162 156
-6.16 -4.10 -0.99 157 162 156
-6.16 -4.18 -0.99 159 164 157
-6.16 -4.27 -0.99 162 167 161
-6.16 -4.35 -0.99 162 167 161
-6.16 -4.43 -0.99 162 167 163
-6.16 -4.52 -0.99 162 167 163
-6.16 -4.60 -0.99 162 167 163
-6.04 -4.67 -1.13 161 166 162
-6.04 -4.76 -1.13 162 167 163
-6.04 -4.84 -1.13 162 168 164
-6.04 -4.92 -1.13 162 168 164
-6.04 -5.01 -1.13 162 168 164
-6.04 -5.09 -1.13 160 170 162
-6.04 -5.17 -1.13 161 171 163
-6.16 -5.26 -0.99 161 171 162
-6.16 -5.35 -0.99 162 172 163
-6.16 -5.43 -0.99 162 174 164
-6.16 -5.51 -0.99 163 175 165
-6.16 -5.60 -0.99 161 171 163
-6.16 -5.68 -0.99 161 171 163
-6.16 -5.76 -0.99 161 171 163
-6.16 -5.84 -0.99 161 171 163
-6.16 -5.93 -0.99 162 172 164
-6.16 -6.01 -0.99 163 173 165
-6.16 -6.09 -0.99 164 174 166
-6.16 -6.18 -0.99 165 175 167
-6.16 -6.26 -0.99 164 173 168
-6.16 -6.34 -0.99 164 173 168
-6.16 -6.43 -0.99 164 175 169
-6.16 -6.51 -0.99 165 176 170
-6.16 -6.59 -0.99 164 175 171
-6.16 -6.67 -0.99 163 174 170
-6.16 -6.76 -0.99 162 173 169
-6.16 -6.84 -0.99 161 172 168
-6.16 -6.92 -0.99 164 175 171
-6.16 -7.01 -0.99 164 175 171
-6.16 -7.09 -0.99 165 176 172
-6.16 -7.17 -0.99 165 176 170
-6.16 -7.25 -0.99 165 176 170
-6.16 -7.34 -0.99 166 177 171
-6.16 -7.42 -0.99 168 179 173
-6.16 -7.50 -0.99 168 179 173
-6.16 -7.59 -0.99 170 181 175
-6.16 -7.67 -0.99 172 181 176
-6.16 -7.75 -0.99 173 182 177
-6.16 -7.84 -0.99 175 181 179
-6.16 -7.92 -0.99 174 180 178
-6.16 -8.00 -0.99 175 179 178
-6.16 -8.08 -0.99 175 179 178
-6.16 -8.17 -0.99 176 178 177
-6.16 -8.25 -0.99 178 180 179
-6.16 -8.33 -0.99 179 183 182
-6.16 -8.42 -0.99 179 183 182
-6.16 -8.50 -0.99 176 182 180
-6.16 -8.58 -0.99 175 181 179
-6.16 -8.67 -0.99 176 182 180
-6.16 -8.75 -0.99 178 184 182
-6.16 -8.83 -0.99 174 183 180
-6.16 -8.91 -0.99 177 183 181
-6.16 -9.00 -0.99 179 185 183
-6.16 -9.08 -0.99 180 186 184
-6.16 -9.16 -0.99 179 185 183
-6.16 -9.25 -0.99 179 185 183
-6.16 -9.33 -0.99 180 186 184
-6.16 -9.41 -0.99 180 186 184
-6.16 -9.50 -0.99 178 184 182
-6.16 -9.58 -0.99 177 183 181
-6.16 -9.66 -0.99 179 185 183
-6.16 -9.74 -0.99 180 186 184
-6.16 -9.83 -0.99 180 186 184
-6.16 -9.91 -0.99 182 186 185
-6.16 -9.99 -0.99 183 187 186
-6.16 -10.08 -0.99 183 187 186
-6.16 -10.16 -0.99 185 189 188
-6.16 -10.24 -0.99 181 185 184
-6.16 -10.33 -0.99 184 188 187
-6.16 -10.41 -0.99 183 188 184
-6.16 -10.49 -0.99 180 185 181
-6.04 -10.59 -1.13 185 190 186
-6.16 -10.66 -0.99 184 189 185
-6.16 -10.74 -0.99 183 187 186
-6.16 -10.82 -0.99 186 190 189
-6.16 -10.91 -0.99 176 180 179
-6.16 -10.99 -0.99 174 178 177
-6.16 -11.07 -0.99 246 250 249
-6.16 -11.16 -0.99 244 248 247
-6.16 -11.24 -0.99 252 255 255
-6.16 -11.32 -0.99 251 255 254
-6.16 -11.40 -0.99 251 255 254
-6.16 -11.49 -0.99 251 255 254
-6.16 -11.57 -0.99 251 255 254
-6.16 -11.65 -0.99 251 255 254
-6.16 -11.74 -0.99 251 255 254
-6.16 -11.82 -0.99 251 255 254
-6.16 -11.90 -0.99 251 255 254
-6.16 -11.99 -0.99 249 255 253
-6.16 -12.07 -0.99 251 255 255
-6.16 -12.15 -0.99 251 255 255
-6.16 -12.23 -0.99 245 251 249
-6.16 -12.32 -0.99 248 254 252
-6.16 -12.40 -0.99 251 255 255
-6.04 -12.50 -1.13 246 250 249
-6.04 -12.58 -1.13 229 233 232
-6.16 -12.65 -0.99 185 189 188
-6.16 -12.73 -0.99 174 178 177
-6.16 -12.81 -0.99 178 182 181
-6.16 -12.90 -0.99 186 190 189
-6.16 -12.98 -0.99 193 197 196
-6.16 -13.06 -0.99 196 200 199
-6.16 -13.15 -0.99 186 190 189
-6.16 -13.23 -0.99 191 193 188
-6.16 -13.31 -0.99 190 192 187
-6.16 -13.40 -0.99 191 192 187
-6.16 -13.48 -0.99 193 194 189
-6.16 -13.56 -0.99 193 194 189
-6.16 -13.64 -0.99 191 192 187
-6.16 -13.73 -0.99 192 193 188
-6.16 -13.81 -0.99 195 196 191
-6.16 -13.89 -0.99 192 192 190
-6.16 -13.98 -0.99 193 193 191
-6.31 -14.03 -0.83 193 195 192
-6.31 -14.11 -0.83 193 195 192
-6.16 -14.23 -0.99 191 196 192
-6.16 -14.31 -0.99 191 196 192
-6.16 -14.39 -0.99 191 197 193
-6.04 -14.50 -1.13 192 197 193
-6.16 -14.56 -0.99 193 195 194
-6.16 -14.64 -0.99 193 193 193
-6.16 -14.72 -0.99 194 194 194
-6.16 -14.81 -0.99 196 196 196
-6.16 -14.89 -0.99 197 197 197
-6.16 -14.97 -0.99 196 196 196
-6.16 -15.06 -0.99 196 196 196
-6.16 -15.14 -0.99 197 197 197
-6.16 -15.22 -0.99 198 198 198
-6.16 -15.30 -0.99 197 197 197
-6.16 -15.39 -0.99 195 195 195
-6.16 -15.47 -0.99 194 194 194
-6.16 -15.55 -0.99 194 194 194
-6.16 -15.64 -0.99 191 191 191
-6.16 -15.72 -0.99 187 187 187
-6.16 -15.80 -0.99 176 176 174
-6.16 -15.89 -0.99 161 161 159
-6.16 -15.97 -0.99 170 170 170
-6.16 -16.05 -0.99 155 155 155
-6.16 -16.13 -0.99 9 13 12
-6.31 -16.34 -0.83 49 54 112
-6.31 -16.43 -0.83 54 62 135
-6.31 -16.51 -0.83 53 62 141
-6.43 -16.56 -0.69 49 63 138
-6.43 -16.64 -0.69 47 61 136
-6.56 -16.69 -0.55 44 56 138
-6.56 -16.77 -0.55 43 54 133
-6.56 -16.85 -0.55 46 54 129
-6.68 -16.90 -0.42 47 54 122
-6.68 -16.98 -0.42 47 53 105
-6.68 -17.06 -0.42 64 72 95
-6.83 -17.10 -0.25 99 107 110
-6.83 -17.18 -0.25 131 136 129
-6.83 -17.26 -0.25 144 147 136
-6.83 -17.34 -0.25 148 149 141
-6.83 -17.43 -0.25 150 151 143
-6.83 -17.51 -0.25 157 160 143
-6.68 -17.63 -0.42 167 170 149
-6.68 -17.72 -0.42 172 174 152
-6.83 -17.75 -0.25 170 169 149
-6.83 -17.83 -0.25 172 170 155
-6.83 -17.91 -0.25 184 177 167
-6.68 -18.04 -0.42 185 178 170
-6.68 -18.12 -0.42 177 168 159
-6.68 -18.21 -0.42 177 173 161
-6.56 -18.33 -0.55 176 173 158
-6.56 -18.41 -0.55 176 173 156
-6.56 -18.49 -0.55 176 173 156
-6.56 -18.57 -0.55 178 175 158
-6.56 -18.66 -0.55 178 175 158
-6.43 -18.78 -0.69 175 173 158
-6.43 -18.86 -0.69 176 174 161
-6.31 -18.99 -0.83 175 173 160
-6.31 -19.07 -0.83 173 173 161
-6.43 -19.11 -0.69 172 172 160
-6.43 -19.19 -0.69 170 170 160
-6.43 -19.27 -0.69 167 167 157
-6.43 -19.36 -0.69 164 164 156
-6.43 -19.44 -0.69 161 161 153
-6.56 -19.48 -0.55 166 163 156
-6.56 -19.56 -0.55 165 162 155
-6.56 -19.64 -0.55 163 160 151
-6.68 -19.68 -0.42 160 157 148
-6.68 -19.76 -0.42 160 157 148
-6.68 -19.84 -0.42 160 157 148
-6.68 -19.92 -0.42 162 159 152
