ply
format ascii 1.0
element vertex 1618
property float x
property float y
property float z
property uchar red
property uchar green
property uchar blue
end_header
-6.68 -30.79 -0.77 234 230 229
-6.68 -30.88 -0.77 233 229 228
-6.80 -30.87 -0.63 232 228 227
-6.80 -30.95 -0.63 232 228 227
-6.80 -31.04 -0.63 232 228 227
-6.80 -31.12 -0.63 232 228 227
-6.80 -31.20 -0.63 233 229 228
-6.80 -31.28 -0.63 234 230 229
-6.80 -31.36 -0.63 232 228 227
-6.80 -31.44 -0.63 234 230 229
-6.80 -31.53 -0.63 235 231 230
-6.80 -31.61 -0.63 235 231 230
-6.80 -31.69 -0.63 235 231 230
-6.80 -31.77 -0.63 234 230 229
-6.80 -31.85 -0.63 235 231 230
-6.80 -31.93 -0.63 236 232 231
-6.80 -32.02 -0.63 0 0 0
-6.80 -32.10 -0.63 0 0 0
-6.80 -32.18 -0.63 0 0 0
-6.80 -32.26 -0.63 0 0 0
-6.68 -32.44 -0.77 0 0 0
-6.68 -32.52 -0.77 0 0 0
-6.68 -32.60 -0.77 0 0 0
-6.68 -32.68 -0.77 0 0 0
-6.68 -32.76 -0.77 0 0 0
-6.68 -32.85 -0.77 0 0 0
-6.68 -32.93 -0.77 0 0 0
-6.68 -33.01 -0.77 0 0 0
-6.68 -33.09 -0.77 0 0 0
-6.68 -33.17 -0.77 0 0 0
-6.68 -33.26 -0.77 0 0 0
-6.48 19.35 -1.11 0 0 0
-6.48 19.27 -1.11 0 0 0
-6.33 19.30 -1.28 0 0 0
-6.33 19.22 -1.28 0 0 0
-6.33 19.13 -1.28 0 0 0
-6.33 19.05 -1.28 0 0 0
-6.33 18.97 -1.28 0 0 0
-6.21 18.98 -1.42 0 0 0
-6.21 18.90 -1.42 0 0 0
-6.33 18.72 -1.28 124 123 118
-6.33 18.64 -1.28 124 123 118
-6.48 18.44 -1.11 121 120 115
-6.48 18.36 -1.11 121 118 111
-6.48 18.27 -1.11 120 117 110
-6.48 18.19 -1.11 119 116 107
-6.48 18.11 -1.11 120 117 108
-6.48 18.03 -1.11 120 116 107
-6.48 17.94 -1.11 120 116 107
-6.48 17.86 -1.11 119 112 102
-6.48 17.78 -1.11 121 114 104
-6.48 17.70 -1.11 124 115 108
-6.48 17.61 -1.11 123 114 107
-6.48 17.53 -1.11 122 111 105
-6.48 17.45 -1.11 122 111 105
-6.48 17.37 -1.11 123 112 106
-6.48 17.28 -1.11 125 114 108
-6.48 17.20 -1.11 123 114 109
-6.48 17.12 -1.11 123 114 109
-6.48 17.04 -1.11 122 115 109
-6.48 16.95 -1.11 121 116 110
-6.48 16.87 -1.11 121 116 110
-6.33 16.89 -1.28 119 116 109
-6.33 16.81 -1.28 119 116 109
-6.33 16.73 -1.28 120 117 108
-6.48 16.54 -1.11 119 116 107
-6.33 16.56 -1.28 119 115 106
-6.33 16.48 -1.28 119 115 106
-6.33 16.40 -1.28 121 114 106
-6.48 16.21 -1.11 121 114 106
-6.48 16.13 -1.11 120 111 104
-6.48 16.04 -1.11 119 110 103
-6.48 15.96 -1.11 123 114 109
-6.48 15.88 -1.11 121 112 107
-6.48 15.80 -1.11 121 112 107
-6.48 15.71 -1.11 122 113 108
-6.48 15.63 -1.11 121 112 107
-6.48 15.55 -1.11 120 111 106
-6.48 15.47 -1.11 119 112 104
-6.48 15.38 -1.11 120 113 105
-6.48 15.30 -1.11 120 113 105
-6.48 15.22 -1.11 120 113 105
-6.33 15.23 -1.28 117 113 102
-6.33 15.15 -1.28 117 113 102
-6.33 15.07 -1.28 117 113 102
-6.33 14.98 -1.28 119 115 103
-6.33 14.90 -1.28 119 115 104
-6.33 14.82 -1.28 117 113 104
-6.33 14.74 -1.28 116 111 105
-6.33 14.65 -1.28 116 111 105
-6.33 14.57 -1.28 116 111 105
-6.33 14.49 -1.28 117 113 104
-6.33 14.40 -1.28 117 113 104
-6.33 14.32 -1.28 117 112 106
-6.33 14.24 -1.28 117 112 106
-6.33 14.16 -1.28 115 110 106
-6.33 14.07 -1.28 115 110 106
-6.33 13.99 -1.28 115 110 107
-6.33 13.91 -1.28 114 109 106
-6.33 13.82 -1.28 113 107 107
-6.48 13.65 -1.11 112 106 106
-6.48 13.56 -1.11 112 106 108
-6.48 13.48 -1.11 112 106 108
-6.48 13.40 -1.11 108 102 102
-6.48 13.32 -1.11 111 105 105
-6.48 13.23 -1.11 111 106 103
-6.48 13.15 -1.11 109 104 101
-6.48 13.07 -1.11 109 104 100
-6.48 12.99 -1.11 112 107 101
-6.48 12.90 -1.11 110 105 99
-6.48 12.82 -1.11 112 107 101
-6.48 12.74 -1.11 112 107 101
-6.48 12.66 -1.11 112 107 101
-6.48 12.57 -1.11 111 106 100
-6.48 12.49 -1.11 110 105 101
-6.48 12.41 -1.11 110 105 101
-6.48 12.33 -1.11 110 105 101
-6.48 12.24 -1.11 110 105 101
-6.33 12.25 -1.28 111 106 103
-6.33 12.16 -1.28 114 109 106
-6.33 12.08 -1.28 114 109 105
-6.33 12.00 -1.28 112 107 103
-6.33 11.91 -1.28 113 108 102
-6.33 11.83 -1.28 116 111 105
-6.48 11.66 -1.11 116 112 103
-6.48 11.58 -1.11 113 109 100
-6.48 11.50 -1.11 115 111 102
-6.48 11.42 -1.11 115 111 102
-6.48 11.33 -1.11 114 110 101
-6.48 11.25 -1.11 114 110 101
-6.48 11.17 -1.11 115 110 104
-6.48 11.09 -1.11 115 110 104
-6.48 11.00 -1.11 115 110 106
-6.48 10.92 -1.11 116 111 107
-6.48 10.84 -1.11 116 111 108
-6.48 10.76 -1.11 116 111 108
-6.48 10.67 -1.11 117 112 109
-6.48 10.59 -1.11 117 112 108
-6.48 10.51 -1.11 117 112 108
-6.48 10.43 -1.11 118 113 109
-6.48 10.34 -1.11 118 113 109
-6.48 10.26 -1.11 120 115 109
-6.48 10.18 -1.11 118 113 107
-6.48 10.09 -1.11 119 112 104
-6.48 10.01 -1.11 121 114 106
-6.48 9.93 -1.11 123 116 108
-6.48 9.85 -1.11 123 116 108
-6.48 9.76 -1.11 123 116 108
-6.48 9.68 -1.11 124 117 109
-6.33 9.67 -1.28 117 113 104
-6.48 9.52 -1.11 121 117 108
-6.48 9.43 -1.11 125 118 110
-6.60 9.29 -0.98 124 117 109
-6.60 9.21 -0.98 124 115 108
-6.72 9.06 -0.84 126 117 110
-6.72 8.98 -0.84 127 120 112
-6.72 8.90 -0.84 120 117 108
-9.88 7.27 2.73 119 119 109
-10.00 7.14 2.86 120 120 110
-10.00 7.06 2.86 121 118 109
-10.10 6.94 2.97 121 118 111
-10.10 6.87 2.97 125 118 112
-10.10 6.80 2.97 125 118 112
-10.10 6.72 2.97 125 116 111
-10.10 6.65 2.97 116 106 97
-10.10 6.58 2.97 116 103 95
-10.10 6.50 2.97 115 98 90
-10.10 6.43 2.97 121 98 92
-10.10 6.35 2.97 130 103 94
-10.10 6.28 2.97 134 101 94
-10.10 6.21 2.97 139 102 93
-10.10 6.13 2.97 147 109 98
-10.10 6.06 2.97 153 113 101
-10.10 5.99 2.97 156 117 102
-10.10 5.91 2.97 163 121 105
-10.10 5.84 2.97 167 125 109
-10.10 5.77 2.97 170 127 110
-10.10 5.69 2.97 172 126 110
-10.10 5.62 2.97 172 126 110
-10.10 5.54 2.97 172 125 107
-10.10 5.47 2.97 162 120 96
-10.10 5.40 2.97 162 120 96
-10.10 5.32 2.97 164 122 98
-10.10 5.25 2.97 167 126 104
-10.10 5.18 2.97 169 128 106
-10.10 5.10 2.97 168 130 109
-10.10 5.03 2.97 167 129 108
-10.10 4.96 2.97 167 129 110
-10.10 4.88 2.97 176 138 119
-10.10 4.81 2.97 187 145 129
-10.10 4.73 2.97 192 150 134
-10.00 4.70 2.86 194 151 135
-10.00 4.63 2.86 195 152 136
-10.00 4.55 2.86 197 153 140
-10.00 4.48 2.86 198 156 142
-10.00 4.40 2.86 188 150 131
-10.00 4.33 2.86 187 150 131
-9.88 4.30 2.73 185 148 129
-9.88 4.23 2.73 177 140 121
-9.88 4.16 2.73 167 132 112
-9.88 4.08 2.73 160 125 105
-9.78 4.05 2.62 157 122 103
-9.78 3.97 2.62 157 122 103
-9.78 3.90 2.62 161 126 107
-9.68 3.86 2.51 170 134 118
-9.68 3.78 2.51 176 140 124
-9.68 3.71 2.51 179 142 126
-9.68 3.63 2.51 182 145 129
-9.56 3.60 2.37 191 151 139
-9.56 3.53 2.37 197 160 144
-9.56 3.45 2.37 201 166 146
-9.46 3.41 2.26 206 174 151
-9.46 3.34 2.26 201 167 142
-9.46 3.26 2.26 209 175 150
-9.46 3.19 2.26 195 160 138
-9.34 3.16 2.12 187 155 134
-9.34 3.08 2.12 130 102 80
-9.34 3.00 2.12 74 52 31
-9.34 2.93 2.12 55 38 18
-9.34 2.85 2.12 61 50 30
-9.34 2.78 2.12 59 54 34
-9.34 2.70 2.12 43 41 20
-9.34 2.63 2.12 26 26 2
-9.34 2.55 2.12 28 28 4
-9.24 2.51 2.01 60 60 32
-9.24 2.28 2.01 152 120 99
-9.24 2.20 2.01 171 136 116
-9.24 2.13 2.01 186 147 130
-9.24 2.05 2.01 194 152 136
-6.33 2.70 -1.28 182 153 139
-6.33 2.62 -1.28 179 152 141
-6.33 2.54 -1.28 177 159 149
-6.48 2.41 -1.11 180 165 158
-6.48 2.33 -1.11 179 170 165
-6.48 2.25 -1.11 175 167 165
-6.48 2.16 -1.11 171 167 164
-6.48 2.08 -1.11 171 170 166
-6.48 2.00 -1.11 170 171 163
-6.48 1.92 -1.11 168 171 160
-6.48 1.83 -1.11 168 171 160
-6.48 1.75 -1.11 168 171 160
-6.48 1.67 -1.11 169 170 162
-6.48 1.58 -1.11 168 169 161
-6.48 1.50 -1.11 167 168 160
-6.48 1.42 -1.11 167 168 160
-6.48 1.34 -1.11 168 169 163
-6.48 1.25 -1.11 170 171 165
-6.48 1.17 -1.11 171 172 166
-6.48 1.09 -1.11 170 171 165
-6.48 1.01 -1.11 166 168 163
-6.48 0.92 -1.11 166 168 163
-6.48 0.84 -1.11 167 169 164
-6.48 0.76 -1.11 170 173 164
-6.60 0.65 -0.98 169 172 163
-6.48 0.59 -1.11 167 170 161
-6.60 0.48 -0.98 166 169 160
-6.48 0.43 -1.11 164 167 160
-6.48 0.35 -1.11 163 166 159
-6.48 0.26 -1.11 163 165 160
-6.48 0.18 -1.11 163 165 160
-6.48 0.10 -1.11 166 168 163
-6.48 0.02 -1.11 167 169 164
-6.48 -0.07 -1.11 167 169 164
-6.48 -0.15 -1.11 167 169 164
-6.48 -0.23 -1.11 166 169 162
-6.48 -0.32 -1.11 165 168 161
-6.48 -0.40 -1.11 165 168 161
-6.48 -0.48 -1.11 164 166 161
-6.48 -0.56 -1.11 164 165 160
-6.48 -0.65 -1.11 165 166 161
-6.48 -0.73 -1.11 167 168 162
-6.48 -0.81 -1.11 168 169 161
-6.48 -0.89 -1.11 167 171 157
-6.48 -0.98 -1.11 165 168 157
-6.48 -1.06 -1.11 164 167 158
-6.48 -1.14 -1.11 162 168 158
-6.48 -1.22 -1.11 162 167 160
-6.48 -1.31 -1.11 163 168 162
-6.48 -1.39 -1.11 163 168 162
-6.48 -1.47 -1.11 161 168 160
-6.48 -1.55 -1.11 161 168 160
-6.48 -1.64 -1.11 162 170 159
-6.48 -1.72 -1.11 162 169 161
-6.48 -1.80 -1.11 163 168 161
-6.48 -1.89 -1.11 163 168 162
-6.48 -1.97 -1.11 162 169 162
-6.48 -2.05 -1.11 163 170 163
-6.48 -2.13 -1.11 163 170 163
-6.48 -2.22 -1.11 163 170 163
-6.60 -2.32 -0.98 163 170 163
-6.60 -2.40 -0.98 162 169 162
-6.60 -2.48 -0.98 163 168 162
-6.60 -2.56 -0.98 164 169 163
-6.60 -2.65 -0.98 166 169 162
-6.60 -2.73 -0.98 165 168 161
-6.60 -2.81 -0.98 166 167 159
-6.48 -2.88 -1.11 167 168 160
-6.48 -2.96 -1.11 166 168 157
-6.48 -3.04 -1.11 168 171 162
-6.48 -3.12 -1.11 165 171 161
-6.48 -3.21 -1.11 166 169 162
-6.48 -3.29 -1.11 165 168 161
-6.48 -3.37 -1.11 167 168 163
-6.48 -3.46 -1.11 168 169 164
-6.48 -3.54 -1.11 168 169 164
-6.48 -3.62 -1.11 168 169 164
-6.48 -3.70 -1.11 168 168 166
-6.48 -3.79 -1.11 170 170 168
-6.60 -3.88 -0.98 170 171 166
-6.60 -3.96 -0.98 169 170 165
-6.60 -4.05 -0.98 168 170 165
-6.60 -4.13 -0.98 171 173 168
-6.48 -4.20 -1.11 169 174 167
-6.48 -4.28 -1.11 168 173 166
-6.48 -4.36 -1.11 169 174 167
-6.60 -4.46 -0.98 169 174 167
-6.60 -4.54 -0.98 169 174 167
-6.60 -4.62 -0.98 170 175 169
-6.48 -4.69 -1.11 170 175 169
-6.48 -4.78 -1.11 170 175 171
-6.48 -4.86 -1.11 169 174 170
-6.48 -4.94 -1.11 171 175 174
-6.48 -5.02 -1.11 171 175 174
-6.48 -5.11 -1.11 171 175 174
-6.48 -5.19 -1.11 172 176 175
-6.60 -5.28 -0.98 172 176 175
-6.60 -5.36 -0.98 172 176 175
-6.60 -5.45 -0.98 172 177 173
-6.60 -5.53 -0.98 172 177 173
-6.60 -5.61 -0.98 171 177 173
-6.60 -5.69 -0.98 171 177 173
-6.60 -5.77 -0.98 172 178 174
-6.60 -5.86 -0.98 172 178 174
-6.60 -5.94 -0.98 172 178 174
-6.60 -6.02 -0.98 172 178 174
-6.60 -6.10 -0.98 172 178 174
-6.60 -6.19 -0.98 172 178 174
-6.60 -6.27 -0.98 174 180 178
-6.60 -6.35 -0.98 174 180 178
-6.60 -6.43 -0.98 174 180 178
-6.60 -6.52 -0.98 174 180 178
-6.60 -6.60 -0.98 174 180 178
-6.60 -6.68 -0.98 174 180 178
-6.60 -6.76 -0.98 175 181 179
-6.48 -6.84 -1.11 175 181 179
-6.48 -6.93 -1.11 174 180 178
-6.48 -7.01 -1.11 175 181 179
-6.60 -7.09 -0.98 175 181 179
-6.60 -7.17 -0.98 176 180 179
-6.60 -7.26 -0.98 176 180 179
-6.60 -7.34 -0.98 177 181 180
-6.48 -7.42 -1.11 177 181 180
-6.48 -7.50 -1.11 178 182 181
-6.48 -7.59 -1.11 177 181 180
-6.48 -7.67 -1.11 176 180 179
-6.48 -7.75 -1.11 176 180 179
-6.48 -7.83 -1.11 175 181 179
-6.60 -7.91 -0.98 176 182 180
-6.60 -8.00 -0.98 175 181 179
-6.60 -8.08 -0.98 174 180 178
-6.60 -8.16 -0.98 173 183 175
-6.60 -8.24 -0.98 171 181 173
-6.60 -8.33 -0.98 171 180 175
-6.60 -8.41 -0.98 175 181 177
-6.60 -8.49 -0.98 177 183 179
-6.60 -8.57 -0.98 177 182 178
-6.60 -8.66 -0.98 179 181 178
-6.60 -8.74 -0.98 180 182 179
-6.60 -8.82 -0.98 181 183 180
-6.60 -8.90 -0.98 182 184 181
-6.60 -8.98 -0.98 182 184 181
-6.60 -9.07 -0.98 182 184 183
-6.72 -9.14 -0.84 182 184 183
-6.72 -9.22 -0.84 180 184 183
-6.72 -9.31 -0.84 180 184 183
-6.72 -9.39 -0.84 178 184 182
-6.72 -9.47 -0.84 178 184 182
-6.72 -9.55 -0.84 178 184 180
-6.72 -9.64 -0.84 178 184 180
-6.72 -9.72 -0.84 178 185 178
-6.72 -9.80 -0.84 178 185 178
-6.72 -9.88 -0.84 178 185 178
-6.72 -9.96 -0.84 179 186 179
-6.72 -10.05 -0.84 183 190 183
-6.72 -10.13 -0.84 180 187 180
-6.72 -10.21 -0.84 182 189 182
-6.72 -10.29 -0.84 184 191 184
-6.72 -10.37 -0.84 183 189 185
-6.72 -10.46 -0.84 184 190 186
-6.72 -10.54 -0.84 184 190 188
-6.72 -10.62 -0.84 180 186 184
-6.72 -10.70 -0.84 171 175 174
-6.72 -10.78 -0.84 209 213 212
-6.72 -10.87 -0.84 250 254 253
-6.72 -10.95 -0.84 251 255 255
-6.72 -11.03 -0.84 245 251 249
-6.72 -11.11 -0.84 245 251 249
-6.72 -11.19 -0.84 250 255 254
-6.72 -11.28 -0.84 250 255 254
-6.72 -11.36 -0.84 250 255 254
-6.72 -11.44 -0.84 250 255 254
-6.72 -11.52 -0.84 250 255 254
-6.72 -11.60 -0.84 250 255 254
-6.72 -11.69 -0.84 250 255 254
-6.72 -11.77 -0.84 250 255 254
-6.72 -11.85 -0.84 250 255 254
-6.72 -11.93 -0.84 250 254 253
-6.72 -12.01 -0.84 251 255 254
-6.72 -12.10 -0.84 250 254 253
-6.60 -12.20 -0.98 250 254 253
-6.60 -12.28 -0.98 252 255 255
-6.60 -12.36 -0.98 252 255 255
-6.60 -12.44 -0.98 250 255 254
-6.60 -12.52 -0.98 241 247 245
-6.60 -12.61 -0.98 251 255 255
-6.60 -12.69 -0.98 249 255 253
-6.60 -12.77 -0.98 250 255 254
-6.60 -12.85 -0.98 246 255 252
-6.60 -12.94 -0.98 249 255 255
-6.72 -13.00 -0.84 235 244 241
-6.72 -13.08 -0.84 188 197 194
-6.72 -13.16 -0.84 177 184 177
-6.72 -13.24 -0.84 180 187 180
-6.72 -13.33 -0.84 187 193 189
-6.72 -13.41 -0.84 193 199 195
-6.72 -13.49 -0.84 190 196 194
-6.72 -13.57 -0.84 185 191 189
-6.72 -13.65 -0.84 186 190 189
-6.72 -13.74 -0.84 192 196 195
-6.72 -13.82 -0.84 190 192 191
-6.72 -13.90 -0.84 190 192 191
-6.72 -13.98 -0.84 191 193 192
-6.72 -14.06 -0.84 193 195 194
-6.60 -14.17 -0.98 192 194 191
-6.60 -14.25 -0.98 191 193 190
-6.60 -14.34 -0.98 193 194 189
-6.60 -14.42 -0.98 196 197 192
-6.60 -14.50 -0.98 194 195 190
-6.60 -14.58 -0.98 195 196 191
-6.60 -14.66 -0.98 196 197 191
-6.60 -14.75 -0.98 195 196 190
-6.72 -14.80 -0.84 192 193 185
-6.72 -14.88 -0.84 192 193 187
-6.72 -14.97 -0.84 193 194 189
-6.72 -15.05 -0.84 196 196 194
-6.72 -15.13 -0.84 195 195 195
-6.72 -15.21 -0.84 195 195 197
-6.72 -15.29 -0.84 195 195 197
-6.72 -15.38 -0.84 193 193 193
-6.72 -15.46 -0.84 189 189 189
-6.72 -15.54 -0.84 182 183 178
-6.72 -15.62 -0.84 178 177 173
-6.72 -15.70 -0.84 175 175 167
-6.72 -15.79 -0.84 171 168 161
-6.72 -15.87 -0.84 168 169 163
-6.84 -15.92 -0.70 153 154 146
-6.84 -16.00 -0.70 138 141 130
-6.84 -16.08 -0.70 16 21 17
-6.84 -16.16 -0.70 20 23 38
-6.84 -16.25 -0.70 32 35 66
-6.84 -16.33 -0.70 27 31 69
-6.84 -16.41 -0.70 25 28 71
-6.99 -16.45 -0.53 23 31 68
-7.11 -16.50 -0.40 32 39 81
-7.11 -16.58 -0.40 45 51 101
-7.23 -16.62 -0.26 40 45 101
-7.23 -16.71 -0.26 30 33 86
-7.23 -16.79 -0.26 32 37 79
-7.23 -16.87 -0.26 35 38 71
-7.23 -16.95 -0.26 40 43 60
-7.23 -17.03 -0.26 48 48 56
-7.23 -17.11 -0.26 53 54 49
-7.23 -17.19 -0.26 56 55 50
-7.11 -17.31 -0.40 47 46 42
-7.11 -17.39 -0.40 33 31 32
-7.11 -17.47 -0.40 22 21 26
-6.99 -17.59 -0.53 34 33 38
-6.99 -17.67 -0.53 70 70 70
-6.99 -17.75 -0.53 140 139 135
-6.99 -17.83 -0.53 202 201 196
-6.99 -17.91 -0.53 236 233 226
-6.99 -18.00 -0.53 227 222 218
-6.84 -18.12 -0.70 208 205 200
-6.84 -18.21 -0.70 189 189 181
-6.84 -18.29 -0.70 180 181 173
-6.84 -18.37 -0.70 172 173 165
-6.84 -18.45 -0.70 168 169 161
-6.84 -18.53 -0.70 169 170 164
-6.72 -18.66 -0.84 173 174 168
-6.72 -18.74 -0.84 175 176 170
-6.72 -18.82 -0.84 177 178 172
-6.60 -18.95 -0.98 177 178 172
-6.60 -19.03 -0.98 176 177 172
-6.60 -19.11 -0.98 176 177 172
-6.60 -19.19 -0.98 177 178 173
-6.72 -19.23 -0.84 177 178 173
-6.72 -19.31 -0.84 176 177 172
-6.72 -19.39 -0.84 176 175 171
-6.72 -19.48 -0.84 178 177 173
-6.72 -19.56 -0.84 180 176 173
-6.84 -19.60 -0.70 178 174 171
-6.84 -19.68 -0.70 174 170 167
-6.84 -19.76 -0.70 171 167 164
-6.99 -20.11 -0.53 158 154 153
-6.99 -20.19 -0.53 158 154 153
-6.99 -20.27 -0.53 155 151 150
-6.99 -20.35 -0.53 151 147 148
-6.99 -20.44 -0.53 153 149 150
-6.99 -20.52 -0.53 156 152 153
-6.99 -20.60 -0.53 158 157 153
-6.99 -20.68 -0.53 152 151 147
-6.99 -20.76 -0.53 138 137 133
-7.11 -20.79 -0.40 117 116 112
-7.11 -20.87 -0.40 104 100 97
-7.11 -20.95 -0.40 85 81 78
-7.11 -21.04 -0.40 53 47 47
-7.23 -21.07 -0.26 32 26 26
-7.23 -21.15 -0.26 48 42 42
-7.23 -21.23 -0.26 52 46 46
-7.23 -21.31 -0.26 59 55 56
-7.23 -21.39 -0.26 65 61 62
-7.36 -21.42 -0.12 60 58 59
-7.36 -21.50 -0.12 47 45 46
-7.48 -21.52 0.02 35 33 34
-7.48 -21.60 0.02 29 27 28
-7.60 -21.79 0.16 25 25 23
-7.60 -21.87 0.16 26 26 24
-7.60 -21.95 0.16 26 26 24
-7.60 -22.03 0.16 28 28 28
-7.60 -22.11 0.16 33 33 35
-7.72 -22.13 0.29 41 39 44
-7.72 -22.21 0.29 67 56 62
-7.72 -22.29 0.29 76 60 60
-7.60 -22.43 0.16 82 59 51
-7.60 -22.51 0.16 96 65 44
-7.60 -22.59 0.16 201 165 133
-7.60 -22.67 0.16 254 212 170
-7.60 -22.75 0.16 246 205 161
-7.60 -22.83 0.16 239 207 169
-6.72 -23.82 -0.84 218 217 223
-6.72 -23.91 -0.84 219 214 218
-6.84 -23.93 -0.70 221 212 215
-6.84 -24.01 -0.70 221 212 213
-6.84 -24.09 -0.70 223 213 212
-6.84 -24.17 -0.70 221 215 215
-6.84 -24.25 -0.70 221 217 218
-6.84 -24.33 -0.70 217 217 217
-6.84 -24.42 -0.70 217 217 219
-6.84 -24.50 -0.70 219 217 218
-6.84 -24.58 -0.70 220 216 217
-6.84 -24.66 -0.70 220 216 217
-6.84 -24.74 -0.70 221 217 218
-6.84 -24.83 -0.70 221 217 218
-6.84 -24.91 -0.70 222 218 219
-6.84 -24.99 -0.70 223 219 220
-6.84 -25.07 -0.70 222 218 219
-6.84 -25.15 -0.70 221 217 218
-6.72 -25.30 -0.84 221 217 218
-6.84 -25.32 -0.70 221 217 218
-6.84 -25.40 -0.70 221 217 218
-6.84 -25.48 -0.70 222 218 219
-6.84 -25.56 -0.70 223 219 220
-6.84 -25.64 -0.70 224 220 221
-6.84 -25.72 -0.70 223 219 220
-6.84 -25.81 -0.70 224 220 221
-6.84 -25.89 -0.70 224 220 221
-6.84 -25.97 -0.70 223 219 220
-6.84 -26.05 -0.70 222 218 219
-6.84 -26.13 -0.70 222 218 219
-6.84 -26.21 -0.70 223 219 220
-6.84 -26.30 -0.70 224 220 221
-6.84 -26.38 -0.70 224 220 221
-6.84 -26.46 -0.70 225 221 222
-6.84 -26.54 -0.70 225 221 222
-6.84 -26.62 -0.70 223 219 220
-6.84 -26.70 -0.70 223 219 220
-6.72 -26.86 -0.84 225 221 222
-6.72 -26.94 -0.84 227 223 224
-6.72 -27.02 -0.84 226 222 223
-6.72 -27.10 -0.84 226 222 223
-6.72 -27.19 -0.84 226 222 223
-6.72 -27.27 -0.84 226 222 223
-6.72 -27.35 -0.84 225 221 222
-6.84 -27.36 -0.70 225 221 222
-6.84 -27.44 -0.70 225 221 222
-6.72 -27.60 -0.84 225 221 222
-6.72 -27.68 -0.84 226 222 221
-6.72 -27.76 -0.84 226 222 221
-6.72 -27.84 -0.84 225 221 220
-6.72 -27.92 -0.84 225 221 220
-6.84 -27.93 -0.70 225 221 220
-6.84 -28.01 -0.70 226 222 221
-6.84 -28.09 -0.70 226 222 221
-6.84 -28.18 -0.70 227 223 222
-6.84 -28.26 -0.70 224 220 217
-6.84 -28.34 -0.70 225 221 218
-6.84 -28.42 -0.70 225 221 218
-6.84 -28.50 -0.70 223 219 216
-6.84 -28.58 -0.70 225 221 218
-6.84 -28.67 -0.70 226 222 219
-6.84 -28.75 -0.70 225 221 218
-6.84 -28.83 -0.70 226 221 218
-6.72 -28.99 -0.84 226 221 218
-6.72 -29.07 -0.84 226 221 218
-6.72 -29.15 -0.84 226 221 218
-6.72 -29.24 -0.84 227 222 219
-6.72 -29.32 -0.84 227 222 219
-6.72 -29.40 -0.84 228 223 220
-6.72 -29.48 -0.84 228 223 220
-6.84 -29.48 -0.70 227 226 224
-6.84 -29.56 -0.70 227 226 224
-6.84 -29.65 -0.70 227 226 224
-6.84 -29.73 -0.70 227 226 224
-6.84 -29.81 -0.70 230 226 225
-6.84 -29.89 -0.70 230 226 225
-6.84 -29.97 -0.70 230 226 225
-6.84 -30.05 -0.70 230 226 225
-6.84 -30.14 -0.70 232 226 226
-6.84 -30.22 -0.70 232 226 226
-6.72 -30.38 -0.84 232 226 226
-6.84 -30.38 -0.70 232 226 226
-6.84 -30.46 -0.70 234 225 226
-6.84 -30.55 -0.70 233 224 225
-6.84 -30.63 -0.70 232 223 224
-6.84 -30.71 -0.70 234 230 229
-6.84 -30.79 -0.70 233 229 228
-6.84 -30.87 -0.70 232 228 227
-6.84 -30.95 -0.70 231 227 226
-6.84 -31.04 -0.70 231 227 226
-6.84 -31.12 -0.70 231 227 226
-6.84 -31.20 -0.70 232 228 227
-6.84 -31.28 -0.70 232 228 227
-6.84 -31.36 -0.70 231 227 226
-6.84 -31.44 -0.70 232 228 227
-6.84 -31.53 -0.70 233 229 228
-6.84 -31.61 -0.70 234 230 229
-6.84 -31.69 -0.70 234 230 229
-6.84 -31.77 -0.70 234 230 229
-6.84 -31.85 -0.70 235 231 230
-6.84 -31.93 -0.70 235 231 230
-6.84 -32.02 -0.70 0 0 0
-6.84 -32.10 -0.70 0 0 0
-6.84 -32.18 -0.70 0 0 0
-6.84 -32.26 -0.70 0 0 0
-6.84 -32.34 -0.70 0 0 0
-6.72 -32.52 -0.84 0 0 0
-6.72 -32.60 -0.84 0 0 0
-6.72 -32.68 -0.84 0 0 0
-6.72 -32.76 -0.84 0 0 0
-6.72 -32.85 -0.84 0 0 0
-6.72 -32.93 -0.84 0 0 0
-6.72 -33.01 -0.84 0 0 0
-6.72 -33.09 -0.84 0 0 0
-6.72 -33.17 -0.84 0 0 0
-6.72 -33.26 -0.84 0 0 0
-6.64 19.25 -1.05 0 0 0
-6.52 19.27 -1.19 0 0 0
-6.52 19.18 -1.19 0 0 0
-6.52 19.10 -1.19 0 0 0
-6.52 19.02 -1.19 0 0 0
-6.52 18.94 -1.19 0 0 0
-6.52 18.85 -1.19 0 0 0
-6.37 18.89 -1.35 0 0 0
-6.37 18.80 -1.35 0 0 0
-6.37 18.72 -1.35 120 119 114
-6.52 18.52 -1.19 120 119 114
-6.52 18.44 -1.19 122 121 116
-6.64 18.26 -1.05 124 124 116
-6.64 18.18 -1.05 124 124 116
-6.64 18.10 -1.05 125 122 113
-6.64 18.02 -1.05 124 121 112
-6.64 17.93 -1.05 123 119 110
-6.64 17.85 -1.05 123 119 110
-6.64 17.77 -1.05 120 113 103
-6.64 17.69 -1.05 123 116 106
-6.64 17.60 -1.05 127 118 111
-6.64 17.52 -1.05 127 118 111
-6.64 17.44 -1.05 125 114 108
-6.64 17.36 -1.05 123 112 106
-6.64 17.27 -1.05 124 113 109
-6.52 17.28 -1.19 126 115 111
-6.52 17.20 -1.19 126 115 111
-6.52 17.12 -1.19 125 114 110
-6.52 17.04 -1.19 122 115 109
-6.52 16.95 -1.19 120 115 109
-6.52 16.87 -1.19 120 115 109
-6.52 16.79 -1.19 119 116 109
-6.52 16.70 -1.19 119 116 109
-6.52 16.62 -1.19 123 120 113
-6.52 16.54 -1.19 121 118 111
-6.52 16.46 -1.19 121 117 108
-6.52 16.37 -1.19 121 117 108
-6.52 16.29 -1.19 123 116 108
-6.52 16.21 -1.19 125 116 109
-6.52 16.13 -1.19 124 115 108
-6.52 16.04 -1.19 124 113 109
-6.52 15.96 -1.19 125 114 110
-6.52 15.88 -1.19 123 112 110
-6.52 15.80 -1.19 121 110 108
-6.52 15.71 -1.19 121 110 108
-6.64 15.55 -1.05 121 112 107
-6.64 15.46 -1.05 121 112 107
-6.64 15.38 -1.05 122 115 109
-6.64 15.30 -1.05 124 117 111
-6.52 15.30 -1.19 122 115 107
-6.52 15.22 -1.19 120 113 105
-6.52 15.13 -1.19 116 112 101
-6.52 15.05 -1.19 116 112 101
-6.52 14.97 -1.19 117 115 102
-6.52 14.89 -1.19 117 115 102
-6.52 14.80 -1.19 116 114 102
-6.52 14.72 -1.19 117 113 104
-6.52 14.64 -1.19 116 111 105
-6.52 14.56 -1.19 116 112 103
-6.52 14.47 -1.19 117 113 104
-6.52 14.39 -1.19 118 114 105
-6.52 14.31 -1.19 118 114 105
-6.52 14.23 -1.19 117 113 104
-6.37 14.24 -1.35 117 113 104
-6.37 14.16 -1.35 115 110 104
-6.37 14.07 -1.35 117 112 108
-6.52 13.90 -1.19 119 114 110
-6.52 13.81 -1.19 120 115 112
-6.52 13.73 -1.19 118 112 112
-6.52 13.65 -1.19 116 110 110
-6.52 13.56 -1.19 113 107 109
-6.52 13.48 -1.19 111 105 107
-6.52 13.40 -1.19 110 104 106
-6.52 13.32 -1.19 113 107 109
-6.52 13.23 -1.19 113 107 107
-6.52 13.15 -1.19 110 104 104
-6.52 13.07 -1.19 110 105 102
-6.52 12.99 -1.19 113 108 102
-6.52 12.90 -1.19 110 105 99
-6.52 12.82 -1.19 114 110 101
-6.52 12.74 -1.19 113 109 100
-6.52 12.66 -1.19 113 109 100
-6.52 12.57 -1.19 112 108 99
-6.52 12.49 -1.19 111 107 98
-6.52 12.41 -1.19 112 108 99
-6.52 12.33 -1.19 113 109 100
-6.52 12.24 -1.19 115 110 104
-6.52 12.16 -1.19 112 107 101
-6.52 12.08 -1.19 114 109 105
-6.52 12.00 -1.19 114 109 103
-6.52 11.91 -1.19 111 106 100
-6.52 11.83 -1.19 112 108 99
-6.52 11.75 -1.19 116 112 103
-6.52 11.66 -1.19 117 113 102
-6.64 11.51 -1.05 114 110 99
-6.64 11.43 -1.05 116 112 101
-6.64 11.35 -1.05 115 111 100
-6.64 11.27 -1.05 114 110 101
-6.64 11.18 -1.05 114 110 101
-6.64 11.10 -1.05 114 110 101
-6.64 11.02 -1.05 115 111 102
-6.64 10.94 -1.05 115 110 106
-6.64 10.85 -1.05 114 109 105
-6.64 10.77 -1.05 114 109 106
-6.64 10.69 -1.05 115 110 107
-6.64 10.61 -1.05 116 111 108
-6.64 10.52 -1.05 118 113 109
-6.64 10.44 -1.05 119 114 110
-6.64 10.36 -1.05 120 115 111
-6.52 10.34 -1.19 120 115 111
-6.52 10.26 -1.19 120 115 109
-6.52 10.18 -1.19 117 112 106
-6.52 10.09 -1.19 118 111 105
-6.52 10.01 -1.19 119 112 106
-6.52 9.93 -1.19 120 113 105
-6.52 9.85 -1.19 119 112 104
-6.64 9.70 -1.05 119 112 104
-6.64 9.62 -1.05 121 114 106
-6.52 9.60 -1.19 119 115 106
-6.64 9.45 -1.05 124 117 109
-6.64 9.37 -1.05 125 118 110
-6.76 9.23 -0.91 125 116 109
-6.76 9.15 -0.91 125 116 109
-6.76 9.06 -0.91 126 117 110
-6.76 8.98 -0.91 125 118 110
-6.76 8.90 -0.91 121 118 109
-9.91 7.27 2.66 122 119 110
-10.03 7.14 2.80 121 121 113
-10.03 7.06 2.80 122 119 112
-10.13 6.94 2.91 123 120 113
-10.13 6.87 2.91 127 120 114
-10.13 6.80 2.91 126 119 113
-10.13 6.72 2.91 123 114 109
-10.13 6.65 2.91 127 120 114
-10.13 6.58 2.91 123 114 109
-10.13 6.50 2.91 119 106 98
-10.13 6.43 2.91 122 103 97
-10.13 6.35 2.91 128 103 96
-10.13 6.28 2.91 130 99 94
-10.13 6.21 2.91 133 99 90
-10.13 6.13 2.91 142 104 95
-10.13 6.06 2.91 146 108 97
-10.13 5.99 2.91 150 110 98
-10.13 5.91 2.91 158 116 102
-10.13 5.84 2.91 163 121 107
-10.13 5.77 2.91 168 125 109
-10.13 5.69 2.91 170 124 109
-10.13 5.62 2.91 169 123 107
-10.13 5.54 2.91 169 122 104
-10.13 5.47 2.91 164 122 98
-10.13 5.40 2.91 163 122 100
-10.13 5.32 2.91 165 124 102
-10.13 5.25 2.91 166 128 105
-10.13 5.18 2.91 166 128 105
-10.13 5.10 2.91 162 124 103
-10.13 5.03 2.91 158 120 101
-10.13 4.96 2.91 157 119 100
-10.13 4.88 2.91 165 126 109
-10.13 4.81 2.91 174 135 120
-10.13 4.73 2.91 179 140 125
-10.13 4.66 2.91 182 140 126
-10.03 4.63 2.80 185 143 129
-10.03 4.55 2.80 190 146 135
-10.03 4.48 2.80 193 149 136
-10.03 4.40 2.80 188 149 132
-10.03 4.33 2.80 190 152 133
-10.03 4.26 2.80 187 150 131
-9.91 4.23 2.66 178 141 122
-9.91 4.16 2.66 167 132 113
-9.91 4.08 2.66 159 124 105
-9.91 4.01 2.66 157 122 103
-9.81 3.97 2.55 158 123 104
-9.81 3.90 2.55 160 124 108
-9.81 3.82 2.55 162 126 110
-9.81 3.75 2.55 169 133 117
-9.72 3.71 2.44 176 138 125
-9.72 3.63 2.44 181 143 130
-9.72 3.56 2.44 186 146 136
-9.72 3.49 2.44 193 149 138
-9.59 3.45 2.30 205 156 139
-9.59 3.38 2.30 215 162 144
-9.50 3.34 2.19 216 168 148
-9.50 3.26 2.19 214 167 147
-9.50 3.19 2.19 213 171 149
-9.37 3.16 2.05 216 178 157
-9.37 3.08 2.05 187 156 135
-9.37 3.00 2.05 120 95 75
-9.37 2.93 2.05 57 39 19
-9.37 2.85 2.05 57 44 25
-9.37 2.78 2.05 53 45 26
-9.37 2.70 2.05 50 43 24
-9.37 2.63 2.05 46 38 17
-9.37 2.55 2.05 36 28 7
-9.28 2.51 1.94 45 35 10
-9.28 2.43 1.94 70 55 32
-9.28 2.36 1.94 108 86 62
-9.28 2.28 1.94 130 102 80
-9.28 2.20 1.94 158 127 106
-9.28 2.13 1.94 184 147 129
-9.28 2.05 1.94 190 151 136
-6.52 2.49 -1.19 175 156 149
-6.52 2.41 -1.19 179 164 159
-6.52 2.33 -1.19 180 170 168
-6.52 2.25 -1.19 178 169 170
-6.52 2.16 -1.19 174 170 169
-6.52 2.08 -1.19 174 173 171
-6.52 2.00 -1.19 173 176 167
-6.52 1.92 -1.19 169 175 163
-6.52 1.83 -1.19 169 172 161
-6.52 1.75 -1.19 169 172 161
-6.52 1.67 -1.19 170 173 164
-6.52 1.58 -1.19 170 173 164
-6.52 1.50 -1.19 171 172 166
-6.52 1.42 -1.19 171 172 166
-6.52 1.34 -1.19 168 169 163
-6.52 1.25 -1.19 170 171 165
-6.52 1.01 -1.19 167 169 164
-6.52 0.92 -1.19 166 171 165
-6.52 0.84 -1.19 167 172 166
-6.52 0.76 -1.19 166 169 160
-6.64 0.65 -1.05 166 169 160
-6.64 0.56 -1.05 166 169 160
-6.64 0.48 -1.05 165 168 161
-6.64 0.40 -1.05 165 168 161
-6.64 0.32 -1.05 166 168 163
-6.64 0.23 -1.05 166 168 163
-6.64 0.15 -1.05 166 168 163
-6.64 0.07 -1.05 164 166 163
-6.64 -0.01 -1.05 166 168 165
-6.64 -0.09 -1.05 167 169 164
-6.64 -0.18 -1.05 167 169 164
-6.64 -0.26 -1.05 166 168 163
-6.64 -0.34 -1.05 165 167 162
-6.64 -0.42 -1.05 165 168 161
-6.64 -0.51 -1.05 166 168 163
-6.64 -0.59 -1.05 168 169 164
-6.64 -0.67 -1.05 167 167 165
-6.64 -0.75 -1.05 166 167 161
-6.64 -0.84 -1.05 165 166 160
-6.52 -0.89 -1.19 163 166 155
-6.52 -0.98 -1.19 165 168 157
-6.64 -1.08 -1.05 166 169 160
-6.64 -1.16 -1.05 163 169 159
-6.64 -1.25 -1.05 163 168 161
-6.64 -1.33 -1.05 162 167 161
-6.64 -1.41 -1.05 161 166 160
-6.64 -1.49 -1.05 161 166 159
-6.64 -1.58 -1.05 162 167 160
-6.64 -1.66 -1.05 162 170 159
-6.64 -1.74 -1.05 163 170 162
-6.64 -1.82 -1.05 164 169 163
-6.64 -1.91 -1.05 164 169 165
-6.64 -1.99 -1.05 163 169 165
-6.64 -2.07 -1.05 163 169 165
-6.64 -2.15 -1.05 163 169 165
-6.64 -2.23 -1.05 162 168 164
-6.64 -2.32 -1.05 162 168 164
-6.64 -2.40 -1.05 161 167 163
-6.64 -2.48 -1.05 162 167 161
-6.64 -2.56 -1.05 164 169 163
-6.64 -2.65 -1.05 166 169 162
-6.64 -2.73 -1.05 165 168 161
-6.64 -2.81 -1.05 167 169 158
-6.64 -2.89 -1.05 169 171 160
-6.52 -2.96 -1.19 169 169 159
-6.52 -3.04 -1.19 166 169 160
-6.64 -3.14 -1.05 165 168 159
-6.64 -3.22 -1.05 165 168 159
-6.64 -3.30 -1.05 166 169 160
-6.64 -3.39 -1.05 168 169 163
-6.64 -3.47 -1.05 169 170 164
-6.64 -3.55 -1.05 170 169 165
-6.64 -3.63 -1.05 169 168 164
-6.64 -3.72 -1.05 171 170 166
-6.64 -3.80 -1.05 170 169 165
-6.64 -3.88 -1.05 167 168 163
-6.64 -3.96 -1.05 167 168 163
-6.64 -4.05 -1.05 169 171 166
-6.64 -4.13 -1.05 172 174 169
-6.64 -4.21 -1.05 170 173 166
-6.64 -4.29 -1.05 167 170 163
-6.64 -4.37 -1.05 169 175 165
-6.64 -4.46 -1.05 169 175 165
-6.64 -4.54 -1.05 170 175 168
-6.64 -4.62 -1.05 170 175 168
-6.64 -4.70 -1.05 170 175 169
-6.64 -4.79 -1.05 169 174 170
-6.52 -4.86 -1.19 169 174 170
-6.52 -4.94 -1.19 171 175 174
-6.52 -5.02 -1.19 171 175 174
-6.64 -5.12 -1.05 172 176 177
-6.64 -5.20 -1.05 172 176 177
-6.64 -5.28 -1.05 172 176 177
-6.64 -5.36 -1.05 172 176 177
-6.64 -5.45 -1.05 172 176 177
-6.64 -5.53 -1.05 172 176 175
-6.64 -5.61 -1.05 167 176 171
-6.64 -5.69 -1.05 169 179 171
-6.76 -5.78 -0.91 170 180 172
-6.76 -5.86 -0.91 172 182 174
-6.76 -5.94 -0.91 173 182 177
-6.76 -6.03 -0.91 172 181 176
-6.76 -6.11 -0.91 171 180 175
-6.76 -6.19 -0.91 170 179 174
-6.76 -6.27 -0.91 172 181 176
-6.76 -6.35 -0.91 172 181 176
-6.76 -6.44 -0.91 172 181 178
-6.76 -6.52 -0.91 172 181 178
-6.76 -6.60 -0.91 172 181 178
-6.76 -6.68 -0.91 173 182 179
-6.76 -6.76 -0.91 174 183 180
-6.64 -6.84 -1.05 174 183 180
-6.64 -6.93 -1.05 173 182 179
-6.64 -7.01 -1.05 176 182 180
-6.76 -7.09 -0.91 176 182 180
-6.76 -7.17 -0.91 176 180 179
-6.76 -7.26 -0.91 176 180 179
-6.64 -7.34 -1.05 178 180 179
-6.64 -7.42 -1.05 178 180 179
-6.64 -7.50 -1.05 180 182 181
-6.64 -7.59 -1.05 178 180 179
-6.64 -7.67 -1.05 176 180 179
-6.64 -7.75 -1.05 176 180 179
-6.64 -7.83 -1.05 176 182 180
-6.64 -7.91 -1.05 177 183 181
-6.64 -8.00 -1.05 175 184 181
-6.64 -8.08 -1.05 174 183 180
-6.64 -8.16 -1.05 177 187 179
-6.64 -8.24 -1.05 175 185 177
-6.64 -8.33 -1.05 174 184 176
-6.64 -8.41 -1.05 178 185 178
-6.76 -8.49 -0.91 178 184 180
-6.76 -8.57 -0.91 177 182 178
-6.76 -8.65 -0.91 179 181 178
-6.76 -8.73 -0.91 179 181 178
-6.64 -8.82 -1.05 181 183 182
-6.64 -8.90 -1.05 181 183 182
-6.64 -8.98 -1.05 182 184 183
-6.76 -9.06 -0.91 182 183 185
-6.76 -9.14 -0.91 182 183 185
-6.76 -9.22 -0.91 180 184 185
-6.76 -9.31 -0.91 180 184 185
-6.76 -9.39 -0.91 180 186 184
-6.76 -9.47 -0.91 180 186 184
-6.76 -9.55 -0.91 180 186 182
-6.76 -9.64 -0.91 180 186 182
-6.76 -9.72 -0.91 180 187 180
-6.76 -9.80 -0.91 180 187 180
-6.76 -9.88 -0.91 180 187 180
-6.76 -9.96 -0.91 181 188 181
-6.76 -10.05 -0.91 182 189 182
-6.76 -10.13 -0.91 179 186 179
-6.76 -10.21 -0.91 181 188 181
-6.76 -10.29 -0.91 184 191 184
-6.76 -10.37 -0.91 183 189 185
-6.88 -10.44 -0.77 183 189 185
-6.88 -10.53 -0.77 181 187 185
-6.88 -10.61 -0.77 174 180 178
-6.76 -10.70 -0.91 202 208 206
-6.76 -10.78 -0.91 242 248 246
-6.76 -10.87 -0.91 248 254 252
-6.76 -10.95 -0.91 244 250 248
-6.76 -11.03 -0.91 251 255 255
-6.88 -11.10 -0.77 251 255 255
-6.88 -11.18 -0.77 246 252 250
-6.76 -11.28 -0.91 250 255 254
-6.76 -11.36 -0.91 250 255 254
-6.76 -11.44 -0.91 250 255 254
-6.76 -11.52 -0.91 250 255 254
-6.76 -11.60 -0.91 250 255 254
-6.76 -11.69 -0.91 250 255 254
-6.76 -11.77 -0.91 250 255 254
-6.76 -11.85 -0.91 250 255 254
-6.76 -11.93 -0.91 252 255 255
-6.76 -12.01 -0.91 251 255 254
-6.76 -12.10 -0.91 251 255 254
-6.76 -12.18 -0.91 251 255 254
-6.76 -12.26 -0.91 247 253 251
-6.76 -12.34 -0.91 245 251 249
-6.76 -12.42 -0.91 248 254 252
-6.76 -12.51 -0.91 251 255 255
-6.64 -12.61 -1.05 249 255 253
-6.64 -12.69 -1.05 248 254 252
-6.76 -12.75 -0.91 247 255 253
-6.76 -12.83 -0.91 247 255 253
-6.76 -12.92 -0.91 246 255 252
-6.76 -13.00 -0.91 247 255 253
-6.76 -13.08 -0.91 249 255 255
-6.76 -13.16 -0.91 204 214 206
-6.76 -13.24 -0.91 182 192 184
-6.76 -13.33 -0.91 172 178 174
-6.76 -13.41 -0.91 183 189 185
-6.76 -13.49 -0.91 194 200 198
-6.76 -13.57 -0.91 191 197 195
-6.76 -13.65 -0.91 187 191 192
-6.76 -13.74 -0.91 189 193 194
-6.76 -13.82 -0.91 187 191 192
-6.76 -13.90 -0.91 186 190 191
-6.76 -13.98 -0.91 190 192 191
-6.76 -14.06 -0.91 193 195 194
-6.76 -14.15 -0.91 194 196 193
-6.76 -14.23 -0.91 193 195 192
-6.76 -14.31 -0.91 193 194 189
-6.64 -14.42 -1.05 194 195 190
-6.64 -14.50 -1.05 193 194 189
-6.64 -14.58 -1.05 195 196 191
-6.76 -14.64 -0.91 197 198 192
-6.76 -14.72 -0.91 197 198 192
-6.76 -14.80 -0.91 194 195 187
-6.76 -14.88 -0.91 195 196 190
-6.76 -14.97 -0.91 197 198 193
-6.76 -15.05 -0.91 197 197 195
-6.76 -15.13 -0.91 195 195 195
-6.76 -15.21 -0.91 195 195 197
-6.76 -15.29 -0.91 196 196 198
-6.76 -15.38 -0.91 195 195 195
-6.76 -15.46 -0.91 189 189 189
-6.76 -15.54 -0.91 184 184 182
-6.88 -15.59 -0.77 183 182 178
-6.88 -15.67 -0.77 172 171 166
-6.88 -15.76 -0.77 184 181 174
-6.88 -15.84 -0.77 158 158 150
-6.88 -15.92 -0.77 162 162 152
-6.88 -16.00 -0.77 150 154 140
-6.88 -16.08 -0.77 62 64 59
-6.88 -16.16 -0.77 21 25 36
-7.03 -16.21 -0.60 34 36 61
-7.03 -16.29 -0.60 27 31 66
-7.15 -16.34 -0.47 29 33 70
-7.15 -16.42 -0.47 29 35 67
-7.27 -16.46 -0.33 29 35 71
-7.27 -16.54 -0.33 31 35 80
-7.27 -16.62 -0.33 35 38 91
-7.27 -16.71 -0.33 34 38 85
-7.27 -16.79 -0.33 24 30 64
-7.27 -16.87 -0.33 23 29 51
-7.27 -16.95 -0.33 31 38 44
-7.27 -17.03 -0.33 40 45 41
-7.27 -17.11 -0.33 41 44 33
-7.27 -17.19 -0.33 49 51 38
-7.27 -17.27 -0.33 57 56 51
-7.15 -17.39 -0.47 55 54 52
-7.15 -17.47 -0.47 55 55 57
-7.15 -17.55 -0.47 44 44 46
-7.15 -17.63 -0.47 24 24 24
-7.03 -17.75 -0.60 22 21 19
-7.03 -17.83 -0.60 42 41 36
-7.03 -17.91 -0.60 115 110 107
-7.03 -18.00 -0.60 187 182 179
-6.88 -18.12 -0.77 234 228 228
-6.88 -18.21 -0.77 240 239 234
-6.88 -18.29 -0.77 225 226 220
-6.88 -18.37 -0.77 205 206 200
-6.88 -18.45 -0.77 190 191 185
-6.88 -18.53 -0.77 181 182 177
-6.88 -18.62 -0.77 177 178 173
-6.76 -18.74 -0.91 171 172 167
-6.76 -18.82 -0.91 171 172 167
-6.76 -18.90 -0.91 172 173 168
-6.76 -18.98 -0.91 174 175 170
-6.76 -19.07 -0.91 177 178 173
-6.76 -19.15 -0.91 180 181 176
-6.76 -19.23 -0.91 181 182 177
-6.76 -19.31 -0.91 180 181 176
-6.76 -19.39 -0.91 180 179 175
-6.76 -19.48 -0.91 176 175 171
-6.88 -19.51 -0.77 178 174 171
-6.88 -19.60 -0.77 177 173 170
-6.88 -19.68 -0.77 175 171 168
-6.88 -19.76 -0.77 174 170 169
-6.88 -19.84 -0.77 174 170 169
-6.88 -19.92 -0.77 173 167 167
-7.03 -19.95 -0.60 170 164 164
-7.03 -20.03 -0.60 166 160 160
-7.03 -20.11 -0.60 159 153 153
-7.03 -20.19 -0.60 157 151 151
-7.03 -20.27 -0.60 160 154 154
-7.03 -20.35 -0.60 159 153 155
-7.03 -20.44 -0.60 159 153 155
-7.03 -20.52 -0.60 157 151 153
-7.03 -20.60 -0.60 156 157 151
-7.03 -20.68 -0.60 151 154 145
-7.03 -20.76 -0.60 160 163 156
-7.03 -20.84 -0.60 154 155 150
-7.15 -20.87 -0.47 152 153 148
-7.15 -20.95 -0.47 162 161 159
-7.15 -21.04 -0.47 130 126 127
-7.15 -21.12 -0.47 89 85 86
-7.27 -21.15 -0.33 44 40 41
-7.27 -21.23 -0.33 31 27 28
-7.27 -21.31 -0.33 29 25 26
-7.27 -21.39 -0.33 45 41 42
-7.27 -21.47 -0.33 60 56 55
-7.40 -21.50 -0.19 62 58 57
-7.40 -21.58 -0.19 57 56 54
-7.52 -21.60 -0.05 56 55 53
-7.52 -21.84 -0.05 30 29 27
-7.52 -21.92 -0.05 29 28 26
-7.64 -21.95 0.09 27 29 28
-7.64 -22.03 0.09 25 26 28
-7.64 -22.11 0.09 22 27 31
-7.64 -22.19 0.09 24 27 34
-7.76 -22.21 0.23 37 35 40
-7.64 -22.35 0.09 57 48 43
-7.64 -22.43 0.09 53 35 21
-7.64 -22.51 0.09 118 95 64
-7.64 -22.59 0.09 240 208 167
-7.64 -22.67 0.09 255 239 184
-7.64 -22.75 0.09 252 213 158
-7.64 -22.83 0.09 250 216 170
-7.64 -22.91 0.09 245 215 179
-7.76 -22.93 0.23 232 211 182
-7.03 -23.85 -0.60 224 215 220
-7.03 -23.93 -0.60 223 214 215
-7.03 -24.02 -0.60 223 213 212
-7.03 -24.10 -0.60 221 216 213
-7.03 -24.18 -0.60 220 216 215
-7.03 -24.26 -0.60 218 218 216
-7.03 -24.34 -0.60 217 217 217
-7.03 -24.42 -0.60 215 213 214
-7.03 -24.50 -0.60 216 212 213
-7.03 -24.58 -0.60 217 213 214
-6.88 -24.74 -0.77 218 214 215
-6.88 -24.83 -0.77 220 216 217
-6.88 -24.91 -0.77 222 218 219
-6.88 -24.99 -0.77 223 219 220
-6.88 -25.07 -0.77 223 219 220
-6.88 -25.15 -0.77 222 218 219
-6.88 -25.23 -0.77 222 218 219
-6.88 -25.32 -0.77 221 217 218
-6.88 -25.40 -0.77 220 216 217
-6.88 -25.48 -0.77 221 217 218
-6.88 -25.56 -0.77 223 219 220
-6.88 -25.64 -0.77 225 221 222
-6.88 -25.72 -0.77 223 219 220
-6.88 -25.81 -0.77 224 220 221
-6.88 -25.89 -0.77 225 221 222
-6.88 -25.97 -0.77 224 220 221
-7.03 -25.97 -0.60 223 219 220
-7.03 -26.05 -0.60 221 217 218
-6.88 -26.21 -0.77 221 217 218
-6.88 -26.30 -0.77 221 217 218
-6.88 -26.38 -0.77 222 218 219
-7.03 -26.37 -0.60 224 220 221
-7.03 -26.46 -0.60 224 220 221
-6.88 -26.62 -0.77 222 218 219
-6.88 -26.70 -0.77 222 218 219
-6.88 -26.79 -0.77 224 220 221
-6.88 -26.87 -0.77 226 222 223
-6.76 -27.02 -0.91 227 223 224
-6.88 -27.03 -0.77 226 222 223
-6.88 -27.11 -0.77 225 221 222
-6.88 -27.19 -0.77 224 220 221
-6.88 -27.28 -0.77 224 220 221
-6.88 -27.36 -0.77 225 221 222
-6.88 -27.44 -0.77 226 222 223
-6.88 -27.52 -0.77 226 222 223
-6.88 -27.60 -0.77 225 221 220
-6.88 -27.69 -0.77 226 222 221
-6.88 -27.77 -0.77 226 222 221
-6.88 -27.85 -0.77 227 223 222
-6.88 -27.93 -0.77 227 223 222
-6.88 -28.01 -0.77 226 222 221
-6.88 -28.09 -0.77 226 222 221
-6.88 -28.18 -0.77 226 222 221
-6.88 -28.26 -0.77 223 222 218
-6.88 -28.34 -0.77 225 224 220
-6.88 -28.42 -0.77 227 223 220
-6.88 -28.50 -0.77 223 219 216
-6.88 -28.58 -0.77 224 220 217
-6.88 -28.67 -0.77 223 219 216
-6.88 -28.75 -0.77 221 217 214
-6.88 -28.83 -0.77 224 219 216
-6.88 -28.91 -0.77 224 219 216
-6.88 -28.99 -0.77 224 219 216
-6.88 -29.07 -0.77 225 220 217
-6.76 -29.24 -0.91 225 220 217
-6.76 -29.32 -0.91 226 221 218
-6.88 -29.32 -0.77 227 222 219
-6.88 -29.40 -0.77 227 222 219
-6.88 -29.48 -0.77 224 223 221
-6.88 -29.56 -0.77 224 223 221
-7.03 -29.55 -0.60 225 224 222
-7.03 -29.63 -0.60 226 225 223
-7.03 -29.71 -0.60 229 225 224
-7.03 -29.79 -0.60 229 225 224
-7.03 -29.87 -0.60 229 225 224
-7.03 -29.95 -0.60 229 225 224
-6.88 -30.14 -0.77 231 225 225
-6.88 -30.22 -0.77 231 225 225
-6.88 -30.30 -0.77 231 225 225
-6.88 -30.38 -0.77 232 226 226
-6.88 -30.46 -0.77 234 225 226
-6.88 -30.55 -0.77 234 225 226
-6.88 -30.63 -0.77 233 224 225
-6.88 -30.71 -0.77 232 228 227
-6.88 -30.79 -0.77 232 228 227
-6.88 -30.87 -0.77 232 228 227
-7.03 -30.85 -0.60 231 227 226
-7.03 -30.93 -0.60 231 227 226
-7.03 -31.01 -0.60 231 227 226
-7.03 -31.09 -0.60 232 228 227
-7.03 -31.17 -0.60 232 228 227
-7.03 -31.26 -0.60 233 229 228
-7.03 -31.34 -0.60 233 229 228
-7.03 -31.42 -0.60 233 229 228
-7.03 -31.50 -0.60 234 230 229
-7.03 -31.58 -0.60 234 230 229
-6.88 -31.77 -0.77 235 231 230
-6.88 -31.85 -0.77 234 230 229
-6.88 -31.93 -0.77 234 230 229
-6.88 -32.02 -0.77 0 0 0
-6.88 -32.10 -0.77 0 0 0
-6.88 -32.18 -0.77 0 0 0
-6.88 -32.26 -0.77 0 0 0
-6.88 -32.34 -0.77 0 0 0
-6.88 -32.42 -0.77 0 0 0
-6.88 -32.51 -0.77 0 0 0
-6.88 -32.59 -0.77 0 0 0
-6.88 -32.67 -0.77 0 0 0
-6.88 -32.75 -0.77 0 0 0
-6.76 -32.93 -0.91 0 0 0
-6.76 -33.01 -0.91 0 0 0
-6.76 -33.09 -0.91 0 0 0
-6.76 -33.17 -0.91 0 0 0
-6.88 -33.16 -0.77 0 0 0
-6.80 19.15 -0.98 0 0 0
-6.80 19.07 -0.98 0 0 0
-6.80 18.99 -0.98 0 0 0
-6.68 19.00 -1.12 0 0 0
-6.68 18.92 -1.12 0 0 0
-6.68 18.84 -1.12 0 0 0
-6.68 18.76 -1.12 0 0 0
-6.56 18.77 -1.26 0 0 0
-6.56 18.69 -1.26 0 0 0
-6.56 18.60 -1.26 124 121 114
-6.56 18.52 -1.26 124 121 114
-6.68 18.34 -1.12 125 122 115
-6.68 18.26 -1.12 126 123 118
-6.68 18.18 -1.12 125 122 117
-6.68 18.10 -1.12 125 121 118
-6.68 18.02 -1.12 124 120 117
-6.80 17.84 -0.98 125 120 117
-6.80 17.76 -0.98 125 120 117
-6.80 17.68 -0.98 122 117 114
-6.80 17.59 -0.98 122 117 114
-6.80 17.51 -0.98 123 118 114
-6.80 17.43 -0.98 123 118 114
-6.80 17.35 -0.98 125 118 112
-6.80 17.27 -0.98 125 118 112
-6.80 17.18 -0.98 125 118 110
-6.68 17.19 -1.12 125 118 112
-6.68 17.11 -1.12 120 115 112
-6.68 17.03 -1.12 124 118 118
-6.68 16.95 -1.12 123 118 115
-6.68 16.86 -1.12 123 118 114
-6.68 16.78 -1.12 121 116 112
-6.56 16.79 -1.26 121 116 110
-6.56 16.70 -1.26 124 119 113
-6.56 16.62 -1.26 123 119 110
-6.56 16.54 -1.26 120 116 107
-6.56 16.46 -1.26 117 113 104
-6.56 16.37 -1.26 116 112 103
-6.56 16.29 -1.26 118 114 105
-6.56 16.21 -1.26 119 115 106
-6.56 16.13 -1.26 119 114 108
-6.56 16.04 -1.26 118 114 105
-6.56 15.96 -1.26 121 114 104
-6.56 15.88 -1.26 121 115 103
-6.68 15.71 -1.12 122 116 104
-6.68 15.63 -1.12 124 118 106
-6.68 15.55 -1.12 124 117 107
-6.68 15.46 -1.12 122 115 105
-6.80 15.30 -0.98 120 116 105
-6.80 15.22 -0.98 120 116 105
-6.80 15.13 -0.98 117 113 104
-6.80 15.05 -0.98 118 114 105
-6.80 14.97 -0.98 120 116 107
-6.80 14.89 -0.98 121 117 108
-6.80 14.81 -0.98 120 115 109
-6.80 14.72 -0.98 118 115 108
-6.68 14.72 -1.12 118 114 105
-6.68 14.64 -1.12 122 115 105
-6.68 14.56 -1.12 120 111 102
-6.56 14.56 -1.26 119 110 101
-6.56 14.47 -1.26 122 113 108
-6.68 14.31 -1.12 122 115 109
-6.68 14.23 -1.12 121 113 110
-6.56 14.23 -1.26 121 113 110
-6.56 14.14 -1.26 122 115 109
-6.56 14.06 -1.26 121 114 106
-6.56 13.98 -1.26 121 114 104
-6.56 13.90 -1.26 122 116 104
-6.56 13.81 -1.26 122 116 104
-6.56 13.73 -1.26 121 115 103
-6.56 13.65 -1.26 119 113 101
-6.56 13.56 -1.26 117 110 100
-6.56 13.48 -1.26 115 108 98
-6.56 13.40 -1.26 116 113 104
-6.56 13.32 -1.26 116 113 104
-6.68 13.16 -1.12 115 112 103
-6.68 13.08 -1.12 113 110 101
-6.68 12.99 -1.12 111 108 99
-6.68 12.91 -1.12 112 109 100
-6.68 12.83 -1.12 114 111 102
-6.68 12.75 -1.12 113 110 101
-6.68 12.66 -1.12 112 109 100
-6.68 12.58 -1.12 112 109 100
-6.68 12.50 -1.12 112 109 100
-6.68 12.42 -1.12 113 110 101
-6.68 12.34 -1.12 114 111 102
-6.68 12.25 -1.12 115 112 103
-6.68 12.17 -1.12 115 112 103
-6.68 12.09 -1.12 111 108 101
-6.68 12.01 -1.12 113 110 103
-6.68 11.92 -1.12 113 110 101
-6.68 11.84 -1.12 111 108 99
-6.68 11.76 -1.12 111 109 96
-6.56 11.75 -1.26 112 110 97
-6.68 11.59 -1.12 114 111 94
-6.68 11.51 -1.12 114 111 94
-6.68 11.43 -1.12 113 107 93
-6.80 11.28 -0.98 114 108 96
-6.80 11.20 -0.98 114 108 96
-6.68 11.18 -1.12 114 107 99
-6.68 11.10 -1.12 115 106 99
-6.68 11.02 -1.12 115 105 103
-6.68 10.94 -1.12 119 109 107
-6.68 10.85 -1.12 118 109 102
-6.68 10.77 -1.12 121 112 103
-6.68 10.69 -1.12 122 113 104
-6.68 10.61 -1.12 121 112 103
-6.68 10.52 -1.12 121 112 105
-6.68 10.44 -1.12 123 114 107
-6.68 10.36 -1.12 121 114 106
-6.68 10.28 -1.12 119 112 104
-6.68 10.20 -1.12 120 113 105
-6.68 10.11 -1.12 121 114 106
-6.68 10.03 -1.12 121 114 106
-6.68 9.95 -1.12 122 115 107
-6.68 9.87 -1.12 123 116 108
-6.68 9.78 -1.12 123 116 108
-6.68 9.70 -1.12 122 115 107
-6.68 9.62 -1.12 120 113 105
-6.68 9.54 -1.12 123 115 104
-6.68 9.45 -1.12 123 115 104
-6.68 9.37 -1.12 123 115 102
-6.80 9.23 -0.98 123 115 102
-6.80 9.15 -0.98 124 116 103
-6.80 9.06 -0.98 126 118 107
-6.80 8.98 -0.98 127 121 109
-6.92 8.84 -0.84 123 115 112
-9.95 7.27 2.60 124 115 116
-9.95 7.20 2.60 126 117 118
-10.07 7.06 2.74 127 118 121
-10.07 6.99 2.74 127 118 121
-10.17 6.87 2.85 125 116 119
-10.17 6.80 2.85 123 114 115
-10.17 6.72 2.85 120 114 114
-10.17 6.65 2.85 123 122 117
-10.17 6.58 2.85 122 121 116
-10.17 6.50 2.85 122 119 112
-10.17 6.43 2.85 121 114 108
-10.17 6.35 2.85 118 107 101
-10.17 6.28 2.85 118 103 96
-10.17 6.21 2.85 121 101 94
-10.17 6.13 2.85 124 100 90
-10.17 6.06 2.85 135 107 96
-10.17 5.99 2.85 138 106 93
-10.17 5.91 2.85 141 109 94
-10.17 5.84 2.85 152 117 98
-10.17 5.77 2.85 161 126 106
-10.17 5.69 2.85 166 130 108
-10.17 5.62 2.85 164 128 102
-10.17 5.54 2.85 161 125 101
-10.17 5.47 2.85 165 126 109
-10.17 5.40 2.85 166 128 109
-10.17 5.32 2.85 168 127 109
-10.17 5.25 2.85 168 127 109
-10.17 5.18 2.85 169 128 110
-10.17 5.10 2.85 165 127 108
-10.17 5.03 2.85 162 124 105
-10.17 4.96 2.85 155 120 100
-10.17 4.88 2.85 156 121 101
-10.17 4.81 2.85 162 125 107
-10.17 4.73 2.85 169 130 113
-10.17 4.66 2.85 175 133 117
-10.17 4.59 2.85 180 134 119
-10.07 4.55 2.74 187 141 128
-10.07 4.48 2.74 195 149 136
-10.07 4.40 2.74 190 146 133
-10.07 4.33 2.74 190 148 134
-10.07 4.26 2.74 185 148 129
-9.95 4.23 2.60 178 141 122
-9.95 4.16 2.60 172 138 113
-9.95 4.08 2.60 168 134 109
-9.95 4.01 2.60 159 124 102
-9.95 3.93 2.60 152 115 96
-9.95 3.86 2.60 145 108 89
-9.85 3.82 2.49 162 123 108
-9.85 3.75 2.49 170 131 116
-9.85 3.67 2.49 168 131 113
-9.85 3.60 2.49 171 134 116
-9.75 3.56 2.38 175 143 122
-9.75 3.49 2.38 183 151 130
-9.75 3.41 2.38 193 160 141
-9.63 3.38 2.24 198 161 143
-9.63 3.30 2.24 209 168 150
-9.53 3.26 2.13 213 166 150
-9.53 3.19 2.13 209 162 144
-9.41 3.16 1.99 216 167 150
-9.41 3.08 1.99 221 172 155
-9.41 3.00 1.99 211 166 147
-9.31 2.96 1.88 141 104 85
-9.31 2.89 1.88 63 32 11
-9.31 2.81 1.88 34 12 0
-9.31 2.73 1.88 52 31 10
-9.31 2.66 1.88 47 29 7
-9.31 2.58 1.88 48 33 12
-9.31 2.51 1.88 28 23 1
-9.31 2.43 1.88 31 29 4
-9.31 2.36 1.88 68 62 36
-9.31 2.28 1.88 91 75 50
-9.31 2.20 1.88 151 120 100
-9.31 2.13 1.88 187 139 127
-9.31 2.05 1.88 194 144 133
-6.56 2.49 -1.26 176 152 142
-6.56 2.41 -1.26 188 175 166
-6.68 2.29 -1.12 175 173 161
-6.68 2.21 -1.12 170 172 161
-6.68 2.13 -1.12 173 168 162
-6.68 2.05 -1.12 177 172 166
-6.68 1.96 -1.12 173 173 163
-6.68 1.88 -1.12 171 173 162
-6.68 1.80 -1.12 171 173 162
-6.68 1.72 -1.12 171 173 162
-6.68 1.63 -1.12 171 173 162
-6.68 1.55 -1.12 171 173 162
-6.68 1.47 -1.12 171 173 162
-6.68 1.39 -1.12 171 173 162
-6.68 1.30 -1.12 167 170 159
-6.68 1.22 -1.12 168 171 160
-6.68 0.98 -1.12 170 173 164
-6.68 0.89 -1.12 169 172 163
-6.68 0.81 -1.12 169 172 163
-6.68 0.73 -1.12 164 169 162
-6.68 0.65 -1.12 166 171 164
-6.68 0.56 -1.12 168 174 164
-6.68 0.48 -1.12 167 173 163
-6.68 0.40 -1.12 165 171 161
-6.68 0.32 -1.12 163 169 159
-6.68 0.23 -1.12 165 171 161
-6.68 0.15 -1.12 167 173 163
-6.68 0.07 -1.12 167 173 161
-6.68 -0.01 -1.12 167 173 161
-6.68 -0.09 -1.12 166 172 160
-6.68 -0.18 -1.12 165 171 159
-6.68 -0.26 -1.12 164 170 158
-6.68 -0.34 -1.12 164 170 158
-6.68 -0.42 -1.12 164 170 160
-6.68 -0.51 -1.12 166 169 160
-6.68 -0.59 -1.12 169 170 164
-6.68 -0.67 -1.12 169 168 163
-6.68 -0.75 -1.12 167 168 163
-6.68 -0.84 -1.12 167 168 163
-6.68 -0.92 -1.12 167 169 164
-6.68 -1.00 -1.12 165 170 166
-6.68 -1.08 -1.12 164 169 165
-6.68 -1.16 -1.12 163 168 162
-6.68 -1.25 -1.12 162 167 161
-6.80 -1.35 -0.98 161 166 159
-6.80 -1.43 -0.98 162 167 160
-6.80 -1.52 -0.98 165 168 159
-6.80 -1.60 -0.98 166 169 160
-6.80 -1.68 -0.98 166 169 158
-6.80 -1.76 -0.98 166 167 159
-6.80 -1.84 -0.98 166 167 162
-6.80 -1.93 -0.98 165 164 162
-6.80 -2.01 -0.98 162 164 161
-6.68 -2.07 -1.12 164 166 163
-6.68 -2.15 -1.12 163 168 164
-6.80 -2.25 -0.98 163 168 164
-6.80 -2.34 -0.98 163 170 163
-6.80 -2.42 -0.98 164 171 164
-6.80 -2.50 -0.98 160 170 161
-6.80 -2.58 -0.98 160 170 161
-6.80 -2.66 -0.98 162 169 161
-6.68 -2.73 -1.12 164 169 162
-6.68 -2.81 -1.12 164 170 160
-6.68 -2.89 -1.12 167 170 161
-6.68 -2.98 -1.12 169 170 162
-6.68 -3.06 -1.12 167 170 159
-6.68 -3.14 -1.12 167 170 159
-6.68 -3.22 -1.12 167 170 161
-6.68 -3.30 -1.12 168 171 162
-6.68 -3.39 -1.12 170 171 165
-6.68 -3.47 -1.12 169 170 164
-6.68 -3.55 -1.12 169 168 164
-6.68 -3.63 -1.12 168 167 163
-6.68 -3.72 -1.12 170 169 165
-6.68 -3.80 -1.12 171 170 166
-6.68 -3.88 -1.12 171 172 167
-6.68 -3.96 -1.12 170 171 166
-6.80 -4.06 -0.98 168 170 165
-6.80 -4.14 -0.98 169 171 166
-6.80 -4.22 -0.98 171 174 167
-6.80 -4.30 -0.98 174 177 170
-6.80 -4.39 -0.98 175 177 166
-6.80 -4.47 -0.98 174 176 165
-6.80 -4.55 -0.98 171 174 165
-6.80 -4.63 -0.98 170 173 164
-6.80 -4.71 -0.98 168 173 166
-6.80 -4.80 -0.98 169 174 167
-6.80 -4.88 -0.98 169 176 169
-6.68 -4.95 -1.12 170 176 172
-6.68 -5.03 -1.12 170 176 172
-6.80 -5.12 -0.98 171 177 175
-6.80 -5.21 -0.98 171 177 175
-6.80 -5.29 -0.98 171 177 175
-6.80 -5.37 -0.98 171 177 175
-6.80 -5.45 -0.98 171 177 175
-6.80 -5.53 -0.98 171 177 175
-6.80 -5.62 -0.98 171 180 177
-6.80 -5.70 -0.98 171 180 177
-6.80 -5.78 -0.98 171 180 177
-6.80 -5.86 -0.98 171 180 177
-6.80 -5.94 -0.98 171 182 178
-6.80 -6.03 -0.98 172 183 179
-6.80 -6.11 -0.98 172 183 179
-6.80 -6.19 -0.98 172 183 179
-6.80 -6.27 -0.98 171 182 178
-6.80 -6.35 -0.98 170 181 177
-6.80 -6.44 -0.98 172 181 178
-6.80 -6.52 -0.98 174 183 180
-6.80 -6.60 -0.98 176 182 180
-6.80 -6.68 -0.98 175 181 179
-6.80 -6.76 -0.98 176 180 179
-6.80 -6.85 -0.98 177 181 182
-6.80 -6.93 -0.98 175 180 183
-6.80 -7.01 -0.98 174 179 182
-6.80 -7.09 -0.98 173 178 181
-6.80 -7.17 -0.98 173 178 181
-6.80 -7.26 -0.98 174 179 182
-6.80 -7.34 -0.98 175 181 181
-6.80 -7.42 -0.98 176 182 182
-6.80 -7.50 -0.98 174 180 178
-6.80 -7.58 -0.98 175 181 179
-6.80 -7.67 -0.98 175 181 179
-6.80 -7.75 -0.98 176 182 180
-6.80 -7.83 -0.98 177 183 179
-6.80 -7.91 -0.98 178 184 180
-6.80 -7.99 -0.98 178 184 180
-6.80 -8.08 -0.98 179 185 181
-6.80 -8.16 -0.98 179 183 182
-6.80 -8.24 -0.98 179 183 182
-6.80 -8.32 -0.98 179 183 182
-6.80 -8.40 -0.98 179 183 182
-6.80 -8.49 -0.98 179 183 182
-6.80 -8.57 -0.98 179 183 182
-6.80 -8.65 -0.98 179 183 182
-6.80 -8.73 -0.98 178 182 181
-6.80 -8.81 -0.98 175 179 178
-6.80 -8.90 -0.98 178 184 182
