ply
format ascii 1.0
element vertex 1672
property float x
property float y
property float z
property uchar red
property uchar green
property uchar blue
end_header
-9.98 11.61 7.16 144 136 134
-9.98 11.54 7.16 143 134 135
-9.98 11.47 7.16 143 134 135
-9.98 11.40 7.16 142 133 134
-9.98 11.33 7.16 144 135 136
-9.98 11.25 7.16 145 137 135
-9.98 11.18 7.16 144 136 134
-9.98 11.11 7.16 145 137 134
-9.88 11.11 7.06 146 138 135
-9.88 11.04 7.06 146 139 133
-9.88 10.97 7.06 144 137 131
-9.88 10.90 7.06 149 142 136
-9.88 10.83 7.06 147 140 134
-9.88 10.76 7.06 145 137 134
-9.88 10.69 7.06 145 137 135
-9.88 10.61 7.06 143 135 133
-9.88 10.54 7.06 134 125 126
-9.77 10.54 6.96 121 112 115
-9.77 10.46 6.96 111 102 105
-9.77 10.39 6.96 108 98 97
-9.77 10.32 6.96 89 77 77
-9.67 10.31 6.86 78 64 61
-9.67 10.24 6.86 82 64 60
-9.67 10.17 6.86 90 67 61
-9.67 10.10 6.86 98 66 55
-9.67 10.03 6.86 108 70 57
-9.57 10.02 6.76 102 60 44
-9.57 9.95 6.76 113 67 51
-9.57 9.88 6.76 120 75 56
-9.57 9.80 6.76 123 76 58
-9.57 9.73 6.76 125 78 58
-9.57 9.66 6.76 131 84 64
-9.47 9.65 6.66 138 91 71
-9.47 9.58 6.66 143 95 73
-9.47 9.51 6.66 144 89 68
-9.47 9.43 6.66 147 90 70
-9.47 9.36 6.66 149 94 73
-9.47 9.29 6.66 152 96 79
-9.36 9.28 6.55 154 103 84
-9.36 9.21 6.55 159 108 91
-9.36 9.13 6.55 158 110 90
-9.36 9.06 6.55 157 109 89
-9.26 9.05 6.45 159 111 88
-9.26 8.97 6.45 163 115 92
-9.26 8.90 6.45 167 117 90
-9.16 8.88 6.35 168 117 90
-9.16 8.81 6.35 167 116 89
-9.05 8.79 6.25 172 118 92
-9.05 8.72 6.25 179 123 100
-9.05 8.65 6.25 176 122 96
-8.95 8.63 6.15 177 123 97
-8.95 8.56 6.15 179 125 99
-8.95 8.49 6.15 180 126 100
-8.95 8.41 6.15 180 126 100
-8.85 8.39 6.05 180 126 100
-8.85 8.32 6.05 181 127 101
-8.72 8.31 5.92 182 128 102
-8.72 8.24 5.92 185 131 105
-8.72 8.17 5.92 182 128 102
-8.72 8.09 5.92 184 130 104
-8.61 8.07 5.82 186 132 106
-8.61 8.00 5.82 185 131 105
-8.61 7.92 5.82 188 134 108
-8.51 7.90 5.72 191 137 111
-8.51 7.83 5.72 190 136 110
-8.51 7.75 5.72 187 138 106
-8.41 7.73 5.62 188 139 107
-8.41 7.66 5.62 189 138 107
-8.41 7.58 5.62 189 138 107
-8.28 7.57 5.49 189 138 107
-8.28 7.50 5.49 189 138 107
-8.28 7.42 5.49 192 139 108
-8.28 7.35 5.49 193 140 108
-8.28 7.27 5.49 194 141 109
-8.28 7.20 5.49 193 140 108
-1.35 9.95 -1.34 193 140 109
-1.35 9.86 -1.34 196 143 112
-1.35 9.77 -1.34 196 140 113
-1.35 9.68 -1.34 193 138 108
-1.53 9.51 -1.16 191 136 106
-1.53 9.42 -1.16 190 135 104
-1.53 9.33 -1.16 188 133 103
-1.53 9.24 -1.16 186 133 102
-1.53 9.15 -1.16 185 131 105
-1.53 9.06 -1.16 181 131 106
-1.53 8.97 -1.16 180 129 108
-1.53 8.88 -1.16 176 130 107
-1.53 8.79 -1.16 174 129 108
-1.53 8.70 -1.16 171 129 105
-1.53 8.61 -1.16 169 129 104
-1.53 8.52 -1.16 165 128 99
-1.53 8.43 -1.16 166 125 97
-1.53 8.34 -1.16 167 117 90
-4.13 6.68 1.40 126 105 84
-4.13 6.60 1.40 132 115 95
-3.98 6.58 1.25 127 119 100
-3.98 6.49 1.25 56 50 36
-3.98 6.41 1.25 16 16 8
-3.98 6.32 1.25 22 24 23
-3.98 6.24 1.25 13 17 20
-3.98 6.15 1.25 16 20 29
-3.98 6.07 1.25 17 21 32
-3.98 5.99 1.25 11 17 29
-3.98 5.90 1.25 9 17 28
-3.98 5.82 1.25 10 23 32
-3.98 5.73 1.25 12 27 34
-3.98 5.65 1.25 11 28 35
-3.85 5.61 1.12 9 28 34
-3.98 5.48 1.25 11 30 36
-3.98 5.40 1.25 9 26 33
-3.98 5.31 1.25 9 23 32
-3.98 5.23 1.25 8 22 31
-3.98 5.14 1.25 5 22 30
-3.98 5.06 1.25 5 22 30
-3.98 4.97 1.25 5 23 33
-3.98 4.89 1.25 6 24 36
-3.98 4.80 1.25 9 25 38
-3.98 4.72 1.25 8 24 39
-3.98 4.64 1.25 10 23 39
-3.98 4.55 1.25 9 22 38
-3.98 4.47 1.25 10 24 37
-3.85 4.43 1.12 10 24 37
-3.85 4.34 1.12 11 23 35
-3.98 4.21 1.25 10 22 34
-3.98 4.13 1.25 10 24 33
-3.98 4.05 1.25 10 24 33
-4.13 3.91 1.40 9 23 32
-4.26 3.79 1.53 9 23 32
-4.26 3.70 1.53 7 24 32
-4.42 3.57 1.68 7 24 32
-4.42 3.49 1.68 6 24 34
-4.54 3.37 1.81 6 24 36
-4.54 3.28 1.81 8 26 38
-4.54 3.20 1.81 7 25 39
-4.54 3.12 1.81 7 24 40
-4.26 3.12 1.53 6 23 41
-4.42 2.99 1.68 6 23 41
-4.42 2.91 1.68 6 24 38
-4.54 2.79 1.81 6 24 38
-4.54 2.70 1.81 7 27 38
-4.54 2.62 1.81 7 27 38
-4.42 2.57 1.68 7 27 36
-4.42 2.49 1.68 7 27 38
-4.42 2.41 1.68 7 27 38
-4.42 2.32 1.68 7 26 41
-4.42 2.24 1.68 7 26 43
-4.42 2.16 1.68 7 25 45
-4.26 2.12 1.53 6 27 46
-4.26 2.03 1.53 6 27 46
-4.26 1.95 1.53 7 28 47
-4.26 1.86 1.53 7 28 47
-4.26 1.78 1.53 8 29 48
-3.98 1.77 1.25 8 29 48
-3.98 1.69 1.25 8 29 48
-3.98 1.60 1.25 8 29 48
-4.54 1.38 1.81 6 27 48
-4.54 1.29 1.81 8 29 50
-3.98 1.35 1.25 12 30 52
-3.98 1.26 1.25 11 29 51
-3.98 1.18 1.25 9 27 49
-4.13 1.06 1.40 11 29 51
-4.13 0.97 1.40 14 32 54
-4.13 0.89 1.40 9 31 52
-4.13 0.81 1.40 9 31 52
-4.13 0.72 1.40 7 32 54
-4.13 0.64 1.40 7 31 55
-4.13 0.55 1.40 7 31 55
-4.26 0.44 1.53 7 31 59
-4.26 0.36 1.53 6 32 59
-4.26 0.27 1.53 6 31 61
-4.26 0.19 1.53 8 33 64
-4.26 0.11 1.53 8 33 64
-4.26 0.02 1.53 8 33 64
-4.26 -0.06 1.53 7 32 63
-4.26 -0.14 1.53 7 32 63
-4.42 -0.26 1.68 7 32 63
-4.42 -0.34 1.68 9 32 63
-4.42 -0.42 1.68 11 34 65
-4.42 -0.51 1.68 6 32 57
-4.42 -0.59 1.68 8 34 59
-4.42 -0.67 1.68 9 35 60
-4.42 -0.76 1.68 8 34 59
-4.42 -0.84 1.68 7 33 58
-4.13 -1.04 1.40 8 35 62
-4.26 -1.15 1.53 9 36 63
-4.26 -1.23 1.53 8 35 64
-4.42 -1.34 1.68 7 34 63
-4.42 -1.42 1.68 8 35 64
-4.42 -1.51 1.68 10 37 66
-4.42 -1.59 1.68 10 37 66
-4.42 -1.67 1.68 9 36 65
-4.42 -1.76 1.68 11 38 67
-4.42 -1.84 1.68 10 37 66
-4.54 -1.94 1.81 10 36 63
-4.54 -2.03 1.81 10 36 63
-4.54 -2.11 1.81 10 36 63
-4.54 -2.19 1.81 10 36 63
-4.54 -2.28 1.81 12 35 66
-4.54 -2.36 1.81 13 36 67
-4.54 -2.44 1.81 13 36 67
-4.54 -2.52 1.81 13 36 68
-4.54 -2.61 1.81 11 36 67
-4.54 -2.69 1.81 11 35 69
-4.54 -2.77 1.81 11 35 71
-4.54 -2.86 1.81 11 35 71
-4.54 -2.94 1.81 8 34 69
-4.54 -3.02 1.81 10 37 67
-4.26 -3.07 1.53 10 37 67
-4.26 -3.15 1.53 10 37 67
-4.13 -3.22 1.40 11 38 68
-4.42 -3.34 1.68 11 38 67
-4.54 -3.44 1.81 11 38 67
-4.54 -3.52 1.81 11 38 67
-4.54 -3.60 1.81 11 38 67
-4.54 -3.69 1.81 8 35 65
-4.54 -3.77 1.81 11 38 68
-4.54 -3.85 1.81 14 40 73
-4.54 -3.94 1.81 14 40 73
-4.54 -4.02 1.81 13 37 73
-4.54 -4.10 1.81 12 36 72
-4.54 -4.18 1.81 13 37 75
-4.54 -4.27 1.81 15 41 78
-4.54 -4.35 1.81 10 38 75
-4.54 -4.43 1.81 9 39 75
-4.54 -4.52 1.81 10 40 74
-4.54 -4.60 1.81 10 40 74
-4.54 -4.68 1.81 11 41 75
-4.54 -4.77 1.81 11 41 75
-4.70 -4.86 1.96 10 40 74
-4.70 -4.94 1.96 12 42 76
-4.70 -5.02 1.96 12 42 78
-4.70 -5.11 1.96 10 43 78
-4.54 -5.18 1.81 15 47 86
-4.54 -5.26 1.81 15 47 86
-4.54 -5.35 1.81 16 48 89
-4.70 -5.44 1.96 21 54 97
-4.70 -5.52 1.96 20 49 83
-4.70 -5.60 1.96 88 111 129
-4.70 -5.69 1.96 136 154 164
-4.70 -5.77 1.96 131 148 155
-4.70 -5.85 1.96 134 149 154
-4.83 -5.94 2.09 137 152 155
-4.83 -6.02 2.09 141 152 154
-1.84 -6.17 -0.85 147 156 153
-1.68 -6.26 -1.01 149 158 155
-1.68 -6.35 -1.01 153 159 157
-1.68 -6.44 -1.01 156 162 162
-1.68 -6.53 -1.01 155 164 163
-1.68 -6.62 -1.01 156 164 166
-1.68 -6.71 -1.01 156 164 167
-1.68 -6.80 -1.01 156 164 167
-1.68 -6.88 -1.01 157 165 168
-1.68 -6.97 -1.01 159 167 170
-1.68 -7.06 -1.01 161 169 172
-1.68 -7.15 -1.01 162 170 172
-1.68 -7.24 -1.01 161 169 171
-1.68 -7.33 -1.01 162 171 170
-1.68 -7.42 -1.01 164 173 172
-1.53 -7.51 -1.16 162 171 170
-1.53 -7.60 -1.16 162 171 170
-1.53 -7.69 -1.16 163 172 169
-1.68 -7.78 -1.01 166 175 172
-1.68 -7.87 -1.01 170 179 174
-1.68 -7.96 -1.01 173 182 177
-1.53 -8.05 -1.16 174 183 178
-1.53 -8.14 -1.16 174 183 178
-1.53 -8.23 -1.16 177 186 183
-1.53 -8.32 -1.16 177 186 183
-1.53 -8.41 -1.16 176 187 183
-1.53 -8.50 -1.16 177 188 184
-1.53 -8.59 -1.16 178 189 185
-1.53 -8.68 -1.16 178 189 185
-1.53 -8.77 -1.16 179 190 186
-1.53 -8.86 -1.16 179 190 186
-1.53 -8.95 -1.16 180 191 187
-1.53 -9.04 -1.16 177 188 184
-1.53 -9.13 -1.16 179 190 186
-1.53 -9.22 -1.16 181 192 188
-1.53 -9.31 -1.16 182 193 189
-1.68 -9.40 -1.01 180 191 187
-1.68 -9.49 -1.01 178 189 185
-1.68 -9.58 -1.01 182 193 185
-1.68 -9.67 -1.01 182 193 185
-1.68 -9.76 -1.01 182 193 185
-1.68 -9.85 -1.01 182 193 185
-1.68 -9.94 -1.01 183 193 185
-1.68 -10.02 -1.01 183 193 185
-1.68 -10.11 -1.01 184 191 184
-1.68 -10.20 -1.01 184 191 184
-1.68 -10.29 -1.01 185 191 187
-1.68 -10.38 -1.01 185 191 187
-1.68 -10.47 -1.01 183 192 187
-1.68 -10.56 -1.01 184 193 188
-1.68 -10.65 -1.01 183 194 188
-1.68 -10.74 -1.01 182 193 187
-1.68 -10.83 -1.01 182 193 187
-1.68 -10.92 -1.01 182 193 187
-1.68 -11.01 -1.01 183 192 189
-1.68 -11.10 -1.01 183 192 189
-1.68 -11.19 -1.01 181 190 187
-1.68 -11.28 -1.01 181 190 187
-1.68 -11.37 -1.01 183 192 189
-1.68 -11.46 -1.01 183 194 190
-1.68 -11.55 -1.01 184 195 191
-1.68 -11.64 -1.01 185 194 191
-1.68 -11.73 -1.01 185 194 191
-1.68 -11.82 -1.01 184 193 190
-1.68 -11.91 -1.01 184 193 190
-1.68 -12.00 -1.01 187 193 191
-1.84 -12.07 -0.85 187 193 191
-1.84 -12.16 -0.85 188 194 192
-1.84 -12.25 -0.85 188 194 192
-1.84 -12.34 -0.85 188 192 191
-1.84 -12.43 -0.85 190 194 193
-1.84 -12.52 -0.85 191 195 194
-1.84 -12.61 -0.85 190 194 193
-1.84 -12.69 -0.85 187 193 191
-1.84 -12.78 -0.85 186 192 190
-1.84 -12.87 -0.85 186 195 192
-1.84 -12.96 -0.85 188 197 194
-1.84 -13.05 -0.85 187 196 193
-1.84 -13.14 -0.85 188 197 194
-1.68 -13.25 -1.01 189 198 195
-1.68 -13.34 -1.01 191 197 195
-1.68 -13.43 -1.01 190 196 194
-1.68 -13.52 -1.01 190 196 194
-1.68 -13.61 -1.01 190 196 194
-1.68 -13.70 -1.01 194 198 197
-1.68 -13.79 -1.01 194 198 197
-1.68 -13.88 -1.01 194 198 197
-1.68 -13.97 -1.01 193 197 196
-1.84 -14.03 -0.85 193 197 196
-1.84 -14.12 -0.85 194 198 197
-1.84 -14.21 -0.85 196 200 199
-1.84 -14.30 -0.85 198 202 201
-1.84 -14.39 -0.85 195 199 198
-1.84 -14.48 -0.85 196 200 199
-1.84 -14.57 -0.85 199 201 200
-1.84 -14.66 -0.85 200 202 201
-1.84 -14.75 -0.85 201 203 202
-1.84 -14.84 -0.85 201 203 202
-1.84 -14.93 -0.85 202 202 202
-1.84 -15.02 -0.85 201 203 202
-1.68 -15.14 -1.01 196 205 202
-1.68 -15.23 -1.01 195 206 202
-1.84 -15.29 -0.85 196 205 202
-1.84 -15.38 -0.85 197 206 203
-1.84 -15.46 -0.85 197 206 203
-1.84 -15.55 -0.85 200 206 204
-1.84 -15.64 -0.85 200 206 204
-1.99 -15.70 -0.70 202 206 205
-1.99 -15.79 -0.70 202 206 205
-1.84 -15.91 -0.85 205 207 206
-1.84 -16.00 -0.85 207 209 208
-1.84 -16.09 -0.85 209 209 209
-1.99 -16.14 -0.70 208 208 208
-1.99 -16.23 -0.70 209 209 209
-1.84 -16.36 -0.85 211 211 211
-1.84 -16.45 -0.85 210 212 211
-1.84 -16.54 -0.85 210 212 211
-1.84 -16.63 -0.85 209 213 212
-1.84 -16.72 -0.85 210 214 213
-1.84 -16.80 -0.85 212 216 215
-1.84 -16.89 -0.85 212 216 215
-1.84 -16.98 -0.85 212 216 215
-1.84 -17.07 -0.85 212 216 215
-1.84 -17.16 -0.85 212 216 215
-1.84 -17.25 -0.85 213 217 216
-1.99 -17.30 -0.70 213 217 216
-1.99 -17.39 -0.70 215 219 218
-1.99 -17.48 -0.70 217 221 220
-1.99 -17.57 -0.70 216 222 220
-1.99 -17.66 -0.70 216 220 219
-1.99 -17.75 -0.70 219 221 220
-1.99 -17.83 -0.70 221 221 221
-1.84 -17.97 -0.85 222 222 222
-1.68 -18.10 -1.01 222 222 222
-1.84 -18.14 -0.85 223 223 223
-1.84 -18.23 -0.85 223 223 223
-1.84 -18.32 -0.85 224 224 224
-1.84 -18.41 -0.85 225 225 225
-1.84 -18.50 -0.85 223 223 223
-1.84 -18.59 -0.85 224 224 224
-1.84 -18.68 -0.85 226 226 226
-1.99 -18.72 -0.70 227 227 227
-1.99 -18.81 -0.70 226 226 226
-1.99 -18.90 -0.70 225 225 225
-1.84 -19.04 -0.85 224 224 224
-1.84 -19.13 -0.85 223 223 223
-1.84 -19.22 -0.85 225 225 225
-1.84 -19.31 -0.85 225 225 225
-1.84 -19.40 -0.85 225 225 225
-1.84 -19.49 -0.85 226 226 226
-1.84 -19.57 -0.85 228 228 228
-1.84 -19.66 -0.85 229 229 229
-1.84 -19.75 -0.85 232 232 232
-1.68 -19.89 -1.01 231 231 231
-1.84 -19.93 -0.85 233 233 233
-1.84 -20.02 -0.85 235 235 235
-1.84 -20.11 -0.85 235 235 235
-1.84 -20.20 -0.85 233 233 233
-1.84 -20.29 -0.85 231 231 231
-1.84 -20.38 -0.85 232 232 232
-1.84 -20.47 -0.85 234 234 234
-1.84 -20.56 -0.85 231 231 231
-1.84 -20.65 -0.85 232 232 232
-1.84 -20.74 -0.85 233 233 233
-1.84 -20.83 -0.85 234 234 234
-1.84 -20.91 -0.85 235 235 235
-1.84 -21.00 -0.85 236 236 236
-1.84 -21.09 -0.85 236 236 236
-1.84 -21.18 -0.85 237 237 237
-1.84 -21.27 -0.85 238 238 238
-1.84 -21.36 -0.85 237 237 237
-1.84 -21.45 -0.85 237 237 237
-1.84 -21.54 -0.85 239 239 239
-1.84 -21.63 -0.85 241 241 241
-1.84 -21.72 -0.85 242 242 242
-1.99 -21.75 -0.70 244 244 244
-1.84 -22.08 -0.85 241 241 241
-1.84 -22.17 -0.85 240 240 240
-1.99 -22.19 -0.70 239 239 239
-1.99 -22.28 -0.70 239 239 239
-1.99 -22.37 -0.70 239 239 239
-1.99 -22.46 -0.70 239 239 239
-1.99 -22.55 -0.70 240 240 240
-1.99 -22.64 -0.70 242 242 242
-1.99 -22.73 -0.70 244 244 244
-1.99 -22.82 -0.70 243 243 243
-1.99 -22.91 -0.70 241 241 241
-1.99 -23.00 -0.70 241 241 241
-1.99 -23.08 -0.70 243 243 243
-1.99 -23.17 -0.70 245 245 245
-1.99 -23.26 -0.70 245 245 245
-1.99 -23.35 -0.70 246 246 246
-1.99 -23.44 -0.70 246 246 246
-1.99 -23.53 -0.70 246 246 246
-1.99 -23.62 -0.70 246 246 246
-1.99 -23.71 -0.70 247 247 247
-1.99 -23.97 -0.70 248 248 248
-1.99 -24.06 -0.70 247 247 247
-1.99 -24.15 -0.70 246 246 246
-1.99 -24.24 -0.70 246 246 246
-1.99 -24.33 -0.70 247 247 247
-1.99 -24.42 -0.70 246 246 246
-1.99 -24.51 -0.70 244 244 244
-1.99 -24.60 -0.70 246 246 246
-1.99 -24.69 -0.70 246 246 246
-1.99 -24.78 -0.70 246 246 246
-1.99 -24.86 -0.70 247 247 247
-1.99 -24.95 -0.70 249 249 249
-1.99 -25.04 -0.70 249 249 249
-1.99 -25.13 -0.70 249 249 249
-1.99 -25.22 -0.70 249 249 249
-1.99 -25.31 -0.70 246 246 246
-1.99 -25.40 -0.70 249 249 249
-1.99 -25.49 -0.70 249 249 249
-1.99 -25.58 -0.70 249 249 249
-1.99 -25.67 -0.70 252 252 252
-1.99 -25.75 -0.70 252 252 252
-1.99 -25.84 -0.70 250 250 250
-1.99 -25.93 -0.70 253 253 253
-1.99 -26.02 -0.70 248 248 248
-2.17 -26.02 -0.52 250 250 250
-2.17 -26.11 -0.52 250 250 250
-1.99 -26.29 -0.70 251 251 251
-1.99 -26.38 -0.70 251 251 251
-1.99 -26.47 -0.70 251 251 251
-1.99 -26.55 -0.70 250 250 250
-1.99 -26.64 -0.70 250 250 250
-1.99 -26.73 -0.70 250 250 250
-1.99 -26.82 -0.70 250 250 250
-1.99 -26.91 -0.70 249 249 249
-1.99 -27.00 -0.70 247 247 247
-1.99 -27.09 -0.70 247 247 247
-1.99 -27.18 -0.70 247 247 247
-1.99 -27.27 -0.70 248 248 248
-1.99 -27.36 -0.70 249 249 249
-1.99 -27.44 -0.70 249 249 249
-1.99 -27.53 -0.70 250 250 250
-1.99 -27.62 -0.70 250 250 250
-1.99 -27.71 -0.70 249 249 249
-1.99 -27.80 -0.70 249 249 249
-1.99 -27.89 -0.70 248 248 248
-1.99 -27.98 -0.70 247 247 247
-1.99 -28.07 -0.70 248 248 248
-1.99 -28.16 -0.70 248 248 248
-1.99 -28.25 -0.70 249 249 249
-1.99 -28.33 -0.70 249 249 249
-1.99 -28.42 -0.70 249 249 249
-1.99 -28.51 -0.70 249 249 249
-1.99 -28.60 -0.70 249 249 249
-1.99 -28.69 -0.70 248 248 248
-1.99 -28.78 -0.70 248 248 248
-1.99 -28.87 -0.70 249 249 249
-1.99 -28.96 -0.70 249 249 249
-1.99 -29.05 -0.70 249 249 249
-1.99 -29.14 -0.70 249 249 249
-1.99 -29.22 -0.70 248 248 248
-1.99 -29.31 -0.70 248 248 248
-1.99 -29.40 -0.70 250 250 250
-1.99 -29.49 -0.70 250 250 250
-1.99 -29.58 -0.70 250 250 250
-1.99 -29.67 -0.70 249 249 249
-1.99 -29.76 -0.70 248 248 248
-1.99 -29.85 -0.70 248 248 248
-1.99 -29.94 -0.70 248 248 248
-1.99 -30.03 -0.70 248 248 248
-1.99 -30.11 -0.70 249 249 249
-1.99 -30.20 -0.70 250 250 250
-1.99 -30.29 -0.70 250 250 250
-1.99 -30.38 -0.70 247 247 247
-1.99 -30.47 -0.70 248 248 248
-1.99 -30.56 -0.70 247 247 247
-1.99 -30.65 -0.70 246 246 246
-1.99 -30.74 -0.70 244 244 244
-1.99 -30.83 -0.70 245 245 245
-1.99 -30.92 -0.70 246 246 246
-1.99 -31.00 -0.70 247 247 247
-1.99 -31.09 -0.70 247 247 247
-1.99 -31.18 -0.70 246 246 246
-1.99 -31.27 -0.70 245 245 245
-1.99 -31.36 -0.70 244 244 244
-1.99 -31.45 -0.70 242 242 242
-1.99 -31.54 -0.70 243 243 243
-1.99 -31.63 -0.70 244 244 244
-1.99 -31.72 -0.70 244 244 244
-1.99 -31.81 -0.70 244 244 244
-1.99 -31.89 -0.70 243 243 243
-1.99 -31.98 -0.70 242 242 242
-1.99 -32.07 -0.70 241 241 241
-1.99 -32.16 -0.70 244 244 244
-1.99 -32.25 -0.70 241 241 241
-1.99 -32.34 -0.70 242 242 242
-1.99 -32.43 -0.70 243 243 243
-1.99 -32.52 -0.70 244 244 244
-1.99 -32.61 -0.70 246 246 246
-2.17 -32.57 -0.52 244 244 244
-2.17 -32.66 -0.52 244 244 244
-2.17 -32.75 -0.52 246 246 246
-2.17 -32.84 -0.52 245 245 245
-1.99 -33.05 -0.70 244 244 244
-1.99 -33.14 -0.70 246 246 246
-1.99 -33.23 -0.70 245 245 245
-1.99 -33.32 -0.70 243 243 243
-1.99 -33.41 -0.70 245 245 245
-1.99 -33.50 -0.70 243 243 243
-1.99 -33.58 -0.70 247 247 247
-1.99 -33.67 -0.70 249 249 249
-1.99 -33.76 -0.70 247 247 247
-1.99 -33.85 -0.70 245 245 245
-1.99 -33.94 -0.70 246 246 246
-1.99 -34.03 -0.70 246 246 246
-1.99 -34.12 -0.70 245 245 245
-1.99 -34.21 -0.70 0 0 0
-1.99 -34.30 -0.70 0 0 0
-1.99 -34.39 -0.70 0 0 0
-1.84 -34.59 -0.85 0 0 0
-1.84 -34.67 -0.85 0 0 0
-1.84 -34.76 -0.85 0 0 0
-1.84 -34.85 -0.85 0 0 0
-1.84 -34.94 -0.85 0 0 0
-1.84 -35.03 -0.85 0 0 0
-1.84 -35.12 -0.85 0 0 0
-1.99 -35.10 -0.70 0 0 0
-1.99 -35.19 -0.70 0 0 0
-1.99 -35.28 -0.70 0 0 0
-1.99 -35.36 -0.70 0 0 0
-1.99 -35.45 -0.70 0 0 0
-1.39 21.36 -1.42 0 0 0
-1.39 21.27 -1.42 0 0 0
-1.57 21.04 -1.24 0 0 0
-1.57 20.95 -1.24 130 121 112
-1.57 20.86 -1.24 130 121 112
-1.57 20.77 -1.24 130 121 112
-1.57 20.68 -1.24 130 121 112
-1.57 20.59 -1.24 131 122 113
-1.57 20.50 -1.24 130 124 112
-1.57 20.41 -1.24 131 125 113
-1.57 20.32 -1.24 132 126 112
-1.57 20.23 -1.24 132 126 112
-1.57 20.14 -1.24 134 128 116
-1.57 20.05 -1.24 134 128 116
-1.57 19.96 -1.24 135 128 118
-1.57 19.87 -1.24 136 129 119
-1.57 19.78 -1.24 136 129 121
-1.57 19.69 -1.24 136 129 121
-1.57 19.60 -1.24 136 129 123
-1.57 19.51 -1.24 135 128 122
-1.57 19.42 -1.24 137 130 120
-1.57 19.33 -1.24 137 130 120
-1.57 19.24 -1.24 137 130 122
-1.57 19.15 -1.24 138 131 123
-1.57 19.06 -1.24 138 131 123
-1.57 18.97 -1.24 139 132 126
-1.57 18.88 -1.24 139 132 126
-1.57 18.79 -1.24 139 132 126
-1.57 18.70 -1.24 141 134 128
-1.57 18.61 -1.24 142 135 129
-1.57 18.52 -1.24 142 135 129
-1.57 18.43 -1.24 141 134 126
-1.57 18.34 -1.24 141 134 126
-1.57 18.25 -1.24 140 133 125
-1.57 18.16 -1.24 139 132 124
-1.57 18.07 -1.24 138 134 125
-1.57 17.98 -1.24 139 135 126
-1.57 17.89 -1.24 139 135 126
-1.57 17.80 -1.24 138 134 125
-1.57 17.71 -1.24 139 135 126
-1.57 17.62 -1.24 141 137 128
-1.57 17.53 -1.24 142 138 129
-1.57 17.44 -1.24 142 138 129
-1.57 17.35 -1.24 142 138 129
-1.57 17.26 -1.24 141 136 130
-1.57 17.17 -1.24 141 136 130
-10.02 11.68 7.10 141 136 132
-10.02 11.61 7.10 141 136 133
-10.02 11.54 7.10 141 135 135
-10.02 11.47 7.10 141 135 135
-10.02 11.40 7.10 144 135 136
-10.02 11.33 7.10 145 136 137
-9.91 11.32 7.00 146 138 136
-9.91 11.25 7.00 145 137 135
-9.91 11.18 7.00 144 136 133
-9.91 11.11 7.00 145 137 134
-9.91 11.04 7.00 145 138 132
-9.91 10.97 7.00 143 136 130
-9.91 10.90 7.00 145 138 132
-9.91 10.83 7.00 144 137 131
-9.91 10.76 7.00 144 136 133
-9.91 10.69 7.00 146 138 136
-9.91 10.61 7.00 149 141 139
-9.81 10.61 6.90 147 138 139
-9.81 10.54 6.90 142 133 136
-9.81 10.46 6.90 137 128 131
-9.81 10.39 6.90 130 124 124
-9.81 10.32 6.90 113 104 105
-9.71 10.31 6.80 93 85 82
-9.71 10.24 6.80 85 74 70
-9.71 10.17 6.80 85 67 63
-9.71 10.10 6.80 84 57 48
-9.71 10.03 6.80 87 57 46
-9.60 10.02 6.70 97 63 51
-9.60 9.95 6.70 106 68 55
-9.60 9.88 6.70 110 71 54
-9.60 9.80 6.70 109 66 50
-9.60 9.73 6.70 107 64 47
-9.60 9.66 6.70 113 67 51
-9.60 9.59 6.70 117 70 54
-9.50 9.58 6.59 118 69 52
-9.50 9.51 6.59 137 81 64
-9.50 9.43 6.59 141 84 67
-9.50 9.36 6.59 144 88 71
-9.50 9.29 6.59 146 93 77
-9.50 9.22 6.59 149 97 83
-9.40 9.21 6.49 151 102 87
-9.40 9.13 6.49 151 106 87
-9.40 9.06 6.49 152 107 86
-9.29 9.05 6.39 155 110 87
-9.29 8.97 6.39 159 113 87
-9.29 8.90 6.39 161 116 87
-9.19 8.88 6.29 163 114 84
-9.19 8.81 6.29 163 114 84
-9.19 8.74 6.29 169 115 87
-9.09 8.72 6.19 174 118 93
-9.09 8.65 6.19 171 120 93
-9.09 8.58 6.19 173 122 95
-8.99 8.56 6.09 175 124 97
-8.99 8.49 6.09 176 125 98
-8.99 8.41 6.09 179 125 99
-8.88 8.39 5.98 180 126 100
-8.88 8.32 5.98 180 126 100
-8.88 8.25 5.98 181 127 101
-8.88 8.17 5.98 185 131 105
-8.75 8.17 5.86 182 128 102
-8.75 8.09 5.86 184 130 104
-8.75 8.02 5.86 186 132 106
-8.65 8.00 5.76 184 130 104
-8.65 7.92 5.76 187 133 107
-8.65 7.85 5.76 190 136 110
-8.55 7.83 5.65 189 135 109
-8.55 7.75 5.65 190 141 109
-8.55 7.68 5.65 189 140 108
-8.45 7.66 5.55 189 140 108
-8.45 7.58 5.55 189 140 108
-8.45 7.51 5.55 190 139 108
-8.45 7.43 5.55 189 138 107
-8.45 7.36 5.55 189 139 106
-8.32 7.35 5.42 193 140 108
-8.32 7.27 5.42 194 141 109
-8.32 7.20 5.42 194 141 109
-1.39 9.95 -1.42 195 142 111
-1.39 9.86 -1.42 197 142 112
-1.39 9.77 -1.42 196 140 113
-1.57 9.60 -1.24 193 138 107
-1.57 9.51 -1.24 191 136 105
-1.57 9.42 -1.24 191 135 102
-1.57 9.33 -1.24 190 134 101
-1.73 9.17 -1.08 188 133 102
-1.73 9.08 -1.08 187 132 102
-1.73 8.99 -1.08 189 133 106
-1.57 8.97 -1.24 188 132 107
-1.57 8.88 -1.24 185 133 109
-1.57 8.79 -1.24 184 132 108
-1.57 8.70 -1.24 183 133 106
-1.57 8.61 -1.24 182 132 105
-1.57 8.52 -1.24 179 132 102
-1.57 8.43 -1.24 177 132 103
-1.57 8.34 -1.24 170 128 106
-3.89 6.79 1.05 135 116 102
-3.89 6.71 1.05 132 116 103
-3.89 6.63 1.05 131 121 111
-3.89 6.54 1.05 88 81 75
-3.89 6.46 1.05 42 41 37
-3.89 6.37 1.05 29 29 31
-3.89 6.29 1.05 19 22 29
-3.89 6.20 1.05 26 26 36
-3.89 6.12 1.05 25 22 33
-3.89 6.03 1.05 20 17 28
-3.89 5.95 1.05 16 16 26
-3.89 5.86 1.05 16 20 29
-3.74 5.84 0.90 14 25 31
-3.74 5.75 0.90 11 24 30
-3.89 5.61 1.05 8 25 32
-3.89 5.53 1.05 10 27 34
-3.89 5.44 1.05 11 28 36
-3.89 5.36 1.05 11 25 36
-3.89 5.27 1.05 11 25 38
-3.89 5.19 1.05 8 24 37
-3.89 5.10 1.05 6 22 37
-3.89 5.02 1.05 4 21 37
-3.89 4.93 1.05 4 21 37
-3.89 4.85 1.05 9 25 41
-3.89 4.76 1.05 9 25 41
-3.89 4.68 1.05 8 24 39
-3.89 4.59 1.05 8 24 39
-3.89 4.51 1.05 10 24 37
-3.89 4.43 1.05 11 25 38
-3.89 4.34 1.05 11 25 36
-3.89 4.26 1.05 11 25 36
-3.89 4.17 1.05 10 24 35
-3.89 4.09 1.05 9 23 34
-3.89 4.00 1.05 9 23 34
-4.02 3.88 1.18 9 23 34
-4.02 3.79 1.18 7 24 34
-4.02 3.71 1.18 7 24 34
-4.02 3.62 1.18 6 24 34
-4.17 3.49 1.33 6 24 36
-4.17 3.41 1.33 6 24 36
-4.17 3.32 1.33 6 24 38
-4.30 3.20 1.46 6 23 39
-4.30 3.12 1.46 6 23 41
-4.30 3.04 1.46 7 24 42
-4.30 2.95 1.46 7 24 40
-4.46 2.82 1.61 8 25 41
-4.46 2.74 1.61 8 28 39
-4.30 2.70 1.46 8 28 39
-4.17 2.65 1.33 7 27 38
-4.17 2.57 1.33 7 26 40
-4.17 2.49 1.33 7 26 40
-4.02 2.44 1.18 7 26 43
-4.02 2.36 1.18 7 26 43
-4.02 2.28 1.18 8 26 46
-4.02 2.19 1.18 7 28 45
-4.02 2.11 1.18 6 27 44
-4.02 2.02 1.18 6 27 44
-3.89 1.97 1.05 7 28 45
-3.89 1.89 1.05 7 28 47
-4.02 1.77 1.18 8 29 48
-4.02 1.69 1.18 9 30 49
-4.02 1.60 1.18 9 30 49
-4.17 1.48 1.33 7 28 49
-4.17 1.39 1.33 8 29 50
-4.02 1.35 1.18 9 30 51
-4.02 1.26 1.18 6 27 48
-4.02 1.18 1.18 4 25 46
-4.02 1.09 1.18 9 29 53
-4.17 0.97 1.33 13 33 57
-4.17 0.89 1.33 9 32 50
-4.17 0.81 1.33 9 32 50
-4.17 0.72 1.33 6 31 51
-4.17 0.64 1.33 6 31 53
-4.17 0.55 1.33 6 31 53
-4.30 0.44 1.46 7 31 57
-4.30 0.36 1.46 7 31 57
-4.30 0.27 1.46 7 30 61
-4.30 0.19 1.46 8 33 63
-4.17 0.13 1.33 8 33 64
-4.17 0.05 1.33 8 33 64
-4.17 -0.03 1.33 7 32 63
-4.17 -0.12 1.33 7 32 63
-4.17 -0.20 1.33 7 32 63
-4.17 -0.29 1.33 8 33 64
-4.17 -0.37 1.33 8 33 63
-4.17 -0.45 1.33 7 33 60
-4.17 -0.54 1.33 8 34 59
-4.17 -0.62 1.33 8 36 60
-4.17 -0.70 1.33 7 35 59
-4.17 -0.79 1.33 5 33 57
-4.17 -1.04 1.33 8 35 62
-4.17 -1.12 1.33 8 35 62
-4.17 -1.21 1.33 5 35 63
-4.30 -1.31 1.46 5 35 63
-4.30 -1.40 1.46 5 35 63
-4.30 -1.48 1.46 6 36 64
-4.30 -1.57 1.46 7 37 65
-4.30 -1.65 1.46 7 37 65
-4.30 -1.73 1.46 10 37 64
-4.30 -1.82 1.46 10 37 64
-4.46 -1.92 1.61 9 36 63
-4.46 -2.01 1.61 8 35 62
-4.46 -2.09 1.61 9 34 64
-4.46 -2.17 1.61 10 35 65
-4.46 -2.26 1.61 11 36 67
-4.46 -2.34 1.61 11 36 67
-4.46 -2.42 1.61 12 37 68
-4.46 -2.51 1.61 12 36 70
-4.46 -2.59 1.61 12 36 70
-4.46 -2.67 1.61 11 35 71
-4.46 -2.76 1.61 10 36 71
-4.46 -2.84 1.61 10 36 71
-4.30 -2.90 1.46 9 35 70
-4.30 -2.99 1.46 11 37 70
-4.02 -3.04 1.18 10 37 67
-4.17 -3.14 1.33 10 37 67
-4.17 -3.22 1.33 10 37 67
-4.17 -3.31 1.33 11 38 68
-4.30 -3.41 1.46 11 38 68
-4.30 -3.49 1.46 12 39 69
-4.30 -3.57 1.46 12 39 69
-4.30 -3.66 1.46 8 35 65
-4.30 -3.74 1.46 10 37 67
-4.30 -3.82 1.46 12 38 71
-4.30 -3.91 1.46 13 39 72
-4.46 -4.01 1.61 12 38 73
-4.46 -4.09 1.61 11 37 72
-4.46 -4.17 1.61 12 38 75
-4.46 -4.26 1.61 12 40 77
-4.46 -4.34 1.61 9 39 75
-4.59 -4.43 1.74 7 40 75
-4.59 -4.52 1.74 7 40 73
-4.59 -4.60 1.74 8 41 74
-4.59 -4.68 1.74 10 43 76
-4.59 -4.77 1.74 10 43 76
-4.59 -4.85 1.74 10 43 76
-4.59 -4.93 1.74 10 43 76
-4.59 -5.01 1.74 10 43 78
-4.59 -5.10 1.74 9 43 78
-4.59 -5.18 1.74 14 48 86
-4.46 -5.26 1.61 15 49 87
-4.59 -5.35 1.74 16 49 90
-4.59 -5.43 1.74 22 55 98
-4.59 -5.51 1.74 19 48 82
-4.74 -5.60 1.89 96 117 134
-4.74 -5.69 1.89 136 153 161
-4.74 -5.77 1.89 133 148 153
-4.74 -5.85 1.89 136 149 155
-4.74 -5.93 1.89 137 151 152
-4.87 -6.02 2.02 140 152 152
-1.88 -6.17 -0.93 146 155 152
-1.88 -6.26 -0.93 147 156 153
-1.88 -6.35 -0.93 150 159 156
-1.88 -6.44 -0.93 153 162 161
-1.88 -6.53 -0.93 155 164 163
-1.88 -6.62 -0.93 157 165 167
-1.88 -6.71 -0.93 158 166 169
-1.73 -6.80 -1.08 159 167 170
-1.73 -6.88 -1.08 159 166 172
-1.73 -6.97 -1.08 160 168 171
-1.88 -7.07 -0.93 162 170 173
-1.88 -7.15 -0.93 162 170 173
-1.88 -7.24 -0.93 161 169 172
-1.88 -7.33 -0.93 161 169 171
-1.73 -7.42 -1.08 163 171 173
-1.73 -7.51 -1.08 163 172 171
-1.73 -7.60 -1.08 163 172 171
-1.73 -7.69 -1.08 164 173 170
-1.73 -7.78 -1.08 167 176 173
-1.73 -7.87 -1.08 172 181 176
-1.73 -7.96 -1.08 175 184 179
-1.73 -8.05 -1.08 175 184 179
-1.73 -8.14 -1.08 175 184 179
-1.73 -8.23 -1.08 177 186 183
-1.73 -8.32 -1.08 177 186 183
-1.73 -8.41 -1.08 177 186 183
-1.73 -8.50 -1.08 178 187 184
-1.73 -8.59 -1.08 178 187 184
-1.73 -8.68 -1.08 179 188 185
-1.73 -8.77 -1.08 180 189 186
-1.73 -8.86 -1.08 180 189 186
-1.73 -8.95 -1.08 180 189 186
-1.73 -9.04 -1.08 179 190 186
-1.73 -9.13 -1.08 180 191 187
-1.73 -9.22 -1.08 181 192 188
-1.73 -9.31 -1.08 181 192 188
-1.73 -9.40 -1.08 180 191 187
-1.73 -9.49 -1.08 178 189 183
-1.73 -9.58 -1.08 180 191 183
-1.73 -9.67 -1.08 180 192 182
-1.73 -9.76 -1.08 181 193 183
-1.73 -9.85 -1.08 181 193 183
-1.73 -9.94 -1.08 182 192 184
-1.88 -10.01 -0.93 182 192 184
-1.88 -10.10 -0.93 184 191 184
-1.88 -10.19 -0.93 184 191 184
-1.88 -10.28 -0.93 185 192 185
-1.88 -10.37 -0.93 185 192 185
-1.88 -10.46 -0.93 184 194 186
-1.88 -10.55 -0.93 184 194 186
-1.88 -10.64 -0.93 183 194 188
-1.88 -10.73 -0.93 183 194 188
-1.88 -10.82 -0.93 182 193 187
-1.88 -10.91 -0.93 182 193 187
-1.88 -11.00 -0.93 183 194 190
-1.88 -11.09 -0.93 182 193 189
-1.88 -11.18 -0.93 182 193 189
-1.88 -11.27 -0.93 181 192 188
-1.88 -11.35 -0.93 181 192 188
-1.88 -11.44 -0.93 183 192 189
-1.88 -11.53 -0.93 183 192 189
-1.88 -11.62 -0.93 183 192 189
-1.88 -11.71 -0.93 183 192 189
-1.73 -11.82 -1.08 186 192 190
-1.88 -11.89 -0.93 186 192 190
-1.88 -11.98 -0.93 187 193 191
-1.88 -12.07 -0.93 187 193 191
-1.88 -12.16 -0.93 189 193 192
-1.88 -12.25 -0.93 190 194 193
-1.88 -12.34 -0.93 188 193 189
-1.88 -12.43 -0.93 189 194 190
-1.88 -12.52 -0.93 189 195 191
-2.04 -12.58 -0.78 188 194 190
-2.04 -12.67 -0.78 187 193 189
-2.04 -12.76 -0.78 187 193 189
-1.88 -12.87 -0.93 188 194 190
-1.88 -12.96 -0.93 190 196 192
-1.88 -13.05 -0.93 188 194 190
-1.88 -13.14 -0.93 188 194 190
-1.88 -13.23 -0.93 190 196 192
-1.88 -13.32 -0.93 191 197 193
-1.88 -13.41 -0.93 191 197 193
-1.88 -13.50 -0.93 191 197 193
-1.88 -13.59 -0.93 191 197 193
-1.88 -13.68 -0.93 195 199 198
-1.88 -13.77 -0.93 195 199 198
-1.88 -13.86 -0.93 195 199 198
-1.88 -13.95 -0.93 194 198 197
-1.88 -14.03 -0.93 193 197 196
-1.88 -14.12 -0.93 193 197 196
-1.88 -14.21 -0.93 194 198 197
-2.04 -14.27 -0.78 195 199 198
-2.04 -14.36 -0.78 195 199 198
-2.04 -14.45 -0.78 195 199 198
-2.04 -14.54 -0.78 198 200 199
-2.04 -14.63 -0.78 199 201 200
-1.88 -14.75 -0.93 199 201 200
-1.88 -14.84 -0.93 199 201 200
-1.88 -14.93 -0.93 199 201 200
-1.88 -15.02 -0.93 197 201 200
-1.88 -15.11 -0.93 197 206 203
-1.88 -15.20 -0.93 195 206 202
-1.88 -15.29 -0.93 196 205 202
-1.88 -15.38 -0.93 196 205 202
-1.88 -15.46 -0.93 197 206 203
-2.04 -15.52 -0.78 200 206 204
-2.04 -15.61 -0.78 201 207 205
-2.04 -15.70 -0.78 203 207 206
-2.04 -15.79 -0.78 202 206 205
-2.04 -15.88 -0.78 205 207 206
-2.04 -15.97 -0.78 207 209 208
-2.04 -16.05 -0.78 208 208 208
-2.04 -16.14 -0.78 208 208 208
-2.04 -16.23 -0.78 209 207 208
-2.04 -16.32 -0.78 210 210 210
-2.04 -16.41 -0.78 209 211 210
-2.04 -16.50 -0.78 207 211 210
-2.04 -16.59 -0.78 208 212 211
-2.04 -16.68 -0.78 210 214 213
-1.88 -16.80 -0.93 212 216 215
-1.88 -16.89 -0.93 212 216 215
-1.88 -16.98 -0.93 212 216 215
-1.88 -17.07 -0.93 211 215 214
-2.04 -17.12 -0.78 213 217 216
-2.04 -17.21 -0.78 213 217 216
-2.04 -17.30 -0.78 214 218 217
-2.04 -17.39 -0.78 215 219 218
-2.04 -17.48 -0.78 216 220 219
-2.04 -17.57 -0.78 216 220 219
-2.04 -17.66 -0.78 218 220 219
-2.04 -17.75 -0.78 216 218 217
-2.04 -17.83 -0.78 218 218 218
-2.04 -17.92 -0.78 220 220 220
-1.88 -18.06 -0.93 220 220 220
-1.88 -18.14 -0.93 220 220 220
-2.04 -18.19 -0.78 221 221 221
-2.04 -18.28 -0.78 222 222 222
-2.04 -18.37 -0.78 223 223 223
-2.04 -18.46 -0.78 224 224 224
-2.04 -18.55 -0.78 225 225 225
-2.04 -18.64 -0.78 226 226 226
-2.04 -18.72 -0.78 227 227 227
-2.04 -18.81 -0.78 227 227 227
-2.04 -18.90 -0.78 227 227 227
-2.04 -18.99 -0.78 227 227 227
-2.04 -19.08 -0.78 227 227 227
-1.88 -19.22 -0.93 224 224 224
-1.88 -19.31 -0.93 224 224 224
-1.88 -19.40 -0.93 224 224 224
-1.88 -19.49 -0.93 224 224 224
-1.88 -19.57 -0.93 225 225 225
-1.88 -19.66 -0.93 227 227 227
-1.88 -19.75 -0.93 229 229 229
-1.88 -19.84 -0.93 231 231 231
-1.88 -19.93 -0.93 232 232 232
-1.88 -20.02 -0.93 233 233 233
-2.04 -20.06 -0.78 233 233 233
-2.04 -20.15 -0.78 232 232 232
-2.04 -20.24 -0.78 231 231 231
-2.04 -20.33 -0.78 231 231 231
-2.04 -20.41 -0.78 232 232 232
-2.04 -20.50 -0.78 232 232 232
-2.04 -20.59 -0.78 233 233 233
-2.04 -20.68 -0.78 234 234 234
-2.04 -20.77 -0.78 234 234 234
-2.04 -20.86 -0.78 235 235 235
-2.04 -20.95 -0.78 236 236 236
-2.04 -21.04 -0.78 236 236 236
-2.04 -21.13 -0.78 236 236 236
-1.88 -21.27 -0.93 236 236 236
-1.88 -21.36 -0.93 236 236 236
-2.04 -21.39 -0.78 236 236 236
-2.04 -21.48 -0.78 238 238 238
-2.04 -21.57 -0.78 240 240 240
-2.04 -21.66 -0.78 241 241 241
-2.04 -21.75 -0.78 243 243 243
-2.04 -22.02 -0.78 242 242 242
-2.04 -22.11 -0.78 241 241 241
-2.04 -22.19 -0.78 241 241 241
-2.04 -22.28 -0.78 241 241 241
-2.04 -22.37 -0.78 241 241 241
-2.04 -22.46 -0.78 241 241 241
-2.04 -22.55 -0.78 241 241 241
-2.04 -22.64 -0.78 242 242 242
-2.04 -22.73 -0.78 244 244 244
-2.04 -22.82 -0.78 244 244 244
-2.04 -22.91 -0.78 244 244 244
-2.04 -23.00 -0.78 244 244 244
-2.04 -23.08 -0.78 246 246 246
-2.04 -23.17 -0.78 247 247 247
-2.04 -23.26 -0.78 244 244 244
-2.04 -23.35 -0.78 245 245 245
-2.04 -23.44 -0.78 246 246 246
-2.04 -23.53 -0.78 245 245 245
-2.04 -23.62 -0.78 244 244 244
-2.04 -23.71 -0.78 243 243 243
-2.04 -23.97 -0.78 247 247 247
-2.04 -24.06 -0.78 247 247 247
-2.04 -24.15 -0.78 246 246 246
-2.04 -24.24 -0.78 246 246 246
-2.04 -24.33 -0.78 246 246 246
-2.04 -24.42 -0.78 245 245 245
-2.04 -24.51 -0.78 244 244 244
-2.04 -24.60 -0.78 243 243 243
-2.22 -24.60 -0.60 242 242 242
-2.22 -24.69 -0.60 242 242 242
-2.22 -24.78 -0.60 244 244 244
-2.22 -24.87 -0.60 247 247 247
-2.22 -24.96 -0.60 248 248 248
-2.22 -25.05 -0.60 248 248 248
-2.22 -25.14 -0.60 247 247 247
-2.22 -25.22 -0.60 247 247 247
-2.22 -25.31 -0.60 250 250 250
-2.22 -25.40 -0.60 248 248 248
-2.22 -25.49 -0.60 248 248 248
-2.04 -25.67 -0.78 250 250 250
-2.04 -25.75 -0.78 248 248 248
-2.04 -25.84 -0.78 246 246 246
-2.22 -25.84 -0.60 248 248 248
-2.22 -25.93 -0.60 246 246 246
-2.22 -26.02 -0.60 248 248 248
-2.22 -26.11 -0.60 249 249 249
-2.22 -26.20 -0.60 250 250 250
-2.22 -26.29 -0.60 250 250 250
-2.22 -26.37 -0.60 250 250 250
-2.22 -26.46 -0.60 250 250 250
-2.22 -26.55 -0.60 250 250 250
-2.22 -26.64 -0.60 250 250 250
-2.22 -26.73 -0.60 249 249 249
-2.04 -26.91 -0.78 248 248 248
-2.04 -27.00 -0.78 248 248 248
-2.04 -27.09 -0.78 247 247 247
-2.04 -27.18 -0.78 247 247 247
-2.04 -27.27 -0.78 248 248 248
-2.04 -27.36 -0.78 251 251 251
-2.04 -27.44 -0.78 251 251 251
-2.04 -27.53 -0.78 250 250 250
-2.04 -27.62 -0.78 250 250 250
-2.04 -27.71 -0.78 249 249 249
-2.04 -27.80 -0.78 248 248 248
-2.04 -27.89 -0.78 247 247 247
-2.04 -27.98 -0.78 246 246 246
-2.22 -27.97 -0.60 246 246 246
-2.22 -28.06 -0.60 246 246 246
-2.22 -28.15 -0.60 248 248 248
-2.22 -28.23 -0.60 248 248 248
-2.04 -28.42 -0.78 248 248 248
-2.04 -28.51 -0.78 249 249 249
-2.04 -28.60 -0.78 249 249 249
-2.04 -28.69 -0.78 248 248 248
-2.04 -28.78 -0.78 248 248 248
-2.22 -28.77 -0.60 248 248 248
-2.22 -28.85 -0.60 250 250 250
-2.22 -28.94 -0.60 251 251 251
-2.22 -29.03 -0.60 251 251 251
-2.22 -29.12 -0.60 250 250 250
-2.22 -29.21 -0.60 249 249 249
-2.04 -29.40 -0.78 249 249 249
-2.04 -29.49 -0.78 248 248 248
-2.04 -29.58 -0.78 248 248 248
-2.22 -29.56 -0.60 247 247 247
-2.22 -29.65 -0.60 247 247 247
-2.22 -29.74 -0.60 246 246 246
-2.22 -29.83 -0.60 246 246 246
-2.22 -29.92 -0.60 246 246 246
-2.22 -30.01 -0.60 247 247 247
-2.04 -30.20 -0.78 248 248 248
-2.04 -30.29 -0.78 248 248 248
-2.04 -30.38 -0.78 246 246 246
-2.04 -30.47 -0.78 246 246 246
-2.04 -30.56 -0.78 246 246 246
-2.04 -30.65 -0.78 244 244 244
-2.04 -30.74 -0.78 244 244 244
-2.04 -30.83 -0.78 245 245 245
-2.04 -30.92 -0.78 246 246 246
-2.04 -31.00 -0.78 247 247 247
-2.04 -31.09 -0.78 247 247 247
-2.04 -31.18 -0.78 246 246 246
-2.04 -31.27 -0.78 245 245 245
-2.04 -31.36 -0.78 245 245 245
-2.04 -31.45 -0.78 243 243 243
-2.04 -31.54 -0.78 243 243 243
-2.04 -31.63 -0.78 244 244 244
-2.04 -31.72 -0.78 244 244 244
-2.04 -31.81 -0.78 244 244 244
-2.04 -31.89 -0.78 243 243 243
-2.04 -31.98 -0.78 242 242 242
-2.22 -31.95 -0.60 241 241 241
-2.22 -32.04 -0.60 246 246 246
-2.22 -32.13 -0.60 243 243 243
-2.22 -32.22 -0.60 244 244 244
-2.22 -32.31 -0.60 245 245 245
-2.22 -32.40 -0.60 244 244 244
-2.22 -32.49 -0.60 246 246 246
-2.22 -32.57 -0.60 244 244 244
-2.22 -32.66 -0.60 243 243 243
-2.22 -32.75 -0.60 246 246 246
-2.22 -32.84 -0.60 245 245 245
-2.22 -32.93 -0.60 244 244 244
-2.22 -33.02 -0.60 247 247 247
-2.04 -33.23 -0.78 246 246 246
-2.22 -33.19 -0.60 244 244 244
-2.22 -33.28 -0.60 246 246 246
-2.04 -33.50 -0.78 243 243 243
-2.04 -33.58 -0.78 246 246 246
-2.04 -33.67 -0.78 246 246 246
-2.04 -33.76 -0.78 243 243 243
-2.04 -33.85 -0.78 240 240 240
-2.04 -33.94 -0.78 240 240 240
-2.04 -34.03 -0.78 240 240 240
-2.04 -34.12 -0.78 239 239 239
-2.22 -34.08 -0.60 0 0 0
-2.22 -34.17 -0.60 0 0 0
-2.04 -34.39 -0.78 0 0 0
-2.04 -34.47 -0.78 0 0 0
-2.22 -34.43 -0.60 0 0 0
-2.22 -34.52 -0.60 0 0 0
-2.22 -34.61 -0.60 0 0 0
-2.22 -34.70 -0.60 0 0 0
-2.04 -34.92 -0.78 0 0 0
-2.04 -35.01 -0.78 0 0 0
-2.04 -35.10 -0.78 0 0 0
-2.04 -35.19 -0.78 0 0 0
-2.04 -35.28 -0.78 0 0 0
-2.22 -35.23 -0.60 0 0 0
-2.22 -35.32 -0.60 0 0 0
-1.77 21.46 -1.16 0 0 0
-1.77 21.37 -1.16 0 0 0
-1.62 21.40 -1.32 0 0 0
-1.62 21.31 -1.32 0 0 0
-1.62 21.22 -1.32 0 0 0
-1.62 21.13 -1.32 0 0 0
-1.62 21.04 -1.32 0 0 0
-1.62 20.95 -1.32 129 122 116
-1.62 20.86 -1.32 129 122 116
-1.62 20.77 -1.32 129 122 116
-1.62 20.68 -1.32 130 123 115
-1.62 20.59 -1.32 130 123 115
-1.77 20.21 -1.16 134 126 115
-1.62 20.23 -1.32 135 127 116
-1.62 20.14 -1.32 135 127 116
-1.77 19.94 -1.16 135 127 116
-1.77 19.85 -1.16 135 126 117
-1.77 19.76 -1.16 135 126 117
-1.77 19.67 -1.16 135 126 119
-1.77 19.58 -1.16 135 126 119
-1.62 19.60 -1.32 135 126 121
-1.62 19.51 -1.32 136 127 122
-1.62 19.42 -1.32 136 129 121
-1.62 19.33 -1.32 136 129 121
-1.62 19.24 -1.32 137 130 122
-1.62 19.15 -1.32 138 131 125
-1.62 19.06 -1.32 138 131 125
-1.62 18.97 -1.32 139 132 126
-1.62 18.88 -1.32 140 133 127
-1.62 18.79 -1.32 139 132 126
-1.62 18.70 -1.32 141 134 128
-1.62 18.61 -1.32 142 135 129
-1.62 18.52 -1.32 141 134 128
-1.62 18.43 -1.32 141 134 126
-1.62 18.34 -1.32 142 135 127
-1.62 18.25 -1.32 141 134 124
-1.62 18.16 -1.32 138 131 121
-1.62 18.07 -1.32 138 134 125
-1.62 17.98 -1.32 139 135 126
-1.62 17.89 -1.32 140 136 127
-1.62 17.80 -1.32 139 135 126
-1.62 17.71 -1.32 140 136 127
-1.62 17.62 -1.32 141 137 128
-1.62 17.53 -1.32 141 137 128
-1.62 17.44 -1.32 140 136 127
-1.62 17.35 -1.32 140 135 129
-1.62 17.26 -1.32 140 135 129
-1.62 17.17 -1.32 140 135 131
-1.62 17.08 -1.32 140 135 131
-1.77 16.89 -1.16 139 134 131
-1.93 16.70 -1.01 140 134 134
-2.08 16.51 -0.86 140 134 134
-9.95 11.46 6.94 144 135 138
-9.95 11.39 6.94 146 137 140
-9.95 11.32 6.94 147 138 139
-9.95 11.25 6.94 145 136 137
-9.95 11.18 6.94 144 136 134
-9.95 11.11 6.94 145 137 135
-9.95 11.04 6.94 145 137 134
-9.95 10.97 6.94 144 136 133
-9.84 10.96 6.84 147 140 134
-9.84 10.89 6.84 146 139 133
-9.84 10.82 6.84 146 138 135
-9.95 10.69 6.94 144 136 134
-9.84 10.68 6.84 144 136 134
-9.84 10.61 6.84 145 136 137
-9.84 10.54 6.84 147 138 141
-9.84 10.46 6.84 148 139 142
-9.84 10.39 6.84 143 138 135
-9.74 10.38 6.74 138 130 128
-9.74 10.31 6.74 123 115 112
-9.74 10.24 6.74 108 97 95
-9.74 10.17 6.74 97 84 78
-9.74 10.10 6.74 84 64 57
-9.74 10.03 6.74 80 55 48
-9.64 10.02 6.63 85 55 47
-9.64 9.95 6.63 92 58 49
-9.64 9.88 6.63 97 59 48
-9.64 9.80 6.63 100 57 48
-9.64 9.73 6.63 105 61 50
-9.64 9.66 6.63 114 67 57
-9.64 9.59 6.63 120 72 60
-9.64 9.52 6.63 121 72 58
-9.54 9.51 6.53 126 75 58
-9.54 9.43 6.53 129 76 60
-9.54 9.36 6.53 132 81 64
-9.54 9.29 6.53 134 82 68
-9.54 9.22 6.53 134 86 72
-9.43 9.21 6.43 139 92 76
-9.43 9.13 6.43 146 101 82
-9.43 9.06 6.43 152 107 84
-9.33 9.05 6.33 150 106 79
-9.33 8.97 6.33 153 108 77
-9.33 8.90 6.33 153 108 75
-9.23 8.88 6.23 157 108 75
-9.23 8.81 6.23 159 110 77
-9.23 8.74 6.23 164 114 81
-9.13 8.72 6.13 168 115 84
-9.13 8.65 6.13 168 117 88
-9.13 8.58 6.13 170 119 92
-9.13 8.51 6.13 173 122 95
-9.02 8.49 6.02 175 124 97
-9.02 8.41 6.02 176 125 98
-9.02 8.34 6.02 177 126 99
-8.92 8.32 5.92 177 126 99
-8.92 8.25 5.92 178 127 100
-8.92 8.17 5.92 183 129 103
-8.92 8.10 5.92 181 127 101
-8.79 8.09 5.79 184 130 104
-8.79 8.02 5.79 185 131 105
-8.79 7.95 5.79 184 130 104
-8.69 7.92 5.69 186 132 106
-8.69 7.85 5.69 191 135 110
-8.69 7.78 5.69 190 134 109
-8.59 7.75 5.59 190 139 108
-8.59 7.68 5.59 189 138 107
-8.59 7.61 5.59 189 138 107
-8.48 7.58 5.49 191 140 109
-8.48 7.51 5.49 190 140 107
-8.48 7.43 5.49 189 139 106
-8.48 7.36 5.49 189 139 106
-8.48 7.29 5.49 189 139 106
-8.35 7.27 5.36 192 142 109
-8.35 7.20 5.36 195 142 110
-8.35 7.12 5.36 195 142 110
-8.35 7.05 5.36 195 142 108
-8.35 6.98 5.36 196 143 109
-8.35 6.90 5.36 197 143 109
-1.44 9.77 -1.49 195 139 112
-1.62 9.60 -1.32 193 138 107
-1.62 9.51 -1.32 191 136 105
-1.62 9.42 -1.32 191 135 102
-1.77 9.26 -1.16 190 134 101
-1.77 9.17 -1.16 190 133 103
-1.77 9.08 -1.16 189 132 103
-1.77 8.99 -1.16 188 131 102
-1.77 8.90 -1.16 189 132 105
-1.77 8.82 -1.16 188 132 107
-1.77 8.73 -1.16 188 132 107
-1.77 8.64 -1.16 187 131 104
-1.77 8.55 -1.16 187 131 104
-1.77 8.46 -1.16 185 132 100
-1.77 8.37 -1.16 185 132 100
-1.77 8.28 -1.16 184 132 95
-1.77 8.19 -1.16 184 131 97
-1.77 8.10 -1.16 183 130 98
-1.77 8.01 -1.16 178 129 96
-2.08 7.79 -0.86 175 126 96
-3.34 7.03 0.39 160 119 91
-3.47 6.89 0.52 155 115 89
-3.62 6.75 0.67 152 114 91
-3.62 6.66 0.67 143 106 87
-3.62 6.58 0.67 108 75 58
-3.62 6.49 0.67 85 51 39
-3.78 6.35 0.83 78 48 37
-3.62 6.32 0.67 72 44 40
-3.62 6.23 0.67 57 36 41
-3.62 6.15 0.67 47 31 41
-3.62 6.06 0.67 39 28 36
-3.62 5.98 0.67 33 26 33
-3.78 5.84 0.83 24 23 29
-3.78 5.75 0.83 15 18 25
-3.78 5.67 0.83 10 17 23
-3.78 5.58 0.83 10 19 28
-3.93 5.44 0.98 15 25 34
-3.93 5.36 0.98 13 25 39
-3.93 5.27 0.98 16 27 45
-3.78 5.24 0.83 15 28 45
-3.78 5.16 0.83 12 25 44
-3.78 5.07 0.83 8 25 45
-3.78 4.99 0.83 9 26 46
-3.78 4.90 0.83 7 24 40
-3.78 4.82 0.83 7 24 40
-3.78 4.73 0.83 8 24 40
-3.78 4.65 0.83 7 23 39
-3.78 4.56 0.83 7 23 38
-3.78 4.48 0.83 7 23 38
-3.78 4.39 0.83 9 23 36
-3.78 4.31 0.83 10 24 37
-3.93 4.17 0.98 9 23 34
-3.93 4.09 0.98 9 23 34
-3.93 4.00 0.98 9 23 34
-3.93 3.92 0.98 9 23 34
-3.93 3.83 0.98 7 24 34
-3.93 3.75 0.98 7 24 34
-3.93 3.66 0.98 7 23 36
-3.93 3.58 0.98 8 24 37
-3.93 3.49 0.98 6 24 38
-3.93 3.41 0.98 6 23 39
-3.93 3.33 0.98 7 24 40
-3.93 3.24 0.98 7 24 42
-4.06 3.12 1.11 8 25 43
-4.06 3.03 1.11 9 26 42
-4.06 2.95 1.11 9 26 42
-3.93 2.90 0.98 9 29 40
-4.06 2.78 1.11 8 28 39
-3.93 2.73 0.98 8 28 39
-4.06 2.61 1.11 8 27 41
-3.93 2.56 0.98 8 27 41
-3.93 2.48 0.98 8 27 44
-3.93 2.39 0.98 9 28 45
-3.93 2.31 0.98 9 27 47
-3.93 2.23 0.98 7 28 45
-3.93 2.14 0.98 6 27 44
-3.93 2.06 0.98 6 27 44
-3.93 1.97 0.98 6 27 44
-3.93 1.89 0.98 7 28 45
-3.93 1.80 0.98 8 29 46
-3.93 1.72 0.98 9 30 49
-3.93 1.63 0.98 10 31 50
-3.93 1.55 0.98 8 29 50
-3.93 1.46 0.98 8 29 50
-3.93 1.38 0.98 8 29 50
-3.93 1.29 0.98 7 28 49
-3.93 1.21 0.98 7 27 51
-3.93 1.13 0.98 9 29 53
-4.06 1.01 1.11 11 31 55
-4.06 0.93 1.11 7 33 50
-4.06 0.84 1.11 7 33 50
-4.06 0.76 1.11 7 32 52
-4.06 0.67 1.11 6 31 53
-4.06 0.59 1.11 7 32 54
-4.06 0.50 1.11 7 31 57
-4.22 0.39 1.26 7 31 57
-4.22 0.30 1.26 8 32 60
-4.22 0.22 1.26 7 30 61
-4.22 0.13 1.26 8 31 63
-4.22 0.05 1.26 8 33 64
-4.22 -0.03 1.26 8 32 66
-4.22 -0.12 1.26 7 31 65
-4.22 -0.20 1.26 7 31 65
-4.22 -0.29 1.26 7 31 65
-4.22 -0.37 1.26 7 32 63
-4.22 -0.45 1.26 8 35 62
-4.22 -0.54 1.26 7 35 59
-4.22 -0.62 1.26 6 34 58
-4.06 -0.68 1.11 6 34 58
-4.06 -0.76 1.11 6 33 60
-4.06 -0.84 1.11 8 35 62
-4.06 -0.93 1.11 8 35 62
-4.06 -1.01 1.11 6 36 64
-4.06 -1.10 1.11 6 36 64
-4.06 -1.18 1.11 6 36 64
-4.06 -1.27 1.11 6 36 64
-4.06 -1.35 1.11 6 35 65
-4.06 -1.43 1.11 6 35 65
-4.06 -1.52 1.11 6 35 65
-4.06 -1.60 1.11 6 35 65
-4.06 -1.69 1.11 7 37 63
-4.06 -1.77 1.11 7 37 63
-4.22 -1.88 1.26 9 36 65
-4.22 -1.96 1.26 9 36 65
-4.22 -2.05 1.26 9 36 65
-4.22 -2.13 1.26 9 36 66
-4.34 -2.23 1.39 10 35 66
-4.34 -2.32 1.39 10 34 68
-4.34 -2.40 1.39 11 35 71
-4.22 -2.47 1.26 11 35 71
-4.22 -2.55 1.26 11 37 72
-4.22 -2.64 1.26 11 37 72
-3.93 -2.85 0.98 8 36 73
-3.93 -2.94 0.98 11 37 70
-4.06 -3.04 1.11 11 37 70
-4.06 -3.12 1.11 11 37 70
-4.06 -3.21 1.11 11 37 70
-4.06 -3.29 1.11 11 38 68
-4.06 -3.37 1.11 11 38 68
-4.06 -3.46 1.11 12 39 69
-4.06 -3.54 1.11 12 39 69
-4.06 -3.63 1.11 10 36 69
-4.06 -3.71 1.11 10 36 69
-4.06 -3.80 1.11 9 35 70
-4.06 -3.88 1.11 10 36 71
-4.06 -3.96 1.11 9 37 74
-4.22 -4.06 1.26 10 38 75
-4.22 -4.15 1.26 11 39 78
-4.22 -4.23 1.26 11 39 78
-4.34 -4.33 1.39 8 41 76
-4.34 -4.41 1.39 7 40 75
-4.34 -4.49 1.39 8 41 74
-4.34 -4.58 1.39 8 41 74
-4.50 -4.67 1.54 9 44 76
-4.50 -4.76 1.54 9 44 76
-4.50 -4.84 1.54 9 44 76
-4.50 -4.92 1.54 10 45 77
-4.50 -5.01 1.54 10 44 79
-4.22 -5.07 1.26 8 42 77
-4.22 -5.15 1.26 13 47 85
-4.22 -5.24 1.26 16 50 88
-4.50 -5.34 1.54 19 52 93
-3.93 -5.39 0.98 23 56 99
-3.93 -5.48 0.98 17 46 80
-2.08 -6.00 -0.86 142 153 149
-1.93 -6.08 -1.01 145 156 152
-1.93 -6.17 -1.01 147 156 151
-2.08 -6.27 -0.86 149 158 153
-2.08 -6.36 -0.86 151 160 157
-1.93 -6.44 -1.01 153 162 159
-1.93 -6.53 -1.01 155 164 163
-2.08 -6.62 -0.86 157 166 165
-2.08 -6.71 -0.86 160 168 170
-2.08 -6.80 -0.86 161 169 172
-1.93 -6.89 -1.01 160 167 173
-1.93 -6.98 -1.01 161 168 174
-1.93 -7.07 -1.01 162 169 175
-1.93 -7.15 -1.01 163 171 174
-1.93 -7.24 -1.01 162 170 173
-1.93 -7.33 -1.01 162 170 172
-1.93 -7.42 -1.01 164 172 174
-1.93 -7.51 -1.01 166 175 174
-1.77 -7.60 -1.16 166 175 174
-1.77 -7.69 -1.16 167 176 173
-1.77 -7.78 -1.16 170 179 176
-1.93 -7.87 -1.01 175 184 179
-1.93 -7.96 -1.01 178 187 182
-1.93 -8.05 -1.01 178 187 182
-1.93 -8.14 -1.01 177 186 181
-1.93 -8.23 -1.01 179 185 183
-1.77 -8.32 -1.16 179 185 183
-1.77 -8.41 -1.16 179 185 183
-1.77 -8.50 -1.16 179 185 183
-1.93 -8.58 -1.01 178 187 184
-1.93 -8.67 -1.01 179 188 185
-1.77 -8.77 -1.16 179 188 185
-1.77 -8.86 -1.16 180 189 186
-1.77 -8.95 -1.16 178 187 184
-1.77 -9.04 -1.16 180 191 187
-1.77 -9.13 -1.16 180 191 187
-1.77 -9.22 -1.16 179 190 186
-1.77 -9.31 -1.16 178 189 185
-1.77 -9.40 -1.16 178 189 185
-1.93 -9.48 -1.01 178 189 183
-1.93 -9.57 -1.01 177 188 180
-1.93 -9.66 -1.01 178 190 180
-1.77 -9.76 -1.16 179 191 181
-1.77 -9.85 -1.16 179 191 181
-1.93 -9.92 -1.01 180 190 182
-1.93 -10.01 -1.01 180 190 182
-1.93 -10.10 -1.01 184 191 184
-1.93 -10.19 -1.01 185 192 185
-2.08 -10.27 -0.86 185 192 185
-2.08 -10.36 -0.86 185 192 185
-2.08 -10.45 -0.86 183 193 185
-2.08 -10.54 -0.86 184 194 186
-2.08 -10.63 -0.86 183 194 188
-2.08 -10.72 -0.86 183 194 188
-2.08 -10.80 -0.86 183 194 188
-1.93 -10.91 -1.01 183 194 188
-1.93 -11.00 -1.01 182 193 189
-1.93 -11.09 -1.01 182 193 189
-1.93 -11.18 -1.01 183 194 190
-1.93 -11.27 -1.01 184 193 190
-1.93 -11.35 -1.01 183 192 189
-1.93 -11.44 -1.01 183 192 189
-1.93 -11.53 -1.01 182 191 188
-1.93 -11.62 -1.01 184 190 188
-1.93 -11.71 -1.01 184 190 188
-1.93 -11.80 -1.01 185 191 189
-1.93 -11.89 -1.01 186 192 190
-1.93 -11.98 -1.01 187 193 191
-2.08 -12.05 -0.86 188 194 192
-2.08 -12.14 -0.86 189 195 193
-2.08 -12.23 -0.86 189 195 193
-2.08 -12.32 -0.86 189 195 191
-2.08 -12.41 -0.86 188 194 190
-2.08 -12.50 -0.86 187 193 189
-2.08 -12.58 -0.86 188 194 190
-2.08 -12.67 -0.86 189 195 191
-2.08 -12.76 -0.86 190 196 192
-2.08 -12.85 -0.86 190 195 191
-2.08 -12.94 -0.86 189 194 190
-2.08 -13.03 -0.86 189 194 190
-2.08 -13.12 -0.86 189 194 190
-2.08 -13.21 -0.86 190 195 191
-2.08 -13.30 -0.86 191 197 193
-1.93 -13.41 -1.01 191 197 193
-1.93 -13.50 -1.01 191 197 193
-1.93 -13.59 -1.01 191 197 193
-1.93 -13.68 -1.01 192 198 196
-1.93 -13.77 -1.01 193 199 197
-1.93 -13.86 -1.01 195 199 198
-1.93 -13.95 -1.01 195 199 198
-1.93 -14.03 -1.01 194 198 197
-2.08 -14.10 -0.86 193 197 196
-2.08 -14.19 -0.86 194 196 195
-2.08 -14.27 -0.86 194 196 195
-2.08 -14.36 -0.86 197 199 198
-2.08 -14.45 -0.86 197 199 198
-2.08 -14.54 -0.86 198 200 199
-2.08 -14.63 -0.86 198 200 199
-2.08 -14.72 -0.86 198 200 199
-2.08 -14.81 -0.86 199 201 200
-2.08 -14.90 -0.86 199 201 200
-2.08 -14.99 -0.86 197 201 200
-2.08 -15.08 -0.86 198 204 202
-2.08 -15.16 -0.86 196 205 202
-2.08 -15.25 -0.86 196 205 202
-2.08 -15.34 -0.86 197 206 203
-2.08 -15.43 -0.86 200 206 204
-2.08 -15.52 -0.86 202 206 205
-2.08 -15.61 -0.86 203 207 206
-2.08 -15.70 -0.86 207 209 208
-2.26 -15.75 -0.68 205 207 206
-2.26 -15.84 -0.68 204 206 205
-2.08 -15.97 -0.86 205 207 206
-2.08 -16.05 -0.86 207 207 207
-2.08 -16.14 -0.86 207 207 207
-2.08 -16.23 -0.86 208 208 208
-2.08 -16.32 -0.86 210 210 210
-2.08 -16.41 -0.86 207 211 210
-2.08 -16.50 -0.86 208 212 211
-2.08 -16.59 -0.86 209 213 212
-2.08 -16.68 -0.86 210 214 213
-2.08 -16.77 -0.86 212 216 215
-2.08 -16.86 -0.86 212 216 215
-2.08 -16.94 -0.86 212 216 215
-2.08 -17.03 -0.86 211 215 214
-2.08 -17.12 -0.86 212 216 215
-2.08 -17.21 -0.86 213 217 216
-2.08 -17.30 -0.86 213 217 216
-2.08 -17.39 -0.86 214 218 217
-2.08 -17.48 -0.86 215 219 218
-2.08 -17.57 -0.86 216 220 219
-2.08 -17.66 -0.86 218 220 219
-2.08 -17.75 -0.86 216 218 217
-2.08 -17.83 -0.86 218 218 218
-2.08 -17.92 -0.86 219 219 219
-2.08 -18.01 -0.86 220 220 220
-2.08 -18.10 -0.86 220 220 220
-2.08 -18.19 -0.86 220 220 220
-2.08 -18.28 -0.86 221 221 221
-2.08 -18.37 -0.86 221 221 221
-2.08 -18.46 -0.86 224 224 224
-2.08 -18.55 -0.86 224 224 224
-2.08 -18.64 -0.86 225 225 225
-2.08 -18.72 -0.86 225 225 225
-2.08 -18.81 -0.86 226 226 226
-2.08 -18.90 -0.86 227 227 227
-2.08 -18.99 -0.86 228 228 228
-2.08 -19.08 -0.86 228 228 228
-2.08 -19.17 -0.86 227 227 227
-2.08 -19.26 -0.86 227 227 227
-2.08 -19.35 -0.86 226 226 226
-2.08 -19.44 -0.86 226 226 226
-2.08 -19.52 -0.86 227 227 227
-2.08 -19.61 -0.86 228 228 228
-2.08 -19.70 -0.86 230 230 230
-1.93 -19.84 -1.01 231 231 231
-1.93 -19.93 -1.01 230 230 230
-2.08 -19.97 -0.86 230 230 230
-2.08 -20.06 -0.86 230 230 230
-2.08 -20.15 -0.86 232 232 232
-2.08 -20.24 -0.86 232 232 232
-2.08 -20.33 -0.86 231 231 231
-2.08 -20.41 -0.86 230 230 230
-2.08 -20.50 -0.86 233 233 233
-2.08 -20.59 -0.86 233 233 233
-2.08 -20.68 -0.86 234 234 234
-2.08 -20.77 -0.86 234 234 234
-2.08 -20.86 -0.86 235 235 235
-2.08 -20.95 -0.86 235 235 235
-2.08 -21.04 -0.86 235 235 235
-2.08 -21.13 -0.86 235 235 235
-2.08 -21.22 -0.86 233 233 233
-2.08 -21.30 -0.86 235 235 235
-2.08 -21.39 -0.86 237 237 237
-2.08 -21.48 -0.86 238 238 238
-2.08 -21.57 -0.86 239 239 239
-2.08 -21.66 -0.86 240 240 240
-2.08 -21.75 -0.86 241 241 241
-2.08 -21.84 -0.86 241 241 241
-2.08 -21.93 -0.86 241 241 241
-2.08 -22.02 -0.86 241 241 241
-2.08 -22.11 -0.86 242 242 242
-2.26 -22.12 -0.68 242 242 242
-2.26 -22.21 -0.68 242 242 242
-2.26 -22.30 -0.68 242 242 242
-2.26 -22.39 -0.68 242 242 242
-2.26 -22.48 -0.68 243 243 243
-2.26 -22.57 -0.68 243 243 243
-2.26 -22.66 -0.68 243 243 243
-2.26 -22.74 -0.68 244 244 244
-2.26 -22.83 -0.68 245 245 245
-2.26 -22.92 -0.68 246 246 246
-2.26 -23.01 -0.68 246 246 246
-2.26 -23.10 -0.68 246 246 246
-2.26 -23.19 -0.68 244 244 244
