ply
format ascii 1.0
element vertex 1610
property float x
property float y
property float z
property uchar red
property uchar green
property uchar blue
end_header
-9.77 -23.27 -0.25 191 173 171
-9.77 -23.34 -0.25 133 113 102
-9.77 -23.42 -0.25 81 56 49
-9.77 -23.50 -0.25 24 1 9
-9.77 -23.57 -0.25 39 17 56
-9.68 -23.70 -0.37 51 30 86
-9.68 -23.78 -0.37 57 42 107
-9.56 -23.92 -0.51 50 37 107
-9.35 -24.11 -0.77 29 21 81
-9.35 -24.19 -0.77 29 23 71
-9.35 -24.27 -0.77 52 48 71
-9.35 -24.35 -0.77 175 174 179
-9.35 -24.43 -0.77 229 229 217
-9.23 -24.57 -0.92 244 243 225
-9.23 -24.65 -0.92 214 212 197
-9.23 -24.73 -0.92 213 208 202
-9.35 -24.89 -0.77 200 198 201
-9.35 -24.97 -0.77 208 206 207
-9.35 -25.05 -0.77 212 210 211
-9.35 -25.13 -0.77 208 206 207
-9.35 -25.21 -0.77 208 206 207
-9.35 -25.28 -0.77 213 211 212
-9.35 -25.36 -0.77 212 210 211
-9.35 -25.44 -0.77 207 205 206
-9.35 -25.52 -0.77 210 208 209
-9.35 -25.60 -0.77 211 209 210
-9.35 -25.67 -0.77 213 209 210
-9.23 -25.82 -0.92 215 209 209
-9.23 -25.90 -0.92 215 209 209
-9.23 -25.98 -0.92 216 207 208
-9.23 -26.06 -0.92 216 207 208
-9.23 -26.14 -0.92 215 209 211
-9.23 -26.22 -0.92 215 209 211
-9.35 -26.22 -0.77 214 208 210
-9.35 -26.61 -0.77 216 210 212
-9.35 -26.69 -0.77 216 210 212
-9.35 -26.77 -0.77 216 210 212
-9.35 -26.84 -0.77 215 209 211
-9.35 -26.92 -0.77 215 209 211
-9.35 -27.00 -0.77 215 209 211
-9.35 -27.08 -0.77 215 209 211
-9.35 -27.16 -0.77 216 210 212
-9.23 -27.31 -0.92 216 210 212
-9.35 -27.31 -0.77 214 208 210
-9.35 -27.39 -0.77 214 208 210
-9.35 -27.47 -0.77 214 208 210
-9.35 -27.55 -0.77 216 210 212
-9.35 -27.63 -0.77 216 210 212
-9.35 -27.70 -0.77 215 209 211
-9.35 -27.78 -0.77 214 208 210
-9.35 -27.86 -0.77 215 209 211
-9.23 -28.02 -0.92 215 209 211
-9.23 -28.10 -0.92 216 210 212
-9.23 -28.17 -0.92 216 210 212
-9.35 -28.17 -0.77 216 210 212
-9.35 -28.25 -0.77 216 210 212
-9.35 -28.33 -0.77 217 211 213
-9.35 -28.41 -0.77 218 212 214
-9.35 -28.48 -0.77 218 212 214
-9.23 -28.64 -0.92 217 211 213
-9.23 -28.72 -0.92 217 211 213
-9.35 -28.72 -0.77 217 211 213
-9.35 -28.80 -0.77 217 211 213
-9.35 -28.87 -0.77 218 212 214
-9.35 -28.95 -0.77 218 212 214
-9.35 -29.03 -0.77 218 212 214
-9.35 -29.11 -0.77 216 210 212
-9.35 -29.19 -0.77 217 211 213
-9.35 -29.26 -0.77 218 212 214
-9.35 -29.34 -0.77 218 212 214
-9.35 -29.42 -0.77 217 211 213
-9.35 -29.50 -0.77 217 211 213
-9.35 -29.58 -0.77 218 212 216
-9.35 -29.65 -0.77 219 213 217
-9.35 -29.73 -0.77 219 212 219
-9.35 -29.81 -0.77 219 213 215
-9.35 -29.89 -0.77 219 213 215
-9.35 -29.97 -0.77 219 213 213
-9.35 -30.04 -0.77 220 214 214
-9.35 -30.12 -0.77 221 216 212
-9.35 -30.20 -0.77 222 217 213
-9.35 -30.28 -0.77 220 215 211
-9.35 -30.36 -0.77 220 215 211
-9.35 -30.43 -0.77 220 215 211
-9.35 -30.51 -0.77 221 216 212
-9.35 -30.59 -0.77 221 216 213
-9.35 -30.67 -0.77 221 216 213
-9.35 -30.75 -0.77 221 215 215
-9.35 -30.82 -0.77 222 216 216
-9.23 -30.99 -0.92 0 0 0
-9.23 -31.07 -0.92 0 0 0
-9.35 -31.06 -0.77 0 0 0
-9.23 -31.23 -0.92 0 0 0
-9.35 -31.21 -0.77 0 0 0
-9.35 -31.29 -0.77 0 0 0
-9.35 -31.37 -0.77 0 0 0
-9.35 -31.45 -0.77 0 0 0
-9.35 -31.53 -0.77 0 0 0
-9.44 -31.53 -0.66 0 0 0
-9.44 -31.61 -0.66 0 0 0
-9.44 -31.68 -0.66 0 0 0
-9.44 -31.76 -0.66 0 0 0
-9.44 -31.84 -0.66 0 0 0
-9.35 -31.99 -0.77 0 0 0
-9.27 17.96 -0.98 0 0 0
-9.15 17.97 -1.13 0 0 0
-9.15 17.90 -1.13 0 0 0
-9.15 17.82 -1.13 0 0 0
-9.15 17.74 -1.13 0 0 0
-9.03 17.76 -1.27 0 0 0
-9.03 17.68 -1.27 0 0 0
-9.03 17.60 -1.27 0 0 0
-9.03 17.52 -1.27 0 0 0
-9.03 17.44 -1.27 126 117 110
-8.91 17.46 -1.42 126 117 110
-8.91 17.38 -1.42 128 119 112
-8.91 17.30 -1.42 127 120 112
-8.91 17.22 -1.42 127 120 114
-8.91 17.14 -1.42 126 119 113
-9.03 16.97 -1.27 126 118 115
-9.03 16.89 -1.27 124 119 116
-9.03 16.81 -1.27 122 117 114
-9.03 16.73 -1.27 124 118 118
-9.03 16.65 -1.27 125 119 119
-9.03 16.57 -1.27 126 120 122
-9.03 16.49 -1.27 126 120 122
-9.03 16.42 -1.27 128 119 122
-9.03 16.34 -1.27 127 118 121
-9.15 16.17 -1.13 126 117 120
-9.15 16.09 -1.13 125 116 117
-9.15 16.01 -1.13 129 122 114
-9.15 15.93 -1.13 127 120 110
-9.15 15.85 -1.13 123 119 110
-9.15 15.77 -1.13 133 133 125
-9.15 15.69 -1.13 116 117 121
-9.03 15.70 -1.27 84 88 113
-10.88 13.36 0.99 131 129 132
-10.88 13.28 0.99 113 112 110
-10.78 13.28 0.88 98 92 92
-10.78 13.20 0.88 95 90 86
-10.78 13.13 0.88 106 98 95
-10.88 12.99 0.99 113 105 102
-10.88 12.91 0.99 116 108 106
-10.88 12.84 0.99 126 121 118
-10.88 12.76 0.99 144 138 140
-10.99 12.61 1.14 138 133 139
-10.99 12.53 1.14 132 130 135
-10.99 12.46 1.14 136 133 140
-10.99 12.39 1.14 127 126 131
-10.99 12.31 1.14 130 129 134
-10.99 12.24 1.14 133 131 134
-10.99 12.16 1.14 133 131 134
-11.09 12.03 1.25 131 127 128
-11.09 11.95 1.25 125 121 122
-11.09 11.58 1.25 104 102 107
-11.09 11.51 1.25 89 89 99
-10.57 11.33 0.61 28 56 106
-10.57 11.25 0.61 27 54 109
-10.57 11.18 0.61 21 50 108
-10.47 11.16 0.50 16 47 114
-10.36 11.16 0.35 17 47 119
-10.26 11.15 0.24 17 47 119
-10.26 11.07 0.24 15 45 118
-10.26 10.99 0.24 15 44 120
-9.27 11.38 -0.98 17 46 122
-9.03 11.44 -1.27 9 39 112
-9.03 11.36 -1.27 24 47 115
-9.03 11.29 -1.27 118 124 184
-9.03 11.21 -1.27 124 123 163
-9.15 11.06 -1.13 126 129 138
-9.15 10.98 -1.13 132 133 128
-9.15 10.90 -1.13 133 132 128
-9.15 10.82 -1.13 133 129 126
-9.15 10.74 -1.13 137 132 129
-9.15 10.66 -1.13 142 137 134
-9.15 10.58 -1.13 138 133 129
-9.15 10.51 -1.13 139 133 133
-9.15 10.43 -1.13 138 133 137
-9.15 10.35 -1.13 139 134 140
-9.15 10.27 -1.13 140 134 134
-9.15 10.19 -1.13 140 135 132
-9.15 10.11 -1.13 145 137 134
-9.15 10.03 -1.13 145 137 135
-9.15 9.96 -1.13 147 139 137
-9.15 9.88 -1.13 149 140 141
-9.15 9.80 -1.13 150 141 142
-9.15 9.72 -1.13 149 143 143
-9.15 9.64 -1.13 149 143 143
-9.15 9.56 -1.13 149 143 145
-9.15 9.48 -1.13 149 143 145
-9.15 9.41 -1.13 150 146 147
-9.15 9.33 -1.13 150 146 147
-9.15 9.25 -1.13 150 146 147
-9.15 9.17 -1.13 150 146 147
-9.03 9.15 -1.27 149 148 146
-9.03 9.08 -1.27 149 148 146
-9.03 9.00 -1.27 150 149 147
-9.03 8.92 -1.27 153 149 148
-9.03 8.84 -1.27 153 149 148
-9.03 8.76 -1.27 155 149 149
-9.03 8.68 -1.27 155 151 150
-9.03 8.60 -1.27 155 151 150
-9.03 8.52 -1.27 155 151 150
-9.03 8.44 -1.27 156 152 151
-9.03 8.37 -1.27 155 154 152
-9.03 8.29 -1.27 153 152 150
-9.03 8.21 -1.27 153 152 150
-9.03 8.13 -1.27 154 153 151
-9.03 8.05 -1.27 155 154 152
-9.03 7.97 -1.27 159 155 154
-9.03 7.89 -1.27 160 156 155
-9.03 7.81 -1.27 160 156 155
-9.15 7.68 -1.13 160 156 155
-9.27 7.54 -0.98 160 156 153
-9.27 7.46 -0.98 162 158 155
-9.27 7.38 -0.98 163 159 156
-9.15 7.36 -1.13 163 159 156
-9.15 7.28 -1.13 162 158 155
-9.15 7.20 -1.13 162 158 155
-9.15 7.13 -1.13 162 158 155
-9.15 7.05 -1.13 163 159 156
-9.15 6.97 -1.13 163 159 158
-9.15 6.89 -1.13 163 159 158
-9.15 6.81 -1.13 163 159 158
-9.15 6.73 -1.13 164 160 159
-9.15 6.65 -1.13 164 160 161
-9.15 6.57 -1.13 166 162 163
-9.27 6.44 -0.98 167 163 164
-9.27 6.36 -0.98 168 164 165
-9.27 6.29 -0.98 168 164 163
-9.27 6.21 -0.98 168 164 163
-9.27 6.13 -0.98 170 166 165
-9.27 6.05 -0.98 170 166 165
-9.27 5.97 -0.98 169 165 164
-9.27 5.89 -0.98 170 166 165
-9.27 5.82 -0.98 172 168 167
-9.27 5.74 -0.98 170 169 167
-9.15 5.71 -1.13 170 169 167
-9.27 5.58 -0.98 171 170 168
-9.27 5.50 -0.98 172 171 169
-9.27 5.42 -0.98 173 172 170
-9.27 5.35 -0.98 173 172 170
-9.27 5.27 -0.98 173 172 170
-9.27 5.19 -0.98 173 172 170
-9.27 5.11 -0.98 173 172 170
-9.27 5.03 -0.98 173 172 170
-9.15 5.00 -1.13 173 173 171
-9.15 4.92 -1.13 175 175 173
-9.15 4.85 -1.13 177 177 175
-9.15 4.77 -1.13 179 179 177
-9.15 4.69 -1.13 179 179 177
-9.15 4.61 -1.13 179 179 177
-9.15 4.53 -1.13 179 179 177
-9.15 4.45 -1.13 182 181 179
-9.15 4.37 -1.13 184 183 181
-9.15 4.29 -1.13 185 183 184
-9.15 4.22 -1.13 185 183 184
-9.15 4.14 -1.13 187 183 184
-9.15 4.06 -1.13 185 183 184
-9.15 3.98 -1.13 184 184 186
-9.15 3.90 -1.13 186 187 189
-9.15 3.82 -1.13 185 186 188
-9.15 3.74 -1.13 186 187 189
-9.15 3.67 -1.13 190 191 193
-9.15 3.59 -1.13 190 191 193
-9.15 3.51 -1.13 188 190 189
-9.15 3.43 -1.13 191 193 192
-9.27 3.31 -0.98 189 189 189
-9.27 3.23 -0.98 189 189 189
-9.27 3.15 -0.98 190 190 188
-9.27 3.08 -0.98 190 190 188
-9.27 3.00 -0.98 191 191 189
-9.27 2.92 -0.98 193 193 191
-9.27 2.84 -0.98 194 194 192
-9.27 2.76 -0.98 195 195 193
-9.27 2.68 -0.98 193 193 191
-9.27 2.61 -0.98 193 193 191
-9.27 2.53 -0.98 194 194 192
-9.27 2.45 -0.98 194 194 192
-9.27 2.37 -0.98 193 193 191
-9.27 2.29 -0.98 192 192 190
-9.27 2.21 -0.98 192 192 190
-9.27 2.14 -0.98 194 194 192
-9.27 2.06 -0.98 191 191 189
-9.27 1.98 -0.98 188 187 185
-9.27 1.90 -0.98 183 182 180
-9.27 1.82 -0.98 180 179 177
-9.27 1.74 -0.98 178 177 175
-9.27 1.67 -0.98 176 175 173
-9.27 1.59 -0.98 175 174 172
-9.27 1.51 -0.98 170 168 169
-9.27 1.43 -0.98 168 166 167
-9.27 1.35 -0.98 165 165 163
-9.27 1.27 -0.98 164 164 162
-9.27 1.20 -0.98 163 163 161
-9.27 1.12 -0.98 162 162 160
-9.27 1.04 -0.98 159 161 156
-9.27 0.96 -0.98 157 159 154
-9.27 0.88 -0.98 150 155 149
-9.27 0.80 -0.98 150 155 149
-9.27 0.73 -0.98 149 154 150
-9.27 0.65 -0.98 147 152 148
-9.27 0.57 -0.98 147 153 151
-9.27 0.49 -0.98 146 152 150
-9.27 0.41 -0.98 145 151 149
-9.15 0.36 -1.13 147 151 150
-9.15 0.29 -1.13 147 151 150
-9.15 0.21 -1.13 147 152 148
-9.27 0.10 -0.98 147 152 148
-9.27 0.02 -0.98 147 152 146
-9.15 -0.03 -1.13 147 152 146
-9.15 -0.11 -1.13 151 153 148
-9.27 -0.21 -0.98 152 154 149
-9.27 -0.29 -0.98 153 156 149
-9.27 -0.37 -0.98 153 156 149
-9.15 -0.42 -1.13 154 156 151
-9.15 -0.50 -1.13 154 156 151
-9.15 -0.58 -1.13 154 156 151
-9.15 -0.66 -1.13 154 156 151
-9.15 -0.74 -1.13 154 156 153
-9.15 -0.82 -1.13 154 156 153
-9.15 -0.89 -1.13 155 155 155
-9.15 -0.97 -1.13 155 155 155
-9.15 -1.05 -1.13 155 155 155
-9.15 -1.13 -1.13 154 154 154
-9.15 -1.21 -1.13 154 154 152
-9.15 -1.29 -1.13 154 154 152
-9.15 -1.37 -1.13 154 154 152
-9.27 -1.47 -0.98 154 154 152
-9.27 -1.55 -0.98 155 155 153
-9.27 -1.62 -0.98 155 155 153
-9.27 -1.70 -0.98 155 155 153
-9.27 -1.78 -0.98 155 155 155
-9.27 -1.86 -0.98 155 155 155
-9.27 -2.25 -0.98 155 156 151
-9.15 -2.31 -1.13 155 156 151
-9.15 -2.39 -1.13 155 156 151
-9.15 -2.47 -1.13 153 154 149
-9.27 -2.56 -0.98 154 155 150
-9.27 -2.64 -0.98 156 157 152
-9.27 -2.72 -0.98 158 158 156
-9.27 -2.80 -0.98 159 159 157
-9.27 -2.88 -0.98 161 161 161
-9.27 -2.96 -0.98 162 162 162
-9.27 -3.03 -0.98 164 164 166
-9.27 -3.11 -0.98 165 165 167
-9.27 -3.19 -0.98 169 169 171
-9.27 -3.27 -0.98 172 172 170
-9.27 -3.35 -0.98 172 172 170
-9.27 -3.43 -0.98 172 172 172
-9.27 -3.50 -0.98 173 173 173
-9.27 -3.58 -0.98 174 174 174
-9.27 -3.66 -0.98 174 174 174
-9.27 -3.74 -0.98 174 174 176
-9.27 -4.13 -0.98 175 175 177
-9.27 -4.21 -0.98 174 174 174
-9.27 -4.29 -0.98 174 174 174
-9.27 -4.37 -0.98 174 174 174
-9.27 -4.44 -0.98 174 174 174
-9.27 -4.52 -0.98 174 174 176
-9.27 -4.60 -0.98 175 175 177
-9.27 -4.68 -0.98 176 176 178
-9.27 -4.76 -0.98 176 176 178
-9.27 -4.83 -0.98 176 176 178
-9.27 -4.91 -0.98 175 175 177
-9.27 -4.99 -0.98 174 174 176
-9.27 -5.07 -0.98 175 175 177
-9.27 -5.15 -0.98 175 175 177
-9.27 -5.23 -0.98 176 176 178
-9.27 -5.30 -0.98 176 176 178
-9.27 -5.38 -0.98 176 176 178
-9.27 -5.46 -0.98 176 176 178
-9.27 -5.54 -0.98 176 176 178
-9.27 -5.62 -0.98 175 175 177
-9.27 -5.70 -0.98 173 177 178
-9.27 -5.77 -0.98 173 177 178
-9.27 -5.85 -0.98 176 177 179
-9.27 -5.93 -0.98 176 177 179
-9.27 -6.01 -0.98 175 177 176
-9.27 -6.09 -0.98 175 177 176
-9.27 -6.17 -0.98 175 177 176
-9.27 -6.24 -0.98 174 176 175
-9.27 -6.32 -0.98 176 178 177
-9.27 -6.40 -0.98 175 177 176
-9.27 -6.48 -0.98 175 175 175
-9.27 -6.56 -0.98 175 175 175
-9.27 -6.64 -0.98 175 175 177
-9.27 -6.71 -0.98 176 176 178
-9.27 -6.79 -0.98 177 177 179
-9.27 -6.87 -0.98 177 177 179
-9.27 -6.95 -0.98 177 177 179
-9.27 -7.03 -0.98 177 176 181
-9.27 -7.11 -0.98 177 176 181
-9.27 -7.18 -0.98 177 176 181
-9.27 -7.26 -0.98 177 176 181
-9.27 -7.34 -0.98 176 175 180
-9.27 -7.42 -0.98 175 174 179
-9.27 -7.50 -0.98 178 177 182
-9.27 -7.58 -0.98 178 177 182
-9.27 -7.65 -0.98 178 178 180
-9.27 -7.73 -0.98 177 177 179
-9.27 -7.81 -0.98 177 177 179
-9.39 -7.89 -0.84 178 178 180
-9.39 -7.97 -0.84 179 179 179
-9.39 -8.04 -0.84 181 181 181
-9.39 -8.12 -0.84 180 180 180
-9.39 -8.20 -0.84 176 176 176
-9.39 -8.28 -0.84 177 177 177
-9.39 -8.36 -0.84 180 180 180
-9.39 -8.43 -0.84 181 181 181
-9.39 -8.51 -0.84 175 175 175
-9.39 -8.59 -0.84 168 168 168
-9.39 -8.67 -0.84 175 175 175
-9.39 -8.75 -0.84 220 222 221
-9.39 -8.82 -0.84 252 255 255
-9.39 -8.90 -0.84 247 251 250
-9.27 -8.99 -0.98 251 255 255
-9.27 -9.06 -0.98 247 253 251
-9.27 -9.14 -0.98 248 254 252
-9.27 -9.22 -0.98 251 255 255
-9.27 -9.30 -0.98 250 255 254
-9.27 -9.38 -0.98 250 255 254
-9.27 -9.46 -0.98 250 255 254
-9.27 -9.53 -0.98 249 255 253
-9.27 -9.61 -0.98 249 255 253
-9.39 -9.68 -0.84 249 255 253
-9.39 -9.76 -0.84 249 255 253
-9.39 -9.84 -0.84 249 255 253
-9.39 -9.92 -0.84 250 255 254
-9.39 -9.99 -0.84 250 255 254
-9.39 -10.07 -0.84 250 255 254
-9.39 -10.15 -0.84 250 255 254
-9.39 -10.23 -0.84 250 255 254
-9.39 -10.31 -0.84 250 255 254
-9.39 -10.38 -0.84 250 255 254
-9.39 -10.46 -0.84 250 255 254
-9.39 -10.54 -0.84 250 255 254
-9.39 -10.62 -0.84 250 255 254
-9.39 -10.70 -0.84 250 255 254
-9.39 -10.77 -0.84 250 255 254
-9.39 -10.85 -0.84 250 255 254
-9.39 -10.93 -0.84 250 255 254
-9.27 -11.02 -0.98 250 255 254
-9.27 -11.10 -0.98 250 255 254
-9.27 -11.18 -0.98 250 255 254
-9.27 -11.26 -0.98 250 255 254
-9.27 -11.34 -0.98 250 255 254
-9.39 -11.40 -0.84 250 255 254
-9.39 -11.48 -0.84 250 255 254
-9.39 -11.55 -0.84 250 255 254
-9.39 -11.63 -0.84 250 255 254
-9.39 -11.71 -0.84 250 255 254
-9.39 -11.79 -0.84 250 255 254
-9.39 -11.87 -0.84 250 255 254
-9.39 -11.94 -0.84 250 255 254
-9.39 -12.02 -0.84 250 255 254
-9.39 -12.10 -0.84 250 255 254
-9.39 -12.18 -0.84 250 255 254
-9.39 -12.26 -0.84 250 255 254
-9.39 -12.33 -0.84 250 255 254
-9.39 -12.41 -0.84 250 255 254
-9.39 -12.49 -0.84 250 255 254
-9.39 -12.57 -0.84 250 255 254
-9.39 -12.65 -0.84 250 255 254
-9.39 -12.72 -0.84 250 255 254
-9.39 -12.80 -0.84 250 255 254
-9.39 -12.88 -0.84 250 255 254
-9.27 -12.98 -0.98 250 255 254
-9.39 -13.04 -0.84 250 255 254
-9.39 -13.11 -0.84 250 255 254
-9.39 -13.19 -0.84 250 255 254
-9.39 -13.27 -0.84 250 255 254
-9.39 -13.35 -0.84 250 255 254
-9.39 -13.43 -0.84 250 255 254
-9.39 -13.50 -0.84 250 255 254
-9.39 -13.58 -0.84 250 255 254
-9.39 -13.66 -0.84 250 255 254
-9.39 -13.74 -0.84 250 255 254
-9.39 -13.82 -0.84 250 255 254
-9.39 -13.89 -0.84 250 255 254
-9.39 -13.97 -0.84 250 255 254
-9.39 -14.05 -0.84 250 255 254
-9.39 -14.13 -0.84 251 255 254
-9.39 -14.21 -0.84 251 255 254
-9.39 -14.28 -0.84 251 255 254
-9.39 -14.36 -0.84 251 255 254
-9.39 -14.44 -0.84 251 255 254
-9.39 -14.52 -0.84 251 255 254
-9.39 -14.60 -0.84 251 255 254
-9.27 -14.70 -0.98 251 255 254
-9.27 -14.78 -0.98 250 254 253
-9.27 -14.86 -0.98 250 254 253
-9.39 -14.91 -0.84 250 254 253
-9.39 -14.99 -0.84 250 254 253
-9.39 -15.06 -0.84 250 254 253
-9.39 -15.14 -0.84 250 254 253
-9.39 -15.22 -0.84 251 255 254
-9.39 -15.30 -0.84 244 250 248
-9.39 -15.38 -0.84 251 255 255
-9.39 -15.45 -0.84 251 255 255
-9.39 -15.53 -0.84 247 253 251
-9.39 -15.61 -0.84 251 255 255
-9.39 -15.69 -0.84 251 255 255
-9.39 -15.77 -0.84 251 255 254
-9.39 -15.84 -0.84 252 255 255
-9.39 -15.92 -0.84 246 250 249
-9.39 -16.00 -0.84 252 255 255
-9.39 -16.08 -0.84 250 254 253
-9.39 -16.16 -0.84 244 248 247
-9.39 -16.23 -0.84 252 255 255
-9.39 -16.31 -0.84 182 186 185
-9.27 -16.43 -0.98 180 182 181
-9.27 -16.50 -0.98 198 200 199
-9.39 -16.55 -0.84 186 186 186
-9.39 -16.63 -0.84 195 195 195
-9.39 -16.70 -0.84 205 205 205
-9.39 -16.78 -0.84 196 196 196
-9.39 -16.86 -0.84 193 193 193
-9.39 -16.94 -0.84 198 198 196
-9.39 -17.02 -0.84 193 193 191
-9.39 -17.09 -0.84 195 195 193
-9.39 -17.17 -0.84 194 194 192
-9.39 -17.25 -0.84 194 194 194
-9.39 -17.33 -0.84 194 194 194
-9.39 -17.41 -0.84 195 195 195
-9.39 -17.48 -0.84 196 196 196
-9.39 -17.56 -0.84 196 196 198
-9.39 -17.64 -0.84 196 196 198
-9.39 -17.72 -0.84 198 198 198
-9.39 -17.80 -0.84 197 197 197
-9.39 -17.87 -0.84 197 197 197
-9.39 -17.95 -0.84 196 196 196
-9.39 -18.03 -0.84 196 196 196
-9.39 -18.11 -0.84 196 196 196
-9.39 -18.19 -0.84 197 197 199
-9.39 -18.26 -0.84 197 197 199
-9.39 -18.34 -0.84 197 197 199
-9.39 -18.42 -0.84 197 196 201
-9.39 -18.50 -0.84 197 196 201
-9.39 -18.58 -0.84 197 198 202
-9.39 -18.65 -0.84 197 198 202
-9.39 -18.73 -0.84 197 198 202
-9.39 -18.81 -0.84 197 198 202
-9.39 -18.89 -0.84 197 198 200
-9.39 -18.97 -0.84 197 198 200
-9.39 -19.04 -0.84 198 199 201
-9.39 -19.12 -0.84 199 200 202
-9.39 -19.20 -0.84 199 199 201
-9.39 -19.28 -0.84 198 198 200
-9.39 -19.36 -0.84 196 196 198
-9.39 -19.43 -0.84 194 194 196
-9.39 -19.51 -0.84 186 184 187
-9.48 -19.55 -0.72 181 179 182
-9.48 -19.63 -0.72 174 172 175
-9.48 -19.71 -0.72 168 166 169
-9.39 -19.82 -0.84 166 164 167
-9.39 -19.90 -0.84 167 165 168
-9.39 -19.98 -0.84 173 168 172
-9.48 -20.02 -0.72 173 168 174
-9.48 -20.10 -0.72 176 171 177
-9.48 -20.17 -0.72 177 172 178
-9.60 -20.20 -0.58 174 169 175
-9.60 -20.28 -0.58 168 163 167
-9.60 -20.36 -0.58 163 158 162
-9.60 -20.43 -0.58 160 155 159
-9.60 -20.51 -0.58 160 155 159
-9.60 -20.59 -0.58 159 154 158
-9.72 -20.61 -0.43 168 163 167
-9.72 -20.69 -0.43 176 174 177
-9.72 -20.77 -0.43 181 179 182
-9.60 -20.90 -0.58 183 181 186
-9.60 -20.98 -0.58 178 176 181
-9.60 -21.05 -0.58 164 162 167
-9.60 -21.13 -0.58 149 146 153
-9.60 -21.21 -0.58 121 120 126
-9.60 -21.29 -0.58 120 119 127
-9.60 -21.36 -0.58 124 121 130
-9.48 -21.50 -0.72 143 140 149
-9.48 -21.57 -0.72 152 147 154
-9.39 -21.70 -0.84 130 125 132
-9.48 -21.73 -0.72 96 91 98
-9.48 -21.81 -0.72 63 58 65
-9.48 -21.88 -0.72 36 29 37
-9.39 -22.01 -0.84 43 38 45
-9.39 -22.09 -0.84 56 51 58
-9.39 -22.16 -0.84 61 56 63
-9.39 -22.24 -0.84 57 52 59
-9.39 -22.32 -0.84 46 40 50
-9.39 -22.40 -0.84 33 27 37
-9.39 -22.48 -0.84 45 44 49
-9.48 -22.51 -0.72 41 39 53
-9.48 -22.58 -0.72 57 50 84
-9.48 -22.66 -0.72 82 71 114
-9.60 -22.68 -0.58 62 51 91
-9.72 -22.70 -0.43 47 36 68
-9.81 -22.73 -0.32 49 41 56
-9.81 -22.80 -0.32 60 53 61
-9.81 -22.88 -0.32 50 41 46
-9.81 -22.96 -0.32 41 31 30
-9.81 -23.03 -0.32 66 56 46
-9.93 -23.05 -0.17 145 133 109
-9.93 -23.13 -0.17 229 213 177
-9.93 -23.20 -0.17 230 211 168
-9.93 -23.28 -0.17 244 221 179
-9.93 -23.36 -0.17 233 206 163
-9.93 -23.43 -0.17 211 183 136
-9.81 -23.57 -0.32 56 35 0
-9.81 -23.65 -0.32 40 24 0
-9.81 -23.73 -0.32 40 32 11
-9.72 -23.86 -0.43 42 37 34
-9.60 -24.00 -0.58 50 47 64
-9.48 -24.14 -0.72 33 29 62
-9.39 -24.27 -0.84 21 16 56
-9.39 -24.35 -0.84 34 27 68
-9.39 -24.43 -0.84 117 111 139
-9.39 -24.50 -0.84 194 185 206
-9.39 -24.58 -0.84 239 231 244
-9.39 -24.66 -0.84 232 220 230
-9.39 -24.74 -0.84 209 197 209
-9.39 -24.82 -0.84 209 197 207
-9.39 -24.89 -0.84 214 209 213
-9.39 -24.97 -0.84 222 220 221
-9.48 -25.00 -0.72 198 196 197
-9.48 -25.07 -0.72 206 204 205
-9.39 -25.21 -0.84 218 216 217
-9.39 -25.28 -0.84 205 203 204
-9.39 -25.36 -0.84 211 209 210
-9.39 -25.44 -0.84 212 210 211
-9.39 -25.52 -0.84 212 208 209
-9.39 -25.60 -0.84 212 208 209
-9.39 -25.67 -0.84 213 207 209
-9.39 -25.75 -0.84 215 206 209
-9.39 -25.83 -0.84 215 206 209
-9.39 -25.91 -0.84 215 206 209
-9.39 -25.99 -0.84 216 207 210
-9.39 -26.06 -0.84 214 208 210
-9.39 -26.14 -0.84 214 208 210
-9.39 -26.22 -0.84 213 207 209
-9.39 -26.30 -0.84 212 206 208
-9.48 -26.32 -0.72 213 207 209
-9.39 -26.61 -0.84 216 210 212
-9.39 -26.69 -0.84 215 209 211
-9.39 -26.77 -0.84 215 209 211
-9.39 -26.84 -0.84 215 209 211
-9.39 -26.92 -0.84 215 209 211
-9.39 -27.00 -0.84 215 209 211
-9.39 -27.08 -0.84 215 209 211
-9.39 -27.16 -0.84 216 210 212
-9.39 -27.23 -0.84 216 210 212
-9.39 -27.31 -0.84 214 208 210
-9.39 -27.39 -0.84 215 209 211
-9.39 -27.47 -0.84 216 210 212
-9.39 -27.55 -0.84 215 209 211
-9.39 -27.63 -0.84 215 209 211
-9.39 -27.70 -0.84 214 208 210
-9.39 -27.78 -0.84 214 208 210
-9.39 -28.17 -0.84 216 210 212
-9.39 -28.25 -0.84 215 209 211
-9.39 -28.33 -0.84 216 210 212
-9.39 -28.41 -0.84 218 212 214
-9.39 -28.48 -0.84 217 211 213
-9.39 -28.56 -0.84 216 210 212
-9.39 -28.64 -0.84 216 210 212
-9.39 -28.72 -0.84 216 210 212
-9.39 -28.80 -0.84 217 211 213
-9.39 -28.87 -0.84 217 211 213
-9.48 -28.88 -0.72 217 211 213
-9.48 -28.96 -0.72 218 212 214
-9.48 -29.04 -0.72 216 210 212
-9.48 -29.12 -0.72 217 211 213
-9.48 -29.20 -0.72 219 213 215
-9.48 -29.27 -0.72 219 213 215
-9.48 -29.35 -0.72 216 210 212
-9.48 -29.43 -0.72 217 211 213
-9.39 -29.73 -0.84 218 212 214
-9.48 -29.74 -0.72 217 211 211
-9.48 -29.82 -0.72 216 210 210
-9.48 -29.90 -0.72 217 212 209
-9.48 -29.97 -0.72 218 213 210
-9.48 -30.05 -0.72 219 214 210
-9.48 -30.13 -0.72 220 215 211
-9.48 -30.21 -0.72 219 214 210
-9.48 -30.28 -0.72 219 214 210
-9.48 -30.36 -0.72 220 215 212
-9.48 -30.44 -0.72 221 216 213
-9.48 -30.52 -0.72 222 216 216
-9.48 -30.60 -0.72 222 216 216
-9.39 -30.75 -0.84 222 216 218
-9.39 -30.82 -0.84 221 215 217
-9.39 -30.90 -0.84 0 0 0
-9.39 -30.98 -0.84 0 0 0
-9.39 -31.06 -0.84 0 0 0
-9.39 -31.14 -0.84 0 0 0
-9.39 -31.21 -0.84 0 0 0
-9.39 -31.29 -0.84 0 0 0
-9.48 -31.30 -0.72 0 0 0
-9.48 -31.37 -0.72 0 0 0
-9.48 -31.45 -0.72 0 0 0
-9.48 -31.53 -0.72 0 0 0
-9.60 -31.51 -0.58 0 0 0
-9.60 -31.59 -0.58 0 0 0
-9.60 -31.67 -0.58 0 0 0
-9.48 -31.84 -0.72 0 0 0
-9.48 -31.92 -0.72 0 0 0
-9.31 17.96 -1.05 0 0 0
-9.31 17.88 -1.05 0 0 0
-9.31 17.80 -1.05 0 0 0
-9.31 17.72 -1.05 0 0 0
-9.31 17.64 -1.05 0 0 0
-9.19 17.66 -1.20 0 0 0
-9.19 17.58 -1.20 0 0 0
-9.19 17.50 -1.20 0 0 0
-9.19 17.42 -1.20 0 0 0
-9.19 17.35 -1.20 121 114 108
-9.07 17.36 -1.34 121 114 108
-9.07 17.28 -1.34 122 115 109
-9.07 17.20 -1.34 123 115 112
-9.07 17.13 -1.34 124 116 113
-9.07 17.05 -1.34 123 118 115
-9.07 16.97 -1.34 124 119 116
-9.19 16.80 -1.20 123 119 118
-9.19 16.72 -1.20 123 119 118
-9.19 16.64 -1.20 121 117 118
-9.19 16.56 -1.20 123 119 120
-9.19 16.48 -1.20 126 120 122
-9.19 16.40 -1.20 126 120 122
-9.19 16.32 -1.20 125 119 119
-9.19 16.25 -1.20 125 119 119
-9.19 16.17 -1.20 126 117 118
-9.31 16.00 -1.05 125 116 117
-9.31 15.92 -1.05 129 120 123
-9.31 15.84 -1.05 125 119 119
-9.31 15.76 -1.05 122 119 114
-9.19 15.77 -1.20 121 129 118
-9.19 15.69 -1.20 69 79 80
-9.07 15.70 -1.34 34 44 71
-10.91 13.36 0.93 103 99 100
-10.91 13.28 0.93 100 96 95
-10.82 13.28 0.81 109 103 103
-10.82 13.20 0.81 124 116 114
-10.82 13.13 0.81 135 127 125
-10.91 12.99 0.93 148 140 138
-10.91 12.91 0.93 152 143 144
-10.91 12.84 0.93 143 137 137
-11.03 12.68 1.07 149 143 147
-11.03 12.61 1.07 136 131 138
-11.03 12.53 1.07 133 130 137
-11.03 12.46 1.07 137 134 143
-11.03 12.39 1.07 136 134 139
-11.03 12.31 1.07 132 130 135
-11.03 12.24 1.07 128 126 129
-11.03 12.16 1.07 126 124 127
-11.13 12.03 1.19 123 119 120
-11.13 11.95 1.19 119 115 114
-11.13 11.58 1.19 111 107 108
-11.13 11.51 1.19 103 102 108
-10.72 11.25 0.69 28 54 105
-10.61 11.25 0.55 27 52 108
-10.61 11.18 0.55 22 51 107
-10.61 11.10 0.55 19 49 111
-10.51 11.09 0.43 19 48 114
-10.39 11.09 0.29 21 52 119
-10.30 11.07 0.17 17 47 119
-10.30 10.99 0.17 14 44 116
-9.31 11.38 -1.05 16 45 121
-9.31 11.30 -1.05 10 37 114
-9.31 11.22 -1.05 34 54 125
-9.19 11.21 -1.20 116 122 180
-9.19 11.13 -1.20 125 125 163
-9.31 10.99 -1.05 128 130 142
-9.31 10.91 -1.05 133 133 131
-9.31 10.83 -1.05 134 132 133
-9.31 10.75 -1.05 135 131 132
-9.31 10.67 -1.05 139 133 135
-9.31 10.59 -1.05 142 136 136
-9.31 10.52 -1.05 139 134 131
-9.31 10.44 -1.05 139 133 133
-9.31 10.36 -1.05 138 133 137
-9.31 10.28 -1.05 139 134 140
-9.19 10.27 -1.20 140 134 134
-9.19 10.19 -1.20 141 136 133
-9.19 10.11 -1.20 145 137 135
-9.31 9.97 -1.05 145 137 135
-9.19 9.96 -1.20 147 139 137
-9.19 9.88 -1.20 149 141 139
-9.19 9.80 -1.20 150 142 140
-9.31 9.65 -1.05 149 143 143
-9.31 9.58 -1.05 149 143 143
-9.19 9.56 -1.20 149 143 145
-9.19 9.48 -1.20 149 143 145
-9.19 9.41 -1.20 150 146 147
-9.19 9.33 -1.20 149 145 146
-9.19 9.25 -1.20 148 144 145
-9.19 9.17 -1.20 149 145 146
-9.19 9.09 -1.20 148 146 147
-9.19 9.01 -1.20 149 147 148
-9.19 8.93 -1.20 149 147 148
-9.07 8.92 -1.34 149 147 148
-9.07 8.84 -1.34 152 148 149
-9.07 8.76 -1.34 152 148 149
-9.07 8.68 -1.34 154 150 151
-9.07 8.60 -1.34 154 150 151
-9.07 8.52 -1.34 154 150 151
-9.07 8.44 -1.34 155 151 152
-9.07 8.37 -1.34 156 152 151
-9.19 8.23 -1.20 154 153 151
-9.19 8.15 -1.20 154 153 151
-9.19 8.07 -1.20 157 153 152
-9.19 7.99 -1.20 158 154 153
-9.19 7.91 -1.20 159 155 154
-9.19 7.83 -1.20 159 155 154
-9.19 7.75 -1.20 159 155 154
-9.31 7.62 -1.05 159 155 154
-9.31 7.54 -1.05 159 155 152
-9.31 7.46 -1.05 161 157 154
-9.31 7.38 -1.05 163 159 156
-9.31 7.30 -1.05 163 159 156
-9.31 7.23 -1.05 163 159 156
-9.31 7.15 -1.05 163 159 156
-9.31 7.07 -1.05 163 159 158
-9.31 6.99 -1.05 163 159 158
-9.31 6.91 -1.05 164 160 159
-9.19 6.89 -1.20 164 160 159
-9.19 6.81 -1.20 164 160 161
-9.19 6.73 -1.20 165 161 162
-9.19 6.65 -1.20 166 162 163
-9.31 6.52 -1.05 167 163 164
-9.31 6.44 -1.05 168 164 165
-9.31 6.36 -1.05 168 164 165
-9.31 6.29 -1.05 167 163 162
-9.31 6.21 -1.05 168 164 163
-9.31 6.13 -1.05 170 166 165
-9.31 6.05 -1.05 171 167 166
-9.31 5.97 -1.05 170 166 165
-9.31 5.89 -1.05 169 168 166
-9.31 5.82 -1.05 171 170 168
-9.31 5.74 -1.05 169 168 166
-9.31 5.66 -1.05 170 169 167
-9.31 5.58 -1.05 171 170 168
-9.31 5.50 -1.05 172 171 169
-9.31 5.42 -1.05 173 172 170
-9.31 5.35 -1.05 174 173 171
-9.31 5.27 -1.05 174 174 172
-9.31 5.19 -1.05 174 174 172
-9.31 5.11 -1.05 175 175 173
-9.31 5.03 -1.05 175 175 173
-9.31 4.95 -1.05 176 176 174
-9.31 4.88 -1.05 177 177 175
-9.31 4.80 -1.05 178 178 176
-9.31 4.72 -1.05 179 179 177
-9.31 4.64 -1.05 179 179 177
-9.31 4.56 -1.05 178 178 176
-9.31 4.48 -1.05 179 178 176
-9.31 4.41 -1.05 182 180 181
-9.31 4.33 -1.05 183 181 182
-9.31 4.25 -1.05 184 182 183
-9.31 4.17 -1.05 184 182 183
-9.31 4.09 -1.05 187 183 184
-9.31 4.01 -1.05 187 183 184
-9.31 3.94 -1.05 186 186 188
-9.31 3.86 -1.05 188 188 190
-9.19 3.82 -1.20 187 187 189
-9.19 3.74 -1.20 187 187 189
-9.31 3.62 -1.05 190 190 190
-9.31 3.54 -1.05 190 190 190
-9.31 3.47 -1.05 188 188 188
-9.31 3.39 -1.05 190 190 190
-9.31 3.31 -1.05 191 191 191
-9.31 3.23 -1.05 191 191 191
-9.31 3.15 -1.05 191 191 189
-9.31 3.08 -1.05 191 191 189
-9.31 3.00 -1.05 191 191 189
-9.31 2.92 -1.05 191 191 189
-9.31 2.84 -1.05 192 192 190
-9.31 2.76 -1.05 192 192 190
-9.31 2.68 -1.05 192 194 193
-9.31 2.61 -1.05 193 195 194
-9.31 2.53 -1.05 194 196 195
-9.31 2.45 -1.05 195 197 196
-9.31 2.37 -1.05 194 196 195
-9.31 2.29 -1.05 194 194 194
-9.31 2.21 -1.05 193 193 193
-9.31 2.14 -1.05 189 189 189
-9.31 2.06 -1.05 185 185 185
-9.31 1.98 -1.05 180 178 179
-9.43 1.86 -0.91 175 173 174
-9.43 1.79 -0.91 172 170 171
-9.31 1.74 -1.05 170 168 169
-9.31 1.67 -1.05 168 167 165
-9.31 1.59 -1.05 167 165 166
-9.31 1.51 -1.05 163 163 163
-9.31 1.43 -1.05 161 161 163
-9.31 1.35 -1.05 160 160 160
-9.31 1.27 -1.05 158 158 158
-9.31 1.20 -1.05 157 159 156
-9.31 1.12 -1.05 156 158 155
-9.31 1.04 -1.05 155 157 154
-9.31 0.96 -1.05 153 155 152
-9.31 0.88 -1.05 149 151 148
-9.31 0.80 -1.05 149 151 148
-9.31 0.73 -1.05 147 152 148
-9.31 0.65 -1.05 146 151 147
-9.31 0.57 -1.05 147 151 150
-9.31 0.49 -1.05 147 151 150
-9.31 0.41 -1.05 146 150 149
-9.31 0.33 -1.05 150 152 151
-9.31 0.26 -1.05 150 152 151
-9.31 0.18 -1.05 150 152 149
-9.31 0.10 -1.05 150 152 149
-9.31 0.02 -1.05 150 152 147
-9.31 -0.06 -1.05 150 152 147
-9.31 -0.14 -1.05 151 153 148
-9.31 -0.21 -1.05 152 154 149
-9.31 -0.29 -1.05 152 154 149
-9.31 -0.37 -1.05 152 154 149
-9.31 -0.45 -1.05 153 155 150
-9.31 -0.53 -1.05 153 155 150
-9.31 -0.61 -1.05 153 155 152
-9.31 -0.68 -1.05 153 155 152
-9.31 -0.76 -1.05 153 155 152
-9.31 -0.84 -1.05 153 155 152
-9.31 -0.92 -1.05 154 156 155
-9.31 -1.00 -1.05 154 156 155
-9.31 -1.08 -1.05 153 155 154
-9.31 -1.15 -1.05 152 154 153
-9.31 -1.23 -1.05 152 154 153
-9.31 -1.31 -1.05 153 155 154
-9.31 -1.39 -1.05 153 155 154
-9.31 -1.47 -1.05 153 155 154
-9.31 -1.55 -1.05 154 156 155
-9.31 -1.62 -1.05 154 156 155
-9.31 -1.70 -1.05 154 156 155
-9.31 -1.78 -1.05 154 156 155
-9.31 -1.86 -1.05 154 156 155
-9.31 -2.25 -1.05 155 155 153
-9.31 -2.33 -1.05 155 155 153
-9.31 -2.41 -1.05 154 155 150
-9.31 -2.49 -1.05 153 154 149
-9.31 -2.56 -1.05 154 155 150
-9.31 -2.64 -1.05 157 158 153
-9.31 -2.72 -1.05 159 159 157
-9.31 -2.80 -1.05 160 160 158
-9.31 -2.88 -1.05 161 161 161
-9.31 -2.96 -1.05 161 161 161
-9.31 -3.03 -1.05 162 162 164
-9.43 -3.13 -0.91 163 163 165
-9.43 -3.21 -0.91 167 165 170
-9.43 -3.28 -0.91 171 171 171
-9.43 -3.36 -0.91 171 171 171
-9.43 -3.44 -0.91 171 171 171
-9.43 -3.52 -0.91 172 172 172
-9.31 -3.58 -1.05 173 173 175
-9.31 -3.66 -1.05 173 173 175
-9.31 -3.74 -1.05 173 172 177
-9.31 -4.13 -1.05 173 172 177
-9.31 -4.21 -1.05 173 173 175
-9.31 -4.29 -1.05 173 173 175
-9.31 -4.37 -1.05 174 174 176
-9.31 -4.44 -1.05 175 175 177
-9.31 -4.52 -1.05 172 172 174
-9.43 -4.61 -0.91 173 173 175
-9.43 -4.69 -0.91 174 174 176
-9.43 -4.77 -0.91 175 175 177
-9.43 -4.84 -0.91 176 176 178
-9.43 -4.92 -0.91 175 175 177
-9.43 -5.00 -0.91 174 174 176
-9.43 -5.08 -0.91 172 172 174
-9.43 -5.16 -0.91 173 173 175
-9.43 -5.23 -0.91 174 174 176
-9.43 -5.31 -0.91 175 175 177
-9.43 -5.39 -0.91 176 176 178
-9.43 -5.47 -0.91 176 176 178
-9.43 -5.55 -0.91 175 175 177
-9.43 -5.63 -0.91 175 175 177
-9.43 -5.70 -0.91 173 177 180
-9.31 -5.77 -1.05 173 177 180
-9.31 -5.85 -1.05 176 177 179
-9.31 -5.93 -1.05 176 177 179
-9.43 -6.02 -0.91 176 177 179
-9.43 -6.09 -0.91 176 177 179
-9.43 -6.17 -0.91 176 178 177
-9.43 -6.25 -0.91 176 178 177
-9.43 -6.33 -0.91 174 176 175
-9.43 -6.41 -0.91 174 176 175
-9.43 -6.48 -0.91 174 174 176
-9.43 -6.56 -0.91 175 175 177
-9.43 -6.64 -0.91 176 176 178
-9.43 -6.72 -0.91 177 177 179
-9.43 -6.80 -0.91 177 176 181
-9.43 -6.87 -0.91 177 176 181
-9.43 -6.95 -0.91 175 176 178
-9.43 -7.03 -0.91 176 177 179
-9.43 -7.11 -0.91 176 177 179
-9.43 -7.19 -0.91 177 178 182
-9.43 -7.26 -0.91 177 178 182
-9.43 -7.34 -0.91 176 177 181
-9.43 -7.42 -0.91 176 177 181
-9.43 -7.50 -0.91 175 176 180
-9.31 -7.58 -1.05 175 176 180
-9.31 -7.65 -1.05 175 176 178
-9.31 -7.73 -1.05 175 176 178
-9.43 -7.81 -0.91 176 177 179
-9.43 -7.89 -0.91 176 177 179
-9.43 -7.97 -0.91 177 178 180
-9.43 -8.04 -0.91 178 179 181
-9.43 -8.12 -0.91 175 175 175
-9.43 -8.20 -0.91 182 182 182
-9.43 -8.28 -0.91 178 178 178
-9.43 -8.36 -0.91 178 178 178
-9.43 -8.43 -0.91 179 181 180
-9.43 -8.51 -0.91 171 173 172
-9.43 -8.59 -0.91 162 164 163
-9.43 -8.67 -0.91 222 224 223
-9.43 -8.75 -0.91 252 255 255
-9.43 -8.82 -0.91 241 245 244
-9.43 -8.90 -0.91 252 255 255
-9.43 -8.98 -0.91 251 255 255
-9.43 -9.06 -0.91 244 250 248
-9.43 -9.14 -0.91 251 255 253
-9.43 -9.21 -0.91 248 254 250
-9.43 -9.29 -0.91 250 255 254
-9.43 -9.37 -0.91 249 255 253
-9.31 -9.46 -1.05 249 255 253
-9.31 -9.53 -1.05 249 255 253
-9.43 -9.60 -0.91 249 255 253
-9.43 -9.68 -0.91 249 255 253
-9.43 -9.76 -0.91 249 255 253
-9.43 -9.84 -0.91 249 255 253
-9.43 -9.92 -0.91 250 255 254
-9.43 -9.99 -0.91 250 255 254
-9.52 -10.06 -0.79 250 255 254
-9.52 -10.14 -0.79 250 255 254
-9.52 -10.22 -0.79 250 255 254
-9.52 -10.30 -0.79 250 255 254
-9.52 -10.37 -0.79 250 255 254
-9.52 -10.45 -0.79 250 255 254
-9.52 -10.53 -0.79 250 255 254
-9.43 -10.62 -0.91 250 255 254
-9.43 -10.70 -0.91 250 255 254
-9.43 -10.77 -0.91 250 255 254
-9.43 -10.85 -0.91 250 255 254
-9.43 -10.93 -0.91 250 255 254
-9.43 -11.01 -0.91 250 255 254
-9.43 -11.09 -0.91 250 255 254
-9.43 -11.16 -0.91 250 255 254
-9.31 -11.26 -1.05 250 255 254
-9.43 -11.32 -0.91 250 255 254
-9.43 -11.40 -0.91 250 255 254
-9.43 -11.48 -0.91 250 255 254
-9.43 -11.55 -0.91 250 255 254
-9.43 -11.63 -0.91 250 255 254
-9.43 -11.71 -0.91 250 255 254
-9.43 -11.79 -0.91 250 255 254
-9.43 -11.87 -0.91 250 255 254
-9.43 -11.94 -0.91 250 255 254
-9.43 -12.02 -0.91 250 255 254
-9.43 -12.10 -0.91 250 255 254
-9.43 -12.18 -0.91 250 255 254
-9.43 -12.26 -0.91 250 255 254
-9.43 -12.33 -0.91 250 255 254
-9.43 -12.41 -0.91 250 255 254
-9.43 -12.49 -0.91 250 255 254
-9.43 -12.57 -0.91 250 255 254
-9.43 -12.65 -0.91 250 255 254
-9.43 -12.72 -0.91 250 255 254
-9.43 -12.80 -0.91 250 255 254
-9.43 -12.88 -0.91 250 255 254
-9.43 -12.96 -0.91 250 255 254
-9.43 -13.04 -0.91 250 255 254
-9.43 -13.11 -0.91 250 255 254
-9.43 -13.19 -0.91 250 255 254
-9.43 -13.27 -0.91 250 255 254
-9.52 -13.33 -0.79 250 255 254
-9.52 -13.41 -0.79 250 255 254
-9.52 -13.49 -0.79 250 255 254
-9.52 -13.56 -0.79 250 255 254
-9.52 -13.64 -0.79 250 255 254
-9.52 -13.72 -0.79 250 255 254
-9.52 -13.80 -0.79 250 255 254
-9.52 -13.87 -0.79 250 255 254
-9.52 -13.95 -0.79 250 255 254
-9.52 -14.03 -0.79 250 255 254
-9.52 -14.11 -0.79 251 255 254
-9.52 -14.19 -0.79 251 255 254
-9.52 -14.26 -0.79 251 255 254
-9.52 -14.34 -0.79 251 255 254
-9.52 -14.42 -0.79 251 255 254
-9.43 -14.52 -0.91 251 255 254
-9.43 -14.60 -0.91 251 255 254
-9.43 -14.67 -0.91 251 255 254
-9.43 -14.75 -0.91 250 254 253
-9.43 -14.83 -0.91 250 254 253
-9.43 -14.91 -0.91 250 254 253
-9.43 -14.99 -0.91 250 254 253
-9.43 -15.06 -0.91 250 254 253
-9.43 -15.14 -0.91 250 254 253
-9.43 -15.22 -0.91 251 255 254
-9.43 -15.30 -0.91 249 255 253
-9.43 -15.38 -0.91 250 255 254
-9.43 -15.45 -0.91 241 247 245
-9.43 -15.53 -0.91 250 255 254
-9.43 -15.61 -0.91 248 254 252
-9.43 -15.69 -0.91 251 255 255
-9.43 -15.77 -0.91 246 252 250
-9.43 -15.84 -0.91 251 255 255
-9.43 -15.92 -0.91 251 255 255
-9.43 -16.00 -0.91 239 245 243
-9.43 -16.08 -0.91 251 255 255
-9.43 -16.16 -0.91 251 255 255
-9.43 -16.23 -0.91 249 255 253
-9.43 -16.31 -0.91 245 251 249
-9.43 -16.39 -0.91 195 199 198
-9.43 -16.47 -0.91 177 179 178
-9.43 -16.55 -0.91 190 190 190
-9.43 -16.63 -0.91 194 194 194
-9.43 -16.70 -0.91 194 194 194
-9.43 -16.78 -0.91 195 195 195
-9.43 -16.86 -0.91 191 191 191
-9.43 -16.94 -0.91 191 191 191
-9.43 -17.02 -0.91 198 198 198
-9.43 -17.09 -0.91 193 193 193
-9.43 -17.17 -0.91 193 193 193
-9.52 -17.22 -0.79 193 193 193
-9.52 -17.30 -0.79 194 194 194
-9.52 -17.37 -0.79 195 195 197
-9.52 -17.45 -0.79 196 196 198
-9.52 -17.53 -0.79 196 196 198
-9.52 -17.61 -0.79 196 196 198
-9.52 -17.69 -0.79 196 196 196
-9.52 -17.76 -0.79 196 196 196
-9.52 -17.84 -0.79 195 195 195
-9.52 -17.92 -0.79 195 195 195
-9.52 -18.00 -0.79 196 196 198
-9.52 -18.07 -0.79 196 196 198
-9.43 -18.19 -0.91 197 197 199
-9.43 -18.26 -0.91 199 199 201
-9.43 -18.34 -0.91 198 198 200
-9.43 -18.42 -0.91 198 197 202
-9.43 -18.50 -0.91 198 197 202
-9.43 -18.58 -0.91 198 197 202
-9.43 -18.65 -0.91 198 197 202
-9.43 -18.73 -0.91 198 197 202
-9.43 -18.81 -0.91 198 197 202
-9.43 -18.89 -0.91 197 199 198
-9.43 -18.97 -0.91 197 199 198
-9.43 -19.04 -0.91 196 197 199
-9.52 -19.09 -0.79 196 197 199
-9.52 -19.16 -0.79 196 197 199
-9.52 -19.24 -0.79 199 200 202
-9.52 -19.32 -0.79 201 202 204
-9.52 -19.40 -0.79 203 204 206
-9.52 -19.47 -0.79 198 197 202
-9.52 -19.55 -0.79 193 192 197
-9.52 -19.63 -0.79 187 186 191
-9.52 -19.71 -0.79 180 179 184
-9.52 -19.79 -0.79 175 174 179
-9.52 -19.86 -0.79 170 169 174
-9.43 -19.98 -0.91 166 165 170
-9.52 -20.02 -0.79 175 170 176
-9.52 -20.10 -0.79 174 167 174
-9.64 -20.12 -0.64 173 167 171
-9.64 -20.20 -0.64 173 167 171
-9.64 -20.28 -0.64 174 168 172
-9.64 -20.36 -0.64 173 167 171
-9.64 -20.43 -0.64 168 163 167
-9.64 -20.51 -0.64 165 160 164
-9.76 -20.54 -0.50 165 160 164
-9.76 -20.61 -0.50 165 160 164
-9.76 -20.69 -0.50 165 160 164
-9.76 -20.77 -0.50 168 163 167
-9.76 -20.85 -0.50 177 172 176
-9.76 -20.92 -0.50 184 179 183
-9.76 -21.00 -0.50 184 179 185
-9.76 -21.08 -0.50 180 175 182
-9.76 -21.15 -0.50 174 169 176
-9.76 -21.23 -0.50 153 147 157
-9.64 -21.36 -0.64 122 117 124
-9.64 -21.44 -0.64 114 109 116
-9.52 -21.57 -0.79 121 114 122
-9.52 -21.65 -0.79 125 118 126
-9.52 -21.73 -0.79 124 117 125
-9.64 -21.75 -0.64 113 106 114
-9.64 -21.83 -0.64 51 44 51
-9.64 -21.91 -0.64 33 26 33
-9.52 -22.04 -0.79 32 25 32
-9.52 -22.12 -0.79 36 31 38
-9.52 -22.20 -0.79 43 38 45
-9.52 -22.27 -0.79 46 43 50
-9.52 -22.35 -0.79 45 42 49
-9.52 -22.43 -0.79 46 46 54
-9.52 -22.51 -0.79 38 34 57
-9.52 -22.58 -0.79 54 46 97
-9.64 -22.60 -0.64 72 57 122
-9.76 -22.62 -0.50 60 47 103
-9.85 -22.65 -0.38 46 30 75
-9.85 -22.73 -0.38 61 47 70
-9.85 -22.80 -0.38 147 131 142
-9.85 -22.88 -0.38 135 118 128
-9.97 -22.90 -0.24 80 60 61
-9.97 -22.97 -0.24 63 41 27
-9.97 -23.05 -0.24 119 96 65
-9.97 -23.13 -0.24 230 206 160
-9.97 -23.20 -0.24 217 189 142
-9.97 -23.28 -0.24 218 186 148
-9.97 -23.36 -0.24 198 163 131
-9.97 -23.43 -0.24 228 194 157
-9.97 -23.51 -0.24 196 166 140
-9.85 -23.65 -0.38 118 90 76
-9.85 -23.73 -0.38 71 50 49
-9.85 -23.80 -0.38 32 11 26
-9.76 -23.93 -0.50 37 19 45
-9.76 -24.01 -0.50 48 31 65
-9.52 -24.22 -0.79 39 23 59
-9.52 -24.30 -0.79 41 26 57
-9.52 -24.37 -0.79 19 6 24
-9.52 -24.45 -0.79 23 11 23
-9.52 -24.53 -0.79 148 139 142
-9.52 -24.61 -0.79 227 218 219
-9.52 -24.68 -0.79 254 248 250
-9.43 -24.82 -0.91 218 212 214
-9.52 -24.84 -0.79 195 193 196
-9.52 -24.92 -0.79 209 207 210
-9.52 -25.00 -0.79 208 206 207
-9.52 -25.07 -0.79 210 208 209
-9.52 -25.15 -0.79 209 205 206
-9.52 -25.23 -0.79 205 201 202
-9.52 -25.31 -0.79 213 209 210
-9.52 -25.38 -0.79 211 207 208
-9.52 -25.46 -0.79 211 207 208
-9.52 -25.54 -0.79 211 207 208
-9.52 -25.62 -0.79 212 206 208
-9.43 -25.75 -0.91 215 206 209
-9.43 -25.83 -0.91 215 206 209
-9.43 -25.91 -0.91 215 206 211
-9.43 -25.99 -0.91 215 206 211
-9.43 -26.06 -0.91 213 207 209
-9.43 -26.14 -0.91 213 207 209
-9.52 -26.16 -0.79 212 206 208
-9.52 -26.24 -0.79 211 205 207
-9.52 -26.32 -0.79 211 205 207
-9.52 -26.55 -0.79 213 207 209
-9.52 -26.63 -0.79 215 209 211
-9.52 -26.71 -0.79 215 209 211
-9.52 -26.78 -0.79 214 208 210
-9.52 -26.86 -0.79 214 208 210
-9.43 -27.00 -0.91 214 208 210
-9.43 -27.08 -0.91 214 208 210
-9.43 -27.16 -0.91 214 208 210
-9.43 -27.23 -0.91 214 208 210
-9.43 -27.31 -0.91 215 209 211
-9.43 -27.39 -0.91 215 209 211
-9.43 -27.47 -0.91 215 209 211
-9.43 -27.55 -0.91 212 206 208
-9.43 -27.63 -0.91 213 207 209
-9.43 -27.70 -0.91 215 209 211
-9.43 -27.78 -0.91 217 211 213
-9.43 -28.17 -0.91 214 208 210
-9.43 -28.25 -0.91 214 208 210
-9.43 -28.33 -0.91 215 209 211
-9.43 -28.41 -0.91 216 210 212
-9.43 -28.48 -0.91 216 210 212
-9.43 -28.56 -0.91 216 210 212
-9.43 -28.64 -0.91 216 210 212
-9.43 -28.72 -0.91 216 210 212
-9.43 -28.80 -0.91 216 210 212
-9.43 -28.87 -0.91 217 211 213
-9.52 -28.88 -0.79 217 211 213
-9.52 -28.96 -0.79 218 212 214
-9.52 -29.04 -0.79 216 210 212
-9.52 -29.12 -0.79 217 211 213
-9.52 -29.20 -0.79 218 212 214
-9.52 -29.27 -0.79 218 212 214
-9.52 -29.35 -0.79 217 211 213
-9.52 -29.43 -0.79 217 211 213
-9.52 -29.66 -0.79 218 209 210
-9.52 -29.74 -0.79 217 208 209
-9.64 -29.73 -0.64 217 208 209
-9.64 -29.81 -0.64 217 209 207
-9.52 -29.97 -0.79 218 210 208
-9.52 -30.05 -0.79 218 210 208
-9.52 -30.13 -0.79 219 211 209
-9.52 -30.21 -0.79 221 213 211
-9.52 -30.28 -0.79 221 213 211
-9.52 -30.36 -0.79 222 213 214
-9.52 -30.44 -0.79 222 213 214
-9.52 -30.52 -0.79 222 213 216
-9.52 -30.60 -0.79 223 214 217
-9.52 -30.67 -0.79 223 214 219
-9.52 -30.75 -0.79 223 214 219
-9.52 -30.83 -0.79 0 0 0
-9.52 -30.91 -0.79 0 0 0
-9.52 -30.98 -0.79 0 0 0
-9.52 -31.06 -0.79 0 0 0
-9.52 -31.14 -0.79 0 0 0
-9.52 -31.22 -0.79 0 0 0
-9.52 -31.30 -0.79 0 0 0
-9.64 -31.28 -0.64 0 0 0
-9.64 -31.36 -0.64 0 0 0
-9.64 -31.43 -0.64 0 0 0
-9.64 -31.51 -0.64 0 0 0
-9.64 -31.59 -0.64 0 0 0
-9.64 -31.67 -0.64 0 0 0
-9.64 -31.74 -0.64 0 0 0
-9.64 -31.82 -0.64 0 0 0
-9.35 17.96 -1.12 0 0 0
-9.35 17.88 -1.12 0 0 0
-9.35 17.80 -1.12 0 0 0
-9.35 17.72 -1.12 0 0 0
-9.35 17.64 -1.12 0 0 0
-9.35 17.56 -1.12 0 0 0
-9.35 17.49 -1.12 0 0 0
-9.35 17.41 -1.12 0 0 0
-9.35 17.33 -1.12 0 0 0
-9.35 17.25 -1.12 111 106 113
-9.23 17.27 -1.27 111 106 113
-9.23 17.19 -1.27 110 105 112
-9.23 17.11 -1.27 111 106 113
-9.23 17.03 -1.27 113 108 115
-9.23 16.95 -1.27 114 112 117
-9.23 16.87 -1.27 115 113 118
-9.23 16.80 -1.27 118 116 119
-9.23 16.72 -1.27 120 118 121
-9.23 16.64 -1.27 119 117 118
-9.23 16.56 -1.27 123 121 122
-9.23 16.48 -1.27 125 121 118
-9.35 16.31 -1.12 123 119 116
-9.35 16.23 -1.12 122 117 111
-9.35 16.15 -1.12 123 118 112
-9.35 16.08 -1.12 123 119 110
-9.35 16.00 -1.12 122 118 107
-9.35 15.92 -1.12 119 120 106
-9.35 15.84 -1.12 128 130 119
-11.16 13.79 1.13 163 161 185
-11.16 13.72 1.13 155 152 159
-11.07 13.72 1.01 146 142 141
-11.07 13.64 1.01 149 144 140
-11.07 13.57 1.01 136 131 128
-11.07 13.49 1.01 114 108 108
-11.07 13.42 1.01 108 102 104
-10.95 13.43 0.86 117 111 113
-10.95 13.36 0.86 144 138 140
-10.95 13.28 0.86 160 151 154
-10.95 13.21 0.86 148 139 142
-10.86 13.20 0.75 142 133 138
-10.86 13.13 0.75 152 143 148
-10.95 12.99 0.86 144 137 144
-10.95 12.91 0.86 129 122 129
-10.95 12.84 0.86 118 113 120
-10.95 12.76 0.86 110 105 112
-11.07 12.61 1.01 121 118 125
-11.07 12.53 1.01 127 126 134
-11.07 12.46 1.01 125 124 132
-11.07 12.39 1.01 115 113 118
-11.07 12.31 1.01 104 102 107
-11.07 12.24 1.01 92 91 96
-11.07 12.16 1.01 86 85 90
-11.16 12.03 1.13 86 86 88
-11.16 11.95 1.13 89 87 88
-11.16 11.88 1.13 95 94 92
-11.16 11.80 1.13 103 99 96
-11.16 11.73 1.13 102 97 94
-11.16 11.66 1.13 101 95 95
-11.16 11.58 1.13 98 92 92
-11.16 11.51 1.13 96 91 97
-11.16 11.44 1.13 104 103 111
-11.16 11.36 1.13 67 69 82
-11.07 11.35 1.01 48 51 70
-11.07 11.28 1.01 40 49 78
-10.95 11.28 0.86 37 56 99
-10.76 11.33 0.63 31 54 108
-10.76 11.25 0.63 25 50 104
-10.76 11.18 0.63 23 48 105
-10.64 11.18 0.48 20 49 107
-10.64 11.10 0.48 17 49 110
-10.55 11.09 0.37 17 48 113
-10.43 11.09 0.22 17 48 113
-10.34 11.07 0.10 16 47 114
-10.34 10.99 0.10 13 42 112
-10.13 11.05 -0.16 20 47 118
-9.80 11.18 -0.57 23 50 121
-9.35 11.38 -1.12 20 44 116
-9.47 11.23 -0.97 10 32 105
-9.35 11.22 -1.12 35 53 117
-9.35 11.14 -1.12 101 107 157
-9.35 11.06 -1.12 121 122 152
-9.35 10.99 -1.12 131 134 141
-9.35 10.91 -1.12 134 134 132
-9.35 10.83 -1.12 133 131 134
-9.35 10.75 -1.12 138 133 139
-9.35 10.67 -1.12 140 134 138
-9.35 10.59 -1.12 137 131 133
-9.35 10.52 -1.12 139 134 131
-9.35 10.44 -1.12 139 134 131
-9.35 10.36 -1.12 138 134 135
-9.35 10.28 -1.12 139 135 136
-9.35 10.20 -1.12 141 136 133
-9.35 10.12 -1.12 142 137 134
-9.35 10.05 -1.12 145 136 137
-9.35 9.97 -1.12 145 137 135
-9.35 9.89 -1.12 146 138 135
-9.35 9.81 -1.12 149 141 138
-9.35 9.73 -1.12 150 142 140
-9.35 9.65 -1.12 149 144 141
-9.35 9.58 -1.12 149 143 143
-9.35 9.50 -1.12 149 143 145
-9.35 9.42 -1.12 150 144 146
-9.35 9.34 -1.12 151 146 150
-9.35 9.26 -1.12 150 145 149
-9.35 9.18 -1.12 150 145 151
-9.35 9.11 -1.12 150 145 151
-9.35 9.03 -1.12 148 146 151
-9.35 8.95 -1.12 149 147 152
-9.23 8.93 -1.27 150 148 153
-9.23 8.85 -1.27 150 148 153
-9.23 8.78 -1.27 150 148 153
-9.23 8.70 -1.27 151 149 154
-9.23 8.62 -1.27 152 150 153
-9.23 8.54 -1.27 153 151 154
-9.23 8.46 -1.27 155 150 154
-9.23 8.38 -1.27 156 151 155
-9.23 8.30 -1.27 157 152 156
-9.23 8.23 -1.27 155 151 152
-9.23 8.15 -1.27 156 152 153
-9.35 8.01 -1.12 157 153 154
-9.35 7.93 -1.12 158 154 155
-9.35 7.85 -1.12 158 154 153
-9.35 7.77 -1.12 159 155 154
-9.35 7.70 -1.12 160 156 155
-9.35 7.62 -1.12 161 157 156
-9.47 7.48 -0.97 161 157 156
-9.47 7.40 -0.97 161 157 156
-9.47 7.33 -0.97 162 158 157
-9.47 7.25 -0.97 162 158 157
-9.47 7.17 -0.97 162 158 157
-9.47 7.09 -0.97 162 158 157
-9.35 7.07 -1.12 161 157 158
-9.35 6.99 -1.12 161 157 158
-9.35 6.91 -1.12 164 160 161
-9.35 6.83 -1.12 164 160 161
-9.35 6.76 -1.12 164 160 161
-9.35 6.68 -1.12 165 161 162
-9.35 6.60 -1.12 165 161 162
-9.35 6.52 -1.12 166 162 163
-9.35 6.44 -1.12 166 162 163
-9.35 6.36 -1.12 166 162 163
-9.35 6.29 -1.12 165 163 164
-9.35 6.21 -1.12 166 164 165
-9.35 6.13 -1.12 168 166 167
-9.35 6.05 -1.12 169 167 168
-9.47 5.92 -0.97 169 167 168
-9.47 5.84 -0.97 171 169 170
-9.47 5.77 -0.97 173 171 172
-9.35 5.74 -1.12 171 171 171
-9.35 5.66 -1.12 171 171 171
-9.35 5.58 -1.12 171 171 171
-9.47 5.45 -0.97 171 171 171
-9.47 5.37 -0.97 172 172 172
-9.47 5.30 -0.97 172 172 172
-9.47 5.22 -0.97 173 173 173
-9.47 5.14 -0.97 174 174 174
-9.47 5.06 -0.97 174 176 175
-9.47 4.98 -0.97 175 177 176
-9.47 4.91 -0.97 178 178 178
-9.35 4.88 -1.12 178 178 178
-9.35 4.80 -1.12 180 178 179
-9.35 4.72 -1.12 180 178 179
-9.35 4.64 -1.12 181 179 180
-9.35 4.56 -1.12 182 180 181
-9.35 4.48 -1.12 181 179 180
-9.35 4.41 -1.12 183 181 182
-9.35 4.33 -1.12 183 181 182
-9.35 4.25 -1.12 183 182 180
-9.35 4.17 -1.12 183 182 180
-9.35 4.09 -1.12 184 183 181
-9.35 4.01 -1.12 186 185 183
-9.35 3.94 -1.12 185 183 184
-9.35 3.86 -1.12 188 186 187
-9.35 3.78 -1.12 187 185 186
-9.35 3.70 -1.12 187 185 186
-9.35 3.62 -1.12 191 189 190
-9.35 3.54 -1.12 190 188 189
-9.35 3.47 -1.12 188 188 188
-9.35 3.39 -1.12 190 190 190
-9.35 3.31 -1.12 190 190 190
-9.47 3.19 -0.97 191 191 191
-9.47 3.11 -0.97 191 191 191
-9.47 3.03 -0.97 192 192 192
-9.47 2.96 -0.97 193 193 193
-9.47 2.88 -0.97 194 194 194
-9.47 2.80 -0.97 194 194 194
-9.47 2.72 -0.97 195 195 195
-9.35 2.68 -1.12 195 196 198
-9.35 2.61 -1.12 195 196 198
-9.35 2.53 -1.12 194 195 197
-9.35 2.45 -1.12 191 192 194
-9.35 2.37 -1.12 187 188 190
-9.35 2.29 -1.12 181 182 184
-9.47 2.18 -0.97 177 178 180
-9.47 2.10 -0.97 174 174 176
-9.47 2.02 -0.97 171 171 173
-9.47 1.94 -0.97 166 165 170
-9.47 1.86 -0.97 161 160 165
-9.47 1.79 -0.97 158 157 162
-9.47 1.71 -0.97 156 155 160
-9.47 1.63 -0.97 155 154 159
-9.47 1.55 -0.97 154 153 158
-9.47 1.47 -0.97 151 154 159
-9.47 1.40 -0.97 149 152 157
-9.47 1.32 -0.97 148 152 155
-9.47 1.24 -0.97 146 150 153
-9.47 1.16 -0.97 148 149 151
-9.47 1.08 -0.97 148 149 151
-9.47 1.01 -0.97 149 151 150
-9.35 0.96 -1.12 150 152 151
-9.35 0.88 -1.12 150 152 149
-9.47 0.77 -0.97 148 150 147
-9.47 0.69 -0.97 148 150 147
-9.47 0.62 -0.97 149 151 148
-9.47 0.54 -0.97 150 152 149
-9.47 0.46 -0.97 150 152 151
-9.35 0.41 -1.12 151 153 152
-9.35 0.33 -1.12 150 150 148
-9.35 0.26 -1.12 151 151 149
-9.35 0.18 -1.12 152 152 150
-9.35 0.10 -1.12 152 152 150
-9.47 -0.01 -0.97 152 152 150
-9.47 -0.09 -0.97 153 153 151
-9.35 -0.14 -1.12 154 155 150
-9.35 -0.21 -1.12 154 155 150
-9.35 -0.29 -1.12 154 156 151
-9.35 -0.37 -1.12 154 156 151
-9.35 -0.45 -1.12 154 156 153
-9.35 -0.53 -1.12 155 157 154
-9.35 -0.61 -1.12 155 157 156
-9.35 -0.68 -1.12 154 156 155
-9.35 -0.76 -1.12 154 155 157
-9.35 -0.84 -1.12 154 155 157
-9.35 -0.92 -1.12 155 157 156
-9.35 -1.00 -1.12 154 156 155
-9.35 -1.08 -1.12 153 155 154
-9.35 -1.15 -1.12 152 154 153
-9.35 -1.23 -1.12 151 152 154
-9.35 -1.31 -1.12 154 155 157
-9.35 -1.39 -1.12 155 156 158
-9.35 -1.47 -1.12 153 154 156
-9.35 -1.55 -1.12 153 154 156
-9.35 -1.62 -1.12 154 155 157
-9.35 -1.70 -1.12 154 155 157
-9.47 -1.80 -0.97 154 156 155
-9.47 -1.88 -0.97 154 156 155
-9.47 -1.96 -0.97 154 156 155
-9.35 -2.02 -1.12 154 156 155
-9.35 -2.09 -1.12 154 159 155
-9.35 -2.17 -1.12 152 157 153
-9.47 -2.27 -0.97 151 156 152
-9.47 -2.35 -0.97 151 156 152
-9.47 -2.43 -0.97 151 156 152
-9.47 -2.50 -0.97 150 155 151
-9.47 -2.58 -0.97 154 156 153
-9.47 -2.66 -0.97 157 159 156
-9.47 -2.74 -0.97 156 158 155
-9.47 -2.82 -0.97 157 159 156
-9.47 -2.89 -0.97 159 159 159
-9.47 -2.97 -0.97 161 161 161
-9.47 -3.05 -0.97 162 162 164
-9.47 -3.13 -0.97 164 164 166
-9.47 -3.21 -0.97 167 167 169
-9.47 -3.28 -0.97 169 169 169
-9.47 -3.36 -0.97 169 169 167
-9.47 -3.44 -0.97 170 170 170
-9.47 -3.52 -0.97 171 171 171
-9.47 -3.60 -0.97 171 171 173
-9.47 -3.67 -0.97 171 171 173
-9.47 -3.75 -0.97 172 171 176
-9.47 -3.83 -0.97 173 172 177
-9.47 -3.91 -0.97 173 172 177
-9.35 -4.13 -1.12 173 172 177
-9.35 -4.21 -1.12 172 171 176
-9.35 -4.29 -1.12 172 171 176
-9.35 -4.37 -1.12 172 172 174
-9.35 -4.44 -1.12 173 173 175
-9.47 -4.53 -0.97 174 174 176
-9.47 -4.61 -0.97 173 173 175
-9.47 -4.69 -0.97 173 173 175
-9.47 -4.77 -0.97 173 173 175
-9.47 -4.84 -0.97 173 173 175
-9.47 -4.92 -0.97 173 173 175
-9.47 -5.00 -0.97 173 173 175
-9.47 -5.08 -0.97 175 175 177
-9.47 -5.16 -0.97 175 175 177
-9.47 -5.23 -0.97 175 175 177
-9.47 -5.31 -0.97 175 175 177
-9.47 -5.39 -0.97 175 175 177
-9.47 -5.47 -0.97 174 174 176
-9.47 -5.55 -0.97 174 174 176
-9.47 -5.63 -0.97 173 173 175
-9.47 -6.02 -0.97 174 175 177
-9.47 -6.09 -0.97 174 175 177
-9.47 -6.17 -0.97 174 175 177
-9.47 -6.25 -0.97 174 175 177
-9.47 -6.33 -0.97 174 175 177
-9.47 -6.41 -0.97 174 175 177
-9.47 -6.48 -0.97 175 175 177
-9.47 -6.56 -0.97 177 177 179
-9.47 -6.64 -0.97 178 177 182
-9.47 -6.72 -0.97 178 177 182
-9.47 -6.80 -0.97 177 176 181
-9.47 -6.87 -0.97 176 175 180
-9.47 -6.95 -0.97 177 178 180
-9.47 -7.03 -0.97 178 179 181
