ply
format ascii 1.0
element vertex 1594
property float x
property float y
property float z
property uchar red
property uchar green
property uchar blue
end_header
-4.50 1.15 -1.26 120 130 122
-4.50 1.06 -1.26 120 130 121
-4.50 0.98 -1.26 121 131 122
-4.65 0.86 -1.10 123 133 125
-4.65 0.77 -1.10 127 134 127
-4.65 0.69 -1.10 127 133 129
-4.65 0.60 -1.10 127 132 128
-4.65 0.52 -1.10 127 131 130
-4.65 0.43 -1.10 129 133 132
-4.65 0.35 -1.10 125 129 128
-4.65 0.26 -1.10 127 131 130
-4.65 0.17 -1.10 127 133 131
-4.65 0.09 -1.10 128 134 132
-4.65 0.00 -1.10 124 135 131
-4.50 -0.05 -1.26 124 135 131
-4.50 -0.14 -1.26 122 135 128
-4.65 -0.25 -1.10 123 134 128
-4.65 -0.34 -1.10 124 135 131
-4.65 -0.42 -1.10 124 133 130
-4.65 -0.51 -1.10 124 133 128
-4.65 -0.59 -1.10 125 134 129
-4.65 -0.68 -1.10 126 136 128
-4.65 -0.76 -1.10 126 136 127
-4.65 -0.85 -1.10 128 138 129
-4.65 -0.94 -1.10 131 141 132
-4.65 -1.02 -1.10 129 139 130
-4.65 -1.11 -1.10 128 138 129
-4.65 -1.19 -1.10 127 137 128
-4.65 -1.28 -1.10 128 138 130
-4.65 -1.36 -1.10 130 140 132
-4.65 -1.45 -1.10 131 141 133
-4.65 -1.53 -1.10 131 140 135
-4.65 -1.62 -1.10 128 138 137
-4.65 -1.70 -1.10 127 137 138
-4.65 -1.79 -1.10 127 137 138
-4.65 -1.87 -1.10 129 139 140
-4.65 -1.96 -1.10 131 141 140
-4.65 -2.04 -1.10 130 140 139
-4.65 -2.30 -1.10 133 144 140
-4.65 -2.39 -1.10 132 143 139
-4.65 -2.47 -1.10 131 142 138
-4.65 -2.56 -1.10 131 142 138
-4.65 -2.64 -1.10 132 143 139
-4.65 -2.73 -1.10 132 143 139
-4.65 -2.81 -1.10 130 141 137
-4.65 -2.90 -1.10 132 142 141
-4.65 -2.98 -1.10 134 144 143
-4.65 -3.07 -1.10 137 148 144
-4.65 -3.15 -1.10 138 149 145
-4.65 -3.24 -1.10 138 149 143
-4.65 -3.32 -1.10 138 149 143
-4.65 -3.41 -1.10 139 149 141
-4.65 -3.50 -1.10 140 150 142
-4.65 -3.58 -1.10 140 150 142
-4.65 -3.67 -1.10 140 150 142
-4.65 -3.75 -1.10 140 149 144
-4.65 -3.84 -1.10 141 150 145
-4.65 -3.92 -1.10 142 151 146
-4.65 -4.01 -1.10 142 151 146
-4.65 -4.09 -1.10 143 152 147
-4.80 -4.53 -0.94 150 156 156
-4.80 -4.62 -0.94 148 157 156
-4.80 -4.70 -0.94 148 157 156
-4.80 -4.79 -0.94 149 158 157
-4.80 -4.87 -0.94 151 160 159
-4.80 -4.96 -0.94 152 161 160
-4.80 -5.04 -0.94 153 162 161
-4.80 -5.13 -0.94 154 163 162
-4.80 -5.21 -0.94 155 164 163
-4.80 -5.30 -0.94 156 165 164
-4.80 -5.38 -0.94 158 167 166
-4.80 -5.47 -0.94 159 168 167
-4.80 -5.55 -0.94 158 167 164
-4.80 -5.64 -0.94 157 166 163
-4.80 -5.72 -0.94 156 165 162
-4.80 -5.81 -0.94 157 166 163
-4.80 -5.89 -0.94 160 169 166
-4.80 -5.98 -0.94 161 170 167
-4.80 -6.06 -0.94 159 170 166
-4.80 -6.15 -0.94 157 168 164
-4.80 -6.23 -0.94 158 169 163
-4.65 -6.31 -1.10 158 169 163
-4.65 -6.40 -1.10 159 170 164
-4.65 -6.48 -1.10 159 170 164
-4.80 -6.57 -0.94 159 170 164
-4.80 -6.66 -0.94 159 170 164
-4.80 -6.74 -0.94 159 170 164
-4.80 -6.83 -0.94 159 170 164
-4.80 -6.91 -0.94 160 171 167
-4.80 -7.00 -0.94 160 171 167
-4.80 -7.08 -0.94 160 171 167
-4.80 -7.17 -0.94 162 171 168
-4.80 -7.25 -0.94 163 172 169
-4.80 -7.34 -0.94 164 173 170
-4.80 -7.42 -0.94 164 173 170
-4.80 -7.51 -0.94 160 169 166
-4.80 -7.59 -0.94 166 175 172
-4.65 -7.68 -1.10 173 179 177
-4.65 -7.76 -1.10 174 180 178
-4.65 -7.85 -1.10 173 179 177
-4.65 -7.93 -1.10 174 180 178
-4.65 -8.02 -1.10 177 183 181
-4.65 -8.10 -1.10 178 184 182
-4.65 -8.19 -1.10 177 186 181
-4.65 -8.28 -1.10 178 187 182
-4.65 -8.36 -1.10 177 186 181
-4.65 -8.45 -1.10 176 185 180
-4.65 -8.53 -1.10 177 183 179
-4.65 -8.62 -1.10 179 185 181
-4.65 -8.70 -1.10 180 185 181
-4.65 -8.79 -1.10 179 184 180
-4.65 -8.87 -1.10 179 184 180
-4.65 -8.96 -1.10 178 184 180
-4.65 -9.04 -1.10 180 186 182
-4.65 -9.13 -1.10 181 187 183
-4.65 -9.21 -1.10 182 188 184
-4.65 -9.30 -1.10 180 189 184
-4.65 -9.38 -1.10 181 187 183
-4.65 -9.47 -1.10 182 188 184
-4.65 -9.56 -1.10 182 187 183
-4.80 -9.63 -0.94 182 187 183
-4.80 -9.72 -0.94 182 187 183
-4.80 -9.80 -0.94 181 187 183
-4.80 -9.89 -0.94 181 187 183
-4.80 -9.97 -0.94 178 187 184
-4.80 -10.06 -0.94 178 187 184
-4.80 -10.14 -0.94 181 190 187
-4.80 -10.23 -0.94 181 190 187
-4.80 -10.31 -0.94 181 190 187
-4.80 -10.40 -0.94 181 190 187
-4.80 -10.48 -0.94 183 189 187
-4.80 -10.57 -0.94 183 189 187
-4.80 -10.65 -0.94 182 188 186
-4.80 -10.74 -0.94 182 188 186
-4.95 -10.81 -0.78 182 188 184
-4.95 -10.89 -0.78 182 188 184
-4.80 -10.99 -0.94 184 190 186
-4.80 -11.08 -0.94 184 190 186
-4.80 -11.16 -0.94 185 191 187
-4.80 -11.25 -0.94 187 192 188
-4.80 -11.33 -0.94 187 192 188
-4.80 -11.42 -0.94 185 190 186
-4.80 -11.50 -0.94 185 190 186
-4.80 -11.59 -0.94 186 191 187
-4.80 -11.67 -0.94 186 191 187
-4.80 -11.76 -0.94 186 191 187
-4.80 -11.84 -0.94 187 192 188
-4.80 -11.93 -0.94 187 192 188
-4.80 -12.01 -0.94 187 192 188
-4.80 -12.10 -0.94 191 193 192
-4.80 -12.18 -0.94 190 192 191
-4.80 -12.27 -0.94 190 192 191
-4.80 -12.35 -0.94 190 192 191
-4.80 -12.44 -0.94 190 192 191
-4.80 -12.52 -0.94 189 191 190
-4.80 -12.61 -0.94 188 192 191
-4.80 -12.69 -0.94 190 194 193
-4.80 -12.78 -0.94 187 191 190
-4.80 -12.86 -0.94 188 192 191
-4.80 -12.95 -0.94 188 192 191
-4.80 -13.03 -0.94 187 191 190
-4.80 -13.12 -0.94 187 191 190
-4.80 -13.20 -0.94 188 192 191
-4.80 -13.29 -0.94 188 192 191
-4.80 -13.37 -0.94 192 194 193
-4.80 -13.46 -0.94 191 193 192
-4.80 -13.54 -0.94 191 193 192
-4.80 -13.63 -0.94 191 193 192
-4.80 -13.71 -0.94 192 194 193
-4.80 -13.80 -0.94 193 195 194
-4.80 -13.88 -0.94 193 195 194
-4.80 -13.97 -0.94 192 194 193
-4.80 -14.05 -0.94 192 194 193
-4.80 -14.14 -0.94 193 195 194
-4.80 -14.22 -0.94 194 196 195
-4.80 -14.31 -0.94 194 196 195
-4.80 -14.39 -0.94 195 195 195
-4.80 -14.48 -0.94 194 194 194
-4.80 -14.56 -0.94 195 195 195
-4.80 -14.65 -0.94 195 195 195
-4.80 -14.73 -0.94 198 198 196
-4.80 -14.82 -0.94 198 198 196
-4.80 -14.90 -0.94 197 197 195
-4.80 -14.99 -0.94 196 196 194
-4.80 -15.07 -0.94 196 196 194
-4.80 -15.16 -0.94 198 198 196
-4.80 -15.24 -0.94 200 200 198
-4.80 -15.33 -0.94 199 199 197
-4.80 -15.41 -0.94 199 199 197
-4.80 -15.50 -0.94 199 199 197
-4.80 -15.58 -0.94 199 199 197
-4.80 -15.67 -0.94 198 198 198
-4.80 -15.75 -0.94 198 198 198
-4.80 -15.84 -0.94 199 199 199
-4.95 -15.88 -0.78 200 200 198
-4.95 -15.97 -0.78 195 200 194
-4.95 -16.05 -0.78 196 201 195
-4.80 -16.18 -0.94 199 201 196
-4.80 -16.26 -0.94 200 202 201
-4.95 -16.31 -0.78 202 202 202
-4.95 -16.39 -0.78 201 201 203
-4.95 -16.48 -0.78 201 201 201
-4.95 -16.56 -0.78 200 200 200
-4.95 -16.65 -0.78 192 192 190
-4.95 -16.73 -0.78 194 194 194
-4.80 -16.85 -0.94 196 197 199
-4.80 -16.94 -0.94 196 196 204
-4.80 -17.02 -0.94 213 216 231
-4.80 -17.11 -0.94 116 117 147
-4.80 -17.19 -0.94 41 39 88
-4.80 -17.28 -0.94 21 18 97
-4.80 -17.36 -0.94 22 19 110
-4.95 -17.41 -0.78 24 26 111
-4.95 -17.49 -0.78 32 38 114
-4.95 -17.58 -0.78 34 45 109
-4.95 -17.66 -0.78 37 46 103
-4.95 -17.75 -0.78 32 37 92
-4.95 -17.83 -0.78 12 9 52
-4.95 -17.91 -0.78 64 55 72
-5.07 -17.96 -0.65 238 220 220
-5.07 -18.05 -0.65 255 243 226
-5.07 -18.13 -0.65 240 207 176
-5.07 -18.21 -0.65 249 215 170
-5.07 -18.30 -0.65 253 213 164
-5.22 -18.34 -0.49 243 202 156
-5.22 -18.42 -0.49 185 147 102
-5.50 -18.42 -0.19 193 161 114
-5.50 -18.50 -0.19 204 176 126
-5.50 -18.58 -0.19 183 159 99
-5.62 -18.62 -0.06 164 140 78
-5.77 -18.66 0.10 179 160 92
-5.77 -18.74 0.10 187 167 104
-5.77 -18.82 0.10 181 164 110
-5.90 -18.86 0.24 171 158 105
-5.90 -18.95 0.24 158 145 93
-5.77 -19.07 0.10 151 142 87
-5.77 -19.15 0.10 143 133 80
-5.77 -19.24 0.10 116 108 61
-5.77 -19.32 0.10 145 136 95
-5.77 -19.40 0.10 255 255 225
-5.62 -19.54 -0.06 250 244 220
-5.62 -19.62 -0.06 249 247 232
-5.62 -19.70 -0.06 255 255 246
-5.62 -19.79 -0.06 233 232 228
-5.62 -19.87 -0.06 141 138 133
-5.77 -19.90 0.10 114 108 94
-5.77 -19.98 0.10 184 173 151
-5.62 -20.12 -0.06 197 182 149
-5.77 -20.14 0.10 162 140 101
-5.77 -20.23 0.10 186 158 119
-5.90 -20.26 0.24 231 199 160
-5.90 -20.34 0.24 220 189 145
-5.90 -20.43 0.24 177 148 106
-5.90 -20.51 0.24 206 183 142
-5.90 -20.59 0.24 202 181 150
-6.02 -20.63 0.37 196 181 162
-4.95 -21.13 -0.78 128 109 95
-4.95 -21.21 -0.78 126 104 90
-4.95 -21.30 -0.78 162 141 124
-4.95 -21.38 -0.78 177 150 133
-4.95 -21.47 -0.78 189 153 139
-4.95 -21.55 -0.78 251 208 199
-4.80 -21.87 -0.94 180 160 161
-4.95 -21.89 -0.78 76 65 69
-4.95 -21.98 -0.78 74 69 75
-4.95 -22.06 -0.78 124 119 126
-4.95 -22.15 -0.78 197 190 197
-4.95 -22.23 -0.78 248 242 246
-4.95 -22.31 -0.78 253 251 252
-4.95 -22.40 -0.78 255 255 253
-4.95 -22.48 -0.78 223 223 223
-4.95 -22.57 -0.78 215 215 215
-4.95 -22.65 -0.78 208 208 208
-4.95 -22.74 -0.78 213 213 213
-4.95 -22.82 -0.78 221 221 221
-4.95 -22.91 -0.78 220 220 220
-4.95 -22.99 -0.78 221 219 220
-4.95 -23.08 -0.78 228 226 227
-4.95 -23.16 -0.78 226 224 225
-4.95 -23.25 -0.78 225 223 224
-4.95 -23.33 -0.78 225 223 224
-4.95 -23.41 -0.78 226 224 225
-4.95 -23.50 -0.78 227 225 226
-4.80 -23.65 -0.94 228 226 227
-4.80 -23.74 -0.94 229 227 228
-4.95 -23.75 -0.78 227 223 224
-4.95 -23.84 -0.78 227 223 224
-4.95 -23.92 -0.78 225 223 224
-4.95 -24.01 -0.78 226 224 225
-4.95 -24.09 -0.78 226 224 225
-4.95 -24.18 -0.78 227 225 226
-4.95 -24.26 -0.78 228 226 227
-4.95 -24.35 -0.78 229 227 228
-4.95 -24.43 -0.78 228 228 228
-4.95 -24.52 -0.78 228 228 228
-4.95 -24.60 -0.78 229 229 229
-4.95 -24.68 -0.78 229 229 229
-4.95 -24.77 -0.78 228 230 229
-4.95 -24.85 -0.78 228 230 229
-4.95 -24.94 -0.78 229 231 230
-4.95 -25.02 -0.78 230 232 231
-5.07 -25.04 -0.65 229 231 230
-5.07 -25.13 -0.65 228 230 229
-5.07 -25.21 -0.65 227 229 228
-5.07 -25.47 -0.65 230 230 230
-5.07 -25.55 -0.65 230 230 230
-4.95 -25.70 -0.78 229 227 228
-4.95 -25.78 -0.78 230 228 229
-4.95 -25.87 -0.78 231 229 230
-4.95 -25.95 -0.78 231 229 230
-4.95 -26.04 -0.78 232 230 231
-4.95 -26.12 -0.78 232 230 231
-4.95 -26.21 -0.78 233 229 230
-4.95 -26.29 -0.78 233 229 230
-4.95 -26.38 -0.78 230 230 230
-4.95 -26.46 -0.78 231 231 231
-4.95 -26.55 -0.78 233 233 233
-4.95 -26.63 -0.78 233 233 233
-4.95 -26.72 -0.78 233 233 233
-4.95 -26.80 -0.78 232 232 232
-4.95 -26.88 -0.78 232 230 231
-4.95 -26.97 -0.78 232 230 231
-4.95 -27.39 -0.78 232 230 231
-4.95 -27.48 -0.78 231 229 230
-4.95 -27.56 -0.78 230 228 229
-5.07 -27.57 -0.65 229 227 228
-5.07 -27.66 -0.65 230 228 229
-5.07 -27.74 -0.65 231 229 230
-5.07 -27.83 -0.65 232 230 231
-5.07 -27.91 -0.65 233 231 232
-5.07 -28.00 -0.65 232 230 231
-5.07 -28.08 -0.65 232 230 231
-5.07 -28.16 -0.65 231 229 230
-5.07 -28.25 -0.65 231 229 230
-5.07 -28.33 -0.65 233 231 232
-5.07 -28.42 -0.65 234 232 233
-5.07 -28.50 -0.65 234 232 233
-5.07 -28.59 -0.65 233 231 232
-5.07 -28.67 -0.65 233 231 232
-4.95 -28.83 -0.78 234 232 233
-4.95 -28.92 -0.78 235 233 234
-4.95 -29.00 -0.78 235 231 232
-5.07 -29.01 -0.65 235 231 232
-5.07 -29.09 -0.65 235 231 232
-5.07 -29.18 -0.65 236 232 233
-5.07 -29.26 -0.65 235 231 232
-5.07 -29.34 -0.65 234 230 231
-5.07 -29.43 -0.65 233 229 230
-5.07 -29.51 -0.65 235 231 232
-5.07 -29.60 -0.65 235 231 232
-5.07 -29.68 -0.65 236 232 233
-5.07 -29.77 -0.65 236 232 233
-4.95 -29.93 -0.78 236 232 233
-4.95 -30.02 -0.78 235 231 232
-4.95 -30.10 -0.78 235 231 232
-4.95 -30.18 -0.78 234 230 231
-4.95 -30.27 -0.78 236 232 233
-4.95 -30.35 -0.78 236 232 233
-4.95 -30.44 -0.78 235 231 232
-4.95 -30.52 -0.78 236 232 233
-4.95 -30.61 -0.78 236 232 231
-4.95 -30.69 -0.78 236 232 231
-4.95 -30.78 -0.78 235 231 230
-5.07 -30.78 -0.65 235 231 230
-5.07 -30.86 -0.65 237 233 230
-5.07 -30.95 -0.65 236 232 229
-5.07 -31.03 -0.65 235 231 228
-5.07 -31.11 -0.65 235 231 228
-5.07 -31.20 -0.65 237 233 230
-5.07 -31.28 -0.65 237 233 230
-5.07 -31.37 -0.65 237 233 230
-5.07 -31.45 -0.65 235 231 228
-5.07 -31.54 -0.65 238 234 231
-5.07 -31.62 -0.65 240 236 233
-5.07 -31.71 -0.65 240 236 233
-5.07 -31.79 -0.65 241 237 236
-5.07 -31.87 -0.65 242 238 237
-5.07 -31.96 -0.65 242 238 237
-5.07 -32.04 -0.65 241 237 236
-5.07 -32.13 -0.65 244 240 241
-5.07 -32.21 -0.65 243 239 240
-4.95 -32.38 -0.78 244 240 241
-4.95 -32.47 -0.78 244 240 241
-4.95 -32.55 -0.78 246 241 245
-4.95 -32.64 -0.78 246 241 245
-4.95 -32.72 -0.78 246 241 245
-5.07 -32.72 -0.65 246 241 245
-5.07 -32.80 -0.65 0 0 0
-5.07 -32.89 -0.65 0 0 0
-5.07 -32.97 -0.65 0 0 0
-5.07 -33.05 -0.65 0 0 0
-5.07 -33.14 -0.65 0 0 0
-5.07 -33.22 -0.65 0 0 0
-5.07 -33.31 -0.65 0 0 0
-5.07 -33.39 -0.65 0 0 0
-5.07 -33.48 -0.65 0 0 0
-5.07 -33.56 -0.65 0 0 0
-5.07 -33.64 -0.65 0 0 0
-5.07 -33.73 -0.65 0 0 0
-5.07 -33.81 -0.65 0 0 0
-5.07 -33.90 -0.65 0 0 0
-5.07 -33.98 -0.65 0 0 0
-4.69 20.06 -1.18 0 0 0
-4.69 19.98 -1.18 0 0 0
-4.69 19.89 -1.18 0 0 0
-4.54 19.92 -1.34 0 0 0
-4.54 19.83 -1.34 0 0 0
-4.54 19.75 -1.34 0 0 0
-4.54 19.66 -1.34 0 0 0
-4.54 19.58 -1.34 131 120 114
-4.54 19.49 -1.34 131 120 114
-4.54 19.41 -1.34 132 121 115
-4.54 19.32 -1.34 134 123 117
-4.54 19.23 -1.34 135 124 118
-4.54 19.15 -1.34 136 125 119
-4.54 19.06 -1.34 137 126 120
-4.54 18.98 -1.34 136 127 120
-4.69 18.78 -1.18 136 127 120
-4.69 18.70 -1.18 135 128 120
-4.69 18.61 -1.18 134 127 119
-4.54 18.63 -1.34 133 126 118
-4.54 18.55 -1.34 133 126 118
-4.54 18.46 -1.34 132 128 119
-4.69 18.27 -1.18 132 128 119
-4.69 18.18 -1.18 132 128 119
-4.69 18.10 -1.18 131 127 118
-4.69 18.01 -1.18 131 127 118
-4.54 18.03 -1.34 132 128 119
-4.54 17.95 -1.34 133 129 120
-4.54 17.86 -1.34 133 129 118
-4.54 17.78 -1.34 133 129 118
-4.54 17.69 -1.34 134 130 118
-4.54 17.61 -1.34 135 131 119
-4.54 17.52 -1.34 136 130 118
-4.54 17.43 -1.34 136 130 118
-4.54 17.35 -1.34 136 129 119
-4.54 17.26 -1.34 137 130 120
-4.54 17.18 -1.34 137 130 122
-4.54 17.09 -1.34 137 130 122
-4.54 17.01 -1.34 137 130 122
-4.54 16.92 -1.34 137 130 124
-4.69 16.73 -1.18 134 129 123
-4.69 16.65 -1.18 134 129 125
-4.69 16.56 -1.18 134 129 125
-4.69 16.48 -1.18 133 128 124
-4.69 16.39 -1.18 133 128 122
-4.69 16.31 -1.18 133 128 122
-4.69 16.22 -1.18 133 128 122
-4.69 16.13 -1.18 134 129 123
-4.69 16.05 -1.18 137 132 126
-4.54 16.06 -1.34 137 132 126
-4.54 15.98 -1.34 137 133 124
-4.54 15.89 -1.34 137 133 124
-4.54 15.81 -1.34 137 133 124
-4.54 15.72 -1.34 137 133 124
-4.54 15.63 -1.34 138 134 125
-4.54 15.55 -1.34 139 134 128
-4.54 15.46 -1.34 140 135 129
-4.54 15.38 -1.34 140 136 127
-4.54 15.29 -1.34 141 137 128
-4.54 15.21 -1.34 140 136 127
-4.69 15.03 -1.18 139 135 126
-4.69 14.94 -1.18 139 135 126
-4.69 14.85 -1.18 138 134 125
-4.54 14.86 -1.34 139 134 128
-4.54 14.78 -1.34 139 134 130
-4.69 14.60 -1.18 140 135 131
-4.69 14.51 -1.18 141 136 133
-4.69 14.43 -1.18 141 135 135
-4.69 14.34 -1.18 141 135 135
-4.69 14.26 -1.18 141 135 137
-4.69 14.17 -1.18 140 134 134
-4.69 14.09 -1.18 141 136 130
-4.69 14.00 -1.18 142 138 129
-4.69 13.92 -1.18 142 138 129
-4.84 13.74 -1.01 142 138 129
-4.84 13.65 -1.01 141 136 130
-4.84 13.57 -1.01 144 136 133
-4.84 13.48 -1.01 145 137 134
-4.69 13.49 -1.18 146 138 135
-4.69 13.40 -1.18 144 136 133
-4.84 13.23 -1.01 143 136 130
-4.84 13.14 -1.01 142 135 129
-4.84 13.06 -1.01 143 136 130
-4.69 13.06 -1.18 144 137 131
-4.69 12.98 -1.18 145 138 130
-4.69 12.89 -1.18 144 137 131
-4.69 12.81 -1.18 145 139 139
-4.69 12.72 -1.18 144 138 140
-4.69 12.64 -1.18 143 137 137
-4.69 12.55 -1.18 144 138 138
-4.69 12.46 -1.18 145 139 139
-4.69 12.38 -1.18 145 139 139
-4.69 12.29 -1.18 145 140 137
-4.69 12.21 -1.18 144 139 136
-4.69 12.12 -1.18 147 142 139
-4.69 12.04 -1.18 146 141 138
-4.69 11.95 -1.18 146 141 137
-4.69 11.87 -1.18 146 141 137
-4.69 11.78 -1.18 146 141 137
-4.69 11.70 -1.18 146 141 137
-4.69 11.61 -1.18 147 142 138
-4.69 11.53 -1.18 147 142 138
-4.69 11.44 -1.18 148 143 140
-4.54 11.43 -1.34 149 144 140
-4.54 11.35 -1.34 149 144 140
-4.54 11.26 -1.34 149 144 138
-4.54 11.18 -1.34 149 144 138
-4.54 11.09 -1.34 149 146 137
-4.54 11.01 -1.34 150 147 138
-4.54 10.92 -1.34 149 146 137
-4.54 10.83 -1.34 148 145 136
-4.54 10.75 -1.34 149 146 137
-4.54 10.66 -1.34 151 148 139
-4.54 10.58 -1.34 151 148 141
-4.54 10.49 -1.34 150 147 140
-4.69 10.33 -1.18 150 147 140
-4.69 10.25 -1.18 151 148 141
-4.69 10.16 -1.18 147 146 141
-4.69 10.07 -1.18 147 146 141
-4.69 9.99 -1.18 148 147 142
-4.69 9.90 -1.18 149 148 143
-4.69 9.82 -1.18 149 148 143
-4.69 9.73 -1.18 148 147 142
-4.69 9.65 -1.18 151 148 141
-4.69 9.56 -1.18 151 148 141
-4.69 9.48 -1.18 150 147 140
-4.69 9.39 -1.18 149 146 139
-4.69 9.31 -1.18 149 146 139
-4.69 9.22 -1.18 151 148 141
-4.69 9.14 -1.18 152 149 142
-4.69 9.05 -1.18 153 148 142
-4.69 8.97 -1.18 153 148 142
-4.69 8.88 -1.18 153 148 144
-4.69 8.79 -1.18 152 147 143
-4.69 8.71 -1.18 152 147 143
-4.69 8.62 -1.18 153 148 144
-4.69 8.54 -1.18 154 150 147
-4.69 8.45 -1.18 155 151 148
-4.69 8.37 -1.18 154 150 147
-4.69 8.28 -1.18 154 150 147
-4.69 8.20 -1.18 154 151 146
-4.69 8.11 -1.18 155 152 147
-4.69 8.03 -1.18 155 152 147
-4.69 7.94 -1.18 156 153 148
-4.69 7.86 -1.18 155 155 147
-4.54 7.84 -1.34 156 156 148
-4.54 7.75 -1.34 156 156 146
-4.54 7.66 -1.34 157 157 147
-4.54 7.58 -1.34 158 155 146
-4.54 7.49 -1.34 158 158 148
-4.54 7.41 -1.34 147 146 141
-4.69 7.26 -1.18 124 125 119
-4.69 7.17 -1.18 115 115 113
-4.69 7.09 -1.18 117 119 116
-4.69 7.00 -1.18 115 117 116
-4.69 6.92 -1.18 116 117 119
-4.69 6.83 -1.18 116 117 119
-4.69 6.75 -1.18 115 116 118
-4.69 6.66 -1.18 115 116 118
-4.69 6.58 -1.18 115 117 116
-4.69 6.49 -1.18 116 118 117
-4.54 6.46 -1.34 118 118 116
-4.54 6.38 -1.34 118 120 117
-4.69 6.23 -1.18 113 117 116
-4.69 6.15 -1.18 112 118 116
-4.69 6.06 -1.18 113 119 117
-4.69 5.98 -1.18 114 120 118
-4.69 5.89 -1.18 115 121 119
-4.69 5.81 -1.18 116 122 120
-4.69 5.72 -1.18 117 123 121
-4.69 5.64 -1.18 117 123 121
-4.69 5.55 -1.18 116 120 119
-4.69 5.47 -1.18 117 121 120
-4.69 5.38 -1.18 116 120 119
-4.69 5.30 -1.18 117 121 120
-4.69 5.21 -1.18 117 121 120
-4.69 5.12 -1.18 116 120 119
-4.69 5.04 -1.18 113 117 116
-4.69 4.95 -1.18 118 123 119
-4.69 4.87 -1.18 118 123 119
-4.69 4.78 -1.18 117 122 118
-4.69 4.70 -1.18 117 122 118
-4.69 4.61 -1.18 119 121 118
-4.69 4.53 -1.18 120 122 119
-4.69 4.44 -1.18 121 123 122
-4.69 4.36 -1.18 121 123 122
-4.54 4.32 -1.34 121 125 124
-4.54 4.24 -1.34 121 125 124
-4.54 4.15 -1.34 120 126 126
-4.69 4.02 -1.18 121 127 127
-4.69 3.93 -1.18 119 128 127
-4.69 3.84 -1.18 118 127 126
-4.69 3.76 -1.18 117 127 126
-4.69 3.67 -1.18 117 127 126
-4.69 3.59 -1.18 119 128 125
-4.69 3.50 -1.18 118 127 124
-4.69 3.42 -1.18 117 126 123
-4.69 3.33 -1.18 116 125 122
-4.69 3.25 -1.18 116 125 122
-4.69 3.16 -1.18 118 124 122
-4.69 3.08 -1.18 119 125 123
-4.69 2.99 -1.18 119 125 123
-4.69 2.91 -1.18 120 126 124
-4.69 2.82 -1.18 122 128 126
-4.69 2.73 -1.18 122 128 126
-4.69 2.65 -1.18 122 128 126
-4.69 2.56 -1.18 122 128 126
-4.69 2.48 -1.18 123 129 127
-4.69 2.39 -1.18 125 129 128
-4.69 2.31 -1.18 123 127 128
-4.69 2.22 -1.18 126 127 129
-4.69 2.14 -1.18 123 129 127
-4.54 2.09 -1.34 123 129 127
-4.54 2.01 -1.34 120 131 127
-4.69 1.88 -1.18 120 131 127
-4.69 1.80 -1.18 119 131 127
-4.69 1.71 -1.18 118 130 126
-4.54 1.66 -1.34 118 133 128
-4.54 1.58 -1.34 119 134 129
-4.69 1.45 -1.18 122 134 130
-4.69 1.37 -1.18 122 134 130
-4.69 1.28 -1.18 123 134 130
-4.69 1.20 -1.18 122 133 129
-4.69 1.11 -1.18 122 133 129
-4.69 1.03 -1.18 122 131 126
-4.69 0.94 -1.18 122 131 126
-4.84 0.82 -1.01 126 132 128
-4.84 0.74 -1.01 128 134 130
-4.84 0.65 -1.01 128 132 131
-4.84 0.57 -1.01 126 130 129
-4.69 0.52 -1.18 129 131 130
-4.69 0.43 -1.18 132 134 133
-4.69 0.35 -1.18 127 131 130
-4.69 0.26 -1.18 128 132 131
-4.69 0.17 -1.18 128 134 132
-4.69 0.09 -1.18 128 134 132
-4.69 0.00 -1.18 124 135 131
-4.69 -0.08 -1.18 123 134 130
-4.69 -0.17 -1.18 122 135 128
-4.69 -0.25 -1.18 124 135 129
-4.69 -0.34 -1.18 125 136 132
-4.84 -0.45 -1.01 124 133 130
-4.84 -0.54 -1.01 125 134 129
-4.69 -0.59 -1.18 126 135 130
-4.69 -0.68 -1.18 127 136 131
-4.69 -0.76 -1.18 126 136 128
-4.84 -0.88 -1.01 127 137 129
-4.84 -0.96 -1.01 131 141 133
-4.84 -1.05 -1.01 130 140 132
-4.84 -1.13 -1.01 130 140 132
-4.84 -1.22 -1.01 130 140 132
-4.84 -1.30 -1.01 131 141 133
-4.69 -1.36 -1.18 132 142 134
-4.69 -1.45 -1.18 132 141 136
-4.69 -1.53 -1.18 131 140 137
-4.69 -1.62 -1.18 129 139 138
-4.69 -1.70 -1.18 128 138 139
-4.69 -1.79 -1.18 128 138 137
-4.69 -1.87 -1.18 131 141 140
-4.69 -1.96 -1.18 132 142 141
-4.69 -2.04 -1.18 132 142 141
-4.69 -2.30 -1.18 132 143 139
-4.69 -2.39 -1.18 131 142 138
-4.69 -2.47 -1.18 131 142 138
-4.69 -2.56 -1.18 132 143 139
-4.69 -2.64 -1.18 134 144 143
-4.69 -2.73 -1.18 135 145 144
-4.69 -2.81 -1.18 133 143 142
-4.69 -2.90 -1.18 133 145 143
-4.69 -2.98 -1.18 135 147 145
-4.69 -3.07 -1.18 138 148 147
-4.69 -3.15 -1.18 138 148 147
-4.69 -3.24 -1.18 137 148 144
-4.69 -3.32 -1.18 138 149 145
-4.69 -3.41 -1.18 139 150 144
-4.69 -3.50 -1.18 141 152 146
-4.69 -3.58 -1.18 140 151 145
-4.69 -3.67 -1.18 139 150 144
-4.69 -3.75 -1.18 140 149 144
-4.69 -3.84 -1.18 142 151 146
-4.69 -3.92 -1.18 143 152 147
-4.84 -4.02 -1.01 143 152 147
-4.84 -4.11 -1.01 144 153 150
-4.84 -4.53 -1.01 150 156 154
-4.84 -4.62 -1.01 150 156 154
-4.84 -4.70 -1.01 150 156 154
-4.84 -4.79 -1.01 149 158 155
-4.84 -4.87 -1.01 152 161 158
-4.84 -4.96 -1.01 152 161 158
-4.84 -5.04 -1.01 153 162 159
-4.84 -5.13 -1.01 154 163 160
-4.99 -5.22 -0.85 154 163 160
-4.99 -5.31 -0.85 155 164 161
-4.99 -5.39 -0.85 157 166 163
-4.99 -5.48 -0.85 158 167 164
-4.99 -5.56 -0.85 158 167 162
-4.99 -5.64 -0.85 157 166 161
-4.99 -5.73 -0.85 157 166 161
-4.99 -5.81 -0.85 157 166 161
-4.99 -5.90 -0.85 159 168 163
-4.99 -5.98 -0.85 160 169 164
-4.84 -6.06 -1.01 159 170 164
-4.84 -6.15 -1.01 158 169 163
-4.84 -6.23 -1.01 158 169 163
-4.84 -6.32 -1.01 158 169 163
-4.84 -6.40 -1.01 159 170 164
-4.84 -6.49 -1.01 159 170 164
-4.84 -6.57 -1.01 160 171 165
-4.99 -6.66 -0.85 159 170 164
-4.99 -6.74 -0.85 158 171 164
-4.99 -6.83 -0.85 159 170 164
-4.99 -6.91 -0.85 161 170 167
-4.99 -7.00 -0.85 162 171 168
-4.99 -7.08 -0.85 162 171 168
-4.99 -7.17 -0.85 163 172 169
-4.99 -7.25 -0.85 163 172 169
-4.99 -7.34 -0.85 166 172 170
-4.99 -7.42 -0.85 166 172 170
-4.99 -7.51 -0.85 164 170 168
-4.99 -7.59 -0.85 169 175 173
-4.84 -7.68 -1.01 175 179 178
-4.84 -7.76 -1.01 176 180 179
-4.84 -7.85 -1.01 177 181 180
-4.84 -7.93 -1.01 178 182 181
-4.84 -8.02 -1.01 182 184 183
-4.84 -8.10 -1.01 180 184 183
-4.84 -8.19 -1.01 180 186 182
-4.69 -8.28 -1.18 178 187 182
-4.69 -8.36 -1.18 177 186 181
-4.69 -8.45 -1.18 175 184 179
-4.84 -8.53 -1.01 176 182 178
-4.84 -8.61 -1.01 178 184 180
-4.84 -8.70 -1.01 180 185 181
-4.84 -8.78 -1.01 179 184 180
-4.84 -8.87 -1.01 182 184 181
-4.84 -8.95 -1.01 181 183 180
-4.84 -9.04 -1.01 182 184 181
-4.84 -9.12 -1.01 181 186 182
-4.84 -9.21 -1.01 182 187 183
-4.84 -9.29 -1.01 181 186 182
-4.84 -9.38 -1.01 180 185 181
-4.84 -9.46 -1.01 182 186 185
-4.84 -9.55 -1.01 181 185 184
-4.84 -9.63 -1.01 181 185 184
-4.84 -9.72 -1.01 181 185 184
-4.84 -9.80 -1.01 181 187 185
-4.99 -9.88 -0.85 181 187 185
-4.99 -9.96 -0.85 178 187 184
-4.99 -10.04 -0.85 178 187 184
-4.99 -10.13 -0.85 181 190 187
-4.99 -10.21 -0.85 181 190 187
-4.99 -10.30 -0.85 181 190 187
-4.99 -10.38 -0.85 180 189 186
-4.84 -10.48 -1.01 182 188 186
-4.99 -10.55 -0.85 182 188 186
-4.99 -10.64 -0.85 182 188 186
-4.99 -10.72 -0.85 182 188 186
-4.99 -10.81 -0.85 183 189 185
-4.99 -10.89 -0.85 183 189 185
-4.99 -10.98 -0.85 184 190 186
-4.99 -11.06 -0.85 184 190 186
-4.99 -11.14 -0.85 185 191 187
-4.99 -11.23 -0.85 185 191 187
-4.99 -11.31 -0.85 185 191 187
-4.99 -11.40 -0.85 185 190 186
-4.99 -11.48 -0.85 185 190 186
-4.99 -11.57 -0.85 186 191 187
-4.99 -11.65 -0.85 186 191 187
-4.99 -11.74 -0.85 187 192 188
-4.99 -11.82 -0.85 187 192 188
-4.99 -11.91 -0.85 187 192 188
-4.99 -11.99 -0.85 189 191 188
-4.99 -12.08 -0.85 191 193 192
-4.99 -12.16 -0.85 191 191 191
-4.99 -12.24 -0.85 190 192 191
-4.84 -12.35 -1.01 192 194 193
-4.84 -12.44 -1.01 191 193 192
-4.99 -12.50 -0.85 189 191 190
-4.99 -12.58 -0.85 190 192 191
-4.99 -12.67 -0.85 192 194 193
-4.99 -12.75 -0.85 188 192 191
-4.99 -12.84 -0.85 188 192 191
-4.99 -12.92 -0.85 188 192 191
-4.99 -13.01 -0.85 187 193 191
-4.99 -13.09 -0.85 186 192 190
-4.99 -13.18 -0.85 187 193 191
-4.99 -13.26 -0.85 188 192 191
-4.99 -13.34 -0.85 188 192 191
-4.99 -13.43 -0.85 190 192 191
-4.99 -13.51 -0.85 190 192 191
-4.99 -13.60 -0.85 191 193 192
-4.99 -13.68 -0.85 193 195 194
-4.99 -13.77 -0.85 194 196 195
-4.99 -13.85 -0.85 193 195 194
-4.99 -13.94 -0.85 192 194 193
-4.99 -14.02 -0.85 194 194 194
-4.99 -14.11 -0.85 194 194 194
-4.84 -14.22 -1.01 195 195 195
-4.84 -14.31 -1.01 195 195 195
-4.84 -14.39 -1.01 194 194 194
-4.99 -14.45 -0.85 194 194 194
-4.99 -14.53 -0.85 195 195 195
-4.99 -14.61 -0.85 195 195 195
-4.99 -14.70 -0.85 196 197 192
-4.99 -14.78 -0.85 197 198 193
-4.99 -14.87 -0.85 198 199 194
-4.99 -14.95 -0.85 198 199 194
-4.99 -15.04 -0.85 197 197 195
-4.99 -15.12 -0.85 198 198 196
-4.99 -15.21 -0.85 200 200 198
-4.99 -15.29 -0.85 198 198 196
-4.99 -15.38 -0.85 199 199 197
-4.99 -15.46 -0.85 200 200 200
-4.99 -15.55 -0.85 199 199 199
-4.99 -15.63 -0.85 199 199 199
-4.99 -15.71 -0.85 199 199 199
-4.99 -15.80 -0.85 200 200 200
-4.99 -15.88 -0.85 200 200 198
-4.99 -15.97 -0.85 198 200 195
-4.99 -16.05 -0.85 198 200 195
-4.99 -16.14 -0.85 199 201 196
-4.99 -16.22 -0.85 199 201 198
-4.99 -16.31 -0.85 200 200 200
-4.99 -16.39 -0.85 199 199 199
-4.99 -16.48 -0.85 199 198 194
-4.99 -16.56 -0.85 198 197 193
-4.99 -16.65 -0.85 194 195 190
-4.99 -16.73 -0.85 202 202 202
-4.99 -16.81 -0.85 206 209 214
-4.99 -16.90 -0.85 206 208 223
-4.84 -17.02 -1.01 167 171 200
-4.84 -17.11 -1.01 15 17 66
-4.84 -17.19 -1.01 20 20 80
-4.84 -17.28 -1.01 32 33 100
-4.99 -17.32 -0.85 39 41 115
-4.99 -17.41 -0.85 40 48 123
-4.99 -17.49 -0.85 41 51 123
-5.12 -17.54 -0.72 36 52 114
-5.12 -17.62 -0.72 39 51 109
-5.12 -17.71 -0.72 28 35 90
-5.12 -17.79 -0.72 0 0 37
-5.12 -17.88 -0.72 145 136 137
-5.27 -17.92 -0.56 255 248 222
-5.39 -17.96 -0.43 255 230 183
-5.39 -18.04 -0.43 242 209 142
-5.54 -18.08 -0.26 255 229 145
-5.54 -18.17 -0.26 244 207 118
-5.66 -18.21 -0.13 226 185 103
-5.54 -18.33 -0.26 183 145 80
-5.66 -18.37 -0.13 157 128 84
-5.81 -18.41 0.03 175 151 115
-5.81 -18.49 0.03 169 148 101
-5.94 -18.53 0.16 179 159 106
-5.94 -18.62 0.16 235 216 160
-5.94 -18.70 0.16 235 216 160
-6.06 -18.74 0.30 199 182 128
-6.06 -18.82 0.30 181 166 111
-6.06 -18.90 0.30 174 159 102
-6.06 -18.98 0.30 170 160 98
-6.06 -19.07 0.30 180 170 108
-5.94 -19.19 0.16 149 139 78
-5.94 -19.27 0.16 127 116 62
-5.94 -19.36 0.16 118 107 61
-5.94 -19.44 0.16 157 148 109
-5.94 -19.52 0.16 243 234 203
-5.94 -19.60 0.16 255 255 232
-5.81 -19.73 0.03 255 249 231
-5.81 -19.81 0.03 223 216 200
-5.94 -19.85 0.16 149 141 118
-5.94 -19.93 0.16 130 121 92
-5.94 -20.02 0.16 182 168 131
-5.94 -20.10 0.16 160 141 101
-5.94 -20.18 0.16 141 118 76
-6.06 -20.21 0.30 224 195 153
-6.06 -20.30 0.30 218 189 145
-6.06 -20.38 0.30 167 138 94
-6.06 -20.46 0.30 141 114 69
-6.06 -20.54 0.30 152 128 92
-6.06 -20.63 0.30 180 160 135
-4.99 -21.13 -0.85 143 121 107
-4.99 -21.21 -0.85 142 119 103
-4.99 -21.30 -0.85 129 106 88
-4.99 -21.38 -0.85 115 86 68
-4.99 -21.47 -0.85 223 186 170
-4.99 -21.55 -0.85 233 189 180
-4.99 -21.81 -0.85 165 149 150
-4.99 -21.89 -0.85 56 50 54
-4.99 -21.98 -0.85 34 33 41
-4.99 -22.06 -0.85 26 24 35
-4.99 -22.15 -0.85 41 34 42
-4.99 -22.23 -0.85 92 82 90
-4.99 -22.31 -0.85 154 150 151
-4.99 -22.40 -0.85 231 227 226
-4.99 -22.48 -0.85 255 254 255
-4.99 -22.57 -0.85 254 252 253
-4.99 -22.65 -0.85 241 239 240
-4.99 -22.74 -0.85 226 224 225
-5.12 -22.77 -0.72 219 217 218
-5.12 -22.85 -0.72 219 217 218
-5.12 -22.94 -0.72 223 221 222
-5.12 -23.02 -0.72 231 229 230
-5.12 -23.10 -0.72 224 222 223
-5.12 -23.19 -0.72 224 222 223
-5.12 -23.27 -0.72 224 222 223
-5.12 -23.36 -0.72 225 223 224
-4.99 -23.50 -0.85 226 224 225
-4.99 -23.58 -0.85 227 227 227
-4.99 -23.67 -0.85 229 227 228
-4.99 -23.75 -0.85 225 223 224
-4.99 -23.84 -0.85 227 223 224
-4.99 -23.92 -0.85 227 223 224
-4.99 -24.01 -0.85 226 222 223
-4.99 -24.09 -0.85 225 223 224
-4.99 -24.18 -0.85 226 224 225
-4.99 -24.26 -0.85 227 225 226
-4.99 -24.35 -0.85 227 225 226
-4.99 -24.43 -0.85 225 225 225
-4.99 -24.52 -0.85 226 226 226
-5.12 -24.54 -0.72 227 227 227
-5.12 -24.62 -0.72 227 227 227
-5.12 -24.71 -0.72 226 228 227
-5.12 -24.79 -0.72 226 228 227
-5.12 -24.88 -0.72 227 229 228
-5.12 -24.96 -0.72 228 230 229
-5.12 -25.04 -0.72 228 230 229
-5.12 -25.13 -0.72 227 229 228
-5.12 -25.21 -0.72 227 229 228
-5.12 -25.47 -0.72 228 228 228
-5.12 -25.55 -0.72 229 229 229
-5.12 -25.63 -0.72 228 226 227
-5.12 -25.72 -0.72 228 226 227
-5.12 -25.80 -0.72 229 227 228
-5.12 -25.89 -0.72 229 227 228
-5.12 -25.97 -0.72 232 228 229
-5.12 -26.06 -0.72 232 228 229
-5.12 -26.14 -0.72 233 229 230
-4.99 -26.29 -0.85 233 229 230
-4.99 -26.38 -0.85 229 229 229
-5.12 -26.39 -0.72 230 230 230
-5.12 -26.48 -0.72 232 232 232
-5.12 -26.56 -0.72 232 232 232
-5.12 -26.65 -0.72 231 231 231
-5.12 -26.73 -0.72 230 230 230
-5.12 -26.81 -0.72 231 229 230
-5.12 -26.90 -0.72 232 230 231
-5.12 -27.32 -0.72 231 229 230
-5.12 -27.40 -0.72 232 228 229
-5.12 -27.49 -0.72 230 226 227
-5.12 -27.57 -0.72 229 227 228
-5.12 -27.66 -0.72 229 227 228
-5.12 -27.74 -0.72 230 228 229
-5.12 -27.83 -0.72 231 229 230
-5.12 -27.91 -0.72 231 229 230
-5.12 -28.00 -0.72 232 230 231
-5.12 -28.08 -0.72 232 230 231
-5.12 -28.16 -0.72 232 230 231
-5.12 -28.25 -0.72 231 229 230
-5.12 -28.33 -0.72 232 230 231
-5.12 -28.42 -0.72 234 232 233
-5.12 -28.50 -0.72 234 232 233
-5.12 -28.59 -0.72 233 231 232
-5.12 -28.67 -0.72 232 230 231
-5.12 -28.75 -0.72 234 232 233
-5.12 -28.84 -0.72 235 233 234
-5.12 -28.92 -0.72 236 232 233
-5.12 -29.01 -0.72 235 231 232
-5.12 -29.09 -0.72 235 231 232
-5.12 -29.18 -0.72 236 232 233
-5.12 -29.26 -0.72 236 232 233
-5.12 -29.34 -0.72 234 230 231
-5.12 -29.43 -0.72 233 229 230
-5.12 -29.51 -0.72 233 229 230
-5.12 -29.60 -0.72 233 229 230
-5.12 -29.68 -0.72 234 230 231
-5.12 -29.77 -0.72 235 231 232
-5.12 -29.85 -0.72 235 231 232
-4.99 -30.02 -0.85 234 230 231
-4.99 -30.10 -0.85 234 230 231
-4.99 -30.18 -0.85 233 229 230
-4.99 -30.27 -0.85 235 231 232
-4.99 -30.35 -0.85 235 231 232
-5.12 -30.36 -0.72 235 231 232
-5.12 -30.44 -0.72 234 230 231
-4.99 -30.61 -0.85 234 230 229
-4.99 -30.69 -0.85 234 230 229
-4.99 -30.78 -0.85 235 231 230
-5.12 -30.78 -0.72 236 232 231
-5.12 -30.86 -0.72 237 233 230
-5.12 -30.95 -0.72 236 232 229
-5.12 -31.03 -0.72 235 231 228
-5.12 -31.11 -0.72 235 231 228
-5.12 -31.20 -0.72 238 235 230
-5.12 -31.28 -0.72 238 235 230
-5.12 -31.37 -0.72 238 235 230
-5.27 -31.35 -0.56 239 235 232
-5.27 -31.43 -0.56 241 237 234
-5.27 -31.52 -0.56 242 238 235
-5.27 -31.60 -0.56 240 236 233
-5.27 -31.68 -0.56 239 235 234
-5.12 -31.87 -0.72 240 236 235
-5.12 -31.96 -0.72 239 235 234
-5.12 -32.04 -0.72 238 234 233
-5.12 -32.13 -0.72 241 237 238
-5.12 -32.21 -0.72 241 237 238
-5.12 -32.30 -0.72 241 237 238
-4.99 -32.47 -0.85 242 238 239
-5.12 -32.46 -0.72 244 239 243
-5.12 -32.55 -0.72 246 241 245
-5.12 -32.63 -0.72 246 241 245
-5.12 -32.72 -0.72 245 240 244
-5.12 -32.80 -0.72 0 0 0
-5.12 -32.89 -0.72 0 0 0
-5.12 -32.97 -0.72 0 0 0
-5.12 -33.05 -0.72 0 0 0
-5.12 -33.14 -0.72 0 0 0
-5.12 -33.22 -0.72 0 0 0
-5.12 -33.31 -0.72 0 0 0
-5.27 -33.28 -0.56 0 0 0
-5.27 -33.36 -0.56 0 0 0
-5.27 -33.45 -0.56 0 0 0
-5.27 -33.53 -0.56 0 0 0
-5.12 -33.73 -0.72 0 0 0
-5.12 -33.81 -0.72 0 0 0
-5.12 -33.90 -0.72 0 0 0
-5.12 -33.98 -0.72 0 0 0
-4.73 20.23 -1.25 0 0 0
-4.58 20.26 -1.41 0 0 0
-4.73 20.06 -1.25 0 0 0
-4.73 19.98 -1.25 0 0 0
-4.73 19.89 -1.25 0 0 0
-4.73 19.80 -1.25 0 0 0
-4.73 19.72 -1.25 0 0 0
-4.73 19.63 -1.25 0 0 0
-4.73 19.55 -1.25 0 0 0
-4.73 19.46 -1.25 136 125 119
-4.73 19.38 -1.25 136 125 119
-4.73 19.29 -1.25 134 123 117
-4.73 19.21 -1.25 132 121 115
-4.73 19.12 -1.25 131 120 114
-4.73 19.04 -1.25 132 121 115
-4.73 18.95 -1.25 134 123 117
-4.73 18.87 -1.25 134 125 118
-4.73 18.78 -1.25 134 125 118
-4.88 18.58 -1.09 135 126 119
-4.88 18.50 -1.09 135 126 119
-4.73 18.52 -1.25 133 126 120
-4.73 18.44 -1.25 134 127 121
-4.73 18.35 -1.25 134 127 121
-4.73 18.27 -1.25 135 128 122
-4.73 18.18 -1.25 135 128 122
-4.73 18.10 -1.25 135 128 122
-4.73 18.01 -1.25 131 128 121
-4.73 17.93 -1.25 132 129 122
-4.58 17.78 -1.41 133 129 118
-4.58 17.69 -1.41 133 129 117
-4.58 17.61 -1.41 134 130 118
-4.58 17.52 -1.41 133 129 117
-4.58 17.43 -1.41 133 129 117
-4.58 17.35 -1.41 135 128 118
-4.58 17.26 -1.41 135 128 118
-4.58 17.18 -1.41 135 128 118
-4.58 17.09 -1.41 136 129 119
-4.58 17.01 -1.41 136 129 121
-4.73 16.82 -1.25 137 130 124
-4.73 16.73 -1.25 134 129 123
-4.73 16.65 -1.25 134 129 125
-4.73 16.56 -1.25 134 129 125
-4.73 16.48 -1.25 134 129 125
-4.73 16.39 -1.25 135 130 124
-4.73 16.31 -1.25 136 131 125
-4.73 16.22 -1.25 137 132 126
-4.73 16.13 -1.25 138 133 127
-4.73 16.05 -1.25 138 134 125
-4.73 15.96 -1.25 138 134 125
-4.73 15.88 -1.25 137 133 124
-4.73 15.79 -1.25 136 132 123
-4.73 15.71 -1.25 138 134 125
-4.73 15.62 -1.25 139 135 126
-4.58 15.63 -1.41 139 135 126
-4.58 15.55 -1.41 137 132 126
-4.58 15.46 -1.41 139 134 128
-4.73 15.28 -1.25 141 137 128
-4.73 15.20 -1.25 141 137 128
-4.73 15.11 -1.25 138 134 125
-4.73 15.03 -1.25 137 133 124
-4.73 14.94 -1.25 137 133 124
-4.73 14.85 -1.25 139 135 126
-4.73 14.77 -1.25 137 132 126
-4.73 14.68 -1.25 138 133 129
-4.73 14.60 -1.25 140 135 131
-4.73 14.51 -1.25 141 136 133
-4.88 14.33 -1.09 142 136 136
-4.88 14.25 -1.09 142 136 136
-4.88 14.16 -1.09 141 135 137
-4.88 14.08 -1.09 141 135 135
-4.88 13.99 -1.09 136 131 125
-4.88 13.91 -1.09 137 133 124
-4.88 13.82 -1.09 139 135 126
-4.88 13.74 -1.09 140 136 127
-4.88 13.65 -1.09 140 135 129
-4.88 13.57 -1.09 145 137 134
-4.88 13.48 -1.09 146 138 135
-4.88 13.40 -1.09 146 138 135
-4.88 13.31 -1.09 144 136 133
-4.88 13.23 -1.09 142 134 131
-4.88 13.14 -1.09 141 133 130
-4.88 13.06 -1.09 142 135 129
-4.88 12.97 -1.09 143 136 130
-4.88 12.89 -1.09 144 137 129
-4.88 12.80 -1.09 144 137 131
-4.88 12.72 -1.09 144 138 138
-4.88 12.63 -1.09 143 137 139
-4.88 12.55 -1.09 143 137 139
-4.88 12.46 -1.09 143 137 139
-4.88 12.38 -1.09 145 139 141
-4.88 12.29 -1.09 146 140 142
-4.88 12.21 -1.09 146 140 140
-4.88 12.13 -1.09 145 139 139
-4.88 12.04 -1.09 146 141 138
-4.88 11.96 -1.09 146 141 138
-4.73 11.95 -1.25 147 142 139
-4.73 11.87 -1.25 147 142 139
-4.88 11.70 -1.09 147 142 138
-4.88 11.62 -1.09 146 141 137
-4.88 11.53 -1.09 144 139 135
-4.73 11.53 -1.25 148 143 140
-4.73 11.44 -1.25 149 144 141
-4.73 11.36 -1.25 149 144 140
-4.73 11.27 -1.25 149 144 140
-4.73 11.18 -1.25 149 144 138
-4.73 11.10 -1.25 148 143 137
-4.73 11.01 -1.25 149 145 136
-4.58 11.01 -1.41 149 145 136
-4.58 10.92 -1.41 148 146 134
-4.58 10.83 -1.41 147 145 133
-4.73 10.67 -1.25 148 145 136
-4.73 10.59 -1.25 150 147 138
-4.73 10.50 -1.25 150 147 138
-4.73 10.42 -1.25 149 146 137
-4.73 10.33 -1.25 149 146 139
-4.73 10.25 -1.25 150 147 140
-4.73 10.16 -1.25 146 145 140
-4.73 10.07 -1.25 147 146 141
-4.73 9.99 -1.25 148 147 142
-4.73 9.90 -1.25 149 148 143
-4.73 9.82 -1.25 149 148 143
-4.73 9.73 -1.25 149 148 143
-4.73 9.65 -1.25 151 148 143
-4.73 9.56 -1.25 151 148 141
-4.73 9.48 -1.25 150 147 140
-4.73 9.39 -1.25 149 146 139
-4.73 9.31 -1.25 150 147 140
-4.73 9.22 -1.25 153 148 142
-4.73 9.14 -1.25 154 149 143
-4.73 9.05 -1.25 154 150 141
-4.73 8.97 -1.25 153 149 140
-4.88 8.81 -1.09 152 147 141
-4.88 8.73 -1.09 151 146 140
-4.88 8.64 -1.09 151 146 142
-4.88 8.56 -1.09 153 148 144
-4.73 8.54 -1.25 154 151 146
-4.73 8.45 -1.25 155 152 147
-4.88 8.30 -1.09 155 152 147
-4.88 8.22 -1.09 154 151 146
-4.88 8.13 -1.09 155 152 147
-4.73 8.11 -1.25 156 153 148
-4.73 8.03 -1.25 157 154 147
-4.73 7.94 -1.25 158 155 148
-4.73 7.86 -1.25 158 155 146
-4.73 7.77 -1.25 157 154 145
-4.73 7.69 -1.25 154 154 144
-4.73 7.60 -1.25 156 153 144
-4.73 7.51 -1.25 161 157 146
-4.73 7.43 -1.25 159 156 147
-4.73 7.34 -1.25 143 140 133
-4.73 7.26 -1.25 120 120 112
-4.73 7.17 -1.25 118 117 113
-4.73 7.09 -1.25 122 123 118
-4.73 7.00 -1.25 116 116 116
-4.73 6.92 -1.25 116 118 117
-4.88 6.77 -1.09 116 117 119
-4.88 6.69 -1.09 115 116 118
-4.88 6.60 -1.09 114 115 117
-4.88 6.52 -1.09 115 117 116
-4.88 6.43 -1.09 116 118 117
-4.88 6.35 -1.09 119 119 119
-4.73 6.32 -1.25 118 120 119
-4.73 6.23 -1.25 116 122 120
-4.88 6.09 -1.09 114 123 120
-4.88 6.01 -1.09 114 123 120
-4.88 5.92 -1.09 114 123 120
-4.88 5.84 -1.09 117 123 121
-4.88 5.75 -1.09 118 124 122
-4.88 5.67 -1.09 118 124 122
-4.88 5.58 -1.09 119 125 123
-4.88 5.50 -1.09 114 120 118
-4.88 5.41 -1.09 118 122 121
-4.88 5.33 -1.09 117 121 120
-4.88 5.24 -1.09 118 122 121
-4.88 5.16 -1.09 120 124 123
-4.88 5.07 -1.09 119 123 122
-4.88 4.99 -1.09 116 120 119
-4.88 4.90 -1.09 119 124 120
-4.88 4.82 -1.09 117 122 118
-4.88 4.73 -1.09 116 121 117
-4.88 4.65 -1.09 116 121 117
-4.88 4.56 -1.09 119 121 120
-4.88 4.48 -1.09 121 123 122
-4.88 4.39 -1.09 122 124 123
-4.73 4.36 -1.25 123 125 124
-4.73 4.27 -1.25 119 123 122
-4.73 4.19 -1.25 119 123 122
-4.73 4.10 -1.25 118 124 124
-4.73 4.02 -1.25 118 124 124
-4.73 3.93 -1.25 116 125 124
-4.88 3.80 -1.09 117 126 125
-4.88 3.71 -1.09 117 127 126
-4.88 3.63 -1.09 118 128 127
-4.88 3.54 -1.09 119 128 123
-4.88 3.46 -1.09 119 128 123
-4.88 3.37 -1.09 118 127 122
-4.88 3.29 -1.09 117 126 121
-4.88 3.20 -1.09 118 127 122
-4.88 3.12 -1.09 120 126 122
-4.88 3.03 -1.09 121 127 123
-4.88 2.95 -1.09 119 125 121
-4.88 2.86 -1.09 121 127 123
-4.88 2.78 -1.09 122 128 124
-4.88 2.69 -1.09 122 128 124
-4.88 2.61 -1.09 120 126 122
-4.88 2.52 -1.09 120 126 122
-4.88 2.44 -1.09 122 127 123
-4.88 2.35 -1.09 124 128 127
-4.88 2.27 -1.09 125 126 130
-4.88 2.18 -1.09 125 126 131
-4.88 2.10 -1.09 123 128 131
-4.88 2.01 -1.09 124 129 132
-4.73 1.97 -1.25 121 132 128
-4.73 1.88 -1.25 122 133 129
-4.88 1.76 -1.09 119 135 125
-4.88 1.67 -1.09 119 135 125
-4.73 1.63 -1.25 117 133 123
-4.73 1.54 -1.25 117 133 123
-4.73 1.45 -1.25 117 132 125
-4.73 1.37 -1.25 118 133 126
-4.88 1.25 -1.09 120 132 128
-4.88 1.16 -1.09 122 132 131
-4.88 1.08 -1.09 122 132 131
-4.88 0.99 -1.09 124 133 130
-4.88 0.91 -1.09 123 132 129
-4.88 0.82 -1.09 126 132 130
-4.88 0.74 -1.09 127 133 131
-4.88 0.65 -1.09 127 131 132
-4.88 0.57 -1.09 125 129 130
-4.88 0.48 -1.09 129 130 132
-4.88 0.40 -1.09 133 134 136
-4.88 0.31 -1.09 132 133 135
-4.88 0.23 -1.09 132 133 135
-4.88 0.14 -1.09 130 136 134
-4.88 0.06 -1.09 129 135 133
-4.88 -0.03 -1.09 125 136 130
-4.73 -0.08 -1.25 124 135 129
-4.73 -0.17 -1.25 123 136 129
-4.73 -0.25 -1.25 125 138 131
-4.88 -0.37 -1.09 125 136 132
-4.88 -0.45 -1.09 124 135 131
-4.88 -0.54 -1.09 125 136 132
-4.88 -0.62 -1.09 127 138 134
-4.88 -0.71 -1.09 127 138 132
-4.88 -0.79 -1.09 125 136 128
-4.88 -0.88 -1.09 125 136 128
-4.88 -0.96 -1.09 128 139 131
-4.88 -1.05 -1.09 127 138 130
-4.88 -1.13 -1.09 128 139 131
-4.88 -1.22 -1.09 129 140 132
-4.88 -1.30 -1.09 130 141 135
-4.88 -1.39 -1.09 130 141 135
-4.88 -1.47 -1.09 129 140 134
-4.88 -1.56 -1.09 127 138 134
-4.88 -1.64 -1.09 132 143 139
-4.88 -1.73 -1.09 130 140 139
-4.88 -1.81 -1.09 130 140 139
-4.88 -1.90 -1.09 132 142 141
-4.88 -1.98 -1.09 133 144 140
-4.88 -2.07 -1.09 131 142 138
-4.73 -2.13 -1.25 131 142 138
-4.73 -2.22 -1.25 131 142 138
-4.73 -2.30 -1.25 133 144 140
-4.73 -2.39 -1.25 133 144 140
-4.88 -2.49 -1.09 133 144 140
-4.88 -2.58 -1.09 134 145 141
-4.88 -2.66 -1.09 135 145 144
-4.88 -2.75 -1.09 135 145 144
-4.88 -2.83 -1.09 132 142 143
-4.88 -2.92 -1.09 133 145 145
-4.88 -3.00 -1.09 135 147 147
-4.88 -3.09 -1.09 136 148 146
-4.88 -3.17 -1.09 135 147 145
-4.88 -3.26 -1.09 135 147 143
-4.88 -3.34 -1.09 135 147 143
-4.88 -3.43 -1.09 138 149 143
-4.88 -3.51 -1.09 141 152 146
-4.88 -3.60 -1.09 141 152 146
-4.88 -3.68 -1.09 139 150 144
-4.88 -3.77 -1.09 139 150 144
-4.88 -3.85 -1.09 141 152 146
-4.88 -3.94 -1.09 144 153 150
-4.88 -4.02 -1.09 144 153 150
-4.88 -4.11 -1.09 144 153 150
-4.88 -4.19 -1.09 146 155 152
-4.88 -4.28 -1.09 149 155 153
-5.03 -4.54 -0.93 150 156 154
-5.03 -4.63 -0.93 149 155 153
-5.03 -4.71 -0.93 150 156 154
-5.03 -4.80 -0.93 151 157 155
-5.03 -4.88 -0.93 154 163 160
-5.03 -4.97 -0.93 154 163 160
-5.03 -5.05 -0.93 154 163 160
-5.03 -5.14 -0.93 154 163 160
-5.03 -5.22 -0.93 154 163 160
-5.03 -5.31 -0.93 154 163 160
-5.03 -5.39 -0.93 154 165 161
-5.03 -5.48 -0.93 155 166 162
-5.03 -5.56 -0.93 156 165 160
-5.03 -5.64 -0.93 156 165 160
-5.03 -5.73 -0.93 157 166 161
-5.03 -5.81 -0.93 157 166 161
-5.03 -5.90 -0.93 157 166 161
-5.03 -5.98 -0.93 157 166 161
-4.88 -6.06 -1.09 158 169 163
-5.03 -6.15 -0.93 159 170 164
-5.03 -6.24 -0.93 156 167 161
-5.03 -6.32 -0.93 157 168 162
-5.03 -6.58 -0.93 159 172 165
-5.03 -6.66 -0.93 160 173 166
-5.03 -6.74 -0.93 160 173 166
-5.03 -6.83 -0.93 160 171 165
-5.03 -6.91 -0.93 161 170 167
-5.03 -7.00 -0.93 162 171 168
-5.03 -7.08 -0.93 162 171 168
-5.03 -7.17 -0.93 164 170 168
-5.03 -7.25 -0.93 164 170 168
-5.03 -7.34 -0.93 163 169 167
-5.03 -7.42 -0.93 163 169 167
-5.03 -7.51 -0.93 165 169 168
-5.03 -7.59 -0.93 170 174 173
-5.03 -7.68 -0.93 175 177 176
-5.03 -7.76 -0.93 177 179 178
-5.03 -7.84 -0.93 178 180 179
-5.03 -7.93 -0.93 180 182 181
-5.03 -8.01 -0.93 179 181 180
-5.03 -8.10 -0.93 174 178 177
-5.03 -8.18 -0.93 178 185 178
-4.88 -8.27 -1.09 177 187 179
-4.88 -8.36 -1.09 175 185 177
-4.88 -8.44 -1.09 175 182 175
-4.88 -8.53 -1.09 175 182 175
-4.88 -8.61 -1.09 178 183 177
-4.88 -8.70 -1.09 182 184 179
-4.88 -8.78 -1.09 181 183 178
-4.88 -8.87 -1.09 185 186 181
-4.88 -8.95 -1.09 183 184 179
-4.88 -9.04 -1.09 184 185 180
-5.03 -9.11 -0.93 185 186 181
-5.03 -9.20 -0.93 185 186 181
-5.03 -9.28 -0.93 183 185 180
-5.03 -9.37 -0.93 181 183 180
-5.03 -9.45 -0.93 180 185 181
-5.03 -9.54 -0.93 180 184 183
-5.03 -9.62 -0.93 180 184 183
-5.03 -9.71 -0.93 181 185 184
-5.03 -9.79 -0.93 181 187 185
-5.03 -9.88 -0.93 181 187 185
-5.03 -9.96 -0.93 178 187 184
-5.03 -10.04 -0.93 178 187 184
-5.03 -10.13 -0.93 181 192 188
-5.03 -10.21 -0.93 181 192 188
-5.03 -10.30 -0.93 181 190 187
-5.03 -10.38 -0.93 180 189 186
-5.03 -10.47 -0.93 180 189 186
-5.03 -10.55 -0.93 180 189 186
-5.03 -10.64 -0.93 182 188 186
-5.03 -10.72 -0.93 183 189 187
-5.03 -10.81 -0.93 183 189 185
-5.03 -10.89 -0.93 183 189 185
-5.03 -10.98 -0.93 183 189 185
-5.03 -11.06 -0.93 183 189 185
-5.03 -11.14 -0.93 183 189 185
-5.03 -11.23 -0.93 184 190 186
-5.03 -11.31 -0.93 184 190 186
-5.03 -11.40 -0.93 185 190 186
-5.03 -11.48 -0.93 185 190 186
-5.03 -11.57 -0.93 186 191 187
-5.03 -11.65 -0.93 186 191 187
-5.03 -11.74 -0.93 187 192 188
-5.03 -11.82 -0.93 187 192 188
-5.03 -11.91 -0.93 189 191 188
-5.03 -11.99 -0.93 190 192 189
-5.03 -12.08 -0.93 192 192 192
-5.03 -12.16 -0.93 191 191 191
-5.03 -12.24 -0.93 192 192 192
-5.03 -12.33 -0.93 193 193 193
-5.03 -12.41 -0.93 190 192 191
-5.03 -12.50 -0.93 188 190 189
-5.03 -12.58 -0.93 187 189 188
-5.03 -12.67 -0.93 189 191 190
-5.03 -12.75 -0.93 188 192 191
-5.03 -12.84 -0.93 188 192 191
-5.03 -12.92 -0.93 188 194 192
-5.03 -13.01 -0.93 187 193 191
-5.03 -13.09 -0.93 186 192 190
-5.03 -13.18 -0.93 187 193 191
-5.03 -13.26 -0.93 187 193 191
-5.03 -13.34 -0.93 187 191 190
-5.03 -13.43 -0.93 187 191 190
-5.03 -13.51 -0.93 189 191 190
-5.03 -13.60 -0.93 191 193 192
-5.03 -13.68 -0.93 192 194 193
-5.03 -13.77 -0.93 193 195 194
-5.03 -13.85 -0.93 191 193 192
-5.03 -13.94 -0.93 190 192 191
-5.03 -14.02 -0.93 192 192 192
-5.03 -14.11 -0.93 193 193 193
-5.03 -14.19 -0.93 194 194 194
-5.03 -14.28 -0.93 194 194 194
-5.03 -14.36 -0.93 194 194 194
-5.03 -14.45 -0.93 195 195 195
-5.03 -14.53 -0.93 196 196 196
-5.03 -14.61 -0.93 197 197 197
-5.16 -14.67 -0.79 194 195 190
-5.16 -14.76 -0.79 196 197 192
-5.16 -14.84 -0.79 198 199 194
-5.16 -14.93 -0.79 199 200 195
-5.16 -15.01 -0.79 198 198 196
-5.16 -15.09 -0.79 198 198 196
-5.16 -15.18 -0.79 199 199 197
-5.16 -15.26 -0.79 197 197 195
-5.16 -15.35 -0.79 198 198 196
-5.16 -15.43 -0.79 199 199 199
-5.16 -15.52 -0.79 199 199 199
-5.16 -15.60 -0.79 199 199 199
-5.03 -15.71 -0.93 199 199 199
-5.03 -15.80 -0.93 200 200 200
-5.16 -15.85 -0.79 201 201 199
-5.16 -15.94 -0.79 200 202 197
-5.16 -16.02 -0.79 199 201 196
-5.03 -16.14 -0.93 200 201 196
-5.03 -16.22 -0.93 199 199 197
-5.03 -16.31 -0.93 198 196 197
-5.16 -16.36 -0.79 196 195 193
-5.03 -16.48 -0.93 195 194 190
-5.03 -16.56 -0.93 194 193 188
-5.03 -16.65 -0.93 193 194 188
-5.03 -16.73 -0.93 206 206 204
-5.03 -16.81 -0.93 206 209 216
-5.03 -16.90 -0.93 151 154 173
-5.03 -16.98 -0.93 46 49 84
-5.03 -17.07 -0.93 30 31 95
-5.03 -17.15 -0.93 34 34 106
-5.03 -17.24 -0.93 47 50 119
-5.03 -17.32 -0.93 49 53 126
-5.03 -17.41 -0.93 45 54 131
-5.16 -17.46 -0.79 43 55 131
-5.16 -17.54 -0.79 38 55 124
-5.31 -17.58 -0.63 43 57 118
-5.31 -17.66 -0.63 47 53 111
-5.31 -17.75 -0.63 32 31 65
-5.43 -17.79 -0.50 209 202 192
-5.43 -17.88 -0.50 255 249 213
-5.58 -17.92 -0.34 254 227 174
-5.58 -18.00 -0.34 250 212 150
-5.71 -18.04 -0.20 252 212 142
-5.71 -18.13 -0.20 245 199 137
-5.86 -18.16 -0.04 204 153 110
-5.86 -18.24 -0.04 190 145 116
-5.86 -18.33 -0.04 169 139 113
-5.86 -18.41 -0.04 164 143 116
-5.98 -18.45 0.09 141 121 84
-5.98 -18.53 0.09 112 93 50
-6.10 -18.57 0.23 147 129 79
-6.10 -18.66 0.23 199 182 130
-6.10 -18.74 0.23 255 252 200
-6.10 -18.82 0.23 252 237 180
-6.10 -18.90 0.23 219 204 145
-6.10 -18.98 0.23 199 188 122
-6.10 -19.07 0.23 198 188 119
-6.10 -19.15 0.23 192 181 115
-6.10 -19.23 0.23 193 182 120
-6.10 -19.31 0.23 170 157 102
-6.10 -19.39 0.23 137 123 76
-6.10 -19.48 0.23 121 106 63
-6.10 -19.56 0.23 121 107 72
-5.98 -19.69 0.09 160 146 120
-5.98 -19.77 0.09 213 201 177
-5.98 -19.85 0.09 255 253 225
-6.10 -19.89 0.23 249 236 202
-6.10 -19.97 0.23 179 166 124
-6.10 -20.05 0.23 160 141 98
-6.10 -20.13 0.23 123 100 56
-6.10 -20.21 0.23 142 113 69
-6.10 -20.30 0.23 150 119 72
-6.10 -20.38 0.23 114 83 36
-6.10 -20.46 0.23 122 94 46
-6.10 -20.54 0.23 122 97 56
-6.10 -20.63 0.23 129 103 76
-6.10 -20.71 0.23 121 98 82
-5.86 -20.89 -0.04 137 114 98
-5.98 -20.92 0.09 142 116 99
-5.98 -21.00 0.09 119 90 72
-5.31 -21.36 -0.63 148 109 92
-5.71 -21.28 -0.20 142 100 88
-5.03 -22.15 -0.93 58 50 61
-5.03 -22.23 -0.93 48 36 46
-5.16 -22.26 -0.79 36 27 32
-5.16 -22.35 -0.79 58 49 52
-5.16 -22.43 -0.79 115 111 112
-5.16 -22.51 -0.79 185 181 182
-5.16 -22.60 -0.79 246 242 243
-5.16 -22.68 -0.79 255 254 255
-5.16 -22.77 -0.79 253 249 250
-5.16 -22.85 -0.79 244 240 241
-5.16 -22.94 -0.79 229 227 228
-5.16 -23.02 -0.79 216 214 215
-5.16 -23.10 -0.79 221 219 220
-5.16 -23.19 -0.79 220 220 220
-5.16 -23.27 -0.79 220 220 220
-5.16 -23.36 -0.79 222 222 222
-5.16 -23.44 -0.79 224 224 224
-5.16 -23.53 -0.79 226 226 226
-5.03 -23.67 -0.93 228 226 227
-5.16 -23.69 -0.79 229 227 228
-5.16 -23.78 -0.79 230 226 227
-5.16 -23.86 -0.79 228 224 225
-5.16 -23.95 -0.79 227 223 224
-5.16 -24.03 -0.79 227 223 224
-5.16 -24.12 -0.79 227 223 224
-5.16 -24.20 -0.79 226 224 225
-5.16 -24.29 -0.79 226 224 225
-5.16 -24.37 -0.79 225 225 225
-5.16 -24.45 -0.79 226 226 226
-5.16 -24.54 -0.79 227 227 227
-5.16 -24.62 -0.79 227 227 227
-5.16 -24.71 -0.79 226 228 227
-5.16 -24.79 -0.79 226 228 227
-5.16 -24.88 -0.79 227 229 228
-5.16 -24.96 -0.79 228 230 229
-5.16 -25.04 -0.79 225 227 226
-5.16 -25.13 -0.79 226 228 227
-5.16 -25.21 -0.79 227 229 228
-5.16 -25.30 -0.79 228 228 228
-5.16 -25.38 -0.79 227 227 227
-5.16 -25.47 -0.79 227 227 227
-5.16 -25.55 -0.79 226 226 226
-5.16 -25.63 -0.79 227 225 226
-5.16 -25.72 -0.79 227 225 226
-5.16 -25.80 -0.79 229 225 226
-5.16 -25.89 -0.79 229 225 226
-5.16 -25.97 -0.79 230 226 227
-5.16 -26.06 -0.79 231 227 228
-5.16 -26.14 -0.79 232 228 229
-5.16 -26.22 -0.79 233 229 230
-5.16 -26.31 -0.79 227 227 227
-5.16 -26.39 -0.79 228 228 228
-5.16 -26.48 -0.79 230 230 230
-5.16 -26.56 -0.79 230 230 230
-5.16 -26.65 -0.79 230 228 229
-5.16 -26.73 -0.79 229 227 228
-5.31 -26.73 -0.63 230 228 229
-5.31 -26.81 -0.63 230 228 229
-5.31 -26.90 -0.63 234 232 233
-5.31 -26.98 -0.63 232 230 231
-5.31 -27.07 -0.63 230 228 229
-5.31 -27.15 -0.63 232 228 229
-5.16 -27.32 -0.79 232 228 229
-5.31 -27.32 -0.63 232 228 229
-5.16 -27.49 -0.79 230 226 227
-5.16 -27.57 -0.79 230 228 229
-5.16 -27.66 -0.79 230 228 229
-5.16 -27.74 -0.79 230 228 229
-5.16 -27.83 -0.79 229 227 228
-5.16 -27.91 -0.79 230 228 229
-5.16 -28.00 -0.79 230 228 229
-5.16 -28.08 -0.79 231 229 230
-5.16 -28.16 -0.79 232 230 231
-5.16 -28.25 -0.79 229 227 228
-5.16 -28.33 -0.79 231 229 230
-5.16 -28.42 -0.79 233 231 232
-5.16 -28.50 -0.79 233 231 232
-5.16 -28.59 -0.79 232 230 231
-5.16 -28.67 -0.79 231 229 230
-5.16 -28.75 -0.79 232 230 231
-5.16 -29.01 -0.79 234 230 231
-5.16 -29.09 -0.79 234 230 231
