ply
format ascii 1.0
element vertex 1645
property float x
property float y
property float z
property uchar red
property uchar green
property uchar blue
end_header
-2.36 7.06 2.45 170 201 203
-2.36 6.98 2.45 170 206 206
-2.36 6.89 2.45 168 202 201
-2.36 6.81 2.45 159 190 184
-2.36 6.72 2.45 187 213 200
-2.22 6.68 2.33 206 224 202
-2.22 6.60 2.33 231 242 212
-2.22 6.51 2.33 210 212 175
-1.91 6.54 2.04 189 189 153
-1.75 6.51 1.89 136 139 108
-1.59 6.49 1.75 120 124 97
-1.59 6.40 1.75 138 144 118
-1.43 6.37 1.61 153 159 133
-1.27 6.34 1.46 164 174 149
-1.11 6.30 1.32 177 187 162
-0.93 6.28 1.15 154 166 142
-0.93 6.19 1.15 136 148 124
-0.77 6.16 1.00 113 127 102
-0.77 6.07 1.00 68 80 56
-0.77 5.98 1.00 58 70 46
-0.77 5.89 1.00 67 77 52
-0.77 5.80 1.00 96 106 81
-0.77 5.71 1.00 133 141 117
-0.93 5.57 1.15 157 163 137
-0.93 5.48 1.15 170 177 144
-0.93 5.39 1.15 111 116 84
-0.93 5.30 1.15 50 55 25
-1.11 5.15 1.32 32 36 11
-1.11 5.06 1.32 51 55 32
-1.11 4.98 1.32 70 73 52
-1.27 4.84 1.46 70 73 54
-1.11 4.80 1.32 62 65 46
-1.11 4.71 1.32 56 58 37
-1.11 4.62 1.32 62 64 43
-1.27 4.48 1.46 47 46 25
-1.27 4.40 1.46 52 51 30
-1.27 4.31 1.46 193 191 170
-1.43 4.17 1.61 247 245 224
-1.59 4.04 1.75 110 105 86
-1.75 3.90 1.89 44 33 15
-1.75 3.81 1.89 55 34 15
-1.59 3.77 1.75 78 49 31
-1.59 3.69 1.75 53 21 6
-1.59 3.60 1.75 52 18 6
-1.43 3.56 1.61 24 0 0
-1.11 3.56 1.32 26 3 0
-1.11 3.47 1.32 160 143 125
-1.11 3.38 1.32 233 225 202
-1.11 3.29 1.32 90 89 61
-2.36 2.52 2.45 238 236 197
-2.36 2.44 2.45 234 232 194
-2.36 2.35 2.45 233 234 200
-2.36 2.26 2.45 228 233 203
-2.36 2.18 2.45 207 220 192
-2.36 2.09 2.45 174 192 170
-2.36 2.01 2.45 168 195 180
-2.22 1.95 2.33 164 197 188
-2.22 1.87 2.33 162 201 196
-2.06 1.82 2.18 151 195 194
-1.91 1.77 2.04 74 122 124
-1.91 1.69 2.04 66 117 121
-3.84 0.15 3.80 58 115 126
-3.84 0.07 3.80 56 116 126
-3.84 -0.01 3.80 60 118 130
-3.71 -0.07 3.68 63 115 126
-3.71 -0.15 3.68 78 122 133
-3.71 -0.23 3.68 69 104 110
-3.71 -0.32 3.68 73 96 102
-3.71 -0.40 3.68 76 91 94
-3.55 -0.45 3.53 100 100 100
-3.55 -0.53 3.53 146 131 124
-3.55 -0.62 3.53 180 153 144
-3.55 -0.70 3.53 181 153 141
-3.55 -0.78 3.53 188 159 145
-3.42 -0.84 3.41 191 159 144
-3.42 -0.92 3.41 194 167 148
-3.26 -0.98 3.27 201 175 158
-3.12 -1.21 3.15 85 64 47
-3.12 -1.29 3.15 100 77 61
-3.12 -1.38 3.15 116 87 71
-3.12 -1.46 3.15 127 94 79
-3.12 -1.54 3.15 126 87 72
-3.12 -1.63 3.15 118 62 49
-2.97 -1.69 3.00 123 36 27
-2.97 -1.77 3.00 128 25 18
-2.97 -1.86 3.00 133 28 24
-2.83 -1.92 2.88 137 29 27
-2.83 -2.01 2.88 135 30 27
-2.67 -2.07 2.74 142 57 52
-2.67 -2.15 2.74 141 100 82
-2.52 -2.22 2.59 137 116 97
-2.52 -2.30 2.59 157 134 120
-2.52 -2.39 2.59 153 130 124
-0.10 -2.34 0.40 191 197 197
-0.10 -2.43 0.40 192 210 210
-0.10 -2.52 0.40 185 217 216
-0.10 -2.61 0.40 138 174 172
-0.10 -2.70 0.40 179 218 215
-0.10 -2.79 0.40 197 236 235
-0.10 -2.88 0.40 159 197 198
-0.10 -2.97 0.40 160 200 200
-0.10 -3.06 0.40 188 228 230
-0.10 -3.15 0.40 179 220 224
-0.10 -3.24 0.40 181 222 226
-0.10 -3.33 0.40 179 223 226
-0.10 -3.43 0.40 174 218 221
-0.10 -3.52 0.40 168 213 218
-0.10 -3.61 0.40 166 211 216
-0.10 -3.70 0.40 164 209 212
-0.10 -3.79 0.40 160 205 208
-0.10 -3.88 0.40 157 205 207
-0.10 -3.97 0.40 157 205 209
-0.10 -4.06 0.40 152 201 205
-0.10 -4.15 0.40 150 199 204
-0.10 -4.24 0.40 148 197 201
-0.10 -4.33 0.40 146 195 199
0.08 -4.41 0.23 146 197 201
0.08 -4.50 0.23 143 196 202
0.08 -4.59 0.23 136 191 196
-0.10 -4.70 0.40 121 179 190
-0.10 -4.79 0.40 121 179 191
-0.10 -4.88 0.40 121 177 190
-0.10 -4.97 0.40 121 174 188
-0.10 -5.06 0.40 122 172 183
-0.10 -5.15 0.40 100 147 157
-2.67 -5.55 2.74 225 253 255
-2.36 -5.62 2.45 224 244 245
-2.52 -5.71 2.59 223 243 242
-2.52 -5.80 2.59 228 244 244
-2.36 -5.88 2.45 228 244 243
-2.36 -5.96 2.45 231 245 245
-2.36 -6.05 2.45 233 247 247
-2.36 -6.14 2.45 230 244 244
-2.36 -6.22 2.45 228 244 243
-2.36 -6.31 2.45 241 255 255
1.70 -6.47 -1.24 150 166 166
1.70 -6.57 -1.24 155 171 171
1.70 -6.66 -1.24 153 167 170
1.70 -6.76 -1.24 154 168 169
1.70 -6.85 -1.24 157 172 169
1.70 -6.95 -1.24 158 172 172
1.70 -7.04 -1.24 157 171 171
1.70 -7.14 -1.24 157 171 171
1.51 -7.24 -1.07 156 170 170
1.51 -7.33 -1.07 158 170 170
1.51 -7.42 -1.07 158 170 170
1.51 -7.52 -1.07 161 171 170
1.70 -7.61 -1.24 163 173 172
1.70 -7.71 -1.24 164 175 171
1.51 -7.80 -1.07 165 176 172
1.51 -7.90 -1.07 168 179 173
1.51 -7.99 -1.07 172 183 177
1.51 -8.09 -1.07 176 186 178
1.51 -8.18 -1.07 176 186 178
1.51 -8.28 -1.07 177 188 182
1.51 -8.37 -1.07 179 190 184
1.51 -8.46 -1.07 180 191 185
1.51 -8.56 -1.07 180 191 185
1.51 -8.65 -1.07 179 190 184
1.51 -8.75 -1.07 178 189 183
1.51 -8.84 -1.07 180 191 185
1.51 -8.94 -1.07 181 192 186
1.70 -9.04 -1.24 179 190 186
1.70 -9.13 -1.24 180 191 187
1.51 -9.22 -1.07 181 192 188
1.51 -9.32 -1.07 182 193 189
1.33 -9.40 -0.90 182 193 189
1.33 -9.50 -0.90 183 194 190
1.33 -9.59 -0.90 182 193 187
1.33 -9.68 -0.90 184 194 186
1.33 -9.78 -0.90 185 195 186
1.33 -9.87 -0.90 185 195 186
1.33 -9.97 -0.90 186 196 187
1.33 -10.06 -0.90 186 196 188
1.33 -10.15 -0.90 186 196 188
1.51 -10.26 -1.07 186 196 188
1.51 -10.36 -1.07 186 196 188
1.51 -10.45 -1.07 185 194 189
1.51 -10.55 -1.07 184 193 188
1.51 -10.64 -1.07 183 192 187
1.51 -10.73 -1.07 184 193 188
1.51 -10.83 -1.07 185 194 191
1.51 -10.92 -1.07 186 195 192
1.51 -11.02 -1.07 184 193 190
1.51 -11.11 -1.07 183 192 189
1.51 -11.21 -1.07 182 193 189
1.51 -11.30 -1.07 183 194 190
1.51 -11.40 -1.07 184 195 191
1.51 -11.49 -1.07 186 195 192
1.51 -11.59 -1.07 187 196 193
1.33 -11.66 -0.90 190 196 194
1.33 -11.75 -0.90 191 197 195
1.33 -11.85 -0.90 189 195 193
1.33 -11.94 -0.90 189 195 193
1.33 -12.04 -0.90 188 197 194
1.33 -12.13 -0.90 188 197 194
1.33 -12.23 -0.90 186 197 193
1.33 -12.32 -0.90 186 197 193
1.33 -12.41 -0.90 187 198 194
1.33 -12.51 -0.90 187 198 194
1.33 -12.60 -0.90 188 197 192
1.33 -12.70 -0.90 187 196 191
1.33 -12.79 -0.90 187 196 191
1.33 -12.88 -0.90 187 196 191
1.14 -12.95 -0.73 190 196 192
1.14 -13.05 -0.73 192 198 194
1.14 -13.14 -0.73 194 200 196
1.14 -13.23 -0.73 195 201 197
1.14 -13.33 -0.73 194 200 196
1.14 -13.42 -0.73 195 201 197
1.33 -13.54 -0.90 195 202 195
1.33 -13.64 -0.90 191 201 193
1.14 -13.70 -0.73 191 201 193
1.14 -13.80 -0.73 192 202 194
1.14 -13.89 -0.73 193 202 197
1.14 -13.98 -0.73 191 202 196
1.33 -14.11 -0.90 192 203 199
1.33 -14.20 -0.90 193 204 200
1.33 -14.30 -0.90 194 205 201
1.33 -14.39 -0.90 195 206 202
1.33 -14.48 -0.90 195 206 202
1.33 -14.58 -0.90 195 204 201
1.33 -14.67 -0.90 195 204 201
1.33 -14.77 -0.90 197 206 203
1.33 -14.86 -0.90 197 206 203
1.33 -14.96 -0.90 197 206 203
1.33 -15.05 -0.90 197 206 203
1.33 -15.14 -0.90 198 207 204
1.33 -15.24 -0.90 199 208 205
1.33 -15.33 -0.90 201 210 207
1.33 -15.43 -0.90 202 211 208
1.14 -15.48 -0.73 204 210 206
1.33 -15.61 -0.90 204 210 206
1.33 -15.71 -0.90 204 210 206
1.33 -15.80 -0.90 205 211 207
1.14 -15.86 -0.73 206 212 208
1.14 -15.95 -0.73 207 213 209
1.14 -16.05 -0.73 207 213 209
1.14 -16.14 -0.73 208 214 212
1.14 -16.23 -0.73 208 214 212
1.33 -16.37 -0.90 210 214 213
1.33 -16.46 -0.90 211 215 214
1.33 -16.56 -0.90 214 218 217
1.33 -16.65 -0.90 216 220 219
1.33 -16.74 -0.90 217 221 220
1.33 -16.84 -0.90 217 221 220
1.33 -16.93 -0.90 217 223 221
1.33 -17.03 -0.90 218 224 222
1.33 -17.12 -0.90 220 226 224
1.33 -17.21 -0.90 222 228 226
1.33 -17.31 -0.90 223 229 227
1.33 -17.40 -0.90 225 231 229
1.33 -17.50 -0.90 228 232 231
1.33 -17.59 -0.90 230 234 233
1.33 -17.69 -0.90 228 232 231
1.33 -17.78 -0.90 231 235 234
1.33 -17.87 -0.90 234 238 237
1.33 -17.97 -0.90 237 241 240
1.33 -18.06 -0.90 240 244 243
1.33 -18.16 -0.90 243 247 246
1.33 -18.25 -0.90 246 248 247
1.33 -18.34 -0.90 239 241 240
1.33 -18.44 -0.90 238 238 238
1.33 -18.53 -0.90 238 238 238
1.33 -18.63 -0.90 240 240 240
1.33 -18.72 -0.90 242 242 242
1.33 -18.82 -0.90 242 242 242
1.33 -18.91 -0.90 243 243 243
1.33 -19.00 -0.90 244 244 244
1.33 -19.10 -0.90 249 249 249
1.33 -19.19 -0.90 249 249 249
1.33 -19.29 -0.90 248 248 248
1.33 -19.38 -0.90 247 247 247
1.33 -19.47 -0.90 246 246 246
1.33 -19.57 -0.90 245 245 245
1.33 -19.66 -0.90 246 246 246
1.33 -19.76 -0.90 246 246 246
1.33 -19.85 -0.90 248 248 248
1.33 -19.94 -0.90 248 248 248
1.14 -19.98 -0.73 249 249 249
1.33 -20.13 -0.90 250 250 250
1.33 -20.23 -0.90 250 250 250
1.33 -20.32 -0.90 249 249 249
1.14 -20.36 -0.73 246 246 246
1.14 -20.45 -0.73 241 241 241
1.14 -20.54 -0.73 241 241 241
1.14 -20.64 -0.73 240 240 240
1.14 -20.73 -0.73 240 240 240
1.14 -20.83 -0.73 241 241 241
1.14 -20.92 -0.73 244 244 244
1.14 -21.01 -0.73 247 247 247
1.14 -21.11 -0.73 249 249 249
1.33 -21.26 -0.90 251 251 251
1.33 -21.36 -0.90 252 252 252
1.33 -21.45 -0.90 253 253 253
1.14 -21.48 -0.73 253 253 253
1.14 -21.58 -0.73 252 252 252
1.14 -21.67 -0.73 252 252 252
1.14 -21.76 -0.73 252 254 253
1.14 -22.23 -0.73 252 254 253
1.14 -22.32 -0.73 252 254 253
1.14 -22.42 -0.73 252 254 253
1.14 -22.51 -0.73 250 254 253
1.14 -22.61 -0.73 251 253 252
1.14 -22.70 -0.73 252 254 253
1.14 -22.79 -0.73 252 254 253
1.14 -22.89 -0.73 252 254 253
1.14 -22.98 -0.73 250 254 253
1.14 -23.07 -0.73 251 255 254
1.14 -23.17 -0.73 251 255 254
1.14 -23.26 -0.73 251 255 254
1.14 -23.36 -0.73 250 254 253
1.14 -23.45 -0.73 250 254 253
1.14 -23.54 -0.73 252 254 253
1.14 -23.64 -0.73 252 254 253
1.14 -23.73 -0.73 253 253 253
1.14 -23.82 -0.73 253 253 253
1.33 -23.99 -0.90 254 252 253
1.33 -24.09 -0.90 253 251 252
1.33 -24.18 -0.90 253 253 253
1.14 -24.20 -0.73 252 252 252
1.14 -24.29 -0.73 251 251 251
1.14 -24.39 -0.73 252 252 252
1.14 -24.48 -0.73 252 254 253
1.14 -24.57 -0.73 253 255 254
1.14 -24.67 -0.73 252 254 253
1.14 -24.76 -0.73 251 253 252
1.14 -24.86 -0.73 251 253 252
1.14 -24.95 -0.73 252 254 253
0.96 -24.96 -0.57 253 255 254
0.96 -25.06 -0.57 250 254 253
0.96 -25.15 -0.57 250 254 253
0.96 -25.24 -0.57 249 253 252
1.14 -25.42 -0.73 251 253 252
1.14 -25.51 -0.73 251 253 252
1.14 -25.60 -0.73 253 253 253
1.14 -25.70 -0.73 254 254 254
1.14 -25.79 -0.73 252 252 252
1.14 -25.89 -0.73 251 251 251
1.14 -25.98 -0.73 250 250 250
1.14 -26.07 -0.73 251 251 251
1.14 -26.17 -0.73 253 253 253
1.14 -26.26 -0.73 251 251 251
1.14 -26.35 -0.73 251 251 251
1.14 -26.45 -0.73 251 251 251
1.14 -26.54 -0.73 250 250 250
1.14 -26.64 -0.73 250 250 250
1.14 -26.73 -0.73 250 250 250
0.96 -26.74 -0.57 250 250 250
0.96 -26.83 -0.57 250 250 250
0.96 -26.92 -0.57 252 252 252
0.96 -27.02 -0.57 251 251 251
0.96 -27.11 -0.57 251 251 251
0.96 -27.20 -0.57 250 250 250
0.96 -27.29 -0.57 250 250 250
0.96 -27.39 -0.57 250 250 250
0.96 -27.48 -0.57 251 251 251
0.96 -27.57 -0.57 251 251 251
1.14 -27.76 -0.73 251 251 251
1.14 -27.85 -0.73 251 251 251
1.14 -27.95 -0.73 251 251 251
1.14 -28.04 -0.73 251 251 251
1.14 -28.14 -0.73 251 251 251
1.14 -28.23 -0.73 252 252 252
0.96 -28.23 -0.57 252 252 252
0.96 -28.32 -0.57 249 249 249
0.96 -28.41 -0.57 250 250 250
0.96 -28.51 -0.57 251 251 251
0.96 -28.60 -0.57 250 250 250
0.96 -28.69 -0.57 249 249 249
0.96 -28.79 -0.57 248 248 248
0.96 -28.88 -0.57 249 249 249
0.77 -28.88 -0.40 250 250 250
0.77 -28.97 -0.40 248 248 248
0.77 -29.06 -0.40 248 248 248
0.77 -29.15 -0.40 249 249 249
0.77 -29.25 -0.40 250 250 250
0.77 -29.34 -0.40 250 250 250
0.77 -29.43 -0.40 250 250 250
0.77 -29.53 -0.40 249 249 249
0.96 -29.72 -0.57 248 248 248
0.96 -29.81 -0.57 248 248 248
0.96 -29.91 -0.57 248 248 248
0.96 -30.00 -0.57 247 247 247
0.96 -30.09 -0.57 247 247 247
0.96 -30.19 -0.57 247 247 247
0.96 -30.28 -0.57 247 247 247
0.96 -30.37 -0.57 247 247 247
0.96 -30.47 -0.57 247 247 247
0.96 -30.56 -0.57 248 248 248
0.77 -30.55 -0.40 246 246 246
0.77 -30.64 -0.40 242 242 242
0.61 -30.64 -0.25 242 242 242
1.83 20.24 -1.49 113 107 107
1.83 20.15 -1.49 125 117 114
1.65 19.93 -1.32 122 115 109
1.46 19.71 -1.15 123 116 106
1.46 19.62 -1.15 120 113 103
1.65 19.65 -1.32 120 118 106
1.65 19.55 -1.32 118 116 104
1.65 19.46 -1.32 122 118 109
1.65 19.36 -1.32 122 118 109
1.65 19.27 -1.32 123 119 110
1.65 19.17 -1.32 124 120 111
1.65 19.08 -1.32 123 118 112
1.65 18.98 -1.32 122 117 111
1.65 18.89 -1.32 121 116 112
1.83 18.91 -1.49 122 117 113
1.83 18.81 -1.49 125 120 116
1.83 18.72 -1.49 124 119 115
1.83 18.62 -1.49 124 119 113
1.65 18.41 -1.32 124 119 113
1.65 18.32 -1.32 124 120 111
1.65 18.22 -1.32 125 121 112
1.65 18.13 -1.32 126 122 113
1.65 18.03 -1.32 123 120 113
1.65 17.94 -1.32 123 120 113
1.83 17.95 -1.49 124 121 114
1.83 17.86 -1.49 124 121 114
1.83 17.76 -1.49 124 121 114
1.65 17.56 -1.32 125 122 115
1.65 17.46 -1.32 125 122 115
1.65 17.37 -1.32 126 123 116
1.65 17.27 -1.32 127 122 118
1.65 17.18 -1.32 127 122 118
1.65 17.08 -1.32 128 123 119
1.83 17.10 -1.49 128 123 119
1.83 17.00 -1.49 128 123 119
1.83 16.90 -1.49 128 123 119
1.83 16.81 -1.49 127 122 118
1.83 16.71 -1.49 127 122 118
1.65 16.51 -1.32 126 121 117
1.65 16.42 -1.32 127 122 118
1.65 16.32 -1.32 127 122 118
1.65 16.23 -1.32 127 122 118
1.65 16.13 -1.32 127 122 118
1.65 16.04 -1.32 127 122 118
1.65 15.94 -1.32 127 122 118
1.65 15.85 -1.32 126 121 117
1.65 15.75 -1.32 127 122 118
1.65 15.66 -1.32 128 123 117
1.65 15.56 -1.32 129 124 118
1.65 15.47 -1.32 130 126 115
1.65 15.37 -1.32 131 127 116
1.65 15.28 -1.32 131 127 116
1.65 15.18 -1.32 132 128 117
1.65 15.09 -1.32 132 128 117
1.65 14.99 -1.32 131 127 116
1.65 14.90 -1.32 131 127 116
1.65 14.80 -1.32 131 127 118
1.65 14.71 -1.32 130 127 118
1.65 14.61 -1.32 129 126 119
1.65 14.52 -1.32 128 125 120
1.65 14.42 -1.32 127 124 119
1.65 14.33 -1.32 126 125 121
1.65 14.23 -1.32 126 125 121
1.65 14.14 -1.32 129 125 122
1.65 14.04 -1.32 129 125 122
1.65 13.95 -1.32 129 125 122
1.65 13.85 -1.32 129 125 122
1.65 13.76 -1.32 130 126 123
1.65 13.66 -1.32 130 129 125
1.65 13.57 -1.32 130 129 125
1.65 13.47 -1.32 131 130 126
1.65 13.38 -1.32 130 129 125
1.65 13.28 -1.32 131 128 123
1.65 13.19 -1.32 131 128 123
1.65 13.09 -1.32 130 127 120
1.65 13.00 -1.32 131 128 121
1.65 12.90 -1.32 133 130 121
1.65 12.81 -1.32 131 128 119
1.46 12.62 -1.15 131 128 119
1.46 12.53 -1.15 132 129 120
1.65 12.52 -1.32 130 130 122
1.65 12.43 -1.32 129 129 121
1.65 12.33 -1.32 130 130 122
1.65 12.24 -1.32 131 130 125
1.65 12.14 -1.32 129 126 121
1.65 12.05 -1.32 129 125 122
1.65 11.95 -1.32 130 126 123
1.65 11.86 -1.32 129 125 122
1.65 11.76 -1.32 128 124 121
1.65 11.67 -1.32 126 122 119
1.65 11.57 -1.32 125 122 117
1.65 11.48 -1.32 127 122 116
1.65 11.38 -1.32 128 123 117
1.65 11.29 -1.32 127 123 114
1.65 11.19 -1.32 126 122 113
1.65 11.10 -1.32 126 122 113
1.65 11.00 -1.32 127 123 114
1.65 10.91 -1.32 127 123 114
1.65 10.81 -1.32 126 122 113
1.65 10.72 -1.32 128 124 115
1.65 10.62 -1.32 128 124 115
1.65 10.53 -1.32 126 123 114
1.65 10.43 -1.32 125 122 113
1.65 10.34 -1.32 123 121 109
1.65 10.24 -1.32 122 120 108
1.65 10.15 -1.32 122 118 107
1.65 10.05 -1.32 122 118 109
1.65 9.96 -1.32 121 117 108
1.65 9.86 -1.32 121 116 112
1.65 9.77 -1.32 118 117 112
1.65 9.67 -1.32 118 118 116
1.65 9.58 -1.32 111 117 115
-2.40 7.84 2.38 89 99 98
-2.40 7.75 2.38 144 158 158
-2.40 7.66 2.38 171 192 195
-2.40 7.58 2.38 153 187 199
-2.40 7.49 2.38 155 189 199
-2.40 7.41 2.38 167 197 205
-2.40 7.32 2.38 174 205 210
-2.40 7.24 2.38 176 205 209
-2.40 7.15 2.38 172 203 206
-2.40 7.06 2.38 170 201 204
-2.56 6.92 2.52 168 204 204
-2.56 6.83 2.52 166 200 199
-2.56 6.75 2.52 158 189 181
-2.40 6.72 2.38 170 196 183
-2.40 6.64 2.38 191 213 190
-2.40 6.55 2.38 229 244 215
-2.27 6.51 2.25 240 250 213
-2.11 6.49 2.11 241 245 208
-1.79 6.51 1.82 251 254 223
-1.63 6.49 1.67 248 248 220
-1.63 6.40 1.67 253 255 229
-1.47 6.37 1.53 245 248 221
-1.31 6.34 1.38 240 244 219
-1.16 6.30 1.24 244 248 223
-0.97 6.28 1.07 239 245 219
-0.97 6.19 1.07 245 251 225
-0.81 6.16 0.92 250 255 230
-0.81 6.07 0.92 253 255 233
-0.81 5.98 0.92 254 255 234
-0.81 5.89 0.92 254 255 233
-0.81 5.80 0.92 253 255 232
-0.81 5.71 0.92 255 255 232
-0.97 5.57 1.07 255 255 233
-0.97 5.48 1.07 255 255 237
-0.97 5.39 1.07 252 255 238
-0.97 5.30 1.07 251 253 239
-1.16 5.15 1.24 253 255 244
-1.16 5.06 1.24 251 254 245
-1.31 4.93 1.38 248 251 244
-1.31 4.84 1.38 251 253 248
-1.31 4.75 1.38 254 255 251
-1.31 4.66 1.38 251 252 246
-1.31 4.57 1.38 248 249 243
-1.63 4.39 1.67 253 254 246
-1.79 4.25 1.82 254 255 247
-1.79 4.16 1.82 255 255 250
-1.79 4.08 1.82 251 250 246
-1.79 3.99 1.82 241 240 236
-1.79 3.90 1.82 254 255 250
-1.79 3.81 1.82 252 255 250
-1.79 3.73 1.82 246 252 242
-1.79 3.64 1.82 254 255 246
-1.63 3.60 1.67 254 254 242
-1.63 3.51 1.67 255 255 244
-1.16 3.56 1.24 245 248 231
-1.16 3.47 1.24 237 241 224
-1.16 3.38 1.24 249 255 239
-1.16 3.29 1.24 232 246 223
-2.40 2.52 2.38 254 255 235
-2.40 2.44 2.38 237 241 218
-2.56 2.31 2.52 228 237 210
-2.56 2.22 2.52 215 227 203
-2.56 2.14 2.52 186 205 183
-2.40 2.09 2.38 173 197 181
-2.40 2.01 2.38 162 192 182
-2.40 1.92 2.38 162 197 191
-2.27 1.87 2.25 153 195 193
-2.11 1.82 2.11 155 201 201
-1.95 1.77 1.96 111 159 161
-1.95 1.69 1.96 81 132 136
-3.88 0.15 3.73 49 120 124
-3.88 0.07 3.73 42 117 122
-3.88 -0.01 3.73 44 117 123
-3.75 -0.07 3.61 48 117 122
-3.75 -0.15 3.61 52 115 120
-3.75 -0.23 3.61 56 111 114
-3.75 -0.32 3.61 55 103 105
-3.75 -0.40 3.61 50 90 92
-3.59 -0.45 3.46 48 79 81
-3.59 -0.53 3.46 77 99 96
-3.59 -0.62 3.46 117 134 128
-3.59 -0.70 3.46 141 152 146
-3.46 -0.76 3.34 156 161 154
-3.46 -0.84 3.34 159 160 152
-3.46 -0.92 3.34 186 177 168
-3.30 -0.98 3.20 190 177 169
-3.17 -1.21 3.08 88 59 55
-3.17 -1.29 3.08 104 64 64
-3.17 -1.38 3.08 111 63 61
-3.17 -1.46 3.08 124 65 67
-3.01 -1.52 2.93 118 52 53
-3.01 -1.60 2.93 115 35 34
-3.01 -1.69 2.93 125 28 19
-3.01 -1.77 2.93 137 30 20
-2.88 -1.84 2.81 143 34 27
-2.88 -1.92 2.81 134 29 25
-2.72 -1.98 2.67 127 34 29
-2.72 -2.07 2.67 136 67 60
-2.56 -2.13 2.52 136 107 91
-2.56 -2.22 2.52 124 117 99
-2.56 -2.30 2.52 132 126 114
-2.56 -2.39 2.52 126 123 114
-0.15 -2.34 0.32 204 229 225
-0.15 -2.43 0.32 179 211 208
-0.15 -2.52 0.32 192 231 228
-0.31 -2.63 0.47 149 185 185
-0.31 -2.72 0.47 183 219 219
-0.31 -2.81 0.47 191 230 229
-0.15 -2.88 0.32 168 207 206
-0.15 -2.97 0.32 169 207 208
-0.15 -3.06 0.32 183 221 222
-0.15 -3.15 0.32 175 216 218
-0.15 -3.24 0.32 176 217 219
-0.15 -3.33 0.32 170 214 215
-0.15 -3.43 0.32 167 211 212
-0.31 -3.53 0.47 163 209 209
-0.31 -3.62 0.47 162 208 208
-0.31 -3.71 0.47 160 208 208
-0.31 -3.80 0.47 160 208 208
-0.31 -3.89 0.47 159 207 207
-0.31 -3.98 0.47 159 207 209
-0.31 -4.07 0.47 159 207 209
-0.31 -4.17 0.47 157 205 209
-0.31 -4.26 0.47 152 201 205
-0.15 -4.33 0.32 148 197 202
-0.15 -4.42 0.32 144 197 201
-0.15 -4.52 0.32 140 195 202
-0.15 -4.61 0.32 133 190 199
-0.15 -4.70 0.32 128 187 201
-0.15 -4.79 0.32 116 173 190
-0.15 -4.88 0.32 123 179 194
-0.15 -4.97 0.32 127 176 191
-0.15 -5.06 0.32 99 145 158
-0.15 -5.15 0.32 105 145 155
-2.72 -5.55 2.67 222 248 247
-2.72 -5.64 2.67 221 241 240
-2.72 -5.72 2.67 223 243 242
-2.56 -5.80 2.52 229 245 245
-2.56 -5.89 2.52 230 244 244
-2.56 -5.97 2.52 233 245 245
-2.56 -6.06 2.52 235 247 247
-2.56 -6.14 2.52 233 245 245
-2.56 -6.23 2.52 231 247 246
-2.56 -6.31 2.52 244 255 255
1.65 -6.47 -1.32 151 167 167
1.65 -6.57 -1.32 155 171 171
1.65 -6.66 -1.32 154 168 169
1.65 -6.76 -1.32 154 168 169
1.65 -6.85 -1.32 157 172 169
1.46 -6.95 -1.15 158 173 170
1.46 -7.05 -1.15 157 172 169
1.46 -7.14 -1.15 157 171 171
1.46 -7.24 -1.15 156 170 170
1.46 -7.33 -1.15 158 170 170
1.46 -7.42 -1.15 158 170 170
1.46 -7.52 -1.15 161 171 170
1.46 -7.61 -1.15 162 172 171
1.46 -7.71 -1.15 163 174 170
1.46 -7.80 -1.15 164 175 171
1.28 -7.90 -0.98 167 178 172
1.28 -7.99 -0.98 172 183 177
1.46 -8.09 -1.15 175 184 179
1.46 -8.18 -1.15 174 183 178
1.46 -8.28 -1.15 177 188 184
1.46 -8.37 -1.15 178 189 185
1.46 -8.46 -1.15 180 191 187
1.46 -8.56 -1.15 180 191 187
1.46 -8.65 -1.15 179 190 186
1.46 -8.75 -1.15 179 190 186
1.46 -8.84 -1.15 179 190 186
1.28 -8.93 -0.98 180 191 187
1.28 -9.02 -0.98 180 191 185
1.46 -9.13 -1.15 178 189 183
1.46 -9.22 -1.15 179 190 184
1.28 -9.31 -0.98 181 192 186
1.09 -9.39 -0.82 183 194 188
1.09 -9.49 -0.82 182 193 187
1.09 -9.58 -0.82 181 192 186
1.09 -9.67 -0.82 185 195 187
1.09 -9.77 -0.82 185 195 187
1.09 -9.86 -0.82 186 196 188
1.28 -9.97 -0.98 186 196 188
1.28 -10.06 -0.98 186 196 188
1.28 -10.15 -0.98 186 196 188
1.28 -10.25 -0.98 186 196 188
1.28 -10.34 -0.98 186 196 188
1.46 -10.45 -1.15 185 194 189
1.46 -10.55 -1.15 184 193 188
1.46 -10.64 -1.15 184 193 188
1.46 -10.73 -1.15 184 193 188
1.46 -10.83 -1.15 186 195 192
1.46 -10.92 -1.15 186 195 192
1.46 -11.02 -1.15 185 194 191
1.46 -11.11 -1.15 183 192 189
1.46 -11.21 -1.15 184 195 191
1.46 -11.30 -1.15 184 195 191
1.46 -11.40 -1.15 184 195 191
1.28 -11.47 -0.98 185 194 191
1.28 -11.57 -0.98 185 194 191
1.28 -11.66 -0.98 187 193 191
1.28 -11.75 -0.98 187 193 191
1.28 -11.85 -0.98 189 195 193
1.09 -11.92 -0.82 189 195 193
1.09 -12.02 -0.82 188 197 194
1.28 -12.13 -0.98 187 196 193
1.28 -12.23 -0.98 186 197 193
1.28 -12.32 -0.98 185 196 192
1.09 -12.39 -0.82 186 197 193
1.09 -12.48 -0.82 186 197 193
1.09 -12.58 -0.82 188 197 192
1.09 -12.67 -0.82 188 197 192
1.09 -12.77 -0.82 188 197 192
1.09 -12.86 -0.82 188 197 192
1.09 -12.95 -0.82 191 197 193
1.09 -13.05 -0.82 192 198 194
1.09 -13.14 -0.82 192 198 194
1.09 -13.23 -0.82 193 199 195
1.09 -13.33 -0.82 194 200 196
1.09 -13.42 -0.82 194 200 196
1.09 -13.52 -0.82 194 201 194
1.09 -13.61 -0.82 191 201 193
1.09 -13.70 -0.82 190 200 192
1.09 -13.80 -0.82 190 200 192
1.09 -13.89 -0.82 191 200 195
1.09 -13.98 -0.82 192 201 196
1.09 -14.08 -0.82 192 201 198
1.09 -14.17 -0.82 193 202 199
1.09 -14.27 -0.82 194 203 200
1.09 -14.36 -0.82 194 203 200
1.09 -14.45 -0.82 195 204 201
1.09 -14.55 -0.82 194 203 200
1.09 -14.64 -0.82 194 203 200
1.09 -14.73 -0.82 195 204 201
1.09 -14.83 -0.82 195 204 201
1.09 -14.92 -0.82 196 205 202
1.09 -15.02 -0.82 196 205 202
1.09 -15.11 -0.82 197 206 203
1.09 -15.20 -0.82 198 207 204
1.09 -15.30 -0.82 198 207 204
1.09 -15.39 -0.82 199 208 205
1.09 -15.48 -0.82 202 209 202
1.09 -15.58 -0.82 203 210 203
1.09 -15.67 -0.82 203 209 205
1.09 -15.76 -0.82 204 210 206
1.09 -15.86 -0.82 205 211 207
1.09 -15.95 -0.82 206 212 208
1.09 -16.05 -0.82 206 212 208
1.09 -16.14 -0.82 206 212 210
1.09 -16.23 -0.82 207 213 211
1.09 -16.33 -0.82 210 214 213
1.09 -16.42 -0.82 211 215 214
1.09 -16.51 -0.82 212 216 215
1.09 -16.61 -0.82 213 217 216
1.09 -16.70 -0.82 215 219 220
1.09 -16.80 -0.82 216 220 221
1.09 -16.89 -0.82 218 224 222
1.09 -16.98 -0.82 218 224 222
1.09 -17.08 -0.82 219 225 223
1.09 -17.17 -0.82 220 226 224
1.09 -17.26 -0.82 221 227 225
1.09 -17.36 -0.82 223 229 227
1.09 -17.45 -0.82 226 232 230
1.09 -17.55 -0.82 228 234 232
1.09 -17.64 -0.82 231 237 235
1.28 -17.78 -0.98 232 238 236
1.28 -17.87 -0.98 234 238 237
1.28 -17.97 -0.98 234 238 237
1.09 -18.01 -0.82 233 237 236
1.09 -18.11 -0.82 233 237 236
1.09 -18.20 -0.82 236 238 237
1.09 -18.30 -0.82 243 245 244
1.09 -18.39 -0.82 242 242 242
1.09 -18.48 -0.82 240 240 240
1.09 -18.58 -0.82 240 240 240
1.09 -18.67 -0.82 241 241 241
1.09 -18.76 -0.82 241 241 241
1.09 -18.86 -0.82 242 242 242
1.09 -18.95 -0.82 243 243 243
1.09 -19.04 -0.82 243 243 243
1.09 -19.14 -0.82 244 244 244
1.09 -19.23 -0.82 244 244 244
1.09 -19.33 -0.82 245 245 245
1.09 -19.42 -0.82 246 246 246
1.09 -19.51 -0.82 248 248 248
1.09 -19.61 -0.82 250 250 250
1.09 -19.70 -0.82 252 252 252
1.09 -19.79 -0.82 249 249 249
1.28 -19.94 -0.98 250 250 250
1.28 -20.04 -0.98 250 250 250
1.09 -20.08 -0.82 251 251 251
1.09 -20.17 -0.82 251 251 251
1.09 -20.26 -0.82 250 250 250
1.09 -20.36 -0.82 249 249 249
1.09 -20.45 -0.82 248 248 248
1.09 -20.54 -0.82 247 247 247
1.09 -20.64 -0.82 246 246 246
1.09 -20.73 -0.82 245 245 245
1.09 -20.83 -0.82 244 244 244
1.09 -20.92 -0.82 246 246 246
1.09 -21.01 -0.82 250 250 250
1.09 -21.11 -0.82 252 252 252
1.09 -21.20 -0.82 251 251 251
1.09 -21.29 -0.82 252 252 252
1.09 -21.39 -0.82 253 253 253
1.09 -21.48 -0.82 253 253 253
1.09 -21.58 -0.82 252 252 252
1.09 -21.67 -0.82 252 252 252
1.09 -21.76 -0.82 251 253 252
1.09 -22.23 -0.82 253 255 254
1.09 -22.32 -0.82 253 255 254
1.09 -22.42 -0.82 253 255 254
1.09 -22.51 -0.82 251 255 254
1.09 -22.61 -0.82 251 253 252
1.09 -22.70 -0.82 251 253 252
1.09 -22.79 -0.82 251 253 252
1.09 -22.89 -0.82 252 254 253
1.09 -22.98 -0.82 250 254 253
1.09 -23.07 -0.82 250 254 253
1.09 -23.17 -0.82 250 254 253
0.91 -23.19 -0.65 250 254 253
0.91 -23.28 -0.65 250 254 253
1.09 -23.45 -0.82 250 254 253
1.09 -23.54 -0.82 252 254 253
1.09 -23.64 -0.82 252 254 253
1.09 -23.73 -0.82 253 253 253
1.09 -23.82 -0.82 253 253 253
1.09 -23.92 -0.82 253 253 253
1.09 -24.01 -0.82 253 253 253
1.09 -24.11 -0.82 252 254 253
1.09 -24.20 -0.82 251 253 252
1.09 -24.29 -0.82 250 252 251
1.09 -24.39 -0.82 251 253 252
1.09 -24.48 -0.82 252 254 253
0.91 -24.50 -0.65 253 255 254
0.91 -24.59 -0.65 252 254 253
0.91 -24.68 -0.65 251 253 252
0.91 -24.78 -0.65 251 253 252
0.91 -24.87 -0.65 249 253 252
0.91 -24.96 -0.65 250 254 253
0.91 -25.06 -0.65 250 254 253
0.91 -25.15 -0.65 250 254 253
0.91 -25.24 -0.65 249 253 252
0.91 -25.34 -0.65 251 253 252
0.91 -25.43 -0.65 252 254 253
0.91 -25.52 -0.65 254 254 254
0.91 -25.62 -0.65 254 254 254
0.91 -25.71 -0.65 253 253 253
0.91 -25.80 -0.65 251 251 251
1.09 -25.98 -0.82 250 250 250
1.09 -26.07 -0.82 251 251 251
1.09 -26.17 -0.82 252 252 252
0.91 -26.18 -0.65 252 252 252
1.09 -26.35 -0.82 252 252 252
1.09 -26.45 -0.82 252 252 252
1.09 -26.54 -0.82 251 251 251
1.09 -26.64 -0.82 251 251 251
0.91 -26.64 -0.65 251 251 251
0.91 -26.74 -0.65 251 251 251
0.91 -26.83 -0.65 250 250 250
0.91 -26.92 -0.65 253 253 253
0.91 -27.02 -0.65 252 252 252
0.91 -27.11 -0.65 251 251 251
0.91 -27.20 -0.65 251 251 251
0.91 -27.29 -0.65 250 250 250
0.91 -27.39 -0.65 250 250 250
0.91 -27.48 -0.65 250 250 250
0.91 -27.57 -0.65 251 251 251
0.91 -27.67 -0.65 251 251 251
0.91 -27.76 -0.65 251 251 251
0.91 -27.85 -0.65 251 251 251
1.09 -28.04 -0.82 251 251 251
1.09 -28.14 -0.82 251 251 251
0.91 -28.13 -0.65 251 251 251
0.91 -28.23 -0.65 250 250 250
0.91 -28.32 -0.65 250 250 250
0.91 -28.41 -0.65 250 250 250
0.91 -28.51 -0.65 250 250 250
0.91 -28.60 -0.65 249 249 249
0.72 -28.60 -0.48 248 248 248
0.72 -28.69 -0.48 248 248 248
0.72 -28.78 -0.48 249 249 249
0.72 -28.88 -0.48 250 250 250
0.72 -28.97 -0.48 250 250 250
0.72 -29.06 -0.48 249 249 249
0.72 -29.15 -0.48 248 248 248
0.72 -29.25 -0.48 249 249 249
0.72 -29.34 -0.48 250 250 250
0.72 -29.43 -0.48 250 250 250
0.72 -29.53 -0.48 250 250 250
0.72 -29.62 -0.48 249 249 249
0.72 -29.71 -0.48 248 248 248
0.72 -29.80 -0.48 247 247 247
0.91 -30.00 -0.65 246 246 246
0.91 -30.09 -0.65 246 246 246
0.91 -30.19 -0.65 247 247 247
0.72 -30.18 -0.48 247 247 247
0.72 -30.27 -0.48 248 248 248
0.72 -30.36 -0.48 249 249 249
0.72 -30.45 -0.48 251 251 251
0.72 -30.55 -0.48 251 251 251
0.56 -30.55 -0.33 248 248 248
0.56 -30.64 -0.33 247 247 247
1.42 19.81 -1.24 121 114 108
1.23 19.59 -1.07 121 117 106
1.23 19.50 -1.07 121 117 106
1.42 19.53 -1.24 119 117 105
1.42 19.43 -1.24 116 114 102
1.60 19.46 -1.40 123 119 110
1.60 19.36 -1.40 124 120 111
1.60 19.27 -1.40 124 120 111
1.60 19.17 -1.40 125 121 112
1.60 19.08 -1.40 124 119 113
1.60 18.98 -1.40 123 118 112
1.60 18.89 -1.40 123 118 114
1.60 18.79 -1.40 124 119 115
1.60 18.70 -1.40 123 118 114
1.60 18.60 -1.40 123 118 114
1.60 18.51 -1.40 124 119 113
1.60 18.41 -1.40 124 119 113
1.60 18.32 -1.40 124 120 111
1.60 18.22 -1.40 124 120 111
1.60 18.13 -1.40 125 121 112
1.60 18.03 -1.40 124 119 113
1.60 17.94 -1.40 125 120 114
1.60 17.84 -1.40 126 121 115
1.60 17.75 -1.40 126 121 115
1.60 17.65 -1.40 125 120 114
1.42 17.45 -1.24 125 120 114
1.42 17.35 -1.24 125 120 114
1.42 17.26 -1.24 125 120 114
1.60 17.27 -1.40 126 121 115
1.60 17.18 -1.40 126 121 115
1.60 17.08 -1.40 127 122 116
1.60 16.99 -1.40 127 122 116
1.60 16.89 -1.40 127 122 116
1.60 16.80 -1.40 126 121 115
1.60 16.70 -1.40 126 121 115
1.60 16.61 -1.40 126 121 117
1.60 16.51 -1.40 125 122 117
1.60 16.42 -1.40 126 122 119
1.60 16.32 -1.40 126 122 119
1.60 16.23 -1.40 127 123 120
1.60 16.13 -1.40 127 123 120
1.42 15.93 -1.24 129 124 121
1.42 15.84 -1.24 129 124 121
1.42 15.74 -1.24 127 122 119
1.42 15.65 -1.24 128 123 120
1.42 15.55 -1.24 129 124 120
1.42 15.46 -1.24 130 125 121
1.42 15.36 -1.24 130 126 117
1.42 15.27 -1.24 130 126 117
1.42 15.18 -1.24 131 127 118
1.42 15.08 -1.24 131 127 118
1.42 14.99 -1.24 131 127 116
1.42 14.89 -1.24 130 126 115
1.42 14.80 -1.24 130 126 115
1.42 14.70 -1.24 131 127 116
1.42 14.61 -1.24 130 127 118
1.42 14.51 -1.24 131 128 119
1.42 14.42 -1.24 130 127 120
1.42 14.32 -1.24 130 127 120
1.60 14.33 -1.40 126 125 120
1.60 14.23 -1.40 126 125 120
1.60 14.14 -1.40 126 125 121
1.60 14.04 -1.40 127 126 122
1.60 13.95 -1.40 127 126 122
1.60 13.85 -1.40 127 126 122
1.60 13.76 -1.40 128 127 125
1.60 13.66 -1.40 129 128 126
1.60 13.57 -1.40 130 128 129
1.42 13.38 -1.24 130 129 127
1.42 13.28 -1.24 130 129 127
1.42 13.19 -1.24 132 128 125
1.42 13.10 -1.24 132 128 125
1.42 13.00 -1.24 132 129 124
1.42 12.91 -1.24 132 129 124
1.42 12.81 -1.24 131 128 121
1.42 12.72 -1.24 130 127 120
1.42 12.62 -1.24 130 127 120
1.42 12.53 -1.24 131 128 121
1.42 12.43 -1.24 129 129 121
1.60 12.43 -1.40 128 128 120
1.60 12.33 -1.40 129 129 121
1.42 12.15 -1.24 130 129 124
1.42 12.06 -1.24 130 127 122
1.42 11.96 -1.24 129 125 122
1.42 11.87 -1.24 128 124 121
1.60 11.86 -1.40 127 123 120
1.60 11.76 -1.40 127 122 118
1.42 11.58 -1.24 127 122 118
1.42 11.49 -1.24 127 122 118
1.60 11.48 -1.40 130 125 119
1.60 11.38 -1.40 130 125 119
1.60 11.29 -1.40 129 125 116
1.60 11.19 -1.40 127 123 114
1.60 11.10 -1.40 129 122 114
1.60 11.00 -1.40 128 121 113
1.60 10.91 -1.40 128 121 113
1.60 10.81 -1.40 127 120 112
1.60 10.72 -1.40 128 124 115
1.60 10.62 -1.40 127 123 114
1.60 10.53 -1.40 126 123 114
1.60 10.43 -1.40 125 122 113
1.42 10.26 -1.24 124 122 110
1.42 10.16 -1.24 123 121 109
1.42 10.07 -1.24 123 119 108
1.42 9.97 -1.24 123 119 110
1.42 9.88 -1.24 124 120 111
1.42 9.79 -1.24 115 110 106
1.42 9.69 -1.24 120 119 114
1.42 9.60 -1.24 115 115 113
1.42 9.50 -1.24 104 110 108
-2.60 7.77 2.45 105 115 116
-2.44 7.75 2.30 175 191 190
-2.44 7.66 2.30 163 184 187
-2.44 7.58 2.30 155 189 199
-2.44 7.49 2.30 160 193 200
-2.44 7.41 2.30 167 200 207
-2.44 7.32 2.30 174 205 208
-2.60 7.17 2.45 173 204 207
-2.60 7.09 2.45 169 203 205
-2.60 7.00 2.45 168 202 204
-2.60 6.92 2.45 166 200 201
-2.60 6.83 2.45 171 203 202
-2.60 6.75 2.45 166 199 192
-2.60 6.66 2.45 159 187 175
-2.44 6.64 2.30 160 184 168
-2.44 6.55 2.30 181 200 180
-2.44 6.46 2.30 208 222 197
-2.31 6.43 2.18 226 236 211
-1.99 6.46 1.89 247 251 224
-1.83 6.43 1.74 242 245 218
-1.83 6.34 1.74 237 241 214
-1.68 6.31 1.60 233 237 210
-1.36 6.34 1.31 241 247 221
-1.20 6.30 1.16 249 255 229
-1.20 6.22 1.16 241 250 223
-1.01 6.19 0.99 247 255 229
-1.01 6.10 0.99 251 255 233
-0.86 6.07 0.85 250 255 232
-0.86 5.98 0.85 250 255 232
-0.86 5.89 0.85 247 253 227
-0.86 5.80 0.85 246 252 226
-0.86 5.71 0.85 249 253 228
-0.86 5.62 0.85 249 253 230
-1.01 5.48 0.99 252 255 241
-1.01 5.39 0.99 252 255 244
-1.01 5.30 0.99 252 255 246
-1.01 5.21 0.99 250 255 248
-1.20 5.06 1.16 251 255 250
-1.36 4.93 1.31 252 255 253
-1.52 4.79 1.45 251 255 255
-1.52 4.70 1.45 248 254 252
-1.68 4.56 1.60 250 255 252
-1.68 4.47 1.60 251 255 253
-1.83 4.34 1.74 249 255 249
-1.83 4.25 1.74 251 255 253
-1.83 4.16 1.74 247 252 248
-1.99 4.03 1.89 249 253 252
-1.99 3.94 1.89 252 255 255
-1.99 3.85 1.89 244 248 249
-1.99 3.77 1.89 249 255 255
-1.83 3.73 1.74 246 252 250
-1.83 3.64 1.74 252 255 251
-1.83 3.55 1.74 255 255 246
-1.68 3.51 1.60 255 253 241
-1.36 3.51 1.31 249 250 234
-1.20 3.47 1.16 255 255 241
-2.76 2.44 2.59 255 249 239
-2.60 2.39 2.45 235 233 221
-2.76 2.27 2.59 208 223 204
-2.60 2.22 2.45 193 216 196
-2.60 2.14 2.45 170 197 182
-2.60 2.05 2.45 170 200 190
-2.44 2.01 2.30 158 195 187
-2.44 1.92 2.30 158 199 195
-2.31 1.87 2.18 148 192 193
-2.15 1.82 2.03 156 201 204
-1.99 1.77 1.89 131 180 184
-1.99 1.69 1.89 88 137 141
-3.92 -0.01 3.66 51 113 124
-3.92 -0.09 3.66 51 114 123
-3.79 -0.15 3.54 51 108 119
-3.79 -0.23 3.54 60 113 121
-3.79 -0.32 3.54 61 108 118
-3.79 -0.40 3.54 63 103 113
-3.63 -0.45 3.39 60 90 98
-3.63 -0.53 3.39 67 85 85
-3.63 -0.62 3.39 100 109 104
-3.50 -0.67 3.27 129 131 126
-3.50 -0.76 3.27 150 147 140
-3.50 -0.84 3.27 159 152 144
-3.50 -0.92 3.27 178 164 153
-3.34 -0.98 3.12 168 150 140
-3.05 -1.01 2.86 127 105 94
-3.05 -1.10 2.86 58 29 21
-3.05 -1.18 2.86 97 64 55
-3.21 -1.29 3.00 106 63 56
-3.21 -1.38 3.00 107 57 50
-3.05 -1.43 2.86 109 49 41
-3.05 -1.52 2.86 109 40 33
-3.05 -1.60 2.86 119 34 29
-3.05 -1.69 2.86 141 29 25
-2.92 -1.75 2.74 153 29 29
-2.92 -1.84 2.74 154 29 33
-2.76 -1.90 2.59 142 27 34
-2.60 -1.96 2.45 137 42 46
-2.60 -2.04 2.45 151 82 85
-2.44 -2.11 2.30 150 115 111
-2.44 -2.19 2.30 133 118 113
-2.44 -2.28 2.30 134 126 124
-2.60 -2.39 2.45 109 107 108
-0.35 -2.54 0.39 182 211 215
-0.35 -2.63 0.39 168 199 202
-0.35 -2.72 0.39 184 217 222
-0.35 -2.81 0.39 180 215 219
-0.35 -2.90 0.39 173 208 212
-0.35 -2.99 0.39 180 218 221
-0.35 -3.08 0.39 186 224 227
-0.35 -3.17 0.39 182 221 226
-0.35 -3.26 0.39 177 216 221
-0.35 -3.35 0.39 179 220 224
-0.35 -3.44 0.39 176 217 221
-0.35 -3.53 0.39 171 215 218
-0.35 -3.62 0.39 168 212 215
-0.35 -3.71 0.39 165 210 213
-0.35 -3.80 0.39 163 208 211
-0.35 -3.89 0.39 159 207 209
-0.35 -3.98 0.39 158 206 208
-0.35 -4.07 0.39 151 200 204
-0.35 -4.17 0.39 151 200 204
-0.35 -4.26 0.39 149 200 204
-0.35 -4.35 0.39 145 195 202
-0.35 -4.44 0.39 137 192 197
-0.35 -4.53 0.39 132 189 198
-0.35 -4.62 0.39 130 188 199
-0.35 -4.71 0.39 122 184 197
-0.35 -4.80 0.39 118 177 193
-0.35 -4.89 0.39 120 173 187
-0.35 -4.98 0.39 103 151 165
-0.35 -5.07 0.39 104 147 156
-0.35 -5.16 0.39 174 208 217
-0.35 -5.25 0.39 233 255 255
-0.35 -5.34 0.39 229 254 255
-2.92 -5.56 2.74 220 244 244
-2.92 -5.64 2.74 221 241 240
-2.92 -5.73 2.74 226 244 244
-2.76 -5.81 2.59 232 246 247
-2.76 -5.89 2.59 231 245 245
-2.76 -5.98 2.59 235 247 247
-2.76 -6.06 2.59 237 249 247
-2.76 -6.15 2.59 234 246 244
-2.76 -6.23 2.59 238 254 251
-2.76 -6.32 2.59 244 255 255
1.42 -6.48 -1.24 152 168 168
1.42 -6.57 -1.24 156 170 171
1.42 -6.67 -1.24 154 168 169
1.42 -6.76 -1.24 155 166 168
1.42 -6.86 -1.24 156 171 168
1.42 -6.95 -1.24 157 172 169
1.42 -7.05 -1.24 157 172 169
1.23 -7.14 -1.07 157 172 169
1.23 -7.24 -1.07 157 172 169
1.23 -7.33 -1.07 159 171 169
1.23 -7.42 -1.07 160 172 170
1.23 -7.52 -1.07 161 172 168
1.23 -7.61 -1.07 162 173 169
1.23 -7.71 -1.07 162 173 169
1.23 -7.80 -1.07 163 174 170
1.23 -7.90 -1.07 167 178 174
1.23 -7.99 -1.07 171 182 178
1.23 -8.08 -1.07 175 184 179
1.23 -8.18 -1.07 174 183 178
1.23 -8.27 -1.07 176 187 183
1.23 -8.37 -1.07 178 189 185
1.23 -8.46 -1.07 180 191 187
1.23 -8.55 -1.07 181 192 188
1.05 -8.64 -0.90 181 192 188
1.05 -8.74 -0.90 180 191 187
1.05 -8.83 -0.90 181 192 188
1.05 -8.92 -0.90 181 192 188
1.05 -9.02 -0.90 180 191 185
1.23 -9.12 -1.07 178 189 183
1.23 -9.21 -1.07 179 190 184
1.05 -9.30 -0.90 180 191 185
1.05 -9.39 -0.90 181 192 186
1.05 -9.49 -0.90 182 193 187
1.05 -9.58 -0.90 181 192 186
1.05 -9.67 -0.90 182 193 185
1.05 -9.77 -0.90 182 193 185
1.05 -9.86 -0.90 183 194 186
1.05 -9.95 -0.90 183 194 186
1.05 -10.05 -0.90 183 194 186
1.05 -10.14 -0.90 184 195 187
1.05 -10.24 -0.90 184 195 189
1.05 -10.33 -0.90 184 195 189
1.23 -10.44 -1.07 186 195 190
1.23 -10.53 -1.07 185 194 189
1.23 -10.63 -1.07 186 195 192
1.23 -10.72 -1.07 187 196 193
1.23 -10.81 -1.07 188 197 194
1.23 -10.91 -1.07 187 196 193
1.23 -11.00 -1.07 186 195 192
1.23 -11.10 -1.07 185 194 191
1.23 -11.19 -1.07 187 198 194
1.23 -11.28 -1.07 187 198 194
1.23 -11.38 -1.07 185 196 192
1.23 -11.47 -1.07 186 195 192
1.05 -11.55 -0.90 185 194 191
1.05 -11.64 -0.90 187 193 191
1.05 -11.74 -0.90 187 193 191
1.05 -11.83 -0.90 190 196 194
1.05 -11.92 -0.90 190 196 194
1.05 -12.02 -0.90 188 197 194
1.05 -12.11 -0.90 188 197 194
1.05 -12.20 -0.90 186 197 193
1.05 -12.30 -0.90 186 197 193
1.05 -12.39 -0.90 186 197 193
1.05 -12.48 -0.90 187 198 194
1.05 -12.58 -0.90 189 198 193
1.05 -12.67 -0.90 189 198 193
1.05 -12.77 -0.90 189 198 193
1.05 -12.86 -0.90 189 198 193
1.05 -12.95 -0.90 191 197 193
0.86 -13.02 -0.73 191 197 193
0.86 -13.11 -0.73 191 197 193
0.86 -13.21 -0.73 191 197 193
0.86 -13.30 -0.73 191 197 193
0.86 -13.39 -0.73 191 197 193
1.05 -13.52 -0.90 192 199 192
1.05 -13.61 -0.90 191 201 193
1.05 -13.70 -0.90 190 200 192
0.86 -13.77 -0.73 191 201 193
0.86 -13.86 -0.73 191 200 195
1.05 -13.98 -0.90 192 201 196
1.05 -14.08 -0.90 193 202 199
1.05 -14.17 -0.90 193 202 199
1.05 -14.27 -0.90 193 202 199
1.05 -14.36 -0.90 193 202 199
1.05 -14.45 -0.90 194 203 200
1.05 -14.55 -0.90 194 203 200
1.05 -14.64 -0.90 195 204 201
1.05 -14.73 -0.90 196 205 202
1.05 -14.83 -0.90 196 205 202
1.05 -14.92 -0.90 197 206 203
1.05 -15.02 -0.90 198 207 204
1.05 -15.11 -0.90 198 207 204
1.05 -15.20 -0.90 198 207 204
1.05 -15.30 -0.90 198 207 204
1.05 -15.39 -0.90 198 207 204
1.05 -15.48 -0.90 201 208 201
1.05 -15.58 -0.90 202 209 202
1.05 -15.67 -0.90 202 209 202
1.05 -15.76 -0.90 203 210 203
1.05 -15.86 -0.90 205 212 205
1.05 -15.95 -0.90 205 211 207
1.05 -16.05 -0.90 206 212 208
1.05 -16.14 -0.90 206 212 210
1.05 -16.23 -0.90 208 214 212
1.05 -16.33 -0.90 210 214 215
1.05 -16.42 -0.90 211 215 216
1.05 -16.51 -0.90 211 215 216
1.05 -16.61 -0.90 212 216 217
1.05 -16.70 -0.90 214 218 219
1.05 -16.80 -0.90 215 219 220
1.05 -16.89 -0.90 215 224 221
1.05 -16.98 -0.90 216 225 222
1.05 -17.08 -0.90 217 226 223
1.05 -17.17 -0.90 218 227 224
1.05 -17.26 -0.90 222 228 226
1.05 -17.36 -0.90 224 230 228
1.05 -17.45 -0.90 226 232 230
1.05 -17.55 -0.90 227 233 231
1.05 -17.64 -0.90 228 234 232
1.05 -17.73 -0.90 229 235 233
1.05 -17.83 -0.90 230 236 234
1.05 -17.92 -0.90 230 236 234
1.05 -18.01 -0.90 232 236 235
1.05 -18.11 -0.90 236 240 239
1.05 -18.20 -0.90 239 241 240
1.05 -18.30 -0.90 242 244 243
1.05 -18.39 -0.90 243 243 243
1.05 -18.48 -0.90 243 243 243
1.05 -18.58 -0.90 244 244 244
1.05 -18.67 -0.90 245 245 245
1.05 -18.76 -0.90 243 243 243
1.05 -18.86 -0.90 242 242 242
1.05 -18.95 -0.90 241 241 241
1.05 -19.04 -0.90 243 243 243
1.05 -19.14 -0.90 244 244 244
1.05 -19.23 -0.90 246 246 246
1.05 -19.33 -0.90 246 246 246
1.05 -19.42 -0.90 246 246 246
1.05 -19.51 -0.90 246 246 246
1.05 -19.61 -0.90 246 246 246
1.05 -19.70 -0.90 246 246 246
0.86 -19.74 -0.73 249 249 249
1.05 -19.89 -0.90 249 249 249
1.05 -19.98 -0.90 249 249 249
1.05 -20.08 -0.90 248 248 248
1.05 -20.17 -0.90 248 248 248
1.05 -20.26 -0.90 248 248 248
1.05 -20.36 -0.90 248 248 248
1.05 -20.45 -0.90 251 251 251
1.05 -20.54 -0.90 252 252 252
1.05 -20.64 -0.90 253 253 253
1.05 -20.73 -0.90 252 252 252
1.05 -20.83 -0.90 250 250 250
1.05 -20.92 -0.90 249 249 249
1.05 -21.01 -0.90 250 250 250
1.05 -21.11 -0.90 251 251 251
1.05 -21.20 -0.90 249 249 249
1.05 -21.29 -0.90 249 249 249
1.05 -21.39 -0.90 250 250 250
1.05 -21.48 -0.90 251 251 251
1.05 -21.58 -0.90 251 251 251
1.05 -21.67 -0.90 252 252 252
1.05 -21.76 -0.90 251 253 252
1.05 -21.86 -0.90 252 254 253
0.86 -21.88 -0.73 253 255 254
1.05 -22.04 -0.90 253 255 254
1.05 -22.14 -0.90 253 255 254
0.86 -22.16 -0.73 253 255 254
0.86 -22.26 -0.73 253 255 254
1.05 -22.42 -0.90 253 255 254
1.05 -22.51 -0.90 250 254 253
1.05 -22.61 -0.90 251 253 252
1.05 -22.70 -0.90 251 253 252
0.86 -22.72 -0.73 251 253 252
0.86 -22.82 -0.73 251 253 252
0.86 -22.91 -0.73 249 253 252
0.86 -23.00 -0.73 250 254 253
0.86 -23.10 -0.73 250 254 253
0.86 -23.19 -0.73 250 254 253
0.86 -23.28 -0.73 250 254 253
1.05 -23.45 -0.90 250 254 253
1.05 -23.54 -0.90 250 254 253
1.05 -23.64 -0.90 250 254 253
1.05 -23.73 -0.90 252 254 253
1.05 -23.82 -0.90 252 254 253
1.05 -24.11 -0.90 252 254 253
1.05 -24.20 -0.90 252 254 253
1.05 -24.29 -0.90 251 253 252
0.86 -24.31 -0.73 252 254 253
0.86 -24.40 -0.73 252 254 253
0.86 -24.50 -0.73 253 255 254
0.86 -24.59 -0.73 253 255 254
0.86 -24.68 -0.73 252 254 253
0.86 -24.78 -0.73 249 253 252
0.86 -24.87 -0.73 249 253 252
0.86 -24.96 -0.73 250 254 253
0.86 -25.06 -0.73 250 254 253
0.86 -25.15 -0.73 249 253 252
0.86 -25.24 -0.73 249 253 252
0.86 -25.34 -0.73 251 253 252
0.86 -25.43 -0.73 253 255 254
0.86 -25.52 -0.73 254 254 254
0.86 -25.62 -0.73 254 254 254
0.86 -25.71 -0.73 253 253 253
0.86 -25.80 -0.73 252 252 252
0.86 -25.90 -0.73 251 251 251
0.86 -25.99 -0.73 252 252 252
0.86 -26.08 -0.73 253 253 253
0.86 -26.18 -0.73 253 253 253
0.86 -26.27 -0.73 253 253 253
0.86 -26.36 -0.73 253 253 253
0.86 -26.46 -0.73 253 253 253
0.86 -26.55 -0.73 253 253 253
0.86 -26.64 -0.73 253 253 253
0.86 -26.74 -0.73 253 253 253
0.86 -26.83 -0.73 252 252 252
0.86 -26.92 -0.73 253 253 253
0.86 -27.02 -0.73 252 252 252
0.86 -27.11 -0.73 251 251 251
0.68 -27.11 -0.56 251 251 251
0.68 -27.20 -0.56 250 250 250
0.68 -27.30 -0.56 250 250 250
0.68 -27.39 -0.56 250 250 250
0.68 -27.48 -0.56 250 250 250
0.68 -27.58 -0.56 250 250 250
0.86 -27.76 -0.73 250 250 250
0.68 -27.76 -0.56 250 250 250
0.86 -27.95 -0.73 250 250 250
0.86 -28.04 -0.73 250 250 250
0.86 -28.13 -0.73 250 250 250
0.68 -28.13 -0.56 250 250 250
0.68 -28.23 -0.56 251 251 251
0.68 -28.32 -0.56 251 251 251
0.68 -28.41 -0.56 251 251 251
0.68 -28.50 -0.56 250 250 250
0.68 -28.60 -0.56 249 249 249
0.68 -28.69 -0.56 249 249 249
0.68 -28.78 -0.56 248 248 248
0.68 -28.88 -0.56 249 249 249
0.52 -28.88 -0.41 249 249 249
0.52 -28.98 -0.41 248 248 248
0.52 -29.07 -0.41 248 248 248
0.68 -29.25 -0.56 248 248 248
0.68 -29.34 -0.56 249 249 249
0.68 -29.43 -0.56 249 249 249
0.68 -29.53 -0.56 248 248 248
0.68 -29.62 -0.56 249 249 249
0.68 -29.71 -0.56 249 249 249
0.68 -29.80 -0.56 248 248 248
0.68 -29.90 -0.56 247 247 247
0.68 -29.99 -0.56 246 246 246
0.68 -30.08 -0.56 246 246 246
0.68 -30.18 -0.56 246 246 246
0.68 -30.27 -0.56 246 246 246
0.68 -30.36 -0.56 244 244 244
0.68 -30.45 -0.56 246 246 246
0.52 -30.46 -0.41 247 247 247
0.52 -30.55 -0.41 245 245 245
0.52 -30.64 -0.41 245 245 245
0.52 -30.73 -0.41 247 247 247
0.68 -30.92 -0.56 246 246 246
0.52 -30.92 -0.41 245 245 245
0.52 -31.01 -0.41 245 245 243
0.52 -31.10 -0.41 243 243 241
0.52 -31.20 -0.41 240 240 238
1.18 19.69 -1.15 123 116 108
1.18 19.59 -1.15 121 117 108
1.18 19.50 -1.15 124 120 111
1.18 19.40 -1.15 121 118 111
1.37 19.43 -1.32 119 116 109
1.37 19.34 -1.32 123 119 110
1.37 19.24 -1.32 124 120 111
1.37 19.15 -1.32 124 120 111
1.37 19.05 -1.32 123 119 110
1.37 18.96 -1.32 123 118 112
1.37 18.86 -1.32 124 119 113
1.37 18.77 -1.32 125 120 116
1.37 18.67 -1.32 125 120 116
1.37 18.58 -1.32 124 119 115
1.37 18.49 -1.32 124 119 115
1.37 18.39 -1.32 125 120 114
1.37 18.30 -1.32 126 121 115
1.37 18.20 -1.32 126 122 113
1.37 18.11 -1.32 125 121 112
1.37 18.01 -1.32 125 120 114
1.37 17.92 -1.32 125 120 114
1.37 17.82 -1.32 126 121 117
1.37 17.73 -1.32 126 121 115
1.37 17.63 -1.32 126 121 115
1.37 17.54 -1.32 125 120 114
1.37 17.45 -1.32 124 119 113
1.37 17.35 -1.32 124 119 113
1.37 17.26 -1.32 124 119 113
1.37 17.16 -1.32 125 121 112
1.37 17.07 -1.32 126 122 113
1.37 16.97 -1.32 126 122 113
1.37 16.88 -1.32 126 122 113
1.37 16.78 -1.32 126 122 113
1.37 16.69 -1.32 126 122 113
1.37 16.59 -1.32 126 122 111
1.37 16.50 -1.32 126 122 113
1.37 16.41 -1.32 125 122 117
1.37 16.31 -1.32 125 121 118
1.37 16.22 -1.32 126 122 119
1.37 16.12 -1.32 127 123 120
1.37 16.03 -1.32 127 123 120
1.37 15.93 -1.32 128 124 123
1.37 15.84 -1.32 128 124 123
1.37 15.74 -1.32 127 123 120
1.37 15.65 -1.32 128 124 121
1.37 15.55 -1.32 131 126 123
1.37 15.46 -1.32 131 126 123
1.37 15.36 -1.32 131 126 122
1.37 15.27 -1.32 130 125 121
1.37 15.18 -1.32 131 126 120
1.37 15.08 -1.32 132 127 121
1.37 14.99 -1.32 131 127 118
1.37 14.89 -1.32 131 127 118
1.37 14.80 -1.32 129 126 117
1.37 14.70 -1.32 130 127 118
1.37 14.61 -1.32 130 127 118
1.18 14.42 -1.15 131 128 119
1.18 14.32 -1.15 130 127 120
1.37 14.32 -1.32 130 127 120
1.37 14.23 -1.32 130 127 120
1.37 14.14 -1.32 130 127 120
1.37 14.04 -1.32 129 128 123
1.37 13.95 -1.32 130 129 124
1.37 13.85 -1.32 130 129 124
1.37 13.76 -1.32 130 129 124
1.37 13.66 -1.32 129 129 127
1.37 13.57 -1.32 129 128 126
1.37 13.47 -1.32 130 128 129
1.37 13.38 -1.32 132 128 127
1.37 13.28 -1.32 132 128 127
1.37 13.19 -1.32 132 128 125
1.37 13.10 -1.32 132 128 125
1.37 13.00 -1.32 134 129 125
1.37 12.91 -1.32 134 129 125
1.37 12.81 -1.32 133 128 122
1.37 12.72 -1.32 133 128 122
1.18 12.53 -1.15 132 129 122
1.18 12.44 -1.15 133 130 123
1.37 12.43 -1.32 132 129 122
1.37 12.34 -1.32 130 127 120
1.37 12.24 -1.32 129 129 121
1.37 12.15 -1.32 131 131 123
1.37 12.06 -1.32 129 126 121
1.37 11.96 -1.32 129 126 121
1.37 11.87 -1.32 128 125 120
1.37 11.77 -1.32 128 125 120
1.37 11.68 -1.32 130 125 121
1.37 11.58 -1.32 131 126 122
1.37 11.49 -1.32 132 127 121
1.37 11.39 -1.32 131 126 120
1.37 11.30 -1.32 130 125 119
1.37 11.20 -1.32 129 125 116
1.37 11.11 -1.32 128 124 115
1.37 11.02 -1.32 129 122 114
1.37 10.92 -1.32 128 121 113
1.37 10.83 -1.32 127 120 112
1.37 10.73 -1.32 127 120 112
1.37 10.64 -1.32 126 121 115
1.37 10.54 -1.32 126 121 115
1.37 10.45 -1.32 125 122 113
1.37 10.35 -1.32 124 121 112
1.37 10.26 -1.32 123 121 109
1.18 10.09 -1.15 123 121 109
1.18 9.99 -1.15 123 119 108
1.18 9.90 -1.15 123 119 110
1.37 9.88 -1.32 123 119 110
1.37 9.79 -1.32 113 110 105
1.37 9.69 -1.32 123 122 118
1.37 9.60 -1.32 115 117 116
1.37 9.50 -1.32 84 94 93
-2.48 7.84 2.23 138 152 153
-2.64 7.69 2.37 191 209 209
-2.64 7.60 2.37 160 184 186
-2.64 7.51 2.37 160 194 196
-2.64 7.43 2.37 168 199 201
-2.64 7.34 2.37 172 203 205
-2.64 7.26 2.37 173 204 206
-2.64 7.17 2.37 172 203 205
-2.80 7.03 2.52 170 204 205
-2.80 6.94 2.52 171 205 206
-2.80 6.86 2.52 169 203 204
-2.80 6.77 2.52 175 206 208
-2.80 6.69 2.52 178 210 207
-2.80 6.60 2.52 168 197 193
-2.64 6.58 2.37 157 182 178
-2.64 6.49 2.37 148 169 164
-2.48 6.46 2.23 156 177 168
-2.35 6.43 2.11 169 187 175
-2.04 6.46 1.81 188 201 183
-1.88 6.43 1.67 198 210 188
-1.88 6.34 1.67 200 214 191
-1.72 6.31 1.52 194 208 185
-1.40 6.34 1.23 193 207 182
-1.24 6.30 1.09 190 204 179
-1.24 6.22 1.09 185 201 175
-1.06 6.19 0.92 197 213 187
-1.06 6.10 0.92 191 207 181
-0.90 6.07 0.77 191 207 181
-0.90 5.98 0.77 196 212 186
-0.74 5.94 0.62 195 211 185
-0.74 5.85 0.62 197 213 187
-0.90 5.71 0.77 201 217 191
-0.90 5.62 0.77 201 217 190
-1.06 5.48 0.92 188 203 172
-1.06 5.39 0.92 191 206 175
-1.06 5.30 0.92 190 205 174
-1.06 5.21 0.92 184 198 172
-1.24 5.06 1.09 183 197 172
-1.40 4.93 1.23 187 201 178
-1.56 4.79 1.38 190 205 182
-1.72 4.65 1.52 189 204 181
-1.88 4.51 1.67 193 209 183
-1.88 4.42 1.67 188 204 178
-1.88 4.34 1.67 197 213 187
-1.88 4.25 1.67 193 209 183
-2.04 4.11 1.81 193 211 187
-2.04 4.03 1.81 193 211 189
-2.04 3.94 1.81 184 202 180
-2.04 3.85 1.81 199 218 198
-2.04 3.77 1.81 186 212 187
-2.04 3.68 1.81 183 209 184
-1.88 3.64 1.67 187 213 184
-1.88 3.55 1.67 186 210 176
-1.88 3.47 1.67 204 229 190
-1.56 3.47 1.38 210 237 196
-1.24 3.47 1.09 203 230 187
-2.80 2.44 2.52 191 216 184
-2.80 2.35 2.52 187 213 186
-2.80 2.27 2.52 181 208 191
-2.80 2.18 2.52 176 206 194
-2.80 2.10 2.52 165 198 189
-2.64 2.05 2.37 162 199 192
-2.64 1.97 2.37 159 199 198
-2.48 1.92 2.23 157 198 200
-2.35 1.87 2.11 151 197 197
-2.19 1.82 1.96 156 201 204
-2.04 1.77 1.81 165 213 217
-2.04 1.69 1.81 143 191 195
-3.96 -0.01 3.59 60 122 133
-3.96 -0.09 3.59 62 122 132
-3.83 -0.15 3.46 53 111 122
-3.83 -0.23 3.46 58 114 127
-3.83 -0.32 3.46 52 104 118
-3.67 -0.37 3.32 55 107 121
-3.67 -0.45 3.32 55 103 117
-3.67 -0.53 3.32 66 108 122
-3.67 -0.62 3.32 70 108 121
-3.54 -0.67 3.20 83 115 126
-3.54 -0.76 3.20 105 132 143
-3.54 -0.84 3.20 121 144 152
-3.54 -0.92 3.20 127 140 148
-3.38 -0.98 3.05 105 114 123
-3.38 -1.06 3.05 71 78 86
-3.09 -1.10 2.78 57 57 67
-3.09 -1.18 2.78 75 70 77
-3.09 -1.27 2.78 82 66 76
-3.09 -1.35 2.78 93 70 78
-3.09 -1.43 2.78 96 63 70
-3.09 -1.52 2.78 102 61 69
-2.96 -1.58 2.66 112 63 67
-2.80 -1.64 2.52 120 67 61
-2.80 -1.73 2.52 124 65 59
-2.64 -1.79 2.37 124 60 58
-2.64 -1.87 2.37 116 60 59
-2.64 -1.96 2.37 109 75 73
-2.48 -2.02 2.23 115 100 97
-2.48 -2.11 2.23 113 115 110
-2.48 -2.19 2.23 104 116 114
-2.48 -2.28 2.23 87 103 103
-2.48 -2.36 2.23 98 116 120
-0.40 -2.54 0.31 189 211 222
-0.40 -2.63 0.31 183 212 220
-0.40 -2.72 0.31 187 217 227
-0.40 -2.81 0.31 178 208 218
-0.40 -2.90 0.31 180 210 220
-0.40 -2.99 0.31 187 220 229
-0.40 -3.08 0.31 187 220 229
-0.40 -3.17 0.31 180 217 225
-0.40 -3.26 0.31 174 211 219
-0.40 -3.35 0.31 176 214 223
