ply
format ascii 1.0
element vertex 1610
property float x
property float y
property float z
property uchar red
property uchar green
property uchar blue
end_header
-3.79 4.66 2.76 177 212 214
-3.79 4.57 2.76 185 220 222
-3.79 4.49 2.76 197 232 234
-3.79 4.41 2.76 195 230 232
-3.79 4.32 2.76 196 231 233
-3.63 4.29 2.62 198 233 235
-3.63 4.21 2.62 184 219 221
-3.63 4.12 2.62 174 209 211
-3.50 4.08 2.49 185 220 222
-3.50 4.00 2.49 184 219 221
-3.50 3.91 2.49 184 219 221
-3.50 3.83 2.49 184 219 221
-3.50 3.74 2.49 184 219 223
-3.50 3.66 2.49 185 220 224
-3.50 3.58 2.49 187 222 226
-3.50 3.49 2.49 187 222 226
-3.50 3.41 2.49 186 220 222
-3.50 3.32 2.49 187 221 223
-3.63 3.20 2.62 188 222 224
-3.50 3.16 2.49 189 223 225
-3.63 3.04 2.62 189 223 225
-3.63 2.95 2.62 190 224 226
-3.79 2.82 2.76 191 225 227
-3.63 2.78 2.62 191 225 227
-3.63 2.70 2.62 192 226 228
-3.63 2.62 2.62 196 227 229
-3.63 2.53 2.62 196 227 229
-3.63 2.45 2.62 195 226 228
-3.63 2.37 2.62 193 224 226
-3.63 2.28 2.62 192 223 225
-3.63 2.20 2.62 191 222 224
-3.50 2.15 2.49 190 224 226
-3.50 2.07 2.49 190 224 226
-3.50 1.98 2.49 189 223 225
-3.50 1.90 2.49 190 224 226
-3.34 1.85 2.35 190 224 226
-3.34 1.77 2.35 189 223 225
-3.34 1.69 2.35 187 222 224
-3.06 1.67 2.08 186 221 223
-1.17 1.69 0.31 181 221 221
-1.17 1.60 0.31 181 221 221
-1.17 1.51 0.31 181 221 221
-1.01 1.46 0.16 183 223 225
-1.01 1.37 0.16 182 222 224
-1.01 1.28 0.16 184 224 224
-1.01 1.19 0.16 185 225 225
-1.01 1.10 0.16 187 225 226
-1.01 1.01 0.16 186 224 225
-0.85 0.95 0.01 187 225 226
-0.85 0.86 0.01 188 226 227
-0.85 0.77 0.01 191 226 228
-1.01 0.65 0.16 193 228 230
-1.01 0.56 0.16 195 229 231
-1.01 0.47 0.16 197 231 233
-1.01 0.38 0.16 200 234 236
-1.01 0.29 0.16 202 236 238
-1.01 0.20 0.16 204 235 238
-1.01 0.11 0.16 202 233 236
-1.01 0.02 0.16 203 235 234
-1.01 -0.07 0.16 204 236 235
-1.17 -0.19 0.31 205 237 236
-1.33 -0.30 0.45 204 236 235
-1.33 -0.39 0.45 205 235 235
-1.33 -0.48 0.45 208 238 238
-1.51 -0.60 0.63 211 241 241
-1.51 -0.69 0.63 207 237 237
-1.67 -0.81 0.77 207 237 237
-1.82 -0.92 0.92 206 236 236
-2.14 -1.06 1.22 205 235 235
-2.14 -1.15 1.22 204 234 234
-2.14 -1.24 1.22 206 236 236
-2.14 -1.32 1.22 208 240 239
-2.30 -1.44 1.36 211 241 241
-2.30 -1.52 1.36 210 240 240
-2.30 -1.61 1.36 211 239 240
-2.30 -1.70 1.36 212 238 239
-2.30 -1.78 1.36 212 238 239
-2.30 -1.87 1.36 212 238 239
-2.30 -1.96 1.36 212 238 239
-2.30 -2.04 1.36 213 237 239
-2.30 -2.13 1.36 213 237 239
-2.14 -2.20 1.22 214 238 240
-2.14 -2.28 1.22 211 235 237
-2.14 -2.37 1.22 208 232 234
-2.14 -2.46 1.22 207 231 233
-1.98 -2.52 1.07 208 234 235
-1.98 -2.61 1.07 209 235 236
-1.67 -2.66 0.77 209 235 236
-1.51 -2.73 0.63 208 236 237
-1.33 -2.80 0.45 209 237 238
-1.33 -2.88 0.45 213 239 240
-1.17 -2.96 0.31 214 240 241
-1.01 -3.03 0.16 216 240 242
-1.01 -3.12 0.16 218 242 244
-0.85 -3.19 0.01 221 242 245
-0.85 -3.28 0.01 223 244 247
-0.85 -3.37 0.01 217 241 243
-1.01 -3.48 0.16 214 238 240
-1.01 -3.57 0.16 210 236 237
-1.01 -3.66 0.16 210 236 237
-1.01 -3.74 0.16 208 236 237
-1.01 -3.83 0.16 206 234 235
-1.01 -3.92 0.16 203 233 233
-1.17 -4.03 0.31 202 232 232
-1.17 -4.12 0.31 207 235 236
-1.17 -4.21 0.31 204 232 233
-1.17 -4.30 0.31 204 232 233
-1.17 -4.39 0.31 206 234 235
-1.17 -4.47 0.31 209 237 238
-1.01 -4.55 0.16 211 239 240
-1.01 -4.64 0.16 215 241 240
-1.01 -4.73 0.16 216 240 240
-1.01 -4.82 0.16 217 241 241
-1.01 -4.91 0.16 221 243 241
-0.85 -4.99 0.01 221 243 241
-3.79 -5.42 2.76 222 244 242
-3.79 -5.51 2.76 224 244 243
-3.79 -5.59 2.76 229 249 247
-3.63 -5.66 2.62 228 247 245
-3.63 -5.75 2.62 230 246 245
-3.63 -5.83 2.62 235 251 250
-3.50 -5.91 2.49 240 254 254
-3.50 -5.99 2.49 234 248 248
-3.50 -6.08 2.49 232 246 246
-3.50 -6.16 2.49 238 252 252
-3.50 -6.25 2.49 244 255 255
-3.50 -6.33 2.49 133 145 145
0.35 -6.50 -1.12 154 168 171
0.35 -6.59 -1.12 151 165 168
0.35 -6.68 -1.12 151 165 168
0.35 -6.77 -1.12 158 169 173
0.35 -6.87 -1.12 157 167 168
0.35 -6.96 -1.12 158 168 169
0.35 -7.24 -1.12 163 173 174
0.35 -7.33 -1.12 162 171 170
0.35 -7.42 -1.12 160 169 168
0.35 -7.52 -1.12 162 171 170
0.35 -7.61 -1.12 161 170 169
0.35 -7.70 -1.12 160 171 167
0.35 -7.80 -1.12 162 173 169
0.35 -7.89 -1.12 166 178 174
0.35 -7.98 -1.12 172 184 180
0.35 -8.07 -1.12 175 187 183
0.35 -8.17 -1.12 177 189 185
0.35 -8.26 -1.12 177 188 184
0.19 -8.35 -0.97 177 188 184
0.19 -8.44 -0.97 177 188 184
0.19 -8.53 -0.97 178 189 185
0.19 -8.63 -0.97 178 189 185
0.19 -8.72 -0.97 178 189 185
0.19 -8.81 -0.97 178 189 185
0.19 -8.90 -0.97 179 190 186
0.19 -9.00 -0.97 178 189 185
0.19 -9.09 -0.97 182 191 188
0.19 -9.18 -0.97 182 191 188
0.19 -9.27 -0.97 181 190 187
0.35 -9.37 -1.12 182 191 188
0.35 -9.47 -1.12 183 192 189
0.19 -9.55 -0.97 184 193 190
0.19 -9.64 -0.97 181 192 188
0.35 -9.75 -1.12 181 192 188
0.35 -9.84 -1.12 181 192 188
0.35 -9.93 -1.12 182 193 189
0.19 -10.01 -0.97 182 193 189
0.19 -10.11 -0.97 182 193 189
0.19 -10.20 -0.97 182 191 188
0.19 -10.29 -0.97 182 191 188
0.19 -10.38 -0.97 183 192 189
0.19 -10.48 -0.97 183 192 189
0.19 -10.57 -0.97 183 192 189
0.19 -10.66 -0.97 183 192 189
0.19 -10.75 -0.97 185 191 189
0.19 -10.85 -0.97 186 192 190
0.19 -10.94 -0.97 186 192 190
0.19 -11.03 -0.97 186 192 190
0.19 -11.12 -0.97 187 193 191
0.19 -11.22 -0.97 187 193 191
0.19 -11.31 -0.97 189 195 193
0.19 -11.40 -0.97 187 196 193
0.35 -11.51 -1.12 186 195 192
0.35 -11.60 -1.12 186 195 192
0.19 -11.68 -0.97 187 196 193
0.19 -11.77 -0.97 186 195 192
0.19 -11.86 -0.97 186 195 192
0.19 -11.96 -0.97 187 196 193
0.19 -12.05 -0.97 187 196 193
0.19 -12.14 -0.97 187 196 193
0.19 -12.23 -0.97 186 195 192
0.19 -12.33 -0.97 186 195 192
0.19 -12.42 -0.97 185 194 191
0.19 -12.51 -0.97 189 195 191
0.19 -12.60 -0.97 190 196 192
0.19 -12.70 -0.97 189 198 193
0.01 -12.76 -0.80 190 199 194
0.01 -12.86 -0.80 190 199 194
0.01 -12.95 -0.80 190 199 194
0.01 -13.04 -0.80 188 199 195
0.01 -13.13 -0.80 188 199 195
0.01 -13.22 -0.80 188 199 195
0.01 -13.32 -0.80 188 199 195
0.01 -13.41 -0.80 188 199 195
0.01 -13.50 -0.80 190 199 196
0.19 -13.62 -0.97 190 199 196
0.19 -13.71 -0.97 191 200 197
0.19 -13.81 -0.97 191 200 197
0.19 -13.90 -0.97 193 199 197
0.19 -13.99 -0.97 194 200 198
0.19 -14.08 -0.97 195 201 199
0.19 -14.18 -0.97 195 201 199
0.19 -14.27 -0.97 195 201 199
0.19 -14.36 -0.97 195 201 199
0.19 -14.45 -0.97 195 201 199
0.19 -14.55 -0.97 196 202 200
0.19 -14.64 -0.97 197 206 203
0.19 -14.73 -0.97 196 205 202
0.19 -14.82 -0.97 196 205 202
0.19 -14.92 -0.97 197 206 203
0.19 -15.01 -0.97 197 206 203
0.19 -15.10 -0.97 197 206 203
0.19 -15.19 -0.97 198 207 204
0.19 -15.29 -0.97 198 207 204
0.01 -15.34 -0.80 198 207 202
0.01 -15.43 -0.80 199 208 203
0.01 -15.53 -0.80 200 209 204
0.01 -15.62 -0.80 202 211 206
0.19 -15.75 -0.97 206 212 208
0.19 -15.84 -0.97 206 212 210
0.19 -15.93 -0.97 206 212 210
0.01 -15.99 -0.80 210 214 213
0.01 -16.08 -0.80 210 214 213
0.01 -16.17 -0.80 211 215 214
0.01 -16.26 -0.80 211 215 214
0.01 -16.36 -0.80 213 215 214
0.01 -16.45 -0.80 214 216 215
0.01 -16.54 -0.80 215 216 218
0.01 -16.63 -0.80 216 217 219
0.01 -16.72 -0.80 214 218 217
0.01 -16.82 -0.80 216 220 219
0.01 -16.91 -0.80 218 222 221
0.01 -17.00 -0.80 218 222 221
0.01 -17.09 -0.80 218 222 221
0.01 -17.18 -0.80 221 225 224
0.01 -17.28 -0.80 222 226 225
0.01 -17.37 -0.80 222 226 225
0.01 -17.46 -0.80 225 229 228
0.01 -17.55 -0.80 224 228 227
0.01 -17.64 -0.80 224 228 227
0.19 -17.78 -0.97 226 230 229
0.19 -17.88 -0.97 228 232 231
0.19 -17.97 -0.97 228 232 231
0.01 -18.01 -0.80 228 230 229
0.01 -18.10 -0.80 232 234 233
0.01 -18.20 -0.80 234 234 234
0.01 -18.29 -0.80 236 236 236
0.01 -18.38 -0.80 237 237 237
0.01 -18.47 -0.80 237 237 237
0.01 -18.57 -0.80 237 237 237
0.01 -18.66 -0.80 237 237 237
0.01 -18.75 -0.80 238 238 238
0.01 -18.84 -0.80 238 238 238
0.01 -18.93 -0.80 239 239 239
0.01 -19.03 -0.80 241 241 241
0.01 -19.12 -0.80 241 241 241
0.01 -19.21 -0.80 241 241 241
0.01 -19.30 -0.80 240 240 240
0.01 -19.39 -0.80 240 240 240
0.01 -19.49 -0.80 240 240 240
0.01 -19.58 -0.80 236 236 236
0.01 -19.67 -0.80 234 234 234
0.01 -19.76 -0.80 233 233 233
0.01 -19.85 -0.80 236 236 236
0.01 -19.95 -0.80 238 238 238
0.01 -20.04 -0.80 238 238 238
0.01 -20.13 -0.80 234 234 234
0.01 -20.22 -0.80 243 243 243
0.01 -20.31 -0.80 245 245 245
0.01 -20.41 -0.80 246 246 246
0.01 -20.50 -0.80 247 247 247
0.01 -20.59 -0.80 247 247 247
0.01 -20.68 -0.80 247 247 247
0.01 -20.78 -0.80 248 248 248
0.01 -20.87 -0.80 249 249 249
0.01 -20.96 -0.80 248 248 248
0.01 -21.05 -0.80 249 249 249
0.01 -21.14 -0.80 250 250 250
-0.17 -21.17 -0.63 249 249 249
-0.17 -21.26 -0.63 249 249 249
-0.17 -21.36 -0.63 250 250 250
-0.17 -21.45 -0.63 252 252 252
-0.17 -21.54 -0.63 252 252 252
-0.17 -21.63 -0.63 252 252 252
-0.17 -21.72 -0.63 252 252 252
0.01 -21.88 -0.80 251 251 251
0.01 -21.97 -0.80 251 251 251
0.01 -22.06 -0.80 250 250 250
0.01 -22.16 -0.80 250 250 250
0.01 -22.25 -0.80 249 249 249
0.01 -22.34 -0.80 252 252 252
0.01 -22.43 -0.80 252 252 252
0.01 -22.52 -0.80 252 254 253
0.01 -22.62 -0.80 252 254 253
0.01 -22.71 -0.80 252 254 253
0.01 -22.80 -0.80 252 254 253
0.01 -22.89 -0.80 252 254 253
0.01 -22.98 -0.80 252 254 253
0.01 -23.08 -0.80 250 254 253
0.01 -23.17 -0.80 250 254 253
0.01 -23.26 -0.80 250 254 253
0.01 -23.35 -0.80 250 254 253
0.01 -23.45 -0.80 250 255 254
0.01 -23.54 -0.80 250 255 254
0.01 -23.63 -0.80 250 255 254
0.01 -23.72 -0.80 250 255 254
0.19 -23.89 -0.97 251 255 254
0.19 -23.98 -0.97 251 255 254
0.19 -24.07 -0.97 251 255 254
0.01 -24.09 -0.80 251 255 254
0.01 -24.18 -0.80 251 255 254
0.01 -24.27 -0.80 251 255 254
0.01 -24.37 -0.80 251 255 254
0.01 -24.46 -0.80 251 255 254
0.01 -24.55 -0.80 250 254 253
0.01 -24.64 -0.80 250 254 253
0.01 -24.73 -0.80 250 254 253
0.01 -24.83 -0.80 250 254 253
0.01 -24.92 -0.80 250 254 253
-0.17 -24.93 -0.63 250 254 253
-0.17 -25.02 -0.63 250 254 253
-0.17 -25.11 -0.63 251 255 254
-0.17 -25.20 -0.63 251 255 254
-0.17 -25.30 -0.63 251 255 254
-0.17 -25.39 -0.63 251 255 254
-0.17 -25.48 -0.63 250 254 253
-0.17 -25.57 -0.63 250 254 253
-0.17 -25.66 -0.63 250 254 253
-0.17 -25.75 -0.63 250 254 253
0.01 -25.93 -0.80 250 254 253
0.01 -26.02 -0.80 250 254 253
0.01 -26.12 -0.80 250 254 253
-0.17 -26.12 -0.63 250 254 253
-0.17 -26.21 -0.63 250 254 253
-0.17 -26.30 -0.63 250 254 253
0.01 -26.48 -0.80 250 254 253
0.01 -26.58 -0.80 250 254 253
0.01 -26.67 -0.80 252 254 253
0.01 -26.76 -0.80 251 253 252
0.01 -26.85 -0.80 251 253 252
0.01 -26.94 -0.80 250 252 251
0.01 -27.04 -0.80 251 253 252
0.01 -27.13 -0.80 251 253 252
0.01 -27.22 -0.80 251 253 252
0.01 -27.31 -0.80 252 252 252
0.01 -27.40 -0.80 252 252 252
-0.17 -27.40 -0.63 252 252 252
-0.17 -27.50 -0.63 251 251 251
-0.17 -27.59 -0.63 251 251 251
-0.17 -27.68 -0.63 250 250 250
-0.17 -27.77 -0.63 250 250 250
0.01 -27.96 -0.80 250 250 250
0.01 -28.05 -0.80 251 251 251
-0.17 -28.05 -0.63 251 251 251
-0.17 -28.14 -0.63 250 250 250
-0.17 -28.23 -0.63 250 250 250
-0.17 -28.32 -0.63 249 249 249
-0.17 -28.41 -0.63 248 248 248
-0.17 -28.50 -0.63 248 248 248
-0.17 -28.60 -0.63 247 247 247
0.01 -28.79 -0.80 250 250 250
0.01 -28.88 -0.80 250 250 250
0.01 -28.97 -0.80 250 250 250
0.01 -29.06 -0.80 249 249 249
0.01 -29.15 -0.80 249 249 249
0.01 -29.25 -0.80 249 249 249
0.01 -29.34 -0.80 249 249 249
0.01 -29.43 -0.80 249 249 249
0.01 -29.52 -0.80 249 249 249
0.01 -29.61 -0.80 248 248 248
-0.17 -29.97 -0.63 247 247 247
-0.17 -30.06 -0.63 245 245 245
-0.17 -30.15 -0.63 245 245 245
-0.17 -30.25 -0.63 245 245 245
-0.17 -30.34 -0.63 245 245 245
-0.17 -30.43 -0.63 245 245 245
-0.17 -30.52 -0.63 246 246 246
-0.17 -30.61 -0.63 247 247 247
-0.17 -30.70 -0.63 247 247 247
-0.17 -30.80 -0.63 249 249 249
-0.17 -30.89 -0.63 248 248 248
-0.17 -30.98 -0.63 246 246 246
-0.17 -31.07 -0.63 244 244 244
-0.17 -31.16 -0.63 243 243 243
-0.17 -31.25 -0.63 243 243 243
0.01 -31.46 -0.80 243 243 243
-0.17 -31.44 -0.63 246 246 246
-0.17 -31.53 -0.63 244 244 244
0.01 -31.73 -0.80 243 243 243
0.01 -31.82 -0.80 241 241 241
-0.17 -31.80 -0.63 241 241 241
-0.17 -31.90 -0.63 240 240 240
-0.17 -31.99 -0.63 240 240 240
-0.17 -32.08 -0.63 239 239 239
-0.17 -32.17 -0.63 241 243 242
-0.17 -32.26 -0.63 240 242 241
-0.17 -32.35 -0.63 239 241 240
-0.17 -32.45 -0.63 239 241 240
-0.17 -32.54 -0.63 241 241 241
-0.17 -32.63 -0.63 241 241 241
-0.17 -32.72 -0.63 241 241 241
-0.17 -32.81 -0.63 240 240 240
-0.17 -32.90 -0.63 239 237 238
-0.17 -32.99 -0.63 239 237 238
-0.17 -33.09 -0.63 239 237 238
-0.33 -33.08 -0.48 239 237 238
-0.33 -33.17 -0.48 240 238 239
-0.33 -33.26 -0.48 242 238 239
-0.51 -33.23 -0.31 242 238 239
-0.51 -33.32 -0.31 240 236 235
-0.33 -33.53 -0.48 242 238 237
-0.33 -33.62 -0.48 243 242 240
-0.33 -33.71 -0.48 245 244 242
-0.51 -33.68 -0.31 244 243 241
-0.67 -33.67 -0.16 241 240 238
-0.67 -33.76 -0.16 239 238 236
-0.67 -34.03 -0.16 230 230 230
-0.67 -34.12 -0.16 229 229 229
0.31 20.25 -1.20 115 108 98
0.49 20.28 -1.37 116 112 101
0.49 20.19 -1.37 119 115 106
0.49 20.10 -1.37 125 118 112
0.49 20.00 -1.37 124 116 113
0.49 19.91 -1.37 123 115 113
0.49 19.82 -1.37 121 113 111
0.49 19.72 -1.37 124 115 116
0.67 19.75 -1.55 124 115 116
0.67 19.66 -1.55 125 116 117
0.49 19.44 -1.37 125 116 117
0.49 19.35 -1.37 125 117 115
0.49 19.26 -1.37 125 117 115
0.49 19.16 -1.37 126 118 116
0.49 19.07 -1.37 127 119 117
0.49 18.98 -1.37 129 121 119
0.31 18.76 -1.20 128 120 118
0.31 18.67 -1.20 128 120 118
0.31 18.58 -1.20 129 121 119
0.31 18.49 -1.20 130 122 120
0.31 18.39 -1.20 131 123 121
0.31 18.30 -1.20 131 123 121
0.31 18.21 -1.20 132 124 122
0.31 18.11 -1.20 131 123 121
0.31 18.02 -1.20 130 122 120
0.31 17.93 -1.20 131 123 121
0.31 17.84 -1.20 133 125 123
0.31 17.74 -1.20 132 124 122
0.31 17.65 -1.20 132 124 121
0.49 17.67 -1.37 133 125 122
0.49 17.58 -1.37 134 127 121
0.49 17.48 -1.37 133 126 120
0.49 17.39 -1.37 133 126 120
0.49 17.30 -1.37 134 127 121
0.49 17.20 -1.37 133 128 122
0.49 17.11 -1.37 133 128 122
0.49 17.02 -1.37 132 127 123
0.49 16.92 -1.37 132 127 123
0.49 16.83 -1.37 131 126 122
0.49 16.74 -1.37 132 127 123
0.49 16.64 -1.37 131 128 123
0.49 16.55 -1.37 131 128 123
0.49 16.46 -1.37 131 128 123
0.49 16.36 -1.37 130 127 122
0.49 16.27 -1.37 130 127 122
0.49 16.18 -1.37 130 127 122
0.49 16.08 -1.37 130 126 123
0.49 15.99 -1.37 131 127 124
0.49 15.90 -1.37 132 128 127
0.49 15.80 -1.37 133 129 128
0.49 15.71 -1.37 134 130 129
0.49 15.62 -1.37 134 130 129
0.49 15.53 -1.37 134 130 129
0.49 15.43 -1.37 133 129 128
0.49 15.34 -1.37 133 129 128
0.49 15.25 -1.37 134 130 127
0.49 15.15 -1.37 134 130 127
0.49 15.06 -1.37 135 131 128
0.49 14.97 -1.37 135 131 128
0.49 14.87 -1.37 135 130 126
0.49 14.78 -1.37 134 129 123
0.49 14.69 -1.37 133 129 118
0.49 14.22 -1.37 133 129 126
0.49 14.13 -1.37 133 129 126
0.49 14.03 -1.37 133 129 128
0.49 13.94 -1.37 135 131 130
0.49 13.85 -1.37 135 131 130
0.49 13.75 -1.37 135 131 128
0.49 13.66 -1.37 135 131 128
0.49 13.57 -1.37 136 133 126
0.49 13.47 -1.37 135 132 125
0.49 13.38 -1.37 134 131 122
0.49 13.29 -1.37 134 131 122
0.49 13.19 -1.37 135 132 123
0.49 13.10 -1.37 135 132 123
0.49 13.01 -1.37 135 132 123
0.49 12.91 -1.37 135 132 123
0.49 12.82 -1.37 136 133 124
0.49 12.73 -1.37 135 132 123
0.31 12.54 -1.20 135 132 123
0.31 12.45 -1.20 135 132 123
0.31 12.36 -1.20 135 132 123
0.31 12.26 -1.20 136 131 125
0.31 12.17 -1.20 135 130 124
0.31 12.08 -1.20 135 130 126
0.31 11.98 -1.20 134 129 125
0.31 11.89 -1.20 133 128 125
0.49 11.89 -1.37 132 127 124
0.49 11.79 -1.37 133 130 125
0.49 11.70 -1.37 133 130 125
0.31 11.52 -1.20 133 130 123
0.31 11.43 -1.20 133 130 123
0.31 11.33 -1.20 131 128 119
0.31 11.24 -1.20 130 127 118
0.31 11.15 -1.20 130 127 118
0.31 11.06 -1.20 131 128 119
0.31 10.96 -1.20 131 128 119
0.31 10.87 -1.20 128 128 118
0.31 10.78 -1.20 126 126 116
0.31 10.68 -1.20 125 125 117
0.31 10.59 -1.20 125 125 117
0.31 10.50 -1.20 126 126 118
0.31 10.41 -1.20 126 125 120
0.31 10.31 -1.20 125 122 117
0.31 10.22 -1.20 125 121 118
0.31 10.13 -1.20 123 122 120
0.49 10.11 -1.37 123 122 120
0.49 10.02 -1.37 124 120 119
0.49 9.93 -1.37 123 119 118
0.49 9.83 -1.37 122 118 115
0.49 9.74 -1.37 122 118 115
0.49 9.65 -1.37 114 111 106
-3.54 7.86 2.42 114 113 108
-3.54 7.77 2.42 103 105 100
-3.39 7.76 2.27 115 124 119
-3.39 7.67 2.27 167 182 179
-3.39 7.59 2.27 177 197 196
-3.39 7.50 2.27 179 205 204
-3.39 7.42 2.27 173 203 205
-3.39 7.33 2.27 170 208 209
-3.39 7.25 2.27 171 209 210
-3.39 7.17 2.27 173 211 212
-3.54 7.02 2.42 174 212 215
-3.54 6.94 2.42 173 211 214
-3.54 6.85 2.42 172 207 211
-3.54 6.77 2.42 170 205 209
-3.54 6.68 2.42 176 211 215
-3.54 6.60 2.42 174 209 213
-3.68 6.47 2.54 173 208 214
-3.68 6.38 2.54 172 207 213
-3.68 6.30 2.54 172 207 213
-3.68 6.21 2.54 173 208 214
-3.68 6.13 2.54 173 208 214
-3.68 6.05 2.54 174 209 215
-3.68 5.96 2.54 181 216 220
-3.68 5.88 2.54 180 215 219
-3.68 5.80 2.54 178 211 216
-3.68 5.71 2.54 177 210 215
-3.68 5.63 2.54 179 210 213
-3.68 5.54 2.54 180 211 214
-3.83 5.41 2.69 183 212 216
-3.83 5.32 2.69 184 213 217
-3.83 5.24 2.69 186 215 219
-3.83 5.16 2.69 182 211 215
-3.83 5.07 2.69 180 209 213
-3.83 4.99 2.69 180 211 213
-3.83 4.91 2.69 182 213 215
-3.83 4.82 2.69 184 215 217
-3.83 4.74 2.69 186 217 219
-3.83 4.66 2.69 181 215 217
-3.83 4.57 2.69 180 214 216
-3.83 4.49 2.69 178 212 214
-3.83 4.41 2.69 182 216 218
-3.83 4.32 2.69 183 217 219
-3.68 4.29 2.54 181 215 217
-3.68 4.21 2.54 183 217 219
-3.68 4.12 2.54 185 219 221
-3.68 4.04 2.54 184 218 220
-3.68 3.96 2.54 184 218 220
-3.68 3.87 2.54 184 218 220
-3.68 3.79 2.54 184 218 220
-3.68 3.70 2.54 185 219 221
-3.68 3.62 2.54 186 220 222
-3.68 3.54 2.54 187 221 223
-3.68 3.45 2.54 187 221 223
-3.68 3.37 2.54 188 222 224
-3.68 3.29 2.54 188 222 224
-3.68 3.20 2.54 188 222 224
-3.68 3.12 2.54 189 223 225
-3.83 2.99 2.69 189 223 225
-3.83 2.91 2.69 192 223 226
-3.83 2.82 2.69 192 223 226
-3.83 2.74 2.69 189 220 223
-3.83 2.66 2.69 190 221 224
-3.83 2.57 2.69 192 223 225
-3.83 2.49 2.69 195 226 228
-3.83 2.41 2.69 197 228 230
-3.83 2.32 2.69 197 228 230
-3.68 2.28 2.54 196 227 229
-3.68 2.20 2.54 194 225 227
-3.68 2.12 2.54 190 221 224
-3.68 2.03 2.54 190 221 224
-3.54 1.98 2.42 190 221 224
-3.54 1.90 2.42 190 221 224
-3.54 1.81 2.42 188 222 224
-3.54 1.73 2.42 188 222 224
-3.54 1.65 2.42 187 221 223
-3.39 1.60 2.27 186 220 222
-1.06 1.55 0.08 179 219 219
-1.06 1.46 0.08 183 221 222
-1.06 1.37 0.08 182 220 221
-1.06 1.28 0.08 182 220 221
-1.06 1.19 0.08 184 222 223
-1.06 1.10 0.08 184 222 223
-0.90 0.86 -0.07 189 224 226
-0.90 0.77 -0.07 190 225 227
-1.06 0.65 0.08 191 226 228
-1.06 0.56 0.08 194 228 230
-1.06 0.47 0.08 196 230 232
-1.06 0.38 0.08 201 232 235
-1.06 0.29 0.08 202 233 236
-1.06 0.20 0.08 201 232 235
-1.06 0.11 0.08 200 231 234
-1.06 0.02 0.08 202 233 235
-1.06 -0.07 0.08 203 234 236
-1.21 -0.19 0.23 203 234 236
-2.34 -1.35 1.29 203 233 233
-2.34 -1.44 1.29 204 234 234
-2.34 -1.52 1.29 206 236 236
-2.50 -1.63 1.44 206 236 236
-2.50 -1.72 1.44 207 235 236
-2.50 -1.81 1.44 207 235 236
-2.34 -1.87 1.29 208 236 237
-2.34 -1.96 1.29 208 236 237
-2.34 -2.04 1.29 211 237 238
-2.34 -2.13 1.29 211 237 238
-2.34 -2.22 1.29 213 239 240
-2.18 -2.28 1.14 210 236 237
-1.37 -2.80 0.38 213 239 240
-1.37 -2.88 0.38 213 239 240
-1.21 -2.96 0.23 214 240 241
-1.06 -3.03 0.08 214 238 240
-1.06 -3.12 0.08 214 238 240
-0.90 -3.19 -0.07 216 237 240
-0.90 -3.46 -0.07 214 235 238
-1.06 -3.57 0.08 209 233 235
-1.06 -3.66 0.08 207 231 233
-1.06 -3.74 0.08 207 233 234
-1.06 -3.83 0.08 208 234 235
-1.06 -3.92 0.08 206 234 235
-1.21 -4.03 0.23 205 233 234
-1.21 -4.12 0.23 207 235 236
-1.21 -4.21 0.23 205 233 234
-1.21 -4.30 0.23 205 233 234
-1.21 -4.39 0.23 207 235 236
-1.21 -4.47 0.23 212 238 239
-1.21 -4.56 0.23 212 238 239
-1.21 -4.65 0.23 211 237 236
-1.06 -4.73 0.08 215 239 239
-1.06 -4.82 0.08 216 240 240
-3.96 -5.10 2.82 216 241 238
-3.96 -5.18 2.82 216 241 238
-3.96 -5.26 2.82 217 239 237
-3.96 -5.35 2.82 217 239 237
-3.83 -5.42 2.69 218 240 237
-3.83 -5.51 2.69 220 240 238
-3.83 -5.59 2.69 222 242 240
-3.83 -5.67 2.69 224 243 241
-3.68 -5.75 2.54 226 245 243
-3.68 -5.83 2.54 229 248 246
-3.68 -5.92 2.54 233 249 248
-3.68 -6.00 2.54 229 245 244
-3.68 -6.08 2.54 230 244 244
-3.68 -6.17 2.54 239 253 253
-3.68 -6.25 2.54 242 255 255
-3.68 -6.33 2.54 121 135 136
0.31 -6.31 -1.20 140 151 153
0.31 -6.40 -1.20 154 165 167
0.31 -6.50 -1.20 158 169 173
0.31 -6.59 -1.20 153 164 168
0.31 -6.68 -1.20 153 164 168
0.15 -6.78 -1.05 160 169 174
0.15 -6.87 -1.05 157 165 167
0.15 -6.96 -1.05 158 166 168
0.15 -7.05 -1.05 160 168 170
0.15 -7.15 -1.05 161 169 171
0.15 -7.24 -1.05 161 169 171
0.15 -7.33 -1.05 160 169 168
0.15 -7.42 -1.05 159 168 167
0.15 -7.52 -1.05 163 172 169
0.15 -7.61 -1.05 162 171 168
0.15 -7.70 -1.05 160 171 167
0.15 -7.79 -1.05 161 172 168
0.15 -7.89 -1.05 165 176 172
0.15 -7.98 -1.05 171 182 178
0.15 -8.07 -1.05 175 186 180
0.15 -8.16 -1.05 175 186 180
0.15 -8.26 -1.05 177 188 182
0.15 -8.35 -1.05 177 188 182
0.15 -8.44 -1.05 178 189 183
0.15 -8.53 -1.05 178 189 183
0.15 -8.63 -1.05 177 188 182
0.15 -8.72 -1.05 177 188 182
0.15 -8.81 -1.05 177 188 184
0.15 -8.90 -1.05 176 187 183
0.15 -9.00 -1.05 179 190 186
0.15 -9.09 -1.05 181 190 187
0.15 -9.18 -1.05 181 190 187
0.15 -9.46 -1.05 182 191 188
0.15 -9.55 -1.05 183 192 189
0.15 -9.64 -1.05 181 192 188
0.15 -9.74 -1.05 181 192 188
0.15 -9.83 -1.05 181 192 188
0.15 -9.92 -1.05 182 193 189
0.15 -10.01 -1.05 182 193 189
-0.03 -10.09 -0.88 182 193 189
-0.03 -10.19 -0.88 183 192 189
-0.03 -10.28 -0.88 183 192 189
-0.03 -10.37 -0.88 182 191 188
-0.03 -10.46 -0.88 182 191 188
-0.03 -10.55 -0.88 182 191 188
-0.03 -10.65 -0.88 183 192 189
-0.03 -10.74 -0.88 185 191 189
-0.03 -10.83 -0.88 185 191 189
-0.03 -10.92 -0.88 186 192 190
-0.03 -11.01 -0.88 186 192 190
-0.03 -11.11 -0.88 184 193 190
-0.03 -11.20 -0.88 184 193 190
-0.03 -11.29 -0.88 185 194 191
-0.03 -11.38 -0.88 185 194 191
0.15 -11.49 -1.05 185 194 191
0.15 -11.59 -1.05 185 194 191
0.15 -11.68 -1.05 185 194 191
-0.03 -11.75 -0.88 184 193 190
-0.03 -11.84 -0.88 185 194 191
-0.03 -11.94 -0.88 185 194 189
-0.03 -12.03 -0.88 186 195 190
-0.03 -12.12 -0.88 187 196 191
-0.03 -12.21 -0.88 187 196 191
-0.03 -12.30 -0.88 187 196 191
-0.03 -12.40 -0.88 187 196 191
-0.03 -12.49 -0.88 188 194 190
-0.03 -12.58 -0.88 189 195 191
-0.03 -12.67 -0.88 189 195 191
-0.03 -12.76 -0.88 190 196 192
-0.03 -12.86 -0.88 189 198 193
-0.03 -12.95 -0.88 189 198 193
-0.03 -13.04 -0.88 188 197 192
-0.03 -13.13 -0.88 188 197 192
-0.03 -13.22 -0.88 188 197 192
-0.03 -13.32 -0.88 188 197 192
-0.03 -13.41 -0.88 189 198 195
-0.03 -13.50 -0.88 190 199 196
-0.03 -13.59 -0.88 191 200 197
-0.03 -13.69 -0.88 191 200 197
-0.03 -13.78 -0.88 191 200 197
-0.03 -13.87 -0.88 191 197 195
-0.03 -13.96 -0.88 192 198 196
-0.03 -14.05 -0.88 193 199 197
-0.03 -14.15 -0.88 194 200 198
-0.03 -14.24 -0.88 194 200 198
-0.03 -14.33 -0.88 195 201 199
-0.03 -14.42 -0.88 193 202 199
-0.03 -14.51 -0.88 193 202 199
-0.03 -14.61 -0.88 193 202 199
-0.03 -14.70 -0.88 194 203 200
-0.03 -14.79 -0.88 194 203 200
-0.03 -14.88 -0.88 195 204 201
-0.03 -14.97 -0.88 196 205 202
-0.03 -15.07 -0.88 197 206 203
-0.03 -15.16 -0.88 198 207 204
-0.03 -15.25 -0.88 199 208 205
-0.03 -15.34 -0.88 200 209 204
-0.03 -15.43 -0.88 199 208 203
-0.03 -15.53 -0.88 199 208 203
-0.03 -15.62 -0.88 199 208 203
-0.03 -15.71 -0.88 203 209 205
-0.03 -15.80 -0.88 205 211 209
-0.03 -15.89 -0.88 207 213 211
-0.03 -15.99 -0.88 208 212 211
-0.03 -16.08 -0.88 208 212 211
-0.22 -16.13 -0.71 208 212 211
-0.22 -16.22 -0.71 209 213 212
-0.03 -16.36 -0.88 212 214 213
-0.03 -16.45 -0.88 213 215 214
-0.03 -16.54 -0.88 215 216 218
-0.03 -16.63 -0.88 216 217 219
-0.03 -16.72 -0.88 215 217 216
-0.22 -16.77 -0.71 218 220 219
-0.22 -16.86 -0.71 220 222 221
-0.22 -16.96 -0.71 220 222 221
-0.22 -17.05 -0.71 218 222 221
-0.22 -17.14 -0.71 220 224 223
-0.22 -17.23 -0.71 220 224 223
-0.03 -17.37 -0.88 220 224 223
-0.03 -17.46 -0.88 224 228 227
-0.03 -17.55 -0.88 224 228 227
-0.03 -17.64 -0.88 225 229 228
-0.03 -17.74 -0.88 226 230 229
-0.03 -17.83 -0.88 227 233 231
-0.03 -17.92 -0.88 228 234 232
-0.03 -18.01 -0.88 229 233 232
-0.03 -18.10 -0.88 230 232 231
-0.03 -18.20 -0.88 232 232 232
-0.03 -18.29 -0.88 234 234 234
-0.03 -18.38 -0.88 235 235 235
-0.03 -18.47 -0.88 235 235 235
-0.03 -18.57 -0.88 235 235 235
-0.03 -18.66 -0.88 235 235 235
-0.03 -18.75 -0.88 234 234 234
-0.03 -18.84 -0.88 235 235 235
-0.22 -18.88 -0.71 236 236 236
-0.22 -18.97 -0.71 238 238 238
-0.22 -19.06 -0.71 239 239 239
-0.22 -19.16 -0.71 239 239 239
-0.22 -19.25 -0.71 240 240 240
-0.22 -19.34 -0.71 240 240 240
-0.22 -19.43 -0.71 240 240 240
-0.22 -19.52 -0.71 247 247 247
-0.22 -19.61 -0.71 244 244 244
-0.22 -19.71 -0.71 243 243 243
-0.03 -19.85 -0.88 244 244 244
-0.03 -19.95 -0.88 244 244 244
-0.03 -20.04 -0.88 243 243 243
-0.22 -20.07 -0.71 241 241 241
-0.22 -20.16 -0.71 242 242 242
-0.22 -20.26 -0.71 243 243 243
-0.22 -20.35 -0.71 244 244 244
-0.22 -20.44 -0.71 244 244 244
-0.22 -20.53 -0.71 244 244 244
-0.22 -20.62 -0.71 244 244 244
-0.22 -20.71 -0.71 245 245 245
-0.22 -20.81 -0.71 246 246 246
-0.22 -20.90 -0.71 246 246 246
-0.22 -20.99 -0.71 247 247 247
-0.22 -21.08 -0.71 249 249 249
-0.22 -21.17 -0.71 249 249 249
-0.22 -21.26 -0.71 250 250 250
-0.22 -21.36 -0.71 251 251 251
-0.22 -21.45 -0.71 252 252 252
-0.22 -21.54 -0.71 253 253 253
-0.22 -21.63 -0.71 252 252 252
-0.22 -21.72 -0.71 252 252 252
-0.22 -21.81 -0.71 252 252 252
-0.22 -21.90 -0.71 252 252 252
-0.22 -22.00 -0.71 252 252 252
-0.22 -22.09 -0.71 251 251 251
-0.22 -22.18 -0.71 251 251 251
-0.22 -22.27 -0.71 252 252 252
-0.22 -22.36 -0.71 252 252 252
-0.03 -22.52 -0.88 252 254 253
-0.03 -22.62 -0.88 252 254 253
-0.03 -22.71 -0.88 252 254 253
-0.03 -22.80 -0.88 252 254 253
-0.03 -22.89 -0.88 252 254 253
-0.03 -22.98 -0.88 252 254 253
-0.03 -23.08 -0.88 250 254 253
-0.03 -23.17 -0.88 250 254 253
-0.03 -23.26 -0.88 250 254 253
-0.03 -23.35 -0.88 250 254 253
-0.03 -23.45 -0.88 251 255 254
-0.03 -23.54 -0.88 251 255 254
-0.03 -23.63 -0.88 251 255 254
-0.03 -23.72 -0.88 251 255 254
-0.03 -23.81 -0.88 251 255 254
-0.03 -23.91 -0.88 251 255 254
-0.03 -24.00 -0.88 251 255 254
-0.03 -24.09 -0.88 251 255 254
-0.03 -24.18 -0.88 251 255 254
-0.03 -24.27 -0.88 251 255 254
-0.03 -24.37 -0.88 251 255 254
-0.03 -24.46 -0.88 251 255 254
-0.03 -24.55 -0.88 250 254 253
-0.03 -24.64 -0.88 250 254 253
-0.22 -24.65 -0.71 250 254 253
-0.22 -24.75 -0.71 250 254 253
-0.22 -24.84 -0.71 250 254 253
-0.22 -24.93 -0.71 250 254 253
-0.22 -25.02 -0.71 250 254 253
-0.22 -25.11 -0.71 250 255 254
-0.22 -25.20 -0.71 250 255 254
-0.22 -25.30 -0.71 250 255 254
-0.22 -25.39 -0.71 250 255 254
-0.22 -25.48 -0.71 249 255 253
-0.22 -25.57 -0.71 249 255 253
-0.22 -25.66 -0.71 249 255 253
-0.22 -25.75 -0.71 249 255 253
-0.22 -25.85 -0.71 249 255 253
-0.22 -25.94 -0.71 249 255 253
-0.22 -26.03 -0.71 249 255 253
-0.22 -26.12 -0.71 249 255 253
-0.22 -26.21 -0.71 249 255 253
-0.22 -26.30 -0.71 249 255 253
-0.22 -26.40 -0.71 249 255 253
-0.22 -26.49 -0.71 249 255 253
-0.22 -26.58 -0.71 251 255 254
-0.03 -26.76 -0.88 250 254 253
-0.03 -26.85 -0.88 250 254 253
-0.03 -26.94 -0.88 252 254 253
-0.03 -27.04 -0.88 253 255 254
-0.03 -27.13 -0.88 253 255 254
-0.22 -27.13 -0.71 254 255 255
-0.22 -27.22 -0.71 253 253 253
-0.22 -27.31 -0.71 253 253 253
-0.22 -27.40 -0.71 253 253 253
-0.22 -27.50 -0.71 253 253 253
-0.22 -27.59 -0.71 253 253 253
-0.22 -27.68 -0.71 252 252 252
-0.22 -27.77 -0.71 252 252 252
-0.22 -27.86 -0.71 252 252 252
-0.22 -27.95 -0.71 251 251 251
-0.38 -27.96 -0.56 250 250 250
-0.38 -28.06 -0.56 250 250 250
-0.22 -28.23 -0.71 250 250 250
-0.22 -28.32 -0.71 250 250 250
-0.22 -28.41 -0.71 250 250 250
-0.22 -28.50 -0.71 249 249 249
-0.22 -28.60 -0.71 247 247 247
-0.22 -28.69 -0.71 250 250 250
-0.03 -28.88 -0.88 250 250 250
-0.03 -28.97 -0.88 249 249 249
-0.03 -29.06 -0.88 249 249 249
-0.03 -29.15 -0.88 249 249 249
-0.03 -29.25 -0.88 249 249 249
-0.03 -29.34 -0.88 249 249 249
-0.22 -29.33 -0.71 249 249 249
-0.22 -29.42 -0.71 249 249 249
-0.22 -29.51 -0.71 249 249 249
-0.22 -29.60 -0.71 248 248 248
-0.22 -29.70 -0.71 248 248 248
-0.22 -29.79 -0.71 248 248 248
-0.22 -29.88 -0.71 248 248 248
-0.22 -29.97 -0.71 248 248 248
-0.22 -30.06 -0.71 247 247 247
-0.22 -30.15 -0.71 246 246 246
-0.22 -30.25 -0.71 246 246 246
-0.22 -30.34 -0.71 246 246 246
-0.22 -30.43 -0.71 246 246 246
-0.22 -30.52 -0.71 247 247 247
-0.22 -30.61 -0.71 248 248 248
-0.22 -30.70 -0.71 249 249 249
-0.22 -30.80 -0.71 248 248 248
-0.22 -30.89 -0.71 248 248 248
-0.22 -30.98 -0.71 247 247 247
-0.22 -31.07 -0.71 245 245 245
-0.22 -31.16 -0.71 245 245 245
-0.22 -31.25 -0.71 245 245 245
-0.03 -31.46 -0.88 245 245 245
-0.22 -31.44 -0.71 246 246 246
-0.22 -31.53 -0.71 245 245 245
-0.22 -31.80 -0.71 243 243 243
-0.22 -31.90 -0.71 243 243 243
-0.22 -31.99 -0.71 243 243 243
-0.22 -32.08 -0.71 243 243 243
-0.22 -32.17 -0.71 240 242 241
-0.22 -32.26 -0.71 239 241 240
-0.22 -32.35 -0.71 238 240 239
-0.22 -32.45 -0.71 238 240 239
-0.22 -32.54 -0.71 238 240 239
-0.38 -32.53 -0.56 238 240 239
-0.38 -32.62 -0.56 239 239 239
-0.38 -32.71 -0.56 239 239 239
-0.38 -32.80 -0.56 240 240 240
-0.38 -32.89 -0.56 240 240 240
-0.38 -32.98 -0.56 241 239 240
-0.38 -33.08 -0.56 240 238 239
-0.56 -33.05 -0.39 238 236 237
-0.56 -33.14 -0.39 237 235 236
-0.56 -33.23 -0.39 237 235 236
-0.72 -33.22 -0.24 240 239 237
-0.72 -33.31 -0.24 240 239 237
-0.56 -33.50 -0.39 242 241 239
-0.56 -33.59 -0.39 242 241 239
-0.72 -33.58 -0.24 243 242 240
-0.90 -33.55 -0.07 243 242 240
-0.90 -33.64 -0.07 243 243 241
-0.90 -33.73 -0.07 245 245 243
-0.90 -33.82 -0.07 236 236 236
-0.72 -34.03 -0.24 242 242 242
-0.72 -34.12 -0.24 245 247 246
-0.72 -34.21 -0.24 242 244 243
-0.72 -34.30 -0.24 237 239 238
-0.90 -34.27 -0.07 234 236 235
-0.90 -34.36 -0.07 235 237 236
-0.72 -35.30 -0.24 0 0 0
-0.72 -35.39 -0.24 0 0 0
-0.72 -35.48 -0.24 0 0 0
-0.72 -35.57 -0.24 0 0 0
-0.72 -35.66 -0.24 0 0 0
-0.72 -35.75 -0.24 0 0 0
0.44 20.38 -1.45 120 113 103
0.26 20.16 -1.28 118 114 105
0.26 20.06 -1.28 118 114 105
0.26 19.97 -1.28 121 114 108
0.26 19.88 -1.28 121 114 108
0.26 19.79 -1.28 123 115 112
0.26 19.69 -1.28 125 117 114
0.44 19.72 -1.45 124 116 114
0.44 19.63 -1.45 125 117 115
0.44 19.54 -1.45 126 116 115
0.44 19.44 -1.45 126 116 115
0.44 19.35 -1.45 125 115 114
0.26 19.14 -1.28 126 116 115
0.26 19.04 -1.28 127 117 116
0.26 18.95 -1.28 128 118 117
0.26 18.86 -1.28 126 118 116
0.26 18.76 -1.28 126 118 116
0.26 18.67 -1.28 126 118 116
0.26 18.58 -1.28 126 118 116
0.10 18.38 -1.13 126 118 116
0.10 18.29 -1.13 127 119 117
0.10 18.20 -1.13 129 121 119
0.10 18.11 -1.13 129 121 119
0.10 18.01 -1.13 131 123 120
0.10 17.92 -1.13 130 122 119
0.10 17.83 -1.13 130 122 119
0.10 17.74 -1.13 132 124 121
0.26 17.74 -1.28 132 124 121
0.26 17.65 -1.28 132 125 119
0.26 17.56 -1.28 133 126 120
0.26 17.46 -1.28 133 126 120
0.44 17.48 -1.45 133 126 120
0.44 17.39 -1.45 134 127 121
0.44 17.30 -1.45 134 127 121
0.44 17.20 -1.45 135 128 122
0.44 17.11 -1.45 135 128 122
0.44 17.02 -1.45 133 128 122
0.44 16.92 -1.45 132 127 121
0.44 16.83 -1.45 132 127 121
0.26 16.63 -1.28 132 127 121
0.26 16.54 -1.28 131 128 123
0.26 16.44 -1.28 131 128 123
0.26 16.35 -1.28 130 127 122
0.26 16.26 -1.28 130 127 122
0.26 16.16 -1.28 129 126 121
0.26 16.07 -1.28 129 126 121
0.26 15.98 -1.28 131 127 124
0.26 15.89 -1.28 131 127 124
0.26 15.79 -1.28 132 128 125
0.26 15.70 -1.28 133 129 126
0.26 15.61 -1.28 133 129 128
0.26 15.51 -1.28 133 129 128
0.26 15.42 -1.28 132 128 127
0.26 15.33 -1.28 132 128 127
0.26 15.24 -1.28 133 129 128
0.26 15.14 -1.28 134 130 129
0.26 15.05 -1.28 134 130 129
0.44 15.06 -1.45 134 130 127
0.44 14.97 -1.45 133 129 126
0.44 14.87 -1.45 133 130 125
0.44 14.78 -1.45 134 131 124
0.44 14.69 -1.45 134 130 118
0.44 14.22 -1.45 135 130 127
0.44 14.13 -1.45 135 130 127
0.44 14.03 -1.45 135 129 129
0.44 13.94 -1.45 132 128 127
0.44 13.85 -1.45 133 129 128
0.44 13.75 -1.45 134 130 127
0.44 13.66 -1.45 135 131 128
0.44 13.57 -1.45 132 132 124
0.44 13.47 -1.45 131 131 123
0.44 13.38 -1.45 129 129 119
0.44 13.29 -1.45 133 130 123
0.44 13.19 -1.45 133 130 123
0.44 13.10 -1.45 134 131 122
0.44 13.01 -1.45 135 132 123
0.44 12.91 -1.45 135 132 123
0.44 12.82 -1.45 134 131 122
0.44 12.73 -1.45 135 131 122
0.26 12.54 -1.28 135 131 122
0.26 12.45 -1.28 132 128 119
0.26 12.36 -1.28 133 129 120
0.26 12.26 -1.28 135 130 124
0.26 12.17 -1.28 137 132 126
0.10 12.00 -1.13 137 132 128
0.10 11.91 -1.13 137 132 128
0.10 11.82 -1.13 136 131 128
0.26 11.80 -1.28 136 131 128
0.26 11.71 -1.28 134 131 124
0.26 11.61 -1.28 134 131 124
0.26 11.52 -1.28 133 130 123
0.26 11.43 -1.28 133 130 123
0.26 11.33 -1.28 132 129 122
0.26 11.24 -1.28 132 129 122
0.26 11.15 -1.28 131 128 119
0.26 11.06 -1.28 130 127 118
0.26 10.96 -1.28 131 128 119
0.26 10.87 -1.28 129 129 121
0.26 10.78 -1.28 128 128 120
0.10 10.61 -1.13 126 126 118
0.10 10.52 -1.13 126 126 118
0.10 10.43 -1.13 126 125 120
0.10 10.34 -1.13 126 125 120
0.10 10.24 -1.13 124 123 118
0.10 10.15 -1.13 124 123 118
0.10 10.06 -1.13 124 123 119
0.26 10.03 -1.28 123 122 118
0.26 9.94 -1.28 122 121 117
0.26 9.85 -1.28 121 120 116
0.26 9.76 -1.28 122 119 112
0.44 9.74 -1.45 121 118 111
0.44 9.65 -1.45 122 119 110
-3.59 7.86 2.35 123 123 115
-3.59 7.77 2.35 109 112 103
-3.59 7.69 2.35 108 115 108
-3.59 7.61 2.35 135 150 147
-3.43 7.59 2.20 164 182 182
-3.59 7.44 2.35 180 204 204
-3.59 7.35 2.35 182 210 213
-3.59 7.27 2.35 175 213 216
-3.59 7.19 2.35 173 213 215
-3.59 7.10 2.35 172 212 214
-3.59 7.02 2.35 172 211 216
-3.59 6.94 2.35 175 214 219
-3.59 6.85 2.35 180 219 224
-3.72 6.72 2.47 184 223 228
-3.72 6.63 2.47 181 218 224
-3.72 6.55 2.47 178 215 221
-3.72 6.47 2.47 177 214 220
-3.72 6.38 2.47 177 214 220
-3.72 6.30 2.47 180 217 223
-3.72 6.21 2.47 181 218 224
-3.72 6.13 2.47 179 216 222
-3.72 6.05 2.47 177 214 220
-3.72 5.96 2.47 174 209 213
-3.72 5.88 2.47 176 211 215
-3.72 5.80 2.47 178 213 217
-3.87 5.66 2.62 180 215 219
-3.87 5.57 2.62 181 214 219
-3.87 5.49 2.62 179 212 217
-3.87 5.41 2.62 178 209 214
-3.87 5.32 2.62 176 207 212
-3.87 5.24 2.62 178 209 212
-3.87 5.16 2.62 185 216 219
-3.87 5.07 2.62 187 218 221
-3.87 4.99 2.62 184 218 220
-3.87 4.91 2.62 182 216 218
-3.87 4.82 2.62 181 215 217
-3.87 4.74 2.62 181 215 217
-3.87 4.66 2.62 184 215 220
-3.87 4.57 2.62 185 216 221
-3.87 4.49 2.62 183 214 219
-3.87 4.41 2.62 188 219 224
-3.87 4.32 2.62 187 218 223
-3.87 4.24 2.62 181 212 217
-3.87 4.16 2.62 186 217 222
-3.72 4.12 2.47 188 219 224
-3.72 4.04 2.47 184 215 220
-3.72 3.96 2.47 185 216 221
-3.72 3.87 2.47 186 217 220
-3.72 3.79 2.47 186 217 220
-3.87 3.66 2.62 187 218 221
-3.87 3.57 2.62 187 218 221
-3.87 3.49 2.62 187 218 221
-3.87 3.41 2.62 187 218 221
-3.87 3.32 2.62 188 219 224
-3.87 3.24 2.62 188 219 224
-3.87 3.16 2.62 188 219 224
-3.87 3.07 2.62 189 220 225
-3.87 2.99 2.62 190 221 226
-3.87 2.91 2.62 190 221 224
-3.87 2.82 2.62 190 221 224
-3.87 2.74 2.62 196 227 230
-3.87 2.66 2.62 193 224 227
-3.87 2.57 2.62 190 221 224
-3.87 2.49 2.62 189 220 223
-3.87 2.41 2.62 190 221 224
-3.87 2.32 2.62 191 222 225
-3.87 2.24 2.62 190 221 224
-3.87 2.16 2.62 188 219 222
-3.72 2.12 2.47 196 225 229
-3.72 2.03 2.47 193 222 226
-3.72 1.95 2.47 188 217 221
-3.72 1.86 2.47 185 214 218
-3.72 1.78 2.47 183 214 217
-3.72 1.70 2.47 184 215 218
-3.72 1.61 2.47 185 216 219
-3.72 1.53 2.47 186 217 220
-1.10 1.55 0.00 185 220 222
-1.10 1.46 0.00 187 222 224
-1.10 1.37 0.00 186 221 223
-1.10 1.28 0.00 186 221 223
-1.10 1.19 0.00 186 221 223
-1.10 1.10 0.00 188 222 224
-0.94 0.86 -0.15 192 225 230
-0.94 0.77 -0.15 190 223 228
-1.10 0.65 0.00 192 225 230
-1.10 0.56 0.00 196 227 232
-1.10 0.47 0.00 198 229 234
-1.10 0.38 0.00 199 230 235
-1.10 0.29 0.00 198 229 234
-1.10 0.20 0.00 199 230 235
-1.10 0.11 0.00 200 231 236
-1.10 0.02 0.00 204 233 237
-1.10 -0.07 0.00 203 232 236
-1.26 -0.19 0.15 203 232 236
-2.23 -1.32 1.06 206 234 235
-2.38 -1.44 1.21 205 233 234
-2.54 -1.55 1.36 205 235 235
-2.54 -1.63 1.36 205 235 235
-2.54 -1.72 1.36 205 235 235
-2.54 -1.81 1.36 206 236 236
-2.54 -1.89 1.36 207 237 237
-2.54 -1.98 1.36 208 238 238
-2.54 -2.07 1.36 210 238 239
-2.38 -2.13 1.21 210 238 239
-2.38 -2.22 1.21 203 231 232
-2.23 -2.28 1.06 205 233 234
-1.26 -2.78 0.15 208 236 239
-1.26 -2.87 0.15 212 237 241
-1.10 -2.94 0.00 214 239 243
-1.10 -3.03 0.00 215 240 244
-0.94 -3.10 -0.15 215 240 244
-0.94 -3.19 -0.15 216 240 244
-0.94 -3.46 -0.15 214 238 242
-0.94 -3.55 -0.15 212 237 241
-1.10 -3.66 0.00 212 237 241
-1.10 -3.74 0.00 211 236 240
-1.10 -3.83 0.00 210 235 239
-1.10 -3.92 0.00 207 232 236
-1.26 -4.03 0.15 205 230 234
-1.26 -4.12 0.15 206 234 235
-1.26 -4.21 0.15 205 233 234
-1.26 -4.30 0.15 206 234 235
-1.26 -4.39 0.15 210 238 239
-1.26 -4.47 0.15 212 240 241
-1.26 -4.56 0.15 212 240 241
-1.26 -4.65 0.15 213 239 238
-1.26 -4.74 0.15 217 243 242
-1.26 -4.83 0.15 217 243 242
-4.00 -5.10 2.74 218 243 240
-4.00 -5.18 2.74 218 243 240
-4.00 -5.26 2.74 218 243 240
-4.00 -5.35 2.74 218 243 240
-4.00 -5.43 2.74 219 244 241
-4.00 -5.51 2.74 221 243 241
-3.87 -5.59 2.62 219 241 238
-3.87 -5.67 2.62 227 247 245
-3.87 -5.76 2.62 229 249 247
-3.87 -5.84 2.62 227 247 245
-3.87 -5.92 2.62 226 244 244
-3.72 -6.00 2.47 226 244 244
-3.72 -6.08 2.47 234 252 252
-3.72 -6.17 2.47 242 255 255
-3.72 -6.25 2.47 241 255 255
-3.87 -6.34 2.62 119 135 135
0.26 -6.31 -1.28 146 160 161
0.26 -6.40 -1.28 156 170 171
0.26 -6.50 -1.28 159 170 172
0.10 -6.59 -1.13 153 164 166
0.10 -6.68 -1.13 155 165 167
0.10 -6.78 -1.13 159 169 171
-0.08 -6.87 -0.96 160 168 170
-0.08 -6.96 -0.96 162 170 172
-0.08 -7.06 -0.96 162 170 172
0.10 -7.15 -1.13 160 169 168
0.10 -7.24 -1.13 160 169 168
0.10 -7.33 -1.13 161 170 169
0.10 -7.42 -1.13 163 172 171
-0.08 -7.52 -0.96 163 172 169
-0.08 -7.61 -0.96 163 172 169
-0.08 -7.70 -0.96 162 171 168
-0.08 -7.79 -0.96 162 171 168
-0.08 -7.88 -0.96 167 176 171
-0.08 -7.98 -0.96 173 182 177
-0.08 -8.07 -0.96 176 185 180
-0.08 -8.16 -0.96 176 185 180
-0.08 -8.25 -0.96 179 189 181
-0.08 -8.34 -0.96 179 189 181
-0.08 -8.44 -0.96 180 189 184
-0.08 -8.53 -0.96 180 189 184
-0.08 -8.62 -0.96 180 189 184
-0.08 -8.71 -0.96 180 189 184
-0.08 -8.81 -0.96 179 190 184
-0.08 -8.90 -0.96 179 190 184
-0.08 -8.99 -0.96 180 191 187
0.10 -9.09 -1.13 179 190 186
0.10 -9.18 -1.13 179 190 186
0.10 -9.46 -1.13 182 193 189
0.10 -9.55 -1.13 183 194 190
0.10 -9.64 -1.13 181 192 188
0.10 -9.74 -1.13 181 192 188
0.10 -9.83 -1.13 182 193 189
0.10 -9.92 -1.13 182 193 189
0.10 -10.01 -1.13 182 193 189
-0.08 -10.09 -0.96 182 193 189
-0.08 -10.19 -0.96 183 192 189
-0.08 -10.28 -0.96 183 192 189
-0.08 -10.37 -0.96 183 192 189
-0.08 -10.46 -0.96 183 192 189
-0.08 -10.55 -0.96 184 193 190
-0.26 -10.63 -0.79 184 193 190
-0.26 -10.72 -0.79 184 193 190
-0.26 -10.81 -0.79 184 193 190
-0.08 -10.92 -0.96 184 193 190
-0.08 -11.01 -0.96 184 193 190
-0.08 -11.11 -0.96 184 193 190
-0.08 -11.20 -0.96 184 193 190
-0.08 -11.29 -0.96 185 194 191
-0.08 -11.38 -0.96 185 194 191
-0.08 -11.48 -0.96 186 195 192
-0.08 -11.57 -0.96 185 194 191
-0.08 -11.66 -0.96 185 194 191
-0.08 -11.75 -0.96 185 194 189
-0.08 -11.84 -0.96 185 194 189
-0.08 -11.94 -0.96 185 194 189
-0.08 -12.03 -0.96 186 195 190
-0.08 -12.12 -0.96 187 196 191
-0.08 -12.21 -0.96 187 196 191
-0.08 -12.30 -0.96 188 198 190
-0.08 -12.40 -0.96 189 199 191
-0.08 -12.49 -0.96 189 196 189
-0.08 -12.58 -0.96 189 196 189
-0.08 -12.67 -0.96 188 195 188
-0.08 -12.76 -0.96 188 195 188
-0.08 -12.86 -0.96 189 196 189
-0.08 -12.95 -0.96 190 197 190
-0.08 -13.04 -0.96 190 196 192
-0.08 -13.13 -0.96 191 197 193
-0.08 -13.22 -0.96 191 197 193
-0.08 -13.32 -0.96 190 196 192
-0.08 -13.41 -0.96 188 197 194
-0.08 -13.50 -0.96 191 200 197
-0.08 -13.59 -0.96 191 200 197
-0.08 -13.69 -0.96 191 200 197
-0.08 -13.78 -0.96 191 200 197
-0.08 -13.87 -0.96 192 198 196
-0.08 -13.96 -0.96 192 198 196
-0.08 -14.05 -0.96 193 199 197
-0.08 -14.15 -0.96 194 200 198
-0.08 -14.24 -0.96 193 202 199
-0.08 -14.33 -0.96 193 202 199
-0.08 -14.42 -0.96 193 202 199
-0.08 -14.51 -0.96 193 202 199
-0.08 -14.61 -0.96 192 201 198
-0.08 -14.70 -0.96 193 202 199
-0.08 -14.79 -0.96 193 202 199
-0.08 -14.88 -0.96 195 204 201
-0.08 -14.97 -0.96 195 206 202
-0.08 -15.07 -0.96 196 207 203
-0.08 -15.16 -0.96 198 209 205
-0.08 -15.25 -0.96 198 209 205
-0.26 -15.31 -0.79 200 209 204
-0.26 -15.40 -0.79 199 208 203
-0.26 -15.49 -0.79 199 208 203
-0.26 -15.58 -0.79 198 207 202
-0.26 -15.67 -0.79 201 210 205
-0.08 -15.80 -0.96 204 210 208
-0.08 -15.89 -0.96 205 211 209
-0.08 -15.99 -0.96 206 212 210
-0.26 -16.04 -0.79 206 212 210
-0.26 -16.13 -0.79 207 211 210
-0.26 -16.22 -0.79 208 212 211
-0.26 -16.31 -0.79 210 214 213
-0.26 -16.41 -0.79 212 216 215
-0.26 -16.50 -0.79 215 216 218
-0.26 -16.59 -0.79 216 217 219
-0.26 -16.68 -0.79 214 218 217
-0.26 -16.77 -0.79 217 221 220
-0.26 -16.86 -0.79 219 223 222
-0.26 -16.96 -0.79 220 224 223
-0.26 -17.05 -0.79 221 225 224
-0.26 -17.14 -0.79 222 226 225
-0.26 -17.23 -0.79 223 227 226
-0.26 -17.32 -0.79 222 226 225
-0.26 -17.41 -0.79 221 225 224
-0.26 -17.51 -0.79 223 227 226
-0.26 -17.60 -0.79 224 228 227
-0.26 -17.69 -0.79 223 227 226
-0.26 -17.78 -0.79 223 227 226
-0.08 -17.92 -0.96 226 230 229
-0.08 -18.01 -0.96 231 233 232
-0.26 -18.06 -0.79 229 231 230
-0.26 -18.15 -0.79 231 231 231
-0.26 -18.24 -0.79 232 232 232
-0.26 -18.33 -0.79 234 234 234
-0.26 -18.42 -0.79 235 235 235
-0.26 -18.51 -0.79 235 235 235
-0.26 -18.61 -0.79 234 234 234
-0.26 -18.70 -0.79 233 233 233
-0.26 -18.79 -0.79 237 237 237
-0.26 -18.88 -0.79 237 237 237
-0.26 -18.97 -0.79 237 237 237
-0.26 -19.06 -0.79 238 238 238
-0.26 -19.16 -0.79 239 239 239
-0.26 -19.25 -0.79 240 240 240
-0.26 -19.34 -0.79 241 241 241
-0.26 -19.43 -0.79 241 241 241
-0.26 -19.52 -0.79 239 239 239
-0.26 -19.61 -0.79 238 238 238
-0.26 -19.71 -0.79 239 239 239
-0.26 -19.80 -0.79 239 239 239
-0.26 -19.89 -0.79 239 239 239
-0.26 -19.98 -0.79 238 238 238
-0.26 -20.07 -0.79 242 242 242
-0.26 -20.16 -0.79 242 242 242
-0.26 -20.26 -0.79 242 242 242
-0.26 -20.35 -0.79 242 242 242
-0.26 -20.44 -0.79 244 244 244
-0.26 -20.53 -0.79 246 246 246
-0.26 -20.62 -0.79 247 247 247
-0.26 -20.71 -0.79 248 248 248
-0.26 -20.81 -0.79 248 248 248
-0.26 -20.90 -0.79 246 246 246
-0.26 -20.99 -0.79 247 247 247
-0.26 -21.08 -0.79 249 249 249
-0.26 -21.17 -0.79 251 251 251
-0.26 -21.26 -0.79 251 251 251
-0.42 -21.30 -0.64 251 251 251
-0.42 -21.39 -0.64 252 252 252
-0.42 -21.48 -0.64 252 252 252
-0.42 -21.57 -0.64 251 251 251
-0.42 -21.66 -0.64 252 252 252
-0.42 -21.76 -0.64 252 252 252
-0.26 -21.90 -0.79 252 252 252
-0.26 -22.00 -0.79 252 252 252
-0.26 -22.09 -0.79 252 252 252
-0.26 -22.18 -0.79 251 251 251
-0.26 -22.27 -0.79 251 253 252
-0.26 -22.36 -0.79 251 253 252
-0.26 -22.45 -0.79 251 253 252
-0.26 -22.55 -0.79 252 254 253
-0.26 -22.64 -0.79 252 254 253
-0.26 -22.73 -0.79 252 254 253
-0.26 -22.82 -0.79 252 254 253
-0.26 -22.91 -0.79 252 254 253
-0.26 -23.00 -0.79 252 254 253
-0.26 -23.10 -0.79 252 254 253
-0.26 -23.19 -0.79 252 254 253
-0.26 -23.28 -0.79 252 254 253
-0.26 -23.37 -0.79 253 255 254
-0.26 -23.46 -0.79 253 255 254
-0.26 -23.55 -0.79 251 255 254
-0.26 -23.65 -0.79 251 255 254
-0.08 -23.81 -0.96 251 255 254
-0.08 -23.91 -0.96 251 255 254
-0.08 -24.00 -0.96 251 255 254
-0.08 -24.09 -0.96 251 255 254
-0.08 -24.18 -0.96 251 255 254
-0.08 -24.27 -0.96 251 255 254
-0.08 -24.37 -0.96 251 255 254
-0.08 -24.46 -0.96 251 255 254
-0.08 -24.55 -0.96 250 254 253
-0.26 -24.56 -0.79 250 254 253
-0.26 -24.65 -0.79 250 254 253
-0.26 -24.75 -0.79 250 254 253
-0.26 -24.84 -0.79 250 254 253
-0.26 -24.93 -0.79 250 254 253
-0.26 -25.02 -0.79 250 254 253
-0.26 -25.11 -0.79 250 255 254
-0.26 -25.20 -0.79 250 255 254
-0.26 -25.30 -0.79 250 255 254
-0.26 -25.39 -0.79 250 255 254
-0.26 -25.48 -0.79 249 255 253
-0.26 -25.57 -0.79 249 255 253
-0.26 -25.66 -0.79 249 255 253
-0.42 -25.68 -0.64 249 255 253
-0.42 -25.77 -0.64 250 255 254
-0.26 -25.94 -0.79 249 255 253
-0.42 -25.96 -0.64 249 255 253
-0.42 -26.05 -0.64 249 255 253
-0.42 -26.14 -0.64 249 255 253
-0.42 -26.23 -0.64 249 255 253
-0.26 -26.40 -0.79 249 255 253
-0.26 -26.49 -0.79 250 255 254
-0.26 -26.58 -0.79 251 255 254
-0.26 -26.67 -0.79 250 254 253
-0.26 -26.76 -0.79 250 254 253
-0.26 -26.85 -0.79 250 254 253
-0.26 -26.95 -0.79 251 255 254
-0.26 -27.04 -0.79 254 255 255
-0.26 -27.13 -0.79 254 255 255
-0.26 -27.22 -0.79 252 254 253
-0.26 -27.31 -0.79 252 254 253
-0.26 -27.40 -0.79 253 253 253
-0.26 -27.50 -0.79 253 253 253
-0.42 -27.51 -0.64 252 252 252
-0.42 -27.60 -0.64 252 252 252
-0.42 -27.69 -0.64 252 252 252
-0.26 -27.86 -0.79 252 252 252
-0.42 -27.87 -0.64 252 252 252
-0.42 -27.96 -0.64 250 250 250
-0.42 -28.06 -0.64 249 249 249
-0.42 -28.15 -0.64 250 250 250
-0.42 -28.24 -0.64 252 252 252
-0.42 -28.33 -0.64 252 252 252
-0.26 -28.50 -0.79 251 251 251
-0.26 -28.60 -0.79 249 249 249
-0.26 -28.69 -0.79 252 252 252
-0.26 -28.78 -0.79 251 251 251
-0.26 -28.87 -0.79 250 250 250
-0.26 -28.96 -0.79 249 249 249
-0.26 -29.05 -0.79 249 249 249
-0.26 -29.15 -0.79 249 249 249
-0.26 -29.24 -0.79 249 249 249
-0.26 -29.33 -0.79 249 249 249
-0.26 -29.42 -0.79 249 249 249
-0.26 -29.51 -0.79 249 249 249
-0.42 -29.52 -0.64 249 249 249
-0.42 -29.61 -0.64 249 249 249
-0.26 -29.79 -0.79 249 249 249
-0.26 -29.88 -0.79 250 250 250
-0.26 -29.97 -0.79 250 250 250
-0.42 -29.97 -0.64 248 248 248
-0.42 -30.06 -0.64 247 247 247
-0.42 -30.15 -0.64 246 246 246
-0.42 -30.25 -0.64 246 246 246
-0.42 -30.34 -0.64 246 246 246
-0.42 -30.43 -0.64 247 247 247
-0.42 -30.52 -0.64 248 248 248
-0.26 -30.70 -0.79 248 248 248
-0.26 -30.80 -0.79 248 248 248
-0.26 -30.89 -0.79 248 248 248
-0.26 -30.98 -0.79 248 248 248
-0.26 -31.07 -0.79 247 247 247
-0.26 -31.16 -0.79 247 247 247
-0.26 -31.25 -0.79 246 246 246
-0.26 -31.35 -0.79 245 245 245
-0.26 -31.44 -0.79 245 245 245
-0.26 -31.53 -0.79 245 245 245
-0.26 -31.80 -0.79 243 243 243
-0.26 -31.90 -0.79 243 243 243
-0.26 -31.99 -0.79 243 243 243
-0.26 -32.08 -0.79 243 243 243
-0.26 -32.17 -0.79 241 243 242
-0.26 -32.26 -0.79 240 242 241
-0.26 -32.35 -0.79 238 240 239
-0.26 -32.45 -0.79 238 240 239
-0.26 -32.54 -0.79 238 240 239
-0.42 -32.53 -0.64 238 240 239
-0.42 -32.62 -0.64 239 239 239
-0.42 -32.71 -0.64 238 238 238
-0.42 -32.80 -0.64 237 237 237
-0.42 -32.89 -0.64 238 238 238
-0.42 -32.98 -0.64 239 239 239
-0.60 -32.96 -0.47 240 240 240
-0.60 -33.05 -0.47 239 239 239
-0.60 -33.14 -0.47 238 238 238
-0.76 -33.13 -0.32 237 237 237
-0.76 -33.22 -0.32 240 240 240
-0.76 -33.31 -0.32 239 239 239
-0.76 -33.40 -0.32 238 238 238
-0.76 -33.49 -0.32 236 236 236
-0.94 -33.46 -0.15 237 237 237
-0.94 -33.55 -0.15 239 239 239
-0.94 -33.64 -0.15 242 242 242
-0.94 -33.73 -0.15 244 244 244
-0.94 -33.82 -0.15 241 241 239
-0.94 -33.91 -0.15 243 243 241
-0.94 -34.00 -0.15 242 244 241
-0.76 -34.21 -0.32 241 243 240
-0.94 -34.18 -0.15 241 243 240
-0.94 -34.27 -0.15 242 244 241
-0.94 -34.36 -0.15 242 244 241
-0.76 -35.30 -0.32 0 0 0
-0.76 -35.39 -0.32 0 0 0
-0.76 -35.48 -0.32 0 0 0
-0.76 -35.57 -0.32 0 0 0
-0.76 -35.66 -0.32 0 0 0
-0.76 -35.75 -0.32 0 0 0
0.06 20.88 -1.21 46 37 20
0.06 20.79 -1.21 43 34 17
0.06 20.70 -1.21 63 56 40
0.06 20.60 -1.21 102 95 79
0.06 20.51 -1.21 127 119 106
0.06 20.42 -1.21 126 118 105
0.06 20.33 -1.21 120 112 99
0.06 20.23 -1.21 123 115 104
0.21 20.25 -1.36 124 120 108
0.21 20.16 -1.36 119 115 104
0.21 20.06 -1.36 116 112 101
0.21 19.97 -1.36 121 114 106
0.21 19.88 -1.36 123 116 108
0.21 19.79 -1.36 123 116 110
0.21 19.69 -1.36 123 116 110
0.21 19.60 -1.36 125 116 111
0.40 19.63 -1.53 126 117 112
0.40 19.54 -1.53 126 116 114
0.40 19.44 -1.53 126 116 114
0.21 19.23 -1.36 126 116 114
0.21 19.14 -1.36 126 116 114
0.21 19.04 -1.36 127 116 114
0.21 18.95 -1.36 128 117 115
0.21 18.86 -1.36 126 118 116
0.21 18.76 -1.36 126 118 116
0.21 18.67 -1.36 126 118 116
0.06 18.48 -1.21 126 118 116
0.06 18.38 -1.21 126 118 116
0.06 18.29 -1.21 126 118 116
0.06 18.20 -1.21 127 119 116
0.06 18.11 -1.21 128 120 117
0.06 18.01 -1.21 131 123 120
0.06 17.92 -1.21 129 121 118
0.06 17.83 -1.21 129 122 116
0.06 17.74 -1.21 131 124 118
0.06 17.64 -1.21 131 124 118
0.21 17.65 -1.36 131 124 118
0.21 17.56 -1.36 133 126 120
0.21 17.46 -1.36 132 125 119
0.21 17.37 -1.36 133 126 120
0.21 17.28 -1.36 133 126 120
0.21 17.19 -1.36 134 127 121
0.21 17.09 -1.36 134 127 121
0.21 17.00 -1.36 134 127 121
0.21 16.91 -1.36 132 127 121
