ply
format ascii 1.0
element vertex 1706
property float x
property float y
property float z
property uchar red
property uchar green
property uchar blue
end_header
3.23 -2.82 4.78 126 138 134
3.04 -2.93 4.93 137 152 149
3.04 -3.02 4.93 160 174 174
3.04 -3.12 4.93 146 165 163
3.04 -3.21 4.93 142 160 160
3.04 -3.30 4.93 154 172 172
3.04 -3.39 4.93 160 178 178
3.04 -3.48 4.93 166 182 181
3.04 -3.57 4.93 164 180 179
3.04 -3.67 4.93 160 175 172
13.52 -3.55 -2.81 139 155 152
13.52 -3.67 -2.81 156 173 167
13.24 -3.80 -2.60 165 182 176
13.24 -3.91 -2.60 158 175 169
13.24 -4.03 -2.60 158 174 171
13.24 -4.14 -2.60 159 175 174
13.24 -4.25 -2.60 161 180 178
12.95 -4.38 -2.39 168 186 188
12.95 -4.50 -2.39 174 192 194
12.95 -4.61 -2.39 172 190 194
12.95 -4.72 -2.39 162 179 186
12.95 -4.83 -2.39 151 170 185
12.95 -4.95 -2.39 119 146 176
12.95 -5.06 -2.39 93 126 167
12.95 -5.17 -2.39 64 102 147
12.95 -5.29 -2.39 43 90 136
12.67 -5.41 -2.18 34 88 134
12.67 -5.52 -2.18 33 94 138
12.67 -5.63 -2.18 39 102 143
12.67 -5.75 -2.18 42 108 143
12.67 -5.86 -2.18 54 119 151
12.67 -5.97 -2.18 54 119 149
12.39 -6.09 -1.97 51 120 149
12.39 -6.20 -1.97 51 122 154
12.13 -6.76 -1.79 53 124 154
12.13 -6.87 -1.79 48 121 154
11.85 -6.99 -1.58 47 119 157
11.85 -7.10 -1.58 46 119 160
11.85 -7.21 -1.58 49 122 167
11.85 -7.32 -1.58 49 126 170
11.57 -7.43 -1.37 51 128 174
11.57 -7.54 -1.37 39 118 161
11.57 -7.65 -1.37 47 124 168
11.57 -7.76 -1.37 50 127 169
11.31 -7.87 -1.18 47 120 163
11.31 -7.98 -1.18 43 111 156
11.31 -8.09 -1.18 52 116 162
11.31 -8.19 -1.18 56 118 165
11.31 -8.30 -1.18 50 114 160
11.06 -8.41 -0.99 48 121 166
11.06 -8.52 -0.99 41 118 164
10.77 -8.62 -0.78 49 123 172
10.52 -8.72 -0.59 47 121 170
10.52 -8.83 -0.59 42 121 162
10.52 -8.94 -0.59 46 125 166
10.26 -9.04 -0.41 47 123 172
10.26 -9.14 -0.41 58 126 173
10.26 -9.25 -0.41 83 141 179
10.26 -9.36 -0.41 97 126 134
10.26 -9.46 -0.41 96 114 114
-7.15 15.25 12.35 0 0 0
-7.15 15.18 12.35 0 0 0
-7.15 15.11 12.35 0 0 0
-7.15 15.04 12.35 0 0 0
-7.15 14.97 12.35 0 0 0
-7.15 14.90 12.35 0 0 0
-7.15 14.83 12.35 0 0 0
-7.15 14.76 12.35 0 0 0
-7.15 14.69 12.35 0 0 0
-7.15 14.62 12.35 169 117 96
-7.03 14.62 12.27 169 117 96
-7.03 14.55 12.27 169 117 95
-5.05 11.04 10.80 173 129 90
-5.05 10.97 10.80 174 130 91
-4.94 10.95 10.72 175 131 92
-4.94 10.88 10.72 174 129 90
-4.94 10.80 10.72 175 130 91
-4.94 10.73 10.72 179 131 93
-4.94 10.65 10.72 180 132 94
-4.94 10.58 10.72 180 130 93
-4.94 10.50 10.72 179 129 92
-4.94 10.43 10.72 181 129 92
-4.94 10.36 10.72 180 128 91
-4.94 10.28 10.72 184 130 94
-4.94 10.21 10.72 183 129 93
-4.94 10.13 10.72 182 128 92
-4.94 10.06 10.72 182 128 92
-4.94 9.98 10.72 183 129 95
-4.94 9.91 10.72 185 131 97
-4.80 9.90 10.61 186 131 100
-4.80 9.83 10.61 186 131 100
-4.80 9.75 10.61 185 130 99
-4.68 9.73 10.53 185 130 99
-4.68 9.66 10.53 186 132 98
-4.68 9.58 10.53 187 133 99
-4.54 9.58 10.43 187 133 95
-4.54 9.50 10.43 186 132 94
-4.54 9.42 10.43 185 131 93
-4.54 9.35 10.43 186 132 98
-4.54 9.27 10.43 187 132 101
-4.54 9.20 10.43 188 135 103
-4.54 9.12 10.43 187 134 102
-4.54 9.05 10.43 185 135 102
-4.54 8.97 10.43 186 136 103
-4.54 8.90 10.43 186 137 105
-4.54 8.82 10.43 185 136 104
-4.54 8.74 10.43 183 134 101
-4.43 8.72 10.34 184 135 102
-4.43 8.64 10.34 186 138 102
-4.43 8.57 10.34 187 139 103
-4.43 8.49 10.34 189 141 103
-4.43 8.42 10.34 189 141 103
-4.29 8.40 10.24 189 141 101
-4.29 8.33 10.24 189 141 103
-4.29 8.25 10.24 190 142 104
-4.29 8.18 10.24 190 142 106
-4.29 8.10 10.24 191 143 107
-4.29 8.02 10.24 191 143 107
-4.29 7.95 10.24 192 144 108
-4.29 7.87 10.24 192 144 108
-4.29 7.80 10.24 193 143 108
-4.29 7.72 10.24 195 145 110
-4.17 7.69 10.15 195 145 110
-4.17 7.62 10.15 194 144 109
-4.17 7.54 10.15 193 143 108
-4.17 7.46 10.15 193 143 108
-4.17 7.39 10.15 193 143 108
-4.17 7.31 10.15 194 144 109
-4.17 7.23 10.15 194 144 109
-4.17 7.16 10.15 194 144 107
-4.03 7.14 10.05 193 143 106
-4.03 7.06 10.05 193 143 108
-4.03 6.99 10.05 192 142 107
-4.03 6.91 10.05 191 142 109
-4.03 6.83 10.05 191 142 109
-4.03 6.76 10.05 191 142 110
-4.03 6.68 10.05 192 143 111
-4.03 6.60 10.05 192 145 115
-4.03 6.53 10.05 192 145 115
-4.03 6.45 10.05 191 144 114
-4.03 6.37 10.05 191 144 114
-4.03 6.30 10.05 191 146 115
-4.03 6.22 10.05 192 147 116
-4.03 6.14 10.05 192 147 116
-4.03 6.07 10.05 193 148 117
-4.03 5.99 10.05 195 149 116
-4.03 5.91 10.05 195 150 119
-4.03 5.84 10.05 196 151 120
-4.03 5.61 10.05 198 154 127
-4.03 5.53 10.05 198 154 127
-4.03 5.45 10.05 195 154 126
-4.03 5.38 10.05 196 155 127
-4.03 5.30 10.05 199 155 128
-4.03 5.22 10.05 200 156 129
-4.03 5.15 10.05 201 157 128
-4.03 5.07 10.05 201 157 128
-4.03 4.99 10.05 203 158 129
-4.03 4.92 10.05 203 157 131
-4.03 4.84 10.05 206 159 133
-3.89 4.81 9.94 207 159 136
-3.89 4.73 9.94 209 159 136
-3.89 4.66 9.94 210 160 137
-3.89 4.58 9.94 212 160 138
-3.89 4.50 9.94 213 161 139
-3.89 4.43 9.94 216 161 140
-3.89 4.35 9.94 216 161 140
-3.89 4.27 9.94 217 160 140
-3.78 4.23 9.86 218 164 140
-3.78 4.16 9.86 219 165 141
-3.78 4.08 9.86 217 165 141
-3.78 4.00 9.86 218 166 142
-3.78 3.92 9.86 217 167 142
-3.78 3.85 9.86 216 166 141
-3.78 3.77 9.86 210 164 138
-3.78 3.69 9.86 206 160 134
-3.78 3.62 9.86 201 155 129
-3.63 3.58 9.75 197 151 125
-3.63 3.50 9.75 195 149 125
-3.63 3.43 9.75 192 146 122
-3.63 3.35 9.75 191 147 122
-3.63 3.27 9.75 192 148 123
-3.49 3.24 9.65 181 139 115
-3.49 3.16 9.65 181 139 115
-3.49 3.08 9.65 178 136 114
-3.49 3.00 9.65 171 129 107
-3.49 2.92 9.65 163 122 100
-3.49 2.85 9.65 161 120 98
-3.38 2.80 9.57 163 122 102
-3.38 2.72 9.57 165 127 108
-3.38 2.64 9.57 162 129 110
-3.38 2.57 9.57 165 136 118
-3.38 2.49 9.57 169 143 126
-3.38 2.41 9.57 172 155 137
-3.38 2.33 9.57 173 160 144
-3.38 2.25 9.57 170 158 142
-3.38 2.18 9.57 163 153 141
-3.38 2.10 9.57 163 155 142
-3.24 2.06 9.46 159 153 141
-3.24 1.98 9.46 155 151 140
-3.24 1.90 9.46 153 153 141
11.51 5.10 -1.46 148 154 142
11.51 4.99 -1.46 153 156 145
11.51 4.88 -1.46 149 152 141
11.26 4.71 -1.27 152 155 144
11.26 4.60 -1.27 153 156 147
11.26 4.49 -1.27 147 150 141
11.26 4.38 -1.27 149 152 143
11.26 4.27 -1.27 152 155 146
11.26 4.16 -1.27 148 151 142
11.51 4.11 -1.46 152 155 146
11.51 4.00 -1.46 151 156 149
11.26 3.83 -1.27 149 154 147
11.26 3.72 -1.27 152 157 150
11.26 3.62 -1.27 153 160 152
11.26 3.51 -1.27 153 160 152
11.26 3.40 -1.27 147 159 147
3.19 1.60 4.70 148 158 150
3.19 1.51 4.70 145 151 151
3.19 1.42 4.70 147 152 155
3.39 1.36 4.55 192 205 198
3.56 1.31 4.43 76 95 99
3.56 1.21 4.43 0 7 37
3.75 1.16 4.28 17 48 92
3.75 1.07 4.28 7 42 84
3.75 0.97 4.28 0 34 79
3.95 0.92 4.14 0 22 68
3.95 0.82 4.14 0 20 67
3.95 0.73 4.14 0 31 78
4.15 0.67 3.99 0 28 75
4.15 0.58 3.99 0 36 83
4.15 0.48 3.99 0 36 85
4.15 0.39 3.99 0 35 87
4.15 0.29 3.99 0 36 91
4.15 0.20 3.99 0 37 93
4.15 0.11 3.99 0 36 92
4.15 0.01 3.99 0 36 95
4.15 -0.08 3.99 0 39 100
4.15 -0.18 3.99 0 38 99
4.15 -0.27 3.99 0 37 96
4.15 -0.36 3.99 0 38 97
4.15 -0.46 3.99 0 36 94
4.15 -0.55 3.99 0 34 92
4.15 -0.65 3.99 0 32 88
4.15 -0.74 3.99 0 33 89
4.15 -0.83 3.99 0 33 85
3.95 -0.96 4.14 0 32 84
3.95 -1.05 4.14 0 31 79
3.95 -1.15 4.14 0 30 76
3.75 -1.27 4.28 0 28 73
3.75 -1.36 4.28 0 24 69
3.56 -1.48 4.43 2 39 84
3.56 -1.57 4.43 4 40 90
3.19 -2.64 4.70 167 179 175
3.19 -2.73 4.70 186 201 198
3.19 -2.82 4.70 101 116 113
2.99 -2.93 4.85 99 115 114
2.99 -3.02 4.85 149 165 164
2.99 -3.12 4.85 149 167 167
2.99 -3.21 4.85 147 165 165
2.99 -3.30 4.85 154 172 172
2.99 -3.39 4.85 159 177 177
2.99 -3.48 4.85 163 179 179
2.99 -3.57 4.85 160 176 176
2.99 -3.67 4.85 160 175 172
2.99 -3.76 4.85 163 178 175
2.99 -3.85 4.85 163 178 175
2.99 -3.94 4.85 159 173 173
2.99 -4.03 4.85 159 175 174
13.18 -4.25 -2.70 158 177 173
12.90 -4.38 -2.49 156 175 173
12.90 -4.50 -2.49 159 177 177
12.90 -4.61 -2.49 161 179 179
12.90 -4.72 -2.49 161 179 181
12.90 -4.83 -2.49 163 177 178
12.90 -4.95 -2.49 176 185 182
12.90 -5.06 -2.49 176 181 177
12.90 -5.17 -2.49 170 179 176
12.61 -5.30 -2.28 167 176 173
12.61 -5.41 -2.28 157 166 163
12.61 -5.52 -2.28 134 143 140
12.61 -5.63 -2.28 109 115 111
12.61 -5.75 -2.28 90 96 92
12.61 -5.86 -2.28 77 88 84
12.33 -5.98 -2.07 74 88 88
12.33 -6.09 -2.07 72 91 95
12.33 -6.20 -2.07 70 98 109
12.33 -6.31 -2.07 64 105 125
12.33 -6.43 -2.07 60 109 139
12.08 -6.54 -1.88 55 115 149
12.08 -6.65 -1.88 51 118 161
12.08 -6.76 -1.88 41 118 174
12.08 -6.87 -1.88 45 120 175
11.79 -6.99 -1.67 49 122 177
11.79 -7.10 -1.67 49 120 172
11.79 -7.21 -1.67 47 117 168
11.79 -7.32 -1.67 47 115 160
11.51 -7.43 -1.46 46 115 156
11.51 -7.54 -1.46 53 122 161
11.51 -7.65 -1.46 48 118 154
11.51 -7.76 -1.46 47 120 155
11.51 -7.87 -1.46 49 121 159
11.26 -7.98 -1.27 45 120 159
11.26 -8.09 -1.27 45 120 162
11.26 -8.19 -1.27 44 121 165
11.26 -8.30 -1.27 41 118 164
11.00 -8.41 -1.09 40 117 161
11.00 -8.52 -1.09 38 115 161
10.72 -8.62 -0.88 46 120 169
10.72 -8.73 -0.88 45 119 168
10.46 -8.83 -0.69 42 121 160
10.46 -8.94 -0.69 44 123 162
10.46 -9.04 -0.69 47 124 170
10.21 -9.14 -0.50 62 130 175
10.21 -9.25 -0.50 83 141 178
10.21 -9.36 -0.50 91 120 126
10.21 -9.46 -0.50 97 116 114
-7.18 15.25 12.29 0 0 0
-7.18 15.18 12.29 0 0 0
-7.18 15.11 12.29 0 0 0
-7.18 15.04 12.29 0 0 0
-7.18 14.97 12.29 0 0 0
-7.18 14.90 12.29 0 0 0
-7.18 14.83 12.29 0 0 0
-7.18 14.76 12.29 0 0 0
-7.18 14.69 12.29 0 0 0
-7.18 14.62 12.29 170 115 94
-7.18 14.55 12.29 170 115 94
-7.07 14.55 12.21 171 117 93
-5.09 11.04 10.74 178 129 89
-5.09 10.97 10.74 180 131 91
-5.09 10.89 10.74 180 131 91
-5.09 10.82 10.74 179 129 92
-5.09 10.74 10.74 179 129 92
-4.97 10.73 10.65 180 128 91
-4.97 10.65 10.65 180 128 91
-4.97 10.58 10.65 179 126 92
-4.97 10.50 10.65 179 126 92
-4.97 10.43 10.65 182 128 94
-4.97 10.36 10.65 183 129 95
-4.97 10.28 10.65 183 131 94
-4.97 10.21 10.65 182 130 93
-4.97 10.13 10.65 181 129 92
-4.97 10.06 10.65 181 129 92
-4.97 9.98 10.65 183 130 96
-4.97 9.91 10.65 184 131 97
-4.83 9.90 10.55 185 132 98
-4.83 9.83 10.55 186 133 99
-4.83 9.75 10.55 185 132 98
-4.83 9.68 10.55 186 133 99
-4.72 9.66 10.46 186 134 97
-4.72 9.58 10.46 187 135 98
-4.72 9.51 10.46 187 135 96
-4.58 9.50 10.36 186 134 95
-4.58 9.42 10.36 186 132 96
-4.58 9.35 10.36 186 132 96
-4.58 9.27 10.36 188 132 99
-4.58 9.20 10.36 188 134 100
-4.58 9.12 10.36 189 135 101
-4.58 9.05 10.36 189 136 104
-4.58 8.97 10.36 190 137 105
-4.58 8.90 10.36 189 139 106
-4.58 8.82 10.36 189 139 106
-4.58 8.74 10.36 187 137 104
-4.47 8.72 10.28 187 137 104
-4.47 8.64 10.28 187 137 102
-4.47 8.57 10.28 187 137 102
-4.47 8.49 10.28 188 138 101
-4.47 8.42 10.28 189 139 102
-4.47 8.34 10.28 191 142 102
-4.32 8.33 10.17 191 141 104
-4.32 8.25 10.17 191 143 107
-4.32 8.18 10.17 191 142 109
-4.32 8.10 10.17 191 142 109
-4.32 8.02 10.17 191 142 109
-4.32 7.95 10.17 191 142 109
-4.32 7.87 10.17 192 143 110
-4.32 7.80 10.17 193 144 111
-4.32 7.72 10.17 192 144 108
-4.32 7.64 10.17 192 144 108
-4.32 7.57 10.17 193 143 108
-4.21 7.54 10.09 193 143 108
-4.21 7.46 10.09 193 143 106
-4.21 7.39 10.09 194 144 107
-4.21 7.31 10.09 195 145 108
-4.21 7.23 10.09 195 145 108
-4.21 7.16 10.09 194 146 108
-4.21 7.08 10.09 193 145 107
-4.21 7.01 10.09 192 144 108
-4.21 6.93 10.09 192 144 108
-4.07 6.91 9.98 191 142 109
-4.07 6.83 9.98 192 143 110
-4.07 6.76 9.98 190 144 111
-4.07 6.68 9.98 191 145 112
-4.07 6.60 9.98 190 145 114
-4.07 6.53 9.98 190 145 114
-4.07 6.45 9.98 190 145 114
-4.07 6.37 9.98 191 146 115
-4.07 6.30 9.98 191 146 115
-4.07 6.22 9.98 192 147 116
-4.07 6.14 9.98 192 149 115
-4.07 6.07 9.98 193 150 116
-4.07 5.99 9.98 194 149 118
-4.07 5.91 9.98 194 150 121
-4.07 5.84 9.98 194 150 121
-4.07 5.61 9.98 195 153 128
-4.07 5.53 9.98 195 153 128
-4.07 5.45 9.98 196 154 130
-4.07 5.38 9.98 196 154 130
-4.07 5.30 9.98 197 155 131
-4.07 5.22 9.98 197 155 131
-4.07 5.15 9.98 200 155 132
-4.07 5.07 9.98 200 155 132
-4.07 4.99 9.98 200 155 132
-4.07 4.92 9.98 200 155 132
-4.07 4.84 9.98 200 153 133
-4.07 4.76 9.98 201 154 134
-4.07 4.69 9.98 203 155 135
-4.07 4.61 9.98 204 156 136
-3.93 4.58 9.88 208 157 136
-3.93 4.50 9.88 210 158 137
-3.93 4.43 9.88 211 159 137
-3.93 4.35 9.88 214 159 138
-3.93 4.27 9.88 217 162 141
-3.93 4.20 9.88 218 164 140
-3.93 4.12 9.88 219 165 141
-3.82 4.08 9.79 220 166 142
-3.82 4.00 9.79 221 167 143
-3.82 3.92 9.79 219 167 143
-3.82 3.85 9.79 218 168 143
-3.82 3.77 9.79 218 172 148
-3.82 3.69 9.79 214 170 145
-3.82 3.62 9.79 210 166 141
-3.82 3.54 9.79 206 162 137
-3.82 3.46 9.79 203 157 133
-3.82 3.38 9.79 200 154 130
-3.67 3.35 9.69 196 152 127
-3.67 3.27 9.69 195 151 126
-3.67 3.19 9.69 191 146 123
-3.67 3.12 9.69 188 143 122
-3.53 3.08 9.58 182 140 118
-3.53 3.00 9.58 178 135 116
-3.53 2.92 9.58 175 134 116
-3.53 2.85 9.58 169 128 110
-3.53 2.77 9.58 161 119 103
-3.42 2.72 9.50 155 113 99
-3.42 2.64 9.50 151 107 96
-3.42 2.57 9.50 153 110 101
-3.42 2.49 9.50 157 119 110
-3.42 2.41 9.50 163 135 124
-3.42 2.33 9.50 163 138 131
-3.28 2.29 9.39 163 140 132
-3.28 2.21 9.39 161 140 135
-3.28 2.14 9.39 166 149 142
-3.28 2.06 9.39 162 147 142
-3.28 1.98 9.39 160 146 143
-3.28 1.90 9.39 157 148 143
11.46 5.10 -1.56 146 151 145
11.20 4.93 -1.37 149 156 149
11.20 4.82 -1.37 142 152 144
11.20 4.71 -1.37 147 157 149
11.20 4.60 -1.37 153 163 155
11.20 4.49 -1.37 148 158 150
11.20 4.38 -1.37 147 156 151
11.20 4.27 -1.37 144 153 148
11.20 4.16 -1.37 147 158 152
11.20 4.05 -1.37 147 158 152
11.20 3.94 -1.37 149 160 154
11.20 3.83 -1.37 149 160 154
11.20 3.72 -1.37 147 158 154
11.20 3.62 -1.37 148 159 155
11.20 3.51 -1.37 147 158 154
11.20 3.40 -1.37 152 163 155
3.14 1.60 4.62 155 164 161
3.14 1.51 4.62 149 157 159
3.14 1.42 4.62 146 154 157
3.34 1.36 4.47 181 196 191
3.51 1.31 4.35 91 112 117
3.51 1.21 4.35 0 5 35
3.71 1.16 4.20 14 47 90
3.71 1.07 4.20 4 41 85
3.71 0.97 4.20 1 38 82
3.91 0.92 4.05 0 25 70
3.91 0.82 4.05 0 25 71
3.91 0.73 4.05 1 32 79
4.10 0.67 3.91 0 29 76
4.10 0.58 3.91 0 33 80
4.10 0.48 3.91 0 33 82
4.10 0.39 3.91 0 33 86
4.10 0.29 3.91 0 34 89
4.10 0.20 3.91 0 34 89
4.10 0.11 3.91 0 34 91
4.10 0.01 3.91 0 34 91
4.10 -0.08 3.91 0 37 96
4.10 -0.18 3.91 0 37 96
4.10 -0.27 3.91 0 37 96
4.10 -0.36 3.91 0 37 96
4.10 -0.46 3.91 0 35 93
4.10 -0.55 3.91 0 33 91
4.10 -0.65 3.91 0 32 86
4.10 -0.74 3.91 0 32 86
4.10 -0.83 3.91 0 33 85
3.91 -0.96 4.05 0 32 82
3.91 -1.05 4.05 0 34 80
3.91 -1.15 4.05 0 32 77
3.71 -1.27 4.20 0 32 72
3.71 -1.36 4.20 0 27 69
3.71 -1.45 4.20 6 40 86
3.51 -1.57 4.35 7 40 91
3.14 -2.64 4.62 161 176 173
3.14 -2.73 4.62 198 212 212
3.14 -2.82 4.62 108 122 122
3.14 -2.91 4.62 84 100 100
2.94 -3.02 4.77 133 149 149
2.94 -3.12 4.77 132 150 152
2.94 -3.21 4.77 136 154 156
2.94 -3.30 4.77 140 158 160
2.94 -3.39 4.77 145 163 165
2.94 -3.48 4.77 150 168 168
2.94 -3.57 4.77 152 170 170
2.94 -3.67 4.77 159 175 174
2.94 -3.76 4.77 164 180 179
2.94 -3.85 4.77 166 181 178
2.94 -3.94 4.77 164 178 178
2.94 -4.03 4.77 157 173 172
12.84 -4.27 -2.59 164 181 175
12.84 -4.38 -2.59 161 178 172
12.56 -4.51 -2.38 157 173 170
12.56 -4.62 -2.38 156 172 169
12.56 -4.74 -2.38 160 174 174
12.56 -4.85 -2.38 163 179 178
12.56 -4.96 -2.38 153 176 170
12.56 -5.07 -2.38 151 176 170
12.56 -5.19 -2.38 155 177 174
12.56 -5.30 -2.38 159 179 177
12.56 -5.41 -2.38 161 181 180
12.56 -5.52 -2.38 162 178 178
12.56 -5.63 -2.38 160 176 176
12.56 -5.75 -2.38 161 175 178
12.28 -5.87 -2.17 150 165 170
12.28 -5.98 -2.17 130 148 158
12.28 -6.09 -2.17 102 125 141
12.28 -6.20 -2.17 78 110 133
12.28 -6.31 -2.17 61 104 136
12.28 -6.43 -2.17 51 103 142
12.02 -6.54 -1.98 43 104 148
12.02 -6.65 -1.98 40 104 152
12.02 -6.76 -1.98 48 111 165
11.74 -6.88 -1.77 51 118 171
11.74 -6.99 -1.77 52 119 172
11.74 -7.10 -1.77 47 117 168
11.74 -7.21 -1.77 46 116 165
11.46 -7.32 -1.56 49 122 167
11.46 -7.43 -1.56 54 127 168
11.46 -7.54 -1.56 49 124 163
11.46 -7.65 -1.56 39 115 151
11.46 -7.76 -1.56 37 116 149
11.46 -7.87 -1.56 43 123 158
11.20 -7.98 -1.37 41 124 158
11.20 -8.09 -1.37 36 121 158
11.20 -8.19 -1.37 31 119 155
11.20 -8.30 -1.37 31 116 155
10.95 -8.41 -1.18 46 125 166
10.95 -8.52 -1.18 45 119 164
10.66 -8.62 -0.97 47 121 168
10.66 -8.73 -0.97 45 119 166
10.41 -8.83 -0.78 43 123 160
10.41 -8.94 -0.78 44 122 160
10.41 -9.04 -0.78 42 119 163
10.15 -9.14 -0.59 58 127 169
10.15 -9.25 -0.59 81 137 170
10.15 -9.36 -0.59 95 125 127
10.15 -9.46 -0.59 103 122 116
-7.33 15.17 12.32 0 0 0
-7.33 15.10 12.32 0 0 0
-7.33 15.03 12.32 0 0 0
-7.22 15.04 12.23 0 0 0
-7.22 14.97 12.23 0 0 0
-7.22 14.90 12.23 0 0 0
-7.22 14.83 12.23 0 0 0
-7.22 14.76 12.23 0 0 0
-7.22 14.69 12.23 0 0 0
-7.22 14.62 12.23 174 119 98
-7.22 14.55 12.23 174 119 98
-7.22 14.48 12.23 175 121 97
-7.22 14.41 12.23 174 120 94
-7.10 14.41 12.15 172 119 88
-6.88 14.21 11.98 172 119 85
-6.88 14.14 11.98 171 118 84
-6.76 14.14 11.90 170 117 83
-6.76 14.07 11.90 170 117 83
-6.76 14.00 11.90 170 118 81
-6.76 13.93 11.90 171 119 82
-6.76 13.86 11.90 171 119 79
-6.76 13.79 11.90 170 118 78
-6.76 13.72 11.90 168 119 79
-6.76 13.65 11.90 167 118 78
-6.65 13.65 11.81 167 118 78
-6.65 13.58 11.81 172 120 81
-6.54 13.58 11.73 171 119 80
-6.54 13.51 11.73 172 118 80
-6.42 13.50 11.64 174 120 82
-6.42 13.43 11.64 177 123 87
-6.42 13.36 11.64 175 121 85
-6.42 13.29 11.64 175 119 86
-6.42 13.22 11.64 175 119 86
-6.42 13.15 11.64 177 118 88
-6.31 13.14 11.56 176 117 87
-6.31 13.07 11.56 175 115 87
-6.31 13.00 11.56 174 117 88
-6.20 13.00 11.47 172 119 87
-6.20 12.92 11.47 169 119 86
-6.20 12.85 11.47 169 119 86
-6.09 12.85 11.39 172 122 89
-5.97 12.84 11.31 177 124 90
-5.97 12.77 11.31 178 125 91
-5.86 12.77 11.22 176 123 89
-5.86 12.69 11.22 174 121 87
-5.86 12.62 11.22 180 126 90
-5.86 12.55 11.22 173 119 83
-5.86 12.47 11.22 175 121 85
-5.72 12.48 11.12 180 126 90
-5.72 12.41 11.12 181 127 91
-5.72 12.34 11.12 181 127 91
-5.72 12.26 11.12 171 117 81
-5.49 12.03 10.95 179 126 92
-5.49 11.95 10.95 179 126 92
-5.49 11.88 10.95 178 125 91
-5.49 11.80 10.95 177 124 90
-5.49 11.73 10.95 179 125 91
-5.49 11.66 10.95 180 126 92
-5.49 11.58 10.95 181 127 93
-5.49 11.51 10.95 182 128 94
-5.38 11.50 10.86 182 127 96
-5.38 11.42 10.86 182 127 96
-5.38 11.35 10.86 182 127 96
-5.24 11.35 10.76 182 128 94
-5.24 11.28 10.76 180 128 88
-5.24 11.20 10.76 180 129 86
-5.24 11.13 10.76 180 128 88
-5.12 11.12 10.67 181 129 89
-5.12 11.04 10.67 182 130 90
-5.12 10.97 10.67 184 130 92
-5.12 10.89 10.67 183 129 91
-5.12 10.82 10.67 184 130 94
-5.12 10.74 10.67 184 130 94
-5.12 10.67 10.67 184 130 96
-5.01 10.65 10.59 183 129 95
-5.12 10.52 10.67 183 129 95
-5.12 10.45 10.67 183 129 95
-5.12 10.37 10.67 184 131 99
-5.12 10.30 10.67 185 132 100
-5.12 10.22 10.67 183 133 98
-5.12 10.15 10.67 182 132 97
-5.01 10.13 10.59 182 132 97
-5.01 10.06 10.59 181 131 96
-5.01 9.98 10.59 182 132 99
-5.01 9.91 10.59 182 132 99
-5.01 9.83 10.59 181 131 98
-4.87 9.83 10.48 181 131 98
-4.87 9.75 10.48 184 134 99
-4.87 9.68 10.48 184 134 99
-4.76 9.66 10.40 184 134 99
-4.76 9.58 10.40 184 134 99
-4.76 9.51 10.40 184 134 97
-4.76 9.43 10.40 185 135 98
-4.76 9.36 10.40 187 135 98
-4.62 9.35 10.29 192 138 104
-4.62 9.27 10.29 192 136 103
-4.62 9.20 10.29 191 137 103
-4.62 9.12 10.29 191 137 103
-4.62 9.05 10.29 191 138 106
-4.62 8.97 10.29 190 137 105
-4.62 8.90 10.29 188 138 105
-4.62 8.82 10.29 188 138 105
-4.62 8.74 10.29 192 142 109
-4.62 8.67 10.29 191 141 108
-4.50 8.64 10.21 191 141 106
-4.50 8.57 10.21 191 141 106
-4.50 8.49 10.21 191 141 104
-4.50 8.42 10.21 192 142 105
-4.50 8.34 10.21 193 143 106
-4.50 8.27 10.21 193 143 108
-4.36 8.25 10.10 193 144 111
-4.36 8.18 10.10 192 143 111
-4.36 8.10 10.10 192 143 110
-4.36 8.02 10.10 192 143 110
-4.36 7.95 10.10 192 143 110
-4.36 7.87 10.10 193 144 111
-4.36 7.80 10.10 193 144 111
-4.36 7.72 10.10 192 144 108
-4.36 7.64 10.10 193 145 109
-4.36 7.57 10.10 193 145 109
-4.25 7.54 10.02 193 145 109
-4.25 7.46 10.02 193 145 109
-4.25 7.39 10.02 193 145 109
-4.25 7.31 10.02 193 145 107
-4.25 7.23 10.02 192 144 106
-4.25 7.16 10.02 191 145 109
-4.25 7.08 10.02 190 144 108
-4.25 7.01 10.02 190 144 110
-4.25 6.93 10.02 189 143 109
-4.25 6.85 10.02 189 143 110
-4.25 6.78 10.02 190 144 111
-4.25 6.70 10.02 189 144 113
-4.25 6.62 10.02 190 145 114
-4.25 6.55 10.02 189 144 113
-4.25 6.47 10.02 189 144 113
-4.25 6.39 10.02 188 145 113
-4.11 6.37 9.92 188 145 113
-4.11 6.30 9.92 189 146 114
-4.11 6.22 9.92 190 147 115
-4.11 6.14 9.92 191 148 114
-4.11 6.07 9.92 191 148 116
-4.11 5.99 9.92 189 148 120
-4.11 5.91 9.92 190 148 123
-4.11 5.84 9.92 190 148 123
-4.11 5.45 9.92 191 150 132
-4.11 5.38 9.92 192 151 133
-4.11 5.30 9.92 193 150 134
-4.11 5.22 9.92 193 150 134
-4.11 5.15 9.92 193 150 134
-4.11 5.07 9.92 193 150 134
-4.11 4.99 9.92 195 149 134
-4.11 4.92 9.92 194 148 133
-4.11 4.84 9.92 192 147 128
-4.11 4.76 9.92 193 148 129
-4.11 4.69 9.92 195 148 130
-4.11 4.61 9.92 196 149 131
-4.11 4.53 9.92 198 150 130
-4.11 4.46 9.92 199 151 131
-3.97 4.43 9.81 202 151 132
-3.97 4.35 9.81 203 152 133
-3.97 4.27 9.81 208 156 135
-3.97 4.20 9.81 210 158 136
-3.97 4.12 9.81 212 160 138
-3.97 4.04 9.81 214 162 140
-3.97 3.97 9.81 216 164 142
-3.97 3.89 9.81 217 165 141
-3.85 3.85 9.73 217 167 144
-3.85 3.77 9.73 214 168 144
-3.85 3.69 9.73 216 171 148
-3.85 3.62 9.73 220 175 152
-3.85 3.54 9.73 221 176 153
-3.85 3.46 9.73 219 175 150
-3.85 3.38 9.73 215 171 146
-3.85 3.31 9.73 210 165 142
-3.71 3.27 9.62 206 161 138
-3.71 3.19 9.62 203 158 137
-3.71 3.12 9.62 199 154 133
-3.71 3.04 9.62 192 151 131
-3.57 3.00 9.51 191 150 132
-3.57 2.92 9.51 189 151 132
-3.57 2.85 9.51 184 145 128
-3.57 2.77 9.51 174 137 121
-3.46 2.72 9.43 163 130 115
-3.46 2.64 9.43 152 126 111
-3.46 2.57 9.43 141 122 108
-3.46 2.49 9.43 138 122 107
-3.46 2.41 9.43 138 132 118
-3.32 2.37 9.33 136 134 122
-3.32 2.29 9.33 141 143 132
-3.32 2.21 9.33 151 154 147
-3.32 2.14 9.33 141 148 140
-3.32 2.06 9.33 136 146 138
-3.32 1.98 9.33 129 140 134
-3.32 1.90 9.33 120 135 128
-3.32 1.82 9.33 115 132 126
-3.18 1.78 9.22 112 133 126
-3.03 1.74 9.11 115 138 132
-3.03 1.66 9.11 119 141 138
11.15 5.04 -1.46 126 145 143
11.15 4.93 -1.46 138 154 154
11.15 4.82 -1.46 136 154 154
11.15 4.71 -1.46 134 152 152
11.15 4.60 -1.46 128 148 147
11.15 4.49 -1.46 122 142 141
10.89 4.32 -1.27 126 148 146
10.89 4.21 -1.27 126 148 146
10.89 4.10 -1.27 128 150 148
11.15 4.05 -1.46 123 145 143
11.15 3.94 -1.46 126 148 146
11.15 3.83 -1.46 130 152 150
10.89 3.67 -1.27 132 152 153
10.89 3.56 -1.27 137 155 157
10.89 3.45 -1.27 135 153 153
10.89 3.34 -1.27 141 157 154
3.29 1.64 4.39 142 156 156
3.29 1.55 4.39 141 155 158
3.29 1.46 4.39 140 153 159
3.29 1.36 4.39 173 194 189
3.46 1.31 4.27 99 124 129
3.66 1.25 4.12 0 9 37
3.66 1.16 4.12 6 43 85
3.66 1.07 4.12 7 46 87
3.66 0.97 4.12 3 42 83
3.86 0.92 3.97 0 23 66
3.86 0.82 3.97 0 22 66
4.06 0.77 3.83 0 26 72
4.06 0.67 3.83 0 29 74
4.06 0.58 3.83 0 34 79
4.25 0.52 3.68 0 35 82
4.25 0.42 3.68 0 32 84
4.25 0.33 3.68 0 31 85
4.25 0.23 3.68 0 33 88
4.06 0.11 3.83 0 33 88
4.06 0.01 3.83 0 32 90
4.06 -0.08 3.83 0 35 92
4.06 -0.18 3.83 0 36 93
4.06 -0.27 3.83 0 34 92
4.06 -0.36 3.83 0 35 93
4.06 -0.46 3.83 0 35 90
4.06 -0.55 3.83 0 32 87
4.06 -0.65 3.83 0 32 84
4.06 -0.74 3.83 0 33 85
4.06 -0.83 3.83 0 32 83
4.06 -0.93 3.83 0 32 80
3.86 -1.05 3.97 0 32 77
3.86 -1.15 3.97 0 32 74
3.86 -1.24 3.97 0 32 70
3.66 -1.36 4.12 0 26 67
3.66 -1.45 4.12 4 37 82
3.46 -1.57 4.27 3 35 86
3.46 -1.67 4.27 6 39 93
3.46 -1.76 4.27 6 38 95
3.10 -2.64 4.54 156 172 171
3.10 -2.73 4.54 195 213 213
3.10 -2.82 4.54 110 128 128
3.10 -2.91 4.54 79 97 99
3.10 -3.00 4.54 129 147 149
3.10 -3.10 4.54 128 146 150
3.10 -3.19 4.54 131 149 153
2.90 -3.30 4.69 139 157 161
2.90 -3.39 4.69 141 159 163
2.90 -3.48 4.69 147 165 167
2.90 -3.57 4.69 155 173 175
2.90 -3.67 4.69 159 175 174
2.90 -3.76 4.69 158 174 173
2.90 -3.85 4.69 158 174 171
2.90 -3.94 4.69 160 176 175
2.90 -4.03 4.69 158 174 173
2.90 -4.12 4.69 165 181 181
2.90 -4.22 4.69 152 171 169
12.50 -4.51 -2.47 166 181 176
12.22 -4.64 -2.26 163 178 173
12.22 -4.75 -2.26 160 172 168
12.50 -4.85 -2.47 157 168 164
12.50 -4.96 -2.47 163 174 170
12.50 -5.07 -2.47 161 170 167
12.50 -5.19 -2.47 160 169 168
12.50 -5.30 -2.47 160 169 168
12.50 -5.41 -2.47 163 169 169
12.50 -5.52 -2.47 165 171 171
12.50 -5.63 -2.47 170 174 175
12.22 -5.76 -2.26 175 179 180
12.22 -5.87 -2.26 177 181 180
12.22 -5.98 -2.26 177 183 181
12.22 -6.09 -2.26 176 185 180
12.22 -6.20 -2.26 172 184 180
11.97 -6.32 -2.07 160 177 171
12.22 -6.43 -2.26 137 158 153
11.97 -6.54 -2.07 109 134 130
11.97 -6.65 -2.07 93 116 108
11.97 -6.76 -2.07 72 88 78
11.68 -6.88 -1.86 60 86 83
11.68 -6.99 -1.86 56 95 102
11.68 -7.10 -1.86 58 109 126
11.68 -7.21 -1.86 55 119 146
11.40 -7.32 -1.65 47 120 152
11.40 -7.43 -1.65 39 117 155
11.40 -7.54 -1.65 34 113 154
11.40 -7.65 -1.65 41 118 160
11.40 -7.76 -1.65 50 124 163
11.15 -7.87 -1.46 51 119 156
11.15 -7.98 -1.46 50 114 149
11.15 -8.09 -1.46 58 117 149
11.15 -8.19 -1.46 63 120 149
10.89 -8.30 -1.27 55 114 146
10.89 -8.41 -1.27 45 114 153
10.89 -8.52 -1.27 41 114 159
10.61 -8.62 -1.06 44 116 164
10.61 -8.73 -1.06 43 116 161
10.36 -8.83 -0.87 42 120 158
10.36 -8.94 -0.87 43 119 155
10.36 -9.04 -0.87 43 118 158
10.10 -9.14 -0.68 65 133 172
10.10 -9.25 -0.68 84 139 170
10.10 -9.36 -0.68 95 123 124
10.10 -9.46 -0.68 102 121 115
-7.36 15.17 12.26 0 0 0
-7.36 15.10 12.26 0 0 0
-7.36 15.03 12.26 0 0 0
-7.25 15.04 12.17 0 0 0
-7.25 14.97 12.17 0 0 0
-7.25 14.90 12.17 0 0 0
-7.25 14.83 12.17 0 0 0
-7.25 14.76 12.17 0 0 0
-7.25 14.69 12.17 0 0 0
-7.25 14.62 12.17 169 117 93
-7.25 14.55 12.17 169 117 93
-7.25 14.48 12.17 170 119 92
-7.25 14.41 12.17 169 118 89
-7.14 14.41 12.09 166 116 83
-6.91 14.21 11.92 164 114 79
-6.91 14.14 11.92 164 114 79
-6.91 14.07 11.92 166 116 81
-6.80 14.07 11.83 168 118 83
-6.80 14.00 11.83 170 120 83
-6.80 13.93 11.83 172 122 85
-6.80 13.86 11.83 172 123 82
-6.80 13.79 11.83 172 123 82
-6.80 13.72 11.83 173 121 82
-6.80 13.65 11.83 173 121 82
-6.80 13.58 11.83 174 122 83
-6.69 13.58 11.75 175 123 84
-6.57 13.58 11.67 173 121 82
-6.57 13.51 11.67 175 121 83
-6.46 13.50 11.58 177 123 85
-6.46 13.43 11.58 175 119 82
-6.46 13.36 11.58 174 118 83
-6.46 13.29 11.58 173 117 82
-6.46 13.22 11.58 174 118 85
-6.46 13.15 11.58 178 119 89
-6.46 13.07 11.58 178 119 89
-6.35 13.07 11.50 178 119 89
-6.35 13.00 11.50 176 119 90
-6.35 12.93 11.50 180 127 96
-6.23 12.92 11.41 176 125 96
-6.23 12.85 11.41 178 125 94
-6.23 12.78 11.41 177 124 93
-6.12 12.78 11.33 177 124 92
-6.01 12.77 11.24 176 123 91
-6.01 12.70 11.24 177 124 92
-5.90 12.69 11.16 179 126 94
-5.90 12.62 11.16 180 127 93
-5.90 12.55 11.16 179 126 92
-5.90 12.47 11.16 184 131 97
-5.75 12.48 11.05 181 128 94
-5.75 12.41 11.05 175 122 90
-5.75 12.34 11.05 184 131 99
-5.75 12.26 11.05 184 131 99
-5.53 12.03 10.88 182 128 92
-5.53 11.95 10.88 182 128 92
-5.53 11.88 10.88 182 128 92
-5.53 11.80 10.88 182 128 92
-5.53 11.73 10.88 183 127 94
-5.53 11.66 10.88 183 127 94
-5.53 11.58 10.88 184 128 95
-5.53 11.51 10.88 185 129 96
-5.42 11.50 10.80 185 130 99
-5.42 11.42 10.80 184 129 98
-5.42 11.35 10.80 183 128 97
-5.42 11.28 10.80 182 128 94
-5.42 11.20 10.80 180 128 89
-5.27 11.20 10.69 182 130 90
-5.27 11.13 10.69 183 130 90
-5.27 11.06 10.69 183 130 90
-5.16 11.04 10.61 183 129 91
-5.16 10.97 10.61 183 129 91
-5.16 10.89 10.61 182 128 90
-5.16 10.82 10.61 181 127 91
-5.16 10.74 10.61 183 129 93
-5.16 10.67 10.61 185 131 97
-5.16 10.60 10.61 186 132 98
-5.16 10.52 10.61 185 132 100
-5.16 10.45 10.61 184 131 99
-5.16 10.37 10.61 182 132 99
-5.16 10.30 10.61 181 131 98
-5.16 10.22 10.61 182 132 99
-5.16 10.15 10.61 181 131 98
-5.16 10.07 10.61 182 132 99
-5.05 10.06 10.52 183 133 100
-5.05 9.98 10.52 184 134 101
-5.05 9.91 10.52 184 134 101
-5.05 9.83 10.52 183 133 100
-4.91 9.83 10.42 182 132 99
-4.91 9.75 10.42 183 133 100
-4.91 9.68 10.42 183 133 100
-4.91 9.60 10.42 183 133 100
-4.80 9.58 10.33 183 133 100
-4.80 9.51 10.33 183 133 98
-4.80 9.43 10.33 184 134 99
-4.80 9.36 10.33 188 135 101
-4.80 9.28 10.33 190 136 102
-4.65 9.27 10.23 190 134 101
-4.65 9.20 10.23 188 134 100
-4.65 9.12 10.23 190 136 102
-4.65 9.05 10.23 190 137 105
-4.65 8.97 10.23 190 137 105
-4.65 8.90 10.23 188 138 105
-4.65 8.82 10.23 189 139 106
-4.65 8.74 10.23 190 140 107
-4.65 8.67 10.23 191 141 108
-4.54 8.64 10.14 193 143 110
-4.54 8.57 10.14 194 144 111
-4.54 8.49 10.14 194 144 109
-4.54 8.42 10.14 193 143 108
-4.54 8.34 10.14 192 142 105
-4.54 8.27 10.14 191 141 106
-4.54 8.19 10.14 194 146 110
-4.54 8.11 10.14 193 144 111
-4.54 8.04 10.14 193 144 111
-4.54 7.96 10.14 192 143 110
-4.54 7.89 10.14 192 143 110
-4.54 7.81 10.14 193 144 111
-4.40 7.80 10.04 193 144 111
-4.40 7.72 10.04 194 145 112
-4.40 7.64 10.04 195 146 113
-4.40 7.57 10.04 195 146 113
-4.40 7.49 10.04 194 145 112
-4.40 7.42 10.04 192 146 110
-4.29 7.39 9.95 190 144 108
-4.40 7.26 10.04 189 143 107
-4.40 7.19 10.04 188 142 106
-4.40 7.11 10.04 189 143 109
-4.29 7.08 9.95 189 143 109
-4.29 7.01 9.95 187 142 109
-4.29 6.93 9.95 187 142 109
-4.29 6.85 9.95 187 142 111
-4.29 6.78 9.95 188 143 112
-4.29 6.70 9.95 187 144 112
-4.29 6.62 9.95 188 145 113
-4.29 6.55 9.95 187 143 114
-4.29 6.47 9.95 187 143 114
-4.29 6.39 9.95 184 143 113
-4.29 6.32 9.95 184 143 113
-4.29 6.24 9.95 184 143 111
-4.29 6.17 9.95 185 144 112
-4.29 6.09 9.95 186 145 113
-4.15 6.07 9.85 186 145 115
-4.15 5.99 9.85 187 147 121
-4.15 5.91 9.85 186 146 121
-4.15 5.84 9.85 186 146 121
-4.15 5.45 9.85 186 147 130
-4.15 5.38 9.85 186 147 130
-4.15 5.30 9.85 188 146 132
-4.15 5.22 9.85 188 146 132
-4.15 5.15 9.85 188 144 131
-4.15 5.07 9.85 188 144 131
-4.15 4.99 9.85 187 143 130
-4.15 4.92 9.85 187 143 130
-4.15 4.84 9.85 187 144 127
-4.15 4.76 9.85 187 144 127
-4.15 4.69 9.85 187 144 127
-4.15 4.61 9.85 187 144 127
-4.15 4.53 9.85 189 143 127
-4.15 4.46 9.85 189 143 127
-4.01 4.43 9.74 190 143 125
-4.01 4.35 9.74 190 143 125
-4.01 4.27 9.74 192 145 125
-4.01 4.20 9.74 197 149 129
-4.01 4.12 9.74 200 152 132
-4.01 4.04 9.74 203 155 133
-4.01 3.97 9.74 206 158 136
-4.01 3.89 9.74 208 160 138
-4.01 3.81 9.74 208 161 141
-4.01 3.73 9.74 208 163 142
-4.01 3.66 9.74 209 166 147
-4.01 3.58 9.74 215 170 149
-3.89 3.54 9.66 218 173 152
-3.89 3.46 9.66 220 175 152
-3.89 3.38 9.66 223 178 155
-3.89 3.31 9.66 224 179 156
-3.89 3.23 9.66 224 179 156
-3.75 3.19 9.55 218 176 154
-3.75 3.12 9.55 215 172 153
-3.75 3.04 9.55 208 170 149
-3.61 3.00 9.45 204 166 147
-3.61 2.92 9.45 198 163 144
-3.61 2.85 9.45 195 160 141
-3.61 2.77 9.45 191 158 141
-3.50 2.72 9.36 191 158 143
-3.50 2.64 9.36 187 157 146
-3.50 2.57 9.36 178 149 141
-3.50 2.49 9.36 166 144 133
-3.50 2.41 9.36 141 131 121
-3.36 2.37 9.26 127 120 112
-3.36 2.29 9.26 124 121 114
-3.36 2.21 9.26 128 127 123
-3.36 2.14 9.26 142 144 141
-3.36 2.06 9.26 152 156 157
-3.36 1.98 9.26 168 173 176
-3.36 1.90 9.26 176 186 188
-3.36 1.82 9.26 176 187 191
-3.21 1.78 9.15 164 179 182
-3.21 1.70 9.15 151 169 173
-3.07 1.66 9.05 142 161 167
11.09 5.04 -1.56 128 152 156
11.09 4.93 -1.56 111 134 140
11.09 4.82 -1.56 94 122 126
11.09 4.71 -1.56 104 132 136
11.09 4.60 -1.56 118 149 152
10.84 4.43 -1.37 134 165 168
10.84 4.32 -1.37 142 176 178
10.84 4.21 -1.37 132 166 168
10.84 4.10 -1.37 131 165 167
10.84 4.00 -1.37 123 157 159
10.84 3.89 -1.37 127 158 161
10.84 3.78 -1.37 130 161 164
10.84 3.67 -1.37 132 161 165
10.84 3.56 -1.37 133 161 165
10.84 3.45 -1.37 123 151 154
10.84 3.34 -1.37 131 157 156
3.25 1.64 4.31 130 154 154
3.25 1.55 4.31 126 146 153
3.25 1.46 4.31 128 149 154
3.25 1.36 4.31 165 194 190
3.42 1.31 4.19 109 142 147
3.61 1.25 4.04 0 18 44
3.61 1.16 4.04 8 50 90
3.61 1.07 4.04 0 44 83
3.61 0.97 4.04 0 41 81
3.81 0.92 3.89 0 24 63
3.81 0.82 3.89 0 24 65
4.01 0.77 3.74 0 27 71
4.01 0.67 3.74 0 30 74
4.21 0.61 3.60 0 31 76
4.21 0.52 3.60 0 31 77
4.21 0.42 3.60 0 32 80
4.21 0.33 3.60 0 32 82
4.21 0.23 3.60 0 32 84
4.21 0.14 3.60 0 32 86
4.21 0.05 3.60 0 33 86
4.21 -0.05 3.60 0 33 88
4.21 -0.14 3.60 0 35 90
4.21 -0.24 3.60 0 32 87
4.21 -0.33 3.60 0 33 88
4.01 -0.46 3.74 0 31 85
4.21 -0.52 3.60 0 30 84
4.21 -0.62 3.60 0 31 81
4.21 -0.71 3.60 0 32 82
4.01 -0.83 3.74 0 32 80
4.01 -0.93 3.74 0 31 79
3.81 -1.05 3.89 0 28 73
3.81 -1.15 3.89 0 29 71
3.81 -1.24 3.89 0 29 69
3.61 -1.36 4.04 0 25 65
3.61 -1.45 4.04 0 35 77
3.42 -1.57 4.19 0 33 81
3.42 -1.67 4.19 2 38 90
3.42 -1.76 4.19 4 39 93
3.05 -2.64 4.46 156 174 174
3.05 -2.73 4.46 194 214 215
3.05 -2.82 4.46 105 125 126
3.05 -2.91 4.46 68 87 91
3.05 -3.00 4.46 125 144 148
3.05 -3.10 4.46 132 149 156
3.05 -3.19 4.46 137 154 161
3.05 -3.28 4.46 140 157 164
3.05 -3.37 4.46 142 159 166
2.85 -3.48 4.61 148 166 168
2.85 -3.57 4.61 156 174 176
2.85 -3.67 4.61 157 175 175
2.85 -3.76 4.61 153 171 171
2.85 -3.85 4.61 154 170 169
2.85 -3.94 4.61 158 174 173
2.85 -4.03 4.61 157 176 174
2.85 -4.12 4.61 172 191 189
2.85 -4.22 4.61 172 191 189
12.16 -4.53 -2.36 162 177 170
12.16 -4.64 -2.36 166 179 172
12.16 -4.75 -2.36 167 178 172
12.16 -4.86 -2.36 167 178 172
12.16 -4.97 -2.36 164 179 174
12.16 -5.09 -2.36 160 175 172
12.16 -5.20 -2.36 157 173 170
12.16 -5.31 -2.36 160 176 176
12.16 -5.42 -2.36 162 178 178
12.16 -5.53 -2.36 162 177 182
12.16 -5.64 -2.36 158 176 180
12.16 -5.76 -2.36 156 173 180
12.16 -5.87 -2.36 155 170 175
12.16 -5.98 -2.36 156 171 176
12.16 -6.09 -2.36 157 171 172
11.91 -6.21 -2.17 156 170 170
11.91 -6.32 -2.17 161 173 169
11.91 -6.43 -2.17 170 181 173
11.91 -6.54 -2.17 180 192 182
11.91 -6.65 -2.17 185 196 188
11.63 -6.77 -1.96 168 192 192
11.63 -6.88 -1.96 138 173 179
11.63 -6.99 -1.96 95 139 152
11.63 -7.10 -1.96 48 107 125
11.35 -7.21 -1.75 20 87 113
11.35 -7.32 -1.75 14 89 121
11.35 -7.43 -1.75 17 95 133
11.35 -7.54 -1.75 26 105 144
11.35 -7.65 -1.75 30 107 149
11.35 -7.76 -1.75 37 114 156
11.09 -7.87 -1.56 43 118 160
11.09 -7.98 -1.56 42 117 157
11.09 -8.09 -1.56 43 118 158
11.09 -8.19 -1.56 40 118 157
10.84 -8.30 -1.37 36 111 151
10.84 -8.41 -1.37 40 111 153
10.84 -8.52 -1.37 46 114 159
10.56 -8.62 -1.16 51 119 166
10.56 -8.73 -1.16 50 118 165
10.30 -8.83 -0.97 47 121 158
10.30 -8.94 -0.97 43 117 154
10.30 -9.04 -0.97 47 118 160
10.05 -9.14 -0.78 76 141 181
10.05 -9.25 -0.78 89 142 174
10.05 -9.36 -0.78 88 114 115
10.05 -9.46 -0.78 98 115 109
-7.40 15.17 12.20 0 0 0
-7.40 15.10 12.20 0 0 0
-7.40 15.03 12.20 0 0 0
-7.29 15.04 12.11 0 0 0
-7.29 14.97 12.11 0 0 0
-7.29 14.90 12.11 0 0 0
-7.29 14.83 12.11 0 0 0
-7.29 14.76 12.11 0 0 0
-7.29 14.69 12.11 0 0 0
-7.29 14.62 12.11 172 118 92
-7.29 14.55 12.11 172 118 92
-7.29 14.48 12.11 172 118 90
-7.29 14.41 12.11 171 118 87
-7.17 14.41 12.03 170 117 85
-7.17 14.34 12.03 170 118 81
-7.06 14.35 11.94 172 120 83
-7.06 14.28 11.94 172 120 81
-7.06 14.21 11.94 170 118 81
-6.95 14.21 11.86 174 122 85
-6.95 14.14 11.86 173 120 86
-6.95 14.07 11.86 172 119 85
-6.95 14.00 11.86 171 118 84
-6.95 13.93 11.86 171 119 82
-6.83 13.93 11.77 170 118 81
-6.83 13.86 11.77 169 117 77
-6.83 13.79 11.77 168 116 77
-6.83 13.72 11.77 172 120 81
-6.83 13.65 11.77 171 119 82
-6.83 13.58 11.77 172 120 81
-6.83 13.50 11.77 172 120 81
-6.72 13.51 11.69 170 118 79
-6.61 13.51 11.60 170 116 78
-6.61 13.43 11.60 171 117 79
-6.50 13.43 11.52 176 122 84
-6.50 13.36 11.52 177 123 85
-6.50 13.29 11.52 178 122 87
-6.50 13.22 11.52 178 122 87
-6.50 13.15 11.52 179 123 90
-6.50 13.07 11.52 180 124 91
-6.38 13.07 11.43 181 124 94
-6.38 13.00 11.43 182 125 95
-6.38 12.93 11.43 175 120 90
-6.38 12.86 11.43 175 120 90
-6.27 12.85 11.35 176 121 90
-6.27 12.78 11.35 177 122 91
-6.16 12.78 11.26 178 123 92
-6.04 12.77 11.18 178 123 92
-6.04 12.70 11.18 181 127 93
-5.93 12.69 11.10 185 131 97
-5.93 12.62 11.10 180 126 92
-5.93 12.55 11.10 174 120 86
-5.93 12.47 11.10 176 123 89
-5.79 12.48 10.99 184 131 97
-5.79 12.41 10.99 181 128 96
-5.79 12.34 10.99 179 126 94
-5.79 12.26 10.99 177 124 92
-5.68 12.26 10.90 177 127 94
-5.68 12.18 10.90 178 128 95
-5.68 12.11 10.90 180 127 93
-5.57 12.10 10.82 180 127 93
-5.68 11.96 10.90 181 127 93
-5.57 11.95 10.82 182 128 94
-5.57 11.88 10.82 183 127 92
-5.57 11.80 10.82 184 128 93
-5.57 11.73 10.82 185 129 94
-5.57 11.66 10.82 185 129 94
-5.57 11.58 10.82 184 130 96
-5.57 11.51 10.82 184 130 96
-5.57 11.44 10.82 184 129 98
-5.57 11.36 10.82 183 128 97
-5.45 11.35 10.74 181 128 97
-5.45 11.28 10.74 180 127 95
-5.45 11.20 10.74 180 128 91
-5.45 11.13 10.74 182 130 91
-5.45 11.06 10.74 183 131 92
-5.31 11.06 10.63 181 129 90
-5.31 10.98 10.63 181 127 91
-5.31 10.91 10.63 183 129 93
-5.20 10.89 10.54 183 129 93
-5.20 10.82 10.54 180 126 92
-5.20 10.74 10.54 182 128 94
-5.20 10.67 10.54 183 130 98
-5.20 10.60 10.54 184 131 99
-5.20 10.52 10.54 181 131 98
-5.20 10.45 10.54 181 131 98
-5.20 10.37 10.54 179 130 97
-5.20 10.30 10.54 179 130 98
-5.20 10.22 10.54 181 130 99
-5.20 10.15 10.54 181 130 101
-5.20 10.07 10.54 182 131 102
-5.20 10.00 10.54 183 132 103
-5.20 9.93 10.54 184 133 102
-5.09 9.91 10.46 185 134 103
-5.09 9.83 10.46 185 134 103
-5.09 9.76 10.46 185 134 103
-4.95 9.75 10.35 183 132 101
-4.95 9.68 10.35 183 132 101
-4.95 9.60 10.35 183 133 100
-4.95 9.53 10.35 183 133 100
-4.83 9.51 10.27 184 134 101
-4.83 9.43 10.27 185 135 102
-4.83 9.36 10.27 188 135 103
-4.83 9.28 10.27 187 134 100
-4.83 9.21 10.27 186 132 98
-4.69 9.20 10.16 186 131 100
-4.69 9.12 10.16 189 134 103
-4.69 9.05 10.16 190 137 105
-4.69 8.97 10.16 190 137 105
-4.69 8.90 10.16 189 138 107
-4.69 8.82 10.16 191 140 109
-4.69 8.74 10.16 188 139 107
-4.69 8.67 10.16 189 140 108
-4.69 8.59 10.16 191 142 109
-4.58 8.57 10.08 192 143 110
-4.58 8.49 10.08 192 143 110
-4.58 8.42 10.08 191 142 109
-4.58 8.34 10.08 190 140 105
-4.58 8.27 10.08 189 139 104
-4.58 8.19 10.08 194 144 111
-4.58 8.11 10.08 194 144 111
-4.58 8.04 10.08 193 144 111
-4.58 7.96 10.08 193 144 111
-4.58 7.89 10.08 193 144 111
-4.58 7.81 10.08 193 144 111
-4.58 7.74 10.08 193 144 111
-4.58 7.66 10.08 194 145 112
-4.44 7.64 9.97 194 145 112
-4.44 7.57 9.97 191 145 111
-4.44 7.49 9.97 191 145 111
-4.44 7.42 9.97 190 144 110
-4.44 7.34 9.97 189 143 109
-4.44 7.26 9.97 188 142 108
-4.44 7.19 9.97 188 142 108
-4.44 7.11 9.97 186 141 108
-4.44 7.04 9.97 186 141 108
-4.44 6.96 9.97 186 141 110
-4.44 6.88 9.97 186 141 110
-4.44 6.81 9.97 186 142 113
-4.33 6.78 9.89 186 142 113
-4.33 6.70 9.89 186 142 113
-4.33 6.62 9.89 186 142 113
-4.33 6.55 9.89 185 144 114
-4.33 6.47 9.89 185 144 114
-4.33 6.39 9.89 184 143 113
-4.33 6.32 9.89 184 143 113
-4.33 6.24 9.89 185 144 114
-4.33 6.17 9.89 185 144 114
-4.33 6.09 9.89 185 146 113
-4.33 6.01 9.89 186 147 116
-4.33 5.94 9.89 185 148 119
-4.33 5.86 9.89 185 148 121
-4.33 5.78 9.89 185 148 121
-4.33 5.71 9.89 185 148 122
-4.33 5.63 9.89 186 149 123
-4.18 5.61 9.78 185 149 125
-4.18 5.53 9.78 186 150 128
-4.33 5.40 9.89 186 148 127
-4.33 5.33 9.89 186 148 129
-4.18 5.30 9.78 189 148 130
-4.18 5.22 9.78 188 147 129
-4.18 5.15 9.78 188 147 129
-4.18 5.07 9.78 188 147 129
-4.18 4.99 9.78 188 145 128
-4.18 4.92 9.78 188 145 128
-4.18 4.84 9.78 187 145 129
-4.18 4.76 9.78 187 145 129
-4.18 4.69 9.78 186 144 128
-4.18 4.61 9.78 186 144 128
-4.18 4.53 9.78 185 143 127
-4.18 4.46 9.78 185 143 127
-4.18 4.38 9.78 184 143 125
-4.04 4.35 9.68 184 143 125
-4.04 4.27 9.68 186 143 126
-4.04 4.20 9.68 188 145 128
-4.04 4.12 9.68 190 147 130
-4.04 4.04 9.68 194 149 130
-4.04 3.97 9.68 196 151 132
-4.04 3.89 9.68 198 153 134
-4.04 3.66 9.68 205 162 145
-4.04 3.58 9.68 207 161 145
-4.04 3.50 9.68 205 159 143
-4.04 3.43 9.68 206 161 140
-3.93 3.38 9.59 209 164 143
-3.93 3.31 9.59 211 169 147
-3.93 3.23 9.59 213 171 149
-3.93 3.15 9.59 214 173 151
-3.79 3.12 9.49 213 175 152
-3.79 3.04 9.49 212 176 154
-3.79 2.96 9.49 209 174 154
-3.65 2.92 9.38 204 173 152
-3.65 2.85 9.38 205 174 154
-3.65 2.77 9.38 206 179 160
-3.54 2.72 9.30 207 184 166
-3.54 2.64 9.30 205 192 175
-3.54 2.57 9.30 204 197 181
-3.54 2.49 9.30 204 201 184
-3.54 2.41 9.30 194 202 187
-3.40 2.37 9.19 188 200 188
-3.40 2.29 9.19 181 198 188
-3.40 2.21 9.19 176 197 190
-3.40 2.14 9.19 151 173 170
-3.40 2.06 9.19 151 177 176
-3.40 1.98 9.19 157 186 184
-3.40 1.90 9.19 169 200 202
-3.40 1.82 9.19 183 217 218
-3.25 1.78 9.08 196 231 233
-3.25 1.70 9.08 200 240 242
-3.25 1.62 9.08 203 241 244
-3.25 1.54 9.08 200 231 236
-3.25 1.46 9.08 195 224 230
10.78 4.32 -1.46 174 215 217
10.78 4.21 -1.46 191 232 234
10.78 4.10 -1.46 210 251 253
10.78 4.00 -1.46 206 247 249
10.78 3.89 -1.46 209 249 251
10.78 3.78 -1.46 205 243 246
10.78 3.67 -1.46 201 234 239
10.78 3.56 -1.46 189 222 227
10.78 3.45 -1.46 162 193 196
10.78 3.34 -1.46 152 186 187
3.37 1.68 4.11 156 187 189
3.37 1.58 4.11 147 176 184
3.20 1.46 4.23 142 171 177
3.37 1.40 4.11 178 213 209
3.37 1.31 4.11 126 166 168
3.57 1.25 3.96 0 11 37
3.57 1.16 3.96 5 53 91
3.57 1.07 3.96 0 44 80
3.57 0.97 3.96 0 42 79
3.76 0.92 3.81 0 23 61
3.76 0.82 3.81 0 26 66
3.96 0.77 3.66 1 28 71
4.16 0.71 3.51 5 32 75
4.16 0.61 3.51 0 30 71
4.16 0.52 3.51 0 27 70
4.16 0.42 3.51 0 33 79
4.16 0.33 3.51 0 31 79
4.16 0.23 3.51 0 31 82
4.16 0.14 3.51 0 32 83
4.16 0.05 3.51 0 32 84
4.16 -0.05 3.51 0 31 84
4.16 -0.14 3.51 0 33 86
4.16 -0.24 3.51 0 30 83
4.16 -0.33 3.51 0 31 84
4.16 -0.43 3.51 0 31 81
4.16 -0.52 3.51 0 30 80
4.16 -0.62 3.51 0 30 78
4.16 -0.71 3.51 0 31 79
3.96 -0.83 3.66 0 31 77
3.96 -0.93 3.66 0 29 75
3.76 -1.05 3.81 0 33 79
3.76 -1.15 3.81 0 32 77
3.76 -1.24 3.81 0 32 72
3.57 -1.36 3.96 0 29 69
3.57 -1.45 3.96 5 40 80
3.57 -1.55 3.96 4 38 83
3.37 -1.67 4.11 5 43 92
3.37 -1.76 4.11 7 45 94
3.20 -2.61 4.23 158 178 179
3.20 -2.71 4.23 192 211 215
3.00 -2.82 4.38 112 131 135
3.00 -2.91 4.38 76 95 101
3.00 -3.00 4.38 128 147 153
3.00 -3.10 4.38 132 151 157
3.00 -3.19 4.38 133 152 158
3.00 -3.28 4.38 136 153 160
3.00 -3.37 4.38 138 155 162
3.00 -3.46 4.38 143 161 165
3.00 -3.56 4.38 148 166 170
3.00 -3.65 4.38 150 168 168
2.81 -3.76 4.53 150 168 168
2.81 -3.85 4.53 150 169 167
2.81 -3.94 4.53 151 170 168
2.81 -4.03 4.53 153 172 168
2.81 -4.12 4.53 164 183 179
2.81 -4.22 4.53 169 190 185
12.11 -4.97 -2.46 151 170 164
12.11 -5.09 -2.46 147 168 161
12.11 -5.20 -2.46 145 166 159
12.11 -5.31 -2.46 145 166 161
12.11 -5.42 -2.46 144 165 160
12.11 -5.53 -2.46 141 161 160
12.11 -5.64 -2.46 139 159 160
12.11 -5.76 -2.46 139 158 164
12.11 -5.87 -2.46 138 158 165
11.85 -5.99 -2.27 143 163 172
11.85 -6.10 -2.27 149 167 177
11.85 -6.21 -2.27 152 169 179
11.85 -6.32 -2.27 154 171 178
11.85 -6.43 -2.27 157 170 178
11.85 -6.54 -2.27 154 168 171
11.57 -6.66 -2.05 153 162 167
11.57 -6.77 -2.05 164 172 175
11.57 -6.88 -2.05 166 176 177
11.29 -6.99 -1.84 176 188 186
11.29 -7.10 -1.84 183 198 193
11.29 -7.21 -1.84 182 197 190
11.29 -7.32 -1.84 170 183 173
11.29 -7.43 -1.84 157 169 159
11.29 -7.54 -1.84 126 137 129
11.29 -7.65 -1.84 97 108 102
11.04 -7.76 -1.65 65 84 82
11.04 -7.87 -1.65 48 73 77
11.04 -7.98 -1.65 35 69 78
11.04 -8.09 -1.65 32 75 91
11.04 -8.19 -1.65 37 93 108
10.78 -8.30 -1.46 43 103 129
10.78 -8.41 -1.46 49 115 150
10.78 -8.52 -1.46 48 115 160
10.50 -8.62 -1.25 49 116 161
10.50 -8.73 -1.25 48 115 160
10.25 -8.83 -1.06 49 122 157
10.25 -8.94 -1.06 44 117 152
10.25 -9.04 -1.06 46 115 156
9.99 -9.14 -0.87 74 138 176
9.99 -9.25 -0.87 91 141 174
9.99 -9.36 -0.87 84 108 112
9.99 -9.46 -0.87 99 114 111
-7.43 15.17 12.14 0 0 0
-7.43 15.10 12.14 0 0 0
-7.43 15.03 12.14 0 0 0
-7.43 14.96 12.14 0 0 0
-7.32 14.97 12.05 0 0 0
-7.32 14.90 12.05 0 0 0
-7.32 14.83 12.05 0 0 0
-7.32 14.76 12.05 0 0 0
-7.32 14.69 12.05 0 0 0
-7.32 14.62 12.05 175 118 91
-7.32 14.55 12.05 175 118 91
-7.32 14.48 12.05 175 118 91
-7.32 14.41 12.05 174 117 87
-7.21 14.41 11.97 172 115 85
-7.21 14.34 11.97 173 117 82
-7.21 14.27 11.97 174 118 83
-7.09 14.28 11.88 175 119 82
-7.09 14.21 11.88 173 117 82
-7.09 14.14 11.88 175 119 84
-6.98 14.14 11.80 174 118 85
-6.98 14.07 11.80 173 116 86
-6.98 14.00 11.80 172 115 85
-6.98 13.93 11.80 173 117 84
-6.98 13.86 11.80 175 119 86
-6.87 13.86 11.71 176 120 83
-6.87 13.79 11.71 176 120 83
-6.87 13.72 11.71 172 120 83
-6.87 13.65 11.71 171 119 82
-6.87 13.58 11.71 173 121 84
-6.87 13.50 11.71 177 125 88
-6.76 13.51 11.63 176 124 87
-6.64 13.51 11.54 175 123 84
-6.64 13.43 11.54 175 123 84
-6.53 13.43 11.46 177 123 85
-6.53 13.36 11.46 179 125 87
-6.53 13.29 11.46 180 126 90
-6.53 13.22 11.46 178 124 88
-6.53 13.15 11.46 176 122 88
-6.53 13.07 11.46 176 122 88
-6.42 13.07 11.37 177 123 89
-6.42 13.00 11.37 180 124 91
-6.42 12.93 11.37 183 126 96
-6.42 12.86 11.37 182 123 93
-6.31 12.85 11.29 182 123 91
-6.31 12.78 11.29 185 126 94
-6.19 12.78 11.20 184 128 93
-6.19 12.70 11.20 181 125 90
-6.08 12.70 11.12 179 123 88
-6.08 12.63 11.12 179 123 88
-5.97 12.62 11.03 181 127 89
-5.97 12.55 11.03 181 127 89
-5.97 12.47 11.03 181 127 91
-5.97 12.40 11.03 180 126 90
-5.83 12.41 10.93 180 126 92
-5.83 12.34 10.93 180 126 92
-5.83 12.26 10.93 178 124 90
-5.83 12.19 10.93 179 129 96
-5.72 12.18 10.84 179 129 96
-5.72 12.11 10.84 180 127 93
-5.72 12.04 10.84 179 126 92
-5.72 11.96 10.84 179 125 91
-5.72 11.89 10.84 180 126 92
-5.72 11.81 10.84 182 126 91
-5.60 11.80 10.76 183 127 92
-5.60 11.73 10.76 182 128 94
-5.60 11.66 10.76 181 127 93
-5.60 11.58 10.76 181 126 95
-5.60 11.51 10.76 181 126 95
-5.60 11.44 10.76 181 128 97
-5.60 11.36 10.76 182 129 98
-5.60 11.29 10.76 180 129 98
-5.49 11.28 10.67 180 130 97
-5.49 11.20 10.67 179 126 92
-5.49 11.13 10.67 182 130 93
-5.49 11.06 10.67 183 131 94
-5.49 10.98 10.67 181 129 92
-5.49 10.91 10.67 181 127 91
-5.35 10.91 10.57 186 132 98
-5.35 10.83 10.57 186 132 98
-5.35 10.76 10.57 184 131 97
-5.35 10.69 10.57 184 131 97
-5.24 10.67 10.48 182 132 99
-5.24 10.60 10.48 181 131 98
-5.24 10.52 10.48 180 131 98
-5.24 10.45 10.48 181 132 99
-5.24 10.37 10.48 180 134 101
-5.24 10.30 10.48 181 134 104
-5.24 10.22 10.48 184 135 105
-5.24 10.15 10.48 183 133 106
-5.24 10.07 10.48 183 134 104
-5.24 10.00 10.48 182 133 103
-5.24 9.93 10.48 183 134 104
-5.24 9.85 10.48 183 134 104
-5.12 9.83 10.40 182 133 101
-5.12 9.76 10.40 182 133 101
-5.12 9.68 10.40 183 134 102
-4.98 9.68 10.29 183 134 102
-4.98 9.60 10.29 184 135 103
-4.98 9.53 10.29 184 135 103
-4.98 9.45 10.29 184 135 103
-4.87 9.43 10.20 185 136 104
-4.87 9.36 10.20 187 136 105
-4.87 9.28 10.20 193 140 106
-4.87 9.21 10.20 191 137 103
-4.87 9.13 10.20 189 136 104
-4.87 9.06 10.20 191 138 106
-4.73 9.05 10.10 190 139 108
-4.73 8.97 10.10 189 138 107
-4.73 8.90 10.10 189 140 108
-4.73 8.82 10.10 190 141 109
-4.73 8.74 10.10 190 141 109
-4.73 8.67 10.10 190 141 109
-4.73 8.59 10.10 190 141 109
-4.73 8.52 10.10 190 141 109
-4.73 8.44 10.10 191 142 109
-4.73 8.37 10.10 191 142 109
-4.62 8.34 10.01 191 142 109
-4.62 8.27 10.01 192 143 110
-4.62 8.19 10.01 194 144 109
-4.62 8.11 10.01 194 144 109
-4.62 8.04 10.01 193 145 109
-4.62 7.96 10.01 192 144 108
-4.62 7.89 10.01 192 144 108
-4.62 7.81 10.01 192 144 108
-4.62 7.74 10.01 192 143 110
-4.62 7.66 10.01 189 143 109
-4.62 7.58 10.01 189 143 109
-4.62 7.51 10.01 188 142 109
-4.62 7.43 10.01 187 141 108
-4.48 7.42 9.91 187 141 108
-4.48 7.34 9.91 188 142 109
-4.48 7.26 9.91 188 142 109
-4.48 7.19 9.91 188 142 109
-4.48 7.11 9.91 186 141 110
-4.48 7.04 9.91 186 141 110
-4.48 6.96 9.91 185 142 110
-4.48 6.88 9.91 185 142 110
-4.48 6.81 9.91 185 141 112
-4.48 6.73 9.91 185 141 112
-4.48 6.66 9.91 185 141 114
-4.48 6.58 9.91 185 141 114
-4.48 6.50 9.91 185 144 116
-4.36 6.47 9.82 185 144 116
-4.36 6.39 9.82 185 144 116
-4.36 6.32 9.82 186 145 117
-4.36 6.24 9.82 186 147 116
-4.36 6.17 9.82 187 148 117
-4.36 6.09 9.82 188 149 118
-4.36 6.01 9.82 189 150 119
-4.36 5.94 9.82 187 151 117
-4.36 5.86 9.82 187 151 119
-4.36 5.78 9.82 187 151 119
-4.36 5.71 9.82 186 151 121
-4.36 5.63 9.82 187 152 124
-4.36 5.56 9.82 188 153 125
-4.36 5.48 9.82 189 153 127
-4.36 5.40 9.82 189 153 127
-4.36 5.33 9.82 189 153 127
-4.36 5.25 9.82 190 152 129
-4.36 5.17 9.82 190 152 129
-4.22 5.15 9.72 192 151 129
-4.22 5.07 9.72 192 151 129
-4.22 4.99 9.72 193 151 129
-4.22 4.92 9.72 193 150 131
-4.22 4.84 9.72 187 148 131
-4.22 4.76 9.72 187 148 133
-4.22 4.69 9.72 187 148 133
-4.22 4.61 9.72 186 147 132
-4.22 4.53 9.72 186 147 130
-4.22 4.46 9.72 185 146 129
-4.22 4.38 9.72 185 146 129
-4.22 4.30 9.72 185 146 129
-4.22 4.23 9.72 187 148 131
-4.08 4.20 9.61 188 146 130
-4.08 4.12 9.61 188 146 130
-4.08 4.04 9.61 188 146 130
-4.08 3.97 9.61 188 146 130
-4.08 3.89 9.61 188 146 130
-4.08 3.66 9.61 197 153 140
-4.08 3.58 9.61 203 160 144
-4.08 3.50 9.61 206 163 147
-3.97 3.46 9.53 210 165 146
-3.97 3.38 9.53 212 167 148
-3.97 3.31 9.53 211 169 147
