ply
format ascii 1.0
element vertex 1604
property float x
property float y
property float z
property uchar red
property uchar green
property uchar blue
end_header
-0.51 -22.85 -0.80 250 254 253
-0.51 -22.94 -0.80 249 253 252
-0.51 -23.03 -0.80 249 253 252
-0.51 -23.13 -0.80 248 254 252
-0.51 -23.22 -0.80 248 254 252
-0.51 -23.31 -0.80 249 255 253
-0.51 -23.40 -0.80 249 255 253
-0.51 -23.49 -0.80 250 255 254
-0.51 -23.58 -0.80 250 255 254
-0.51 -23.67 -0.80 250 255 254
-0.36 -23.83 -0.95 249 255 253
-0.36 -23.92 -0.95 249 255 253
-0.36 -24.01 -0.95 249 255 253
-0.51 -24.04 -0.80 249 255 253
-0.51 -24.13 -0.80 248 254 252
-0.51 -24.22 -0.80 249 253 252
-0.51 -24.31 -0.80 249 253 252
-0.51 -24.40 -0.80 250 254 253
-0.51 -24.49 -0.80 253 255 254
-0.51 -24.59 -0.80 253 255 254
-0.51 -24.68 -0.80 253 255 254
-0.51 -24.77 -0.80 253 255 254
-0.51 -24.86 -0.80 253 253 253
-0.51 -24.95 -0.80 253 253 253
-0.51 -25.04 -0.80 253 253 253
-0.51 -25.13 -0.80 253 253 253
-0.51 -25.23 -0.80 253 253 253
-0.70 -25.23 -0.62 252 252 252
-0.70 -25.32 -0.62 252 254 253
-0.70 -25.41 -0.62 252 254 253
-0.70 -25.51 -0.62 252 254 253
-0.70 -25.60 -0.62 253 255 254
-0.70 -25.69 -0.62 250 254 253
-0.51 -25.86 -0.80 250 254 253
-0.70 -25.87 -0.62 250 254 253
-0.70 -25.96 -0.62 251 255 254
-0.70 -26.05 -0.62 249 255 253
-0.70 -26.14 -0.62 250 255 254
-0.70 -26.23 -0.62 250 255 254
-0.70 -26.32 -0.62 251 255 254
-0.70 -26.41 -0.62 250 252 251
-0.70 -26.51 -0.62 253 253 253
-0.70 -26.60 -0.62 253 253 253
-0.51 -26.78 -0.80 252 252 252
-0.51 -26.87 -0.80 252 252 252
-0.70 -26.87 -0.62 252 252 252
-0.70 -26.96 -0.62 253 253 253
-0.70 -27.05 -0.62 254 254 254
-0.51 -27.23 -0.80 254 254 254
-0.51 -27.32 -0.80 254 254 254
-0.70 -27.32 -0.62 253 253 253
-0.70 -27.41 -0.62 253 253 253
-0.70 -27.50 -0.62 252 252 252
-0.70 -27.60 -0.62 251 251 251
-0.70 -27.69 -0.62 251 251 251
-0.51 -27.87 -0.80 251 251 251
-0.51 -27.96 -0.80 251 251 251
-0.70 -27.96 -0.62 251 251 251
-0.70 -28.05 -0.62 251 251 251
-0.70 -28.14 -0.62 250 250 250
-0.70 -28.23 -0.62 251 251 251
-0.51 -28.42 -0.80 251 251 251
-0.51 -28.51 -0.80 251 251 251
-0.51 -28.60 -0.80 250 250 250
-0.51 -28.69 -0.80 250 250 250
-0.51 -28.79 -0.80 250 250 250
-0.51 -28.88 -0.80 249 249 249
-0.51 -28.97 -0.80 248 248 248
-0.51 -29.06 -0.80 247 247 247
-0.51 -29.15 -0.80 246 246 246
-0.70 -29.14 -0.62 248 248 248
-0.70 -29.23 -0.62 249 249 249
-0.70 -29.32 -0.62 249 249 249
-0.70 -29.41 -0.62 249 249 249
-0.70 -29.50 -0.62 249 249 249
-0.70 -29.59 -0.62 249 249 249
-0.70 -29.69 -0.62 249 249 249
-0.70 -29.78 -0.62 249 249 249
-0.70 -29.87 -0.62 248 248 248
-0.70 -29.96 -0.62 247 247 247
-0.70 -30.05 -0.62 247 247 247
-0.70 -30.14 -0.62 247 247 247
-0.70 -30.23 -0.62 247 247 247
-0.70 -30.32 -0.62 247 247 247
-0.70 -30.41 -0.62 247 247 247
-0.51 -30.61 -0.80 247 247 247
-0.51 -30.70 -0.80 246 246 246
-0.51 -30.79 -0.80 246 246 246
-0.51 -30.89 -0.80 245 245 245
-0.51 -30.98 -0.80 245 245 245
-0.51 -31.07 -0.80 245 245 245
-0.51 -31.16 -0.80 245 245 245
-0.51 -31.25 -0.80 245 245 245
-0.51 -31.34 -0.80 246 246 246
-0.51 -31.43 -0.80 245 245 245
-0.51 -31.52 -0.80 245 245 245
-0.36 -31.71 -0.95 244 244 244
-0.51 -31.71 -0.80 243 243 243
-0.51 -31.80 -0.80 242 242 242
-0.51 -31.89 -0.80 241 241 241
-0.51 -31.98 -0.80 240 240 240
-0.51 -32.07 -0.80 239 241 240
-0.70 -32.05 -0.62 239 241 240
-0.70 -32.14 -0.62 240 240 240
-0.70 -32.23 -0.62 240 240 240
-0.70 -32.32 -0.62 240 240 240
-0.70 -32.41 -0.62 240 240 240
-0.70 -32.50 -0.62 241 239 240
-0.70 -32.59 -0.62 241 239 240
-0.51 -32.80 -0.80 241 239 240
-0.51 -32.89 -0.80 241 239 240
-0.70 -32.87 -0.62 243 239 240
-0.70 -32.96 -0.62 243 239 240
-0.85 -32.94 -0.47 244 240 241
-0.85 -33.04 -0.47 244 240 241
-0.85 -33.13 -0.47 244 240 241
-0.85 -33.22 -0.47 238 237 233
-1.03 -33.55 -0.30 241 241 239
-1.03 -33.64 -0.30 241 243 242
-1.03 -33.73 -0.30 241 243 242
-1.03 -33.82 -0.30 238 238 238
-1.03 -33.91 -0.30 241 241 241
-1.03 -34.00 -0.30 243 243 241
-1.03 -34.09 -0.30 241 241 239
-1.03 -34.18 -0.30 240 239 235
-1.03 -34.27 -0.30 240 239 235
-1.03 -34.36 -0.30 243 239 236
-1.03 -34.45 -0.30 244 240 237
-1.03 -34.54 -0.30 0 0 0
-0.85 -34.75 -0.47 0 0 0
-1.03 -34.72 -0.30 0 0 0
-1.03 -34.81 -0.30 0 0 0
-1.03 -34.90 -0.30 0 0 0
-0.85 -35.12 -0.47 0 0 0
-0.85 -35.21 -0.47 0 0 0
-0.85 -35.30 -0.47 0 0 0
-0.85 -35.39 -0.47 0 0 0
-0.85 -35.48 -0.47 0 0 0
-0.85 -35.57 -0.47 0 0 0
-0.85 -35.66 -0.47 0 0 0
-0.85 -35.75 -0.47 0 0 0
-0.85 -35.84 -0.47 0 0 0
-0.85 -35.93 -0.47 0 0 0
-0.04 21.25 -1.37 57 44 28
-0.04 21.16 -1.37 52 39 23
-0.22 20.94 -1.20 50 37 21
-0.22 20.84 -1.20 52 39 23
-0.22 20.75 -1.20 85 73 59
-0.22 20.66 -1.20 122 110 98
-0.22 20.57 -1.20 135 125 115
-0.04 20.60 -1.37 127 116 110
-0.04 20.51 -1.37 127 117 115
-0.04 20.42 -1.37 128 118 119
-0.04 20.33 -1.37 124 115 116
-0.04 20.23 -1.37 127 117 118
-0.04 20.14 -1.37 128 118 117
-0.04 20.05 -1.37 131 120 118
-0.04 19.96 -1.37 133 122 120
-0.04 19.86 -1.37 132 121 117
-0.04 19.77 -1.37 127 116 112
-0.04 19.68 -1.37 127 118 111
-0.04 19.59 -1.37 134 125 118
0.12 19.60 -1.52 130 121 112
0.12 19.51 -1.52 130 121 112
-0.04 19.31 -1.37 129 120 111
-0.04 19.22 -1.37 128 119 110
-0.04 19.12 -1.37 125 118 110
-0.04 19.03 -1.37 125 118 110
-0.04 18.94 -1.37 127 120 112
-0.04 18.85 -1.37 127 123 114
-0.22 18.63 -1.20 125 123 110
-0.22 18.54 -1.20 123 124 110
-0.22 18.45 -1.20 126 124 112
-0.22 18.36 -1.20 127 124 115
-0.22 18.27 -1.20 130 126 117
-0.22 18.17 -1.20 130 125 119
-0.22 18.08 -1.20 129 124 120
-0.22 17.99 -1.20 128 123 119
-0.22 17.90 -1.20 128 123 120
-0.22 17.81 -1.20 129 124 121
-0.22 17.71 -1.20 130 124 124
-0.22 17.62 -1.20 130 124 124
-0.04 17.64 -1.37 128 124 123
-0.04 17.55 -1.37 126 125 123
-0.04 17.46 -1.37 127 126 124
-0.04 17.37 -1.37 128 125 120
-0.04 17.27 -1.37 128 125 120
-0.04 17.18 -1.37 130 125 119
-0.04 17.09 -1.37 129 124 118
0.12 17.09 -1.52 130 123 115
0.12 17.00 -1.52 130 123 115
0.12 16.91 -1.52 133 124 115
0.12 16.81 -1.52 134 125 116
0.12 16.72 -1.52 135 126 119
0.12 16.63 -1.52 134 125 120
-0.04 16.44 -1.37 133 124 119
-0.04 16.35 -1.37 133 123 121
-0.04 16.26 -1.37 133 125 123
-0.04 16.16 -1.37 133 124 125
-0.04 16.07 -1.37 132 123 124
-0.04 15.98 -1.37 131 122 125
-0.04 15.89 -1.37 134 128 130
-0.04 15.79 -1.37 132 126 128
-0.04 15.70 -1.37 135 126 127
-0.04 15.61 -1.37 136 127 128
-0.04 15.52 -1.37 136 127 128
-0.04 15.42 -1.37 136 128 126
-0.04 15.33 -1.37 138 130 128
-0.04 15.24 -1.37 136 128 126
-0.04 15.15 -1.37 137 129 127
-0.04 15.05 -1.37 135 132 127
-0.04 14.96 -1.37 136 133 128
-0.04 14.87 -1.37 134 133 128
-0.04 14.78 -1.37 134 133 128
-0.04 14.68 -1.37 134 135 127
-0.04 14.59 -1.37 134 135 127
0.12 14.59 -1.52 136 136 128
0.12 14.49 -1.52 136 136 128
0.12 14.40 -1.52 136 136 128
0.12 14.31 -1.52 137 137 129
0.12 14.21 -1.52 139 139 129
0.12 14.12 -1.52 139 139 129
0.12 14.03 -1.52 141 139 127
0.12 13.93 -1.52 140 138 126
0.12 13.84 -1.52 142 140 128
0.12 13.75 -1.52 142 140 128
0.12 13.66 -1.52 142 140 128
-0.04 13.48 -1.37 143 141 129
-0.04 13.39 -1.37 144 141 132
-0.04 13.30 -1.37 145 142 133
-0.04 13.20 -1.37 145 140 134
-0.04 13.11 -1.37 148 143 139
-0.04 13.02 -1.37 147 142 139
-0.22 12.83 -1.20 147 142 139
-0.22 12.74 -1.20 150 145 142
-0.22 12.65 -1.20 151 146 143
-0.22 12.56 -1.20 149 144 141
-0.22 12.46 -1.20 149 144 141
-0.22 12.37 -1.20 151 146 143
-0.22 12.28 -1.20 151 146 143
-0.22 12.19 -1.20 153 148 145
-0.22 12.10 -1.20 152 147 144
-0.22 12.00 -1.20 149 144 141
-0.22 11.91 -1.20 148 142 142
-0.04 11.91 -1.37 149 143 143
-0.04 11.82 -1.37 150 144 144
-0.04 11.72 -1.37 149 145 142
-0.04 11.63 -1.37 145 144 139
-0.04 11.54 -1.37 145 145 137
-0.04 11.45 -1.37 145 145 135
-0.04 11.35 -1.37 147 144 135
-0.04 11.26 -1.37 149 145 136
-0.04 11.17 -1.37 149 145 136
-0.04 11.08 -1.37 148 146 134
-0.04 10.98 -1.37 146 148 137
-0.04 10.89 -1.37 145 147 136
-0.22 10.72 -1.20 142 145 136
-0.22 10.62 -1.20 141 144 135
-0.22 10.53 -1.20 141 142 136
-0.22 10.44 -1.20 140 141 135
-0.22 10.35 -1.20 142 141 137
-0.22 10.26 -1.20 142 141 136
-0.22 10.16 -1.20 140 137 130
-0.22 10.07 -1.20 140 137 128
-0.22 9.98 -1.20 139 139 131
-0.22 9.89 -1.20 140 140 132
-0.22 9.79 -1.20 140 139 134
-0.22 9.70 -1.20 138 137 132
-0.04 9.69 -1.37 137 134 127
0.30 9.74 -1.70 135 132 125
0.30 9.65 -1.70 137 137 127
-4.00 7.74 2.40 133 134 126
-4.00 7.65 2.40 136 141 134
-3.84 7.64 2.25 123 134 128
-3.84 7.55 2.25 113 129 126
-4.00 7.24 2.40 126 157 160
-3.84 7.22 2.25 126 167 173
-4.00 7.07 2.40 127 168 172
-4.00 6.99 2.40 128 169 173
-4.00 6.90 2.40 128 169 173
-4.00 6.82 2.40 127 168 172
-4.00 6.74 2.40 125 166 170
-4.00 6.65 2.40 124 165 169
-4.00 6.57 2.40 125 166 170
-4.00 6.49 2.40 127 168 172
-4.00 6.40 2.40 129 170 176
-4.00 6.32 2.40 129 170 176
-4.00 6.24 2.40 128 168 176
-4.00 6.15 2.40 126 166 174
-4.00 6.07 2.40 124 164 174
-4.00 5.99 2.40 124 164 174
-4.00 5.91 2.40 124 165 171
-4.00 5.82 2.40 124 165 171
-4.00 5.74 2.40 125 166 172
-4.00 5.66 2.40 127 168 174
-4.00 5.57 2.40 128 169 175
-4.00 5.49 2.40 126 167 173
-4.00 5.41 2.40 123 164 170
-4.00 5.32 2.40 120 161 167
-4.00 5.24 2.40 123 164 170
-4.00 5.16 2.40 122 163 169
-4.00 5.07 2.40 122 163 169
-4.00 4.99 2.40 123 164 170
-4.13 4.86 2.53 125 166 172
-4.00 4.82 2.40 128 169 175
-4.00 4.74 2.40 129 172 179
-4.00 4.66 2.40 125 170 176
-4.00 4.57 2.40 115 162 170
-4.00 4.49 2.40 122 169 175
-4.00 4.41 2.40 124 171 177
-4.00 4.32 2.40 123 171 175
-4.00 4.24 2.40 123 171 175
-4.00 4.16 2.40 121 169 171
-4.00 4.07 2.40 125 173 175
-4.00 3.99 2.40 122 170 172
-4.00 3.91 2.40 123 171 173
-4.00 3.82 2.40 122 170 172
-4.00 3.74 2.40 121 169 171
-4.13 3.62 2.53 120 168 172
-4.13 3.53 2.53 121 169 173
-4.13 3.45 2.53 121 169 173
-4.13 3.37 2.53 120 168 172
-4.13 3.28 2.53 122 170 174
-4.13 3.20 2.53 124 172 176
-4.13 3.12 2.53 125 173 177
-4.13 3.04 2.53 128 176 180
-4.13 2.95 2.53 131 179 183
-4.13 2.87 2.53 130 178 182
-4.13 2.79 2.53 127 175 179
-4.13 2.70 2.53 128 176 180
-4.13 2.62 2.53 125 173 177
-4.13 2.54 2.53 123 171 175
-4.13 2.45 2.53 126 174 178
-4.13 2.37 2.53 131 179 183
-4.13 2.29 2.53 136 184 188
-4.13 2.21 2.53 137 185 189
-4.13 2.12 2.53 136 184 188
-4.13 2.04 2.53 135 183 187
-4.13 1.96 2.53 132 180 184
-4.13 1.87 2.53 129 177 181
-4.13 1.79 2.53 128 176 180
-4.13 1.71 2.53 129 177 181
-4.13 1.62 2.53 132 180 184
-4.13 1.54 2.53 134 182 186
-4.13 1.46 2.53 135 183 187
-4.13 1.38 2.53 130 178 182
-4.13 1.29 2.53 132 180 184
-4.13 1.21 2.53 134 182 186
-4.13 1.13 2.53 136 184 188
-4.13 1.04 2.53 141 189 193
-4.13 0.96 2.53 145 193 197
-4.13 0.88 2.53 149 196 202
-4.13 0.79 2.53 147 192 198
-4.13 0.71 2.53 149 193 202
-4.13 0.63 2.53 152 196 205
-4.13 0.55 2.53 152 196 205
-4.13 0.46 2.53 151 196 202
-4.13 0.38 2.53 147 192 198
-4.13 0.30 2.53 145 188 194
-4.13 0.21 2.53 143 186 192
-4.13 0.13 2.53 154 198 201
-4.13 0.05 2.53 155 199 202
-4.13 -0.04 2.53 157 201 202
-4.13 -0.12 2.53 160 204 205
-4.13 -0.20 2.53 162 206 205
-4.13 -0.28 2.53 163 207 206
-4.13 -0.37 2.53 164 208 207
-4.13 -0.45 2.53 164 208 207
-4.13 -0.53 2.53 164 206 205
-4.29 -0.65 2.68 168 210 209
-4.29 -0.73 2.68 171 213 212
-4.29 -0.81 2.68 170 212 211
-4.29 -0.89 2.68 169 210 212
-4.29 -0.98 2.68 172 212 214
-4.29 -1.06 2.68 171 211 213
-4.29 -1.14 2.68 174 213 218
-4.29 -1.22 2.68 171 210 215
-4.29 -1.31 2.68 168 207 212
-4.29 -1.39 2.68 164 203 208
-4.29 -1.47 2.68 165 204 211
-4.29 -1.55 2.68 168 207 214
-4.29 -1.64 2.68 175 212 220
-4.29 -1.72 2.68 179 216 224
-4.13 -1.78 2.53 176 214 223
-4.13 -1.86 2.53 173 211 220
-4.13 -1.94 2.53 170 208 217
-4.13 -2.03 2.53 169 207 216
-4.13 -2.11 2.53 172 209 217
-4.13 -2.19 2.53 176 213 221
-4.29 -2.30 2.68 179 216 222
-4.29 -2.38 2.68 180 217 223
-4.29 -2.46 2.68 179 214 218
-4.29 -2.55 2.68 179 214 218
-4.29 -2.63 2.68 181 216 218
-4.29 -2.71 2.68 183 218 220
-4.29 -2.79 2.68 186 222 222
-4.29 -2.88 2.68 189 225 225
-4.29 -2.96 2.68 191 225 227
-4.29 -3.04 2.68 196 225 229
-4.29 -3.12 2.68 196 223 230
-4.29 -3.21 2.68 194 221 228
-4.29 -3.29 2.68 190 217 224
-4.29 -3.37 2.68 186 215 221
-4.29 -3.46 2.68 184 213 219
-4.29 -3.54 2.68 185 214 220
-4.29 -3.62 2.68 186 215 221
-4.29 -3.70 2.68 185 216 221
-4.29 -3.79 2.68 191 222 227
-4.29 -3.87 2.68 197 228 233
-4.29 -3.95 2.68 198 229 234
-4.29 -4.03 2.68 196 229 234
-4.29 -4.12 2.68 195 228 233
-4.29 -4.20 2.68 191 224 229
-4.42 -4.29 2.80 187 220 225
-4.42 -4.37 2.80 194 225 230
-4.42 -4.46 2.80 190 221 226
-4.42 -4.54 2.80 189 220 225
-4.42 -4.62 2.80 193 224 229
-4.42 -4.70 2.80 199 230 235
-4.42 -4.79 2.80 202 233 238
-4.42 -4.87 2.80 198 227 231
-4.42 -4.95 2.80 190 219 223
-4.29 -5.02 2.68 194 223 227
-4.29 -5.11 2.68 200 228 231
-4.29 -5.19 2.68 200 228 231
-4.29 -5.27 2.68 197 225 228
-4.29 -5.36 2.68 193 221 224
-4.13 -5.43 2.53 191 219 222
-4.29 -5.52 2.68 191 219 222
-4.13 -5.60 2.53 194 224 226
-4.13 -5.68 2.53 202 232 234
-4.13 -5.76 2.53 206 236 238
-4.13 -5.84 2.53 204 234 236
-4.13 -5.93 2.53 199 229 231
-4.13 -6.01 2.53 193 221 224
-4.13 -6.09 2.53 193 221 222
-4.13 -6.18 2.53 204 228 230
-4.13 -6.26 2.53 214 238 240
-4.13 -6.34 2.53 118 137 141
-0.22 -6.50 -1.20 151 165 168
-0.40 -6.60 -1.03 152 163 167
-0.40 -6.69 -1.03 159 168 173
-0.40 -6.78 -1.03 157 166 171
-0.40 -6.87 -1.03 156 168 168
-0.40 -6.97 -1.03 157 169 169
-0.40 -7.06 -1.03 158 170 170
-0.40 -7.15 -1.03 159 169 170
-0.40 -7.24 -1.03 159 169 170
-0.22 -7.33 -1.20 159 169 170
-0.40 -7.42 -1.03 160 170 171
-0.40 -7.52 -1.03 161 171 172
-0.40 -7.61 -1.03 161 171 172
-0.40 -7.70 -1.03 160 170 171
-0.40 -7.79 -1.03 162 172 173
-0.40 -7.88 -1.03 163 171 173
-0.40 -7.97 -1.03 179 187 189
-0.40 -8.07 -1.03 173 181 183
-0.40 -8.16 -1.03 176 184 186
-0.40 -8.25 -1.03 176 185 182
-0.40 -8.34 -1.03 176 185 182
-0.40 -8.43 -1.03 176 185 182
-0.40 -8.52 -1.03 176 185 182
-0.40 -8.62 -1.03 176 185 182
-0.40 -8.71 -1.03 177 186 183
-0.40 -8.80 -1.03 177 186 183
-0.40 -8.89 -1.03 178 187 184
-0.40 -8.98 -1.03 178 187 184
-0.40 -9.07 -1.03 181 190 187
-0.40 -9.17 -1.03 183 192 189
-0.40 -9.26 -1.03 184 193 190
-0.22 -9.36 -1.20 184 193 190
-0.22 -9.45 -1.20 183 192 189
-0.22 -9.54 -1.20 182 191 188
-0.22 -9.63 -1.20 182 193 185
-0.22 -9.73 -1.20 183 194 186
-0.22 -9.82 -1.20 183 194 186
-0.22 -9.91 -1.20 181 192 184
-0.40 -9.99 -1.03 182 193 187
-0.40 -10.08 -1.03 183 194 188
-0.40 -10.17 -1.03 183 192 187
-0.40 -10.26 -1.03 181 190 185
-0.40 -10.36 -1.03 182 191 188
-0.40 -10.45 -1.03 182 191 188
-0.40 -10.54 -1.03 182 191 188
-0.40 -10.63 -1.03 182 191 188
-0.40 -10.72 -1.03 184 193 192
-0.40 -10.81 -1.03 184 193 192
-0.40 -10.91 -1.03 185 194 193
-0.40 -11.00 -1.03 184 194 193
-0.40 -11.09 -1.03 183 195 191
-0.40 -11.18 -1.03 183 195 191
-0.40 -11.27 -1.03 185 194 191
-0.40 -11.36 -1.03 186 195 192
-0.40 -11.46 -1.03 188 194 192
-0.40 -11.55 -1.03 189 195 193
-0.40 -11.82 -1.03 185 196 192
-0.40 -11.91 -1.03 185 196 192
-0.40 -12.01 -1.03 185 196 192
-0.40 -12.10 -1.03 186 195 192
-0.40 -12.19 -1.03 188 194 192
-0.40 -12.28 -1.03 189 195 193
-0.40 -12.37 -1.03 190 194 193
-0.40 -12.46 -1.03 189 193 192
-0.40 -12.56 -1.03 189 193 192
-0.40 -12.65 -1.03 189 193 192
-0.40 -12.74 -1.03 189 193 192
-0.40 -12.83 -1.03 189 195 193
-0.40 -12.92 -1.03 189 195 193
-0.40 -13.01 -1.03 189 195 193
-0.40 -13.11 -1.03 189 195 193
-0.40 -13.20 -1.03 189 195 193
-0.40 -13.29 -1.03 190 196 194
-0.40 -13.38 -1.03 191 197 195
-0.40 -13.47 -1.03 194 198 197
-0.56 -13.54 -0.88 195 199 198
-0.40 -13.84 -1.03 194 199 195
-0.40 -13.93 -1.03 193 198 194
-0.40 -14.02 -1.03 192 198 194
-0.40 -14.11 -1.03 193 199 195
-0.40 -14.21 -1.03 193 202 199
-0.40 -14.30 -1.03 193 202 199
-0.40 -14.39 -1.03 192 202 201
-0.40 -14.48 -1.03 191 201 200
-0.40 -14.57 -1.03 192 202 201
-0.40 -14.66 -1.03 193 203 202
-0.56 -14.73 -0.88 194 205 201
-0.56 -14.82 -0.88 195 206 202
-0.56 -14.91 -0.88 197 206 201
-0.56 -15.00 -0.88 197 206 201
-0.56 -15.09 -0.88 197 206 201
-0.56 -15.18 -0.88 198 207 202
-0.56 -15.27 -0.88 200 206 204
-0.56 -15.37 -0.88 200 206 204
-0.56 -15.46 -0.88 201 205 204
-0.56 -15.55 -0.88 202 206 205
-0.56 -15.64 -0.88 206 208 207
-0.56 -15.73 -0.88 208 210 209
-0.56 -15.82 -0.88 209 211 210
-0.56 -15.91 -0.88 208 210 209
-0.56 -16.00 -0.88 209 211 210
-0.56 -16.10 -0.88 210 212 211
-0.56 -16.19 -0.88 211 213 212
-0.56 -16.28 -0.88 211 215 214
-0.56 -16.37 -0.88 213 217 216
-0.56 -16.46 -0.88 213 217 216
-0.56 -16.55 -0.88 213 217 216
-0.56 -16.64 -0.88 208 217 214
-0.56 -16.74 -0.88 209 218 215
-0.56 -16.83 -0.88 212 218 216
-0.56 -16.92 -0.88 213 219 217
-0.56 -17.01 -0.88 214 220 218
-0.56 -17.10 -0.88 215 221 219
-0.56 -17.19 -0.88 216 220 219
-0.56 -17.28 -0.88 216 220 219
-0.56 -17.37 -0.88 219 223 222
-0.56 -17.47 -0.88 221 225 224
-0.74 -17.51 -0.70 225 227 226
-0.74 -17.60 -0.70 225 227 226
-0.74 -17.69 -0.70 224 226 225
-0.56 -17.83 -0.88 229 229 229
-0.56 -17.92 -0.88 231 231 231
-0.56 -18.01 -0.88 227 231 230
-0.74 -18.05 -0.70 228 232 231
-0.74 -18.15 -0.70 228 232 231
-0.74 -18.24 -0.70 227 231 230
-0.74 -18.33 -0.70 227 231 230
-0.74 -18.42 -0.70 227 231 230
-0.74 -18.51 -0.70 229 233 232
-0.74 -18.60 -0.70 230 234 233
-0.74 -18.69 -0.70 231 235 234
-0.74 -18.78 -0.70 231 235 234
-0.74 -18.87 -0.70 231 235 234
-0.74 -18.96 -0.70 232 236 235
-0.74 -19.05 -0.70 232 238 236
-0.74 -19.15 -0.70 232 238 236
-0.74 -19.24 -0.70 232 238 236
-0.74 -19.33 -0.70 232 236 235
-0.74 -19.42 -0.70 234 236 235
-0.56 -19.57 -0.88 233 233 233
-0.56 -19.66 -0.88 236 236 236
-0.56 -19.75 -0.88 241 241 241
-0.56 -19.84 -0.88 242 242 242
-0.56 -19.93 -0.88 239 239 239
-0.56 -20.02 -0.88 244 244 244
-0.56 -20.11 -0.88 243 243 243
-0.74 -20.14 -0.70 246 246 246
-0.74 -20.24 -0.70 245 245 245
-0.74 -20.33 -0.70 244 244 244
-0.74 -20.42 -0.70 246 246 246
-0.74 -20.51 -0.70 244 244 244
-0.74 -20.60 -0.70 241 241 241
-0.74 -20.69 -0.70 243 243 243
-0.74 -20.78 -0.70 244 244 244
-0.74 -20.87 -0.70 245 245 245
-0.74 -20.96 -0.70 246 246 246
-0.74 -21.05 -0.70 245 245 245
-0.74 -21.14 -0.70 244 244 244
-0.74 -21.23 -0.70 243 243 243
-0.74 -21.33 -0.70 244 244 244
-0.74 -21.42 -0.70 245 245 245
-0.74 -21.51 -0.70 246 246 246
-0.74 -21.60 -0.70 246 246 246
-0.74 -21.69 -0.70 246 246 246
-0.74 -21.78 -0.70 247 247 247
-0.74 -21.87 -0.70 248 248 248
-0.74 -21.96 -0.70 250 250 250
-0.56 -22.12 -0.88 251 251 251
-0.74 -22.14 -0.70 250 252 251
-0.74 -22.23 -0.70 250 252 251
-0.74 -22.33 -0.70 251 253 252
-0.74 -22.42 -0.70 251 253 252
-0.74 -22.51 -0.70 252 254 253
-0.74 -22.60 -0.70 252 254 253
-0.74 -22.69 -0.70 251 255 254
-0.74 -22.78 -0.70 251 255 254
-0.74 -22.87 -0.70 249 253 252
-0.74 -22.96 -0.70 249 253 252
-0.74 -23.05 -0.70 248 254 252
-0.74 -23.14 -0.70 248 254 252
-0.74 -23.23 -0.70 249 255 253
-0.74 -23.32 -0.70 249 255 253
-0.74 -23.42 -0.70 250 255 254
-0.74 -23.51 -0.70 250 255 254
-0.56 -23.67 -0.88 248 255 254
-0.56 -23.76 -0.88 247 255 253
-0.56 -23.86 -0.88 249 255 253
-0.56 -23.95 -0.88 249 255 253
-0.56 -24.04 -0.88 249 255 253
-0.74 -24.05 -0.70 248 254 252
-0.74 -24.14 -0.70 249 253 252
-0.56 -24.31 -0.88 249 253 252
-0.56 -24.40 -0.88 250 254 253
-0.74 -24.42 -0.70 253 255 254
-0.74 -24.51 -0.70 253 255 254
-0.74 -24.60 -0.70 253 255 254
-0.74 -24.69 -0.70 253 255 254
-0.74 -24.78 -0.70 253 253 253
-0.74 -24.87 -0.70 253 253 253
-0.74 -24.96 -0.70 252 252 252
-0.74 -25.05 -0.70 252 252 252
-0.74 -25.14 -0.70 252 252 252
-0.74 -25.23 -0.70 252 252 252
-0.74 -25.32 -0.70 252 252 252
-0.74 -25.41 -0.70 252 252 252
-0.90 -25.43 -0.55 252 254 253
-0.90 -25.52 -0.55 252 254 253
-0.90 -25.61 -0.55 250 254 253
-0.74 -25.78 -0.70 250 254 253
-0.74 -25.87 -0.70 250 254 253
-0.74 -25.96 -0.70 250 254 253
-0.74 -26.05 -0.70 249 255 253
-0.74 -26.14 -0.70 249 255 253
-0.74 -26.23 -0.70 249 255 253
-0.74 -26.32 -0.70 250 254 253
-0.74 -26.41 -0.70 253 255 254
-0.74 -26.51 -0.70 255 255 255
-0.74 -26.60 -0.70 254 254 254
-0.74 -26.69 -0.70 252 252 252
-0.74 -26.78 -0.70 252 252 252
-0.74 -26.87 -0.70 253 253 253
-0.74 -26.96 -0.70 254 254 254
-0.74 -27.05 -0.70 254 254 254
-0.74 -27.14 -0.70 253 253 253
-0.74 -27.23 -0.70 253 253 253
-0.74 -27.32 -0.70 252 252 252
-0.74 -27.41 -0.70 252 252 252
-0.74 -27.50 -0.70 251 251 251
-0.74 -27.60 -0.70 251 251 251
-0.90 -27.61 -0.55 251 251 251
-0.74 -27.78 -0.70 252 252 252
-0.74 -27.87 -0.70 251 251 251
-0.74 -27.96 -0.70 250 250 250
-0.90 -27.97 -0.55 250 250 250
-0.90 -28.06 -0.55 250 250 250
-0.74 -28.23 -0.70 250 250 250
-0.74 -28.32 -0.70 251 251 251
-0.74 -28.41 -0.70 251 251 251
-0.74 -28.50 -0.70 250 250 250
-0.74 -28.60 -0.70 251 251 251
-0.74 -28.69 -0.70 254 254 254
-0.74 -28.78 -0.70 253 253 253
-0.74 -28.87 -0.70 251 251 251
-0.74 -28.96 -0.70 248 248 248
-0.74 -29.05 -0.70 247 247 247
-0.74 -29.14 -0.70 245 245 245
-0.90 -29.14 -0.55 245 245 245
-0.90 -29.23 -0.55 245 245 245
-0.90 -29.32 -0.55 245 245 245
-0.90 -29.42 -0.55 246 246 246
-0.90 -29.51 -0.55 246 246 246
-0.90 -29.60 -0.55 247 247 247
-0.74 -29.78 -0.70 247 247 247
-0.74 -29.87 -0.70 247 247 247
-0.74 -29.96 -0.70 247 247 247
-0.74 -30.05 -0.70 247 247 247
-0.74 -30.14 -0.70 247 247 247
-0.74 -30.23 -0.70 247 247 247
-0.74 -30.32 -0.70 248 248 248
-0.74 -30.41 -0.70 249 249 249
-0.74 -30.50 -0.70 249 249 249
-0.74 -30.59 -0.70 245 245 245
-0.74 -30.68 -0.70 245 245 245
-0.74 -30.78 -0.70 245 245 245
-0.74 -30.87 -0.70 241 241 241
-0.74 -30.96 -0.70 241 241 241
-0.74 -31.05 -0.70 242 242 242
-0.56 -31.25 -0.88 244 244 244
-0.56 -31.34 -0.88 244 244 244
-0.74 -31.32 -0.70 244 244 244
-0.74 -31.41 -0.70 244 244 244
-0.56 -31.62 -0.88 244 244 244
-0.56 -31.71 -0.88 244 244 244
-0.56 -31.80 -0.88 243 243 243
-0.74 -31.78 -0.70 242 242 242
-0.74 -31.87 -0.70 242 242 242
-0.74 -31.96 -0.70 238 238 238
-0.74 -32.05 -0.70 238 238 238
-0.74 -32.14 -0.70 239 239 239
-0.74 -32.23 -0.70 240 240 240
-0.74 -32.32 -0.70 241 239 240
-0.74 -32.41 -0.70 241 239 240
-0.74 -32.50 -0.70 240 238 239
-0.74 -32.59 -0.70 240 238 239
-0.74 -32.68 -0.70 241 237 238
-0.74 -32.77 -0.70 241 237 238
-0.74 -32.87 -0.70 241 237 238
-0.90 -32.85 -0.55 242 238 239
-0.90 -32.94 -0.55 245 239 241
-0.90 -33.04 -0.55 246 240 242
-0.90 -33.13 -0.55 246 242 243
-1.08 -33.10 -0.38 241 240 236
-1.08 -33.19 -0.38 241 242 237
-1.08 -33.28 -0.38 241 241 239
-1.08 -33.37 -0.38 239 239 237
-1.08 -33.46 -0.38 238 240 237
-1.08 -33.55 -0.38 240 242 239
-1.08 -33.64 -0.38 241 243 242
-1.08 -33.73 -0.38 240 242 241
-1.08 -33.82 -0.38 242 242 242
-1.08 -33.91 -0.38 241 241 241
-1.08 -34.00 -0.38 242 241 239
-1.08 -34.09 -0.38 242 241 239
-1.08 -34.18 -0.38 246 242 239
-1.08 -34.27 -0.38 247 243 240
-1.08 -34.36 -0.38 245 242 237
-1.08 -34.45 -0.38 241 238 233
-1.08 -34.54 -0.38 0 0 0
-1.08 -34.63 -0.38 0 0 0
-1.08 -34.72 -0.38 0 0 0
-1.08 -34.81 -0.38 0 0 0
-0.90 -35.03 -0.55 0 0 0
-0.90 -35.48 -0.55 0 0 0
-0.90 -35.57 -0.55 0 0 0
-0.90 -35.66 -0.55 0 0 0
-0.90 -35.75 -0.55 0 0 0
-0.08 21.25 -1.45 51 36 31
-0.08 21.16 -1.45 42 27 22
-0.27 20.94 -1.28 59 46 38
-0.27 20.84 -1.28 91 78 70
-0.45 20.62 -1.10 126 113 107
-0.45 20.53 -1.10 129 116 110
-0.27 20.57 -1.28 128 117 113
-0.27 20.48 -1.28 126 115 111
-0.27 20.38 -1.28 124 115 110
-0.27 20.29 -1.28 126 117 112
-0.27 20.20 -1.28 126 118 115
-0.08 20.23 -1.45 126 116 114
-0.08 20.14 -1.45 125 116 111
-0.08 20.05 -1.45 127 116 112
-0.08 19.96 -1.45 128 119 114
-0.08 19.86 -1.45 130 123 117
-0.08 19.77 -1.45 130 123 117
-0.08 19.68 -1.45 126 121 115
-0.08 19.59 -1.45 125 120 114
-0.08 19.49 -1.45 127 122 116
-0.27 19.28 -1.28 127 122 116
-0.27 19.19 -1.28 128 123 117
-0.27 19.09 -1.28 127 122 116
-0.27 19.00 -1.28 129 122 116
-0.08 19.03 -1.45 129 122 116
-0.08 18.94 -1.45 129 122 116
-0.27 18.73 -1.28 129 121 118
-0.27 18.63 -1.28 124 119 115
-0.27 18.54 -1.28 126 121 118
-0.27 18.45 -1.28 128 123 119
-0.27 18.36 -1.28 129 124 120
-0.45 18.15 -1.10 131 124 116
-0.45 18.06 -1.10 131 124 116
-0.27 18.08 -1.28 132 125 115
-0.27 17.99 -1.28 133 126 116
-0.27 17.90 -1.28 131 124 114
-0.27 17.81 -1.28 130 123 113
-0.27 17.71 -1.28 129 122 114
-0.27 17.62 -1.28 129 122 114
-0.27 17.53 -1.28 129 124 118
-0.27 17.44 -1.28 129 124 120
-0.08 17.46 -1.45 129 124 120
-0.08 17.37 -1.45 127 126 122
-0.08 17.27 -1.45 126 125 121
-0.08 17.18 -1.45 127 126 121
-0.08 17.09 -1.45 127 126 121
-0.08 17.00 -1.45 130 127 120
-0.08 16.90 -1.45 130 127 120
-0.08 16.81 -1.45 129 126 117
-0.08 16.72 -1.45 129 126 117
-0.08 16.63 -1.45 130 125 119
-0.08 16.53 -1.45 131 126 120
-0.08 16.44 -1.45 134 126 123
-0.08 16.35 -1.45 135 127 125
-0.27 16.15 -1.28 136 128 126
-0.27 16.06 -1.28 137 128 129
-0.27 15.96 -1.28 138 127 131
-0.27 15.87 -1.28 138 127 131
-0.27 15.78 -1.28 135 129 133
-0.27 15.69 -1.28 135 129 133
-0.27 15.60 -1.28 136 130 132
-0.27 15.50 -1.28 136 130 132
-0.27 15.41 -1.28 135 131 130
-0.27 15.32 -1.28 133 130 125
-0.27 15.23 -1.28 133 130 125
-0.27 15.14 -1.28 135 130 124
-0.27 15.04 -1.28 136 131 125
-0.27 14.95 -1.28 136 131 125
-0.27 14.86 -1.28 137 132 126
-0.27 14.77 -1.28 138 133 127
-0.27 14.67 -1.28 140 135 129
-0.27 14.58 -1.28 143 136 130
-0.27 14.49 -1.28 143 136 130
-0.08 14.50 -1.45 144 141 136
-0.08 14.41 -1.45 141 138 133
-0.08 14.31 -1.45 141 138 133
-0.08 14.22 -1.45 142 139 134
-0.08 14.13 -1.45 141 141 133
0.07 14.12 -1.60 139 139 131
0.07 14.03 -1.60 137 138 130
-0.08 13.85 -1.45 137 138 130
-0.08 13.76 -1.45 138 139 133
-0.08 13.67 -1.45 138 139 133
-0.08 13.57 -1.45 140 139 134
-0.08 13.48 -1.45 141 140 135
-0.08 13.39 -1.45 143 139 136
-0.27 13.20 -1.28 143 139 136
-0.27 13.11 -1.28 143 139 138
-0.27 13.02 -1.28 142 141 139
-0.27 12.93 -1.28 142 141 139
-0.27 12.83 -1.28 143 142 140
-0.27 12.74 -1.28 145 144 142
-0.27 12.65 -1.28 148 147 143
-0.27 12.56 -1.28 149 148 144
-0.27 12.46 -1.28 148 147 143
-0.27 12.37 -1.28 147 146 142
-0.27 12.28 -1.28 146 145 141
-0.27 12.19 -1.28 150 149 145
-0.27 12.10 -1.28 151 150 146
-0.27 12.00 -1.28 149 148 144
-0.27 11.91 -1.28 147 146 142
-0.27 11.82 -1.28 148 147 143
-0.27 11.73 -1.28 149 148 144
-0.27 11.64 -1.28 149 148 144
-0.27 11.54 -1.28 150 147 142
-0.08 11.54 -1.45 151 148 143
-0.08 11.45 -1.45 150 146 143
-0.08 11.35 -1.45 148 144 141
-0.27 11.18 -1.28 148 144 141
-0.27 11.08 -1.28 149 145 142
-0.27 10.99 -1.28 149 146 139
-0.27 10.90 -1.28 140 140 128
-0.27 10.81 -1.28 141 141 129
-0.27 10.72 -1.28 142 142 130
-0.27 10.62 -1.28 142 142 132
-0.27 10.53 -1.28 142 142 134
-0.27 10.44 -1.28 141 140 136
-0.27 10.35 -1.28 140 140 138
-0.27 10.26 -1.28 142 141 139
-0.27 10.16 -1.28 142 141 136
-0.27 10.07 -1.28 144 141 134
-0.27 9.98 -1.28 141 140 135
-0.27 9.89 -1.28 139 138 133
-0.27 9.79 -1.28 137 136 132
-0.27 9.70 -1.28 136 135 131
-0.27 9.61 -1.28 136 136 134
0.07 9.66 -1.60 138 138 136
0.26 9.65 -1.78 132 134 133
-4.04 7.74 2.33 133 135 134
-4.04 7.65 2.33 132 137 133
-4.04 7.57 2.33 130 135 131
-4.04 7.49 2.33 126 132 128
-4.04 7.24 2.33 152 163 157
-4.04 7.15 2.33 155 176 171
-4.04 7.07 2.33 156 176 174
-4.04 6.99 2.33 156 176 175
-4.04 6.90 2.33 155 175 174
-4.04 6.82 2.33 154 174 175
-4.04 6.74 2.33 152 176 178
-4.04 6.65 2.33 152 177 181
-4.04 6.57 2.33 147 175 178
-4.04 6.49 2.33 159 190 193
-4.04 6.40 2.33 155 188 193
-4.04 6.32 2.33 150 188 191
-4.04 6.24 2.33 148 187 192
-4.04 6.15 2.33 144 185 189
-4.04 6.07 2.33 144 189 192
-4.04 5.99 2.33 143 187 190
-4.04 5.91 2.33 145 183 186
-4.04 5.82 2.33 145 180 184
-4.04 5.74 2.33 143 176 181
-4.17 5.61 2.46 141 174 179
-4.17 5.52 2.46 142 173 178
-4.17 5.44 2.46 142 173 178
-4.17 5.36 2.46 144 173 179
-4.17 5.28 2.46 145 174 180
-4.17 5.19 2.46 143 170 177
-4.17 5.11 2.46 140 167 176
-4.17 5.03 2.46 139 166 175
-4.17 4.94 2.46 139 166 175
-4.17 4.86 2.46 138 165 174
-4.17 4.78 2.46 136 165 173
-4.17 4.69 2.46 135 164 172
-4.04 4.66 2.33 139 169 177
-4.04 4.57 2.33 138 168 176
-4.04 4.49 2.33 137 168 173
-4.04 4.41 2.33 136 167 172
-4.04 4.32 2.33 135 166 169
-4.04 4.24 2.33 136 167 170
-4.04 4.16 2.33 137 168 170
-4.04 4.07 2.33 138 169 171
-4.04 3.99 2.33 137 167 169
-4.04 3.91 2.33 138 168 170
-4.17 3.78 2.46 140 170 172
-4.17 3.70 2.46 140 170 172
-4.17 3.62 2.46 140 169 173
-4.17 3.53 2.46 139 168 172
-4.17 3.45 2.46 138 167 171
-4.17 3.37 2.46 138 167 173
-4.17 3.28 2.46 138 166 177
-4.17 3.20 2.46 138 166 178
-4.17 3.12 2.46 134 167 176
-4.17 3.04 2.46 130 167 175
-4.17 2.95 2.46 131 168 176
-4.17 2.87 2.46 132 171 178
-4.17 2.79 2.46 134 173 180
-4.17 2.70 2.46 133 176 182
-4.17 2.62 2.46 132 175 181
-4.17 2.54 2.46 132 175 182
-4.17 2.45 2.46 131 174 181
-4.17 2.37 2.46 129 173 182
-4.17 2.29 2.46 128 172 181
-4.17 2.21 2.46 127 170 179
-4.17 2.12 2.46 129 169 179
-4.17 2.04 2.46 128 168 176
-4.17 1.96 2.46 131 169 178
-4.17 1.87 2.46 133 171 180
-4.17 1.79 2.46 136 174 183
-4.17 1.71 2.46 137 178 184
-4.17 1.62 2.46 137 178 184
-4.17 1.54 2.46 133 176 182
-4.17 1.46 2.46 131 174 180
-4.17 1.38 2.46 129 174 179
-4.17 1.29 2.46 130 175 180
-4.17 1.21 2.46 129 177 181
-4.17 1.13 2.46 129 177 181
-4.17 1.04 2.46 129 177 179
-4.17 0.96 2.46 129 179 180
-4.17 0.88 2.46 130 179 183
-4.17 0.79 2.46 128 177 181
-4.17 0.71 2.46 128 177 182
-4.17 0.63 2.46 128 179 183
-4.17 0.55 2.46 128 179 183
-4.17 0.46 2.46 128 178 185
-4.17 0.38 2.46 129 179 186
-4.17 0.30 2.46 129 182 188
-4.17 0.21 2.46 131 184 190
-4.17 0.13 2.46 133 186 192
-4.17 0.05 2.46 129 182 188
-4.17 -0.04 2.46 125 175 182
-4.17 -0.12 2.46 122 172 179
-4.17 -0.20 2.46 125 174 181
-4.17 -0.28 2.46 128 177 184
-4.17 -0.37 2.46 132 181 188
-4.17 -0.45 2.46 134 181 189
-4.33 -0.56 2.61 128 175 185
-4.33 -0.65 2.61 128 172 183
-4.33 -0.73 2.61 123 170 178
-4.33 -0.81 2.61 123 170 178
-4.33 -0.89 2.61 125 174 181
-4.33 -0.98 2.61 126 176 183
-4.33 -1.06 2.61 126 176 183
-4.33 -1.14 2.61 127 178 182
-4.33 -1.22 2.61 128 179 183
-4.33 -1.31 2.61 129 180 184
-4.33 -1.39 2.61 130 181 185
-4.33 -1.47 2.61 130 181 184
-4.33 -1.55 2.61 129 180 183
-4.33 -1.64 2.61 130 180 181
-4.33 -1.72 2.61 129 178 182
-4.17 -1.78 2.46 124 175 178
-4.17 -1.86 2.46 125 176 180
-4.17 -1.94 2.46 127 178 182
-4.17 -2.03 2.46 131 182 186
-4.17 -2.11 2.46 133 184 188
-4.17 -2.19 2.46 133 184 188
-4.17 -2.28 2.46 131 180 185
-4.33 -2.38 2.61 128 177 182
-4.33 -2.46 2.61 130 179 184
-4.33 -2.55 2.61 131 180 185
-4.33 -2.63 2.61 133 182 187
-4.33 -2.71 2.61 133 182 187
-4.33 -2.79 2.61 132 181 186
-4.33 -2.88 2.61 130 179 184
-4.33 -2.96 2.61 130 179 184
-4.33 -3.04 2.61 127 180 184
-4.33 -3.12 2.61 126 179 183
-4.33 -3.21 2.61 126 180 180
-4.33 -3.29 2.61 129 183 183
-4.33 -3.37 2.61 131 187 184
-4.33 -3.46 2.61 133 189 188
-4.33 -3.54 2.61 133 189 188
-4.33 -3.62 2.61 132 187 190
-4.33 -3.70 2.61 134 187 191
-4.33 -3.79 2.61 133 186 192
-4.33 -3.87 2.61 132 182 191
-4.33 -3.95 2.61 131 181 190
-4.33 -4.03 2.61 132 181 188
-4.33 -4.12 2.61 133 182 189
-4.33 -4.20 2.61 134 181 187
-4.46 -4.29 2.73 134 181 187
-4.46 -4.37 2.73 132 182 189
-4.46 -4.46 2.73 132 182 189
-4.46 -4.54 2.73 132 182 189
-4.46 -4.62 2.73 133 183 190
-4.46 -4.70 2.73 134 184 193
-4.46 -4.79 2.73 135 185 194
-4.46 -4.87 2.73 134 184 193
-4.46 -4.95 2.73 144 194 203
-4.33 -5.02 2.61 140 190 199
-4.33 -5.11 2.61 141 191 200
-4.33 -5.19 2.61 143 193 202
-4.33 -5.27 2.61 142 192 199
-4.33 -5.36 2.61 144 194 201
-4.33 -5.44 2.61 149 200 204
-4.33 -5.52 2.61 148 198 205
-4.33 -5.60 2.61 150 199 206
-4.33 -5.69 2.61 148 196 206
-4.33 -5.77 2.61 156 203 213
-4.17 -5.84 2.46 160 204 215
-4.17 -5.93 2.46 169 214 220
-4.17 -6.01 2.46 168 209 215
-4.17 -6.09 2.46 194 229 233
-4.17 -6.18 2.46 216 246 248
-4.17 -6.26 2.46 182 207 204
-4.17 -6.34 2.46 123 142 140
-0.45 -6.51 -1.10 151 162 158
-0.45 -6.60 -1.10 162 171 168
-0.45 -6.69 -1.10 154 164 163
-0.45 -6.78 -1.10 159 169 168
-0.45 -6.87 -1.10 159 169 168
-0.45 -6.97 -1.10 159 169 168
-0.45 -7.06 -1.10 159 169 168
-0.45 -7.15 -1.10 160 170 171
-0.45 -7.24 -1.10 161 171 172
-0.45 -7.33 -1.10 161 171 172
-0.45 -7.42 -1.10 162 172 173
-0.45 -7.52 -1.10 158 168 169
-0.45 -7.61 -1.10 161 171 172
-0.45 -7.70 -1.10 162 172 171
-0.45 -7.79 -1.10 162 172 171
-0.45 -7.88 -1.10 167 178 174
-0.45 -7.97 -1.10 174 185 181
-0.45 -8.07 -1.10 176 187 183
-0.45 -8.16 -1.10 174 185 181
-0.45 -8.25 -1.10 175 184 181
-0.45 -8.34 -1.10 175 184 181
-0.45 -8.43 -1.10 176 185 182
-0.45 -8.52 -1.10 177 186 183
-0.45 -8.62 -1.10 178 187 184
-0.45 -8.71 -1.10 179 188 185
-0.45 -8.80 -1.10 180 189 186
-0.45 -8.89 -1.10 180 189 186
-0.45 -8.98 -1.10 177 186 183
-0.45 -9.07 -1.10 179 188 185
-0.45 -9.17 -1.10 180 189 186
-0.45 -9.26 -1.10 181 190 187
-0.45 -9.35 -1.10 182 191 188
-0.45 -9.44 -1.10 183 192 189
-0.27 -9.54 -1.28 183 192 187
-0.45 -9.62 -1.10 181 191 183
-0.45 -9.72 -1.10 183 193 184
-0.45 -9.81 -1.10 183 193 185
-0.45 -9.90 -1.10 182 192 184
-0.45 -9.99 -1.10 182 191 186
-0.45 -10.08 -1.10 185 194 189
-0.45 -10.17 -1.10 185 194 191
-0.45 -10.26 -1.10 184 193 190
-0.60 -10.34 -0.96 182 191 188
-0.60 -10.44 -0.96 182 191 188
-0.60 -10.53 -0.96 182 191 188
-0.60 -10.62 -0.96 182 191 188
-0.60 -10.71 -0.96 183 192 187
-0.60 -10.80 -0.96 184 193 188
-0.60 -10.89 -0.96 184 193 188
-0.60 -10.98 -0.96 185 194 191
-0.60 -11.08 -0.96 184 195 191
-0.60 -11.17 -0.96 183 193 192
-0.60 -11.26 -0.96 183 193 192
-0.60 -11.35 -0.96 185 194 193
-0.45 -11.46 -1.10 186 195 194
-0.45 -11.55 -1.10 189 195 193
-0.45 -11.82 -1.10 190 194 193
-0.45 -11.91 -1.10 192 194 193
-0.45 -12.01 -1.10 192 194 193
-0.45 -12.10 -1.10 192 194 191
-0.45 -12.19 -1.10 192 194 191
-0.45 -12.28 -1.10 194 194 192
-0.60 -12.35 -0.96 193 195 192
-0.60 -12.44 -0.96 188 192 191
-0.60 -12.54 -0.96 187 193 191
-0.60 -12.63 -0.96 188 194 192
-0.60 -12.72 -0.96 189 195 193
-0.60 -12.81 -0.96 187 196 193
-0.60 -12.90 -0.96 187 196 193
-0.60 -12.99 -0.96 187 196 193
-0.60 -13.08 -0.96 187 196 193
-0.60 -13.17 -0.96 188 197 194
-0.60 -13.27 -0.96 188 197 194
-0.60 -13.36 -0.96 188 199 195
-0.60 -13.45 -0.96 189 200 196
-0.60 -13.54 -0.96 189 200 196
-0.45 -13.84 -1.10 193 204 196
-0.45 -13.93 -1.10 191 202 194
-0.45 -14.02 -1.10 190 201 195
-0.45 -14.11 -1.10 191 202 196
-0.45 -14.21 -1.10 193 204 200
-0.45 -14.30 -1.10 194 205 201
-0.45 -14.39 -1.10 192 202 201
-0.45 -14.48 -1.10 191 201 200
-0.45 -14.57 -1.10 193 202 201
-0.60 -14.64 -0.96 195 204 203
-0.60 -14.73 -0.96 198 207 204
-0.60 -14.82 -0.96 198 207 204
-0.60 -14.91 -0.96 198 207 202
-0.60 -15.00 -0.96 197 206 201
-0.60 -15.09 -0.96 198 208 200
-0.60 -15.18 -0.96 201 207 203
-0.60 -15.27 -0.96 201 206 202
-0.60 -15.37 -0.96 203 205 204
-0.60 -15.46 -0.96 203 205 204
-0.60 -15.55 -0.96 205 207 206
-0.60 -15.64 -0.96 210 210 210
-0.60 -15.73 -0.96 210 210 210
-0.60 -15.82 -0.96 209 209 209
-0.60 -15.91 -0.96 207 209 208
-0.79 -15.96 -0.78 208 210 209
-0.79 -16.06 -0.78 210 212 211
-0.79 -16.15 -0.78 212 214 213
-0.79 -16.24 -0.78 212 216 215
-0.79 -16.33 -0.78 213 217 216
-0.79 -16.42 -0.78 213 219 217
-0.79 -16.51 -0.78 214 220 218
-0.79 -16.60 -0.78 214 218 217
-0.79 -16.69 -0.78 214 218 217
-0.79 -16.78 -0.78 213 217 216
-0.79 -16.87 -0.78 213 217 216
-0.79 -16.96 -0.78 214 218 217
-0.79 -17.06 -0.78 216 220 219
-0.79 -17.15 -0.78 218 222 221
-0.79 -17.24 -0.78 219 223 222
-0.79 -17.33 -0.78 219 223 222
-0.79 -17.42 -0.78 220 224 223
-0.79 -17.51 -0.78 220 224 223
-0.79 -17.60 -0.78 220 224 223
-0.79 -17.69 -0.78 220 224 223
-0.79 -17.78 -0.78 225 229 228
-0.79 -17.87 -0.78 228 232 231
-0.79 -17.96 -0.78 228 234 232
-0.79 -18.05 -0.78 228 234 232
-0.79 -18.15 -0.78 228 234 232
-0.79 -18.24 -0.78 228 234 232
-0.79 -18.33 -0.78 229 235 233
-0.79 -18.42 -0.78 230 236 234
-0.79 -18.51 -0.78 231 237 235
-0.79 -18.60 -0.78 232 238 236
-0.79 -18.69 -0.78 233 239 237
-0.79 -18.78 -0.78 232 238 236
-0.79 -18.87 -0.78 230 234 233
-0.79 -18.96 -0.78 225 229 228
-0.79 -19.05 -0.78 222 226 225
-0.79 -19.15 -0.78 221 225 224
-0.79 -19.24 -0.78 225 229 228
-0.79 -19.33 -0.78 230 232 231
-0.79 -19.42 -0.78 232 234 233
-0.79 -19.51 -0.78 236 236 236
-0.79 -19.60 -0.78 239 239 239
-0.79 -19.69 -0.78 241 241 241
-0.79 -19.78 -0.78 241 241 241
-0.60 -19.93 -0.96 242 242 242
-0.60 -20.02 -0.96 244 244 244
-0.79 -20.05 -0.78 242 242 242
-0.79 -20.14 -0.78 241 241 241
-0.79 -20.24 -0.78 241 241 241
-0.79 -20.33 -0.78 243 243 243
-0.79 -20.42 -0.78 244 244 244
-0.94 -20.46 -0.63 243 243 243
-0.94 -20.55 -0.63 242 242 242
-0.94 -20.64 -0.63 243 243 243
-0.79 -20.78 -0.78 244 244 244
-0.79 -20.87 -0.78 244 244 244
-0.94 -20.91 -0.63 243 243 243
-0.94 -21.00 -0.63 241 241 241
-0.94 -21.09 -0.63 240 240 240
-0.94 -21.18 -0.63 240 240 240
-0.94 -21.27 -0.63 241 241 241
-0.79 -21.42 -0.78 243 243 243
-0.79 -21.51 -0.78 247 247 247
-0.79 -21.60 -0.78 247 247 247
-0.79 -21.69 -0.78 247 247 247
-0.94 -21.72 -0.63 247 247 247
-0.79 -21.87 -0.78 247 247 247
-0.79 -21.96 -0.78 248 248 248
-0.79 -22.05 -0.78 249 249 249
-0.79 -22.14 -0.78 251 251 251
-0.79 -22.23 -0.78 252 252 252
-0.79 -22.33 -0.78 253 253 253
-0.79 -22.42 -0.78 254 254 254
-0.79 -22.51 -0.78 252 252 252
-0.79 -22.60 -0.78 252 252 252
-0.94 -22.63 -0.63 252 252 252
-0.94 -22.72 -0.63 252 252 252
-0.94 -22.81 -0.63 253 255 254
-0.94 -22.90 -0.63 253 255 254
-0.94 -22.99 -0.63 252 254 253
-0.94 -23.08 -0.63 252 254 253
-0.94 -23.17 -0.63 251 253 252
-0.94 -23.26 -0.63 251 253 252
-0.94 -23.35 -0.63 251 253 252
-0.79 -23.51 -0.78 251 253 252
-0.79 -23.60 -0.78 254 254 254
-0.79 -23.69 -0.78 254 254 254
-0.79 -23.78 -0.78 254 254 254
-0.79 -23.87 -0.78 254 254 254
-0.79 -23.96 -0.78 253 253 253
-0.79 -24.05 -0.78 253 253 253
-0.79 -24.14 -0.78 252 252 252
-0.79 -24.23 -0.78 251 251 251
-0.79 -24.32 -0.78 253 253 253
-0.79 -24.42 -0.78 253 253 253
-0.79 -24.51 -0.78 253 253 253
-0.79 -24.60 -0.78 253 253 253
-0.79 -24.69 -0.78 253 253 253
-0.94 -24.71 -0.63 253 253 253
-0.94 -24.80 -0.63 254 254 254
-0.94 -24.89 -0.63 254 254 254
-0.94 -24.98 -0.63 254 254 254
-0.94 -25.07 -0.63 253 253 253
-0.94 -25.16 -0.63 252 252 252
-0.94 -25.25 -0.63 252 252 252
-0.94 -25.34 -0.63 252 252 252
-0.94 -25.43 -0.63 253 253 253
-0.94 -25.52 -0.63 253 253 253
-0.94 -25.61 -0.63 254 254 254
-0.94 -25.70 -0.63 254 254 254
-0.94 -25.80 -0.63 253 253 253
-0.94 -25.89 -0.63 253 253 253
-0.94 -25.98 -0.63 253 253 253
-0.94 -26.07 -0.63 253 253 253
-0.94 -26.16 -0.63 253 253 253
-0.94 -26.25 -0.63 254 254 254
-0.94 -26.34 -0.63 254 254 254
-0.94 -26.43 -0.63 253 253 253
-0.94 -26.52 -0.63 253 253 253
-0.94 -26.61 -0.63 253 253 253
-0.94 -26.70 -0.63 253 253 253
-0.94 -26.79 -0.63 253 253 253
-0.94 -26.88 -0.63 252 252 252
-0.94 -26.97 -0.63 253 253 253
-0.94 -27.06 -0.63 253 253 253
-0.94 -27.15 -0.63 253 253 253
-0.94 -27.24 -0.63 252 252 252
-0.94 -27.33 -0.63 251 251 251
-0.94 -27.42 -0.63 251 251 251
-0.94 -27.51 -0.63 250 250 250
-0.94 -27.61 -0.63 250 250 250
-0.94 -27.70 -0.63 252 252 252
-0.94 -27.79 -0.63 252 252 252
-0.94 -27.88 -0.63 251 251 251
-0.94 -27.97 -0.63 251 251 251
-0.94 -28.06 -0.63 251 251 251
-0.94 -28.15 -0.63 252 252 252
-0.94 -28.24 -0.63 252 252 252
-0.94 -28.33 -0.63 252 252 252
-0.94 -28.42 -0.63 251 251 251
-0.94 -28.51 -0.63 250 250 250
-0.79 -28.69 -0.78 251 251 251
-0.79 -28.78 -0.78 252 252 252
-0.94 -28.78 -0.63 253 253 253
-0.94 -28.87 -0.63 252 252 252
-0.94 -28.96 -0.63 251 251 251
-0.94 -29.05 -0.63 250 250 250
-0.94 -29.14 -0.63 250 250 250
-0.94 -29.23 -0.63 250 250 250
-0.94 -29.32 -0.63 249 249 249
-0.94 -29.42 -0.63 248 248 248
-0.94 -29.51 -0.63 247 247 247
-0.94 -29.60 -0.63 245 245 245
-0.94 -29.69 -0.63 244 244 244
-0.94 -29.78 -0.63 246 246 246
-0.94 -29.87 -0.63 246 246 246
-0.94 -29.96 -0.63 247 247 247
-0.94 -30.05 -0.63 247 247 247
-0.94 -30.14 -0.63 247 247 247
-0.94 -30.23 -0.63 248 248 248
-0.94 -30.32 -0.63 248 248 248
-0.94 -30.41 -0.63 248 248 248
-0.79 -30.59 -0.78 245 245 245
-0.79 -30.68 -0.78 246 246 246
-0.79 -30.78 -0.78 246 246 246
-0.79 -30.87 -0.78 245 245 245
-0.79 -30.96 -0.78 244 244 244
-0.79 -31.05 -0.78 243 243 243
-0.79 -31.14 -0.78 242 242 242
-0.79 -31.23 -0.78 248 248 248
-0.79 -31.32 -0.78 247 247 247
-0.79 -31.41 -0.78 245 245 245
-0.79 -31.50 -0.78 243 243 243
-0.79 -31.59 -0.78 242 242 242
-0.79 -31.68 -0.78 241 241 241
-0.79 -31.78 -0.78 241 241 241
-0.94 -31.77 -0.63 241 241 241
-0.94 -31.86 -0.63 241 243 242
-0.94 -31.95 -0.63 242 244 243
-0.94 -32.04 -0.63 242 244 243
-0.94 -32.13 -0.63 242 244 243
-0.94 -32.22 -0.63 242 242 242
-0.94 -32.31 -0.63 240 240 240
-0.94 -32.40 -0.63 239 239 239
-0.94 -32.49 -0.63 238 238 238
-0.94 -32.58 -0.63 238 236 237
-0.94 -32.67 -0.63 238 236 237
-0.94 -32.76 -0.63 241 237 238
-0.94 -32.85 -0.63 241 237 238
-0.94 -32.94 -0.63 242 238 239
-0.94 -33.04 -0.63 244 240 241
-1.12 -33.01 -0.46 246 242 243
-1.12 -33.10 -0.46 239 237 238
-1.12 -33.19 -0.46 243 241 242
-1.12 -33.28 -0.46 245 243 244
-1.12 -33.37 -0.46 245 243 244
-1.12 -33.46 -0.46 244 242 243
-1.12 -33.55 -0.46 244 242 243
-1.12 -33.64 -0.46 244 242 243
-1.12 -33.73 -0.46 242 240 241
-1.12 -33.82 -0.46 243 241 242
-1.12 -33.91 -0.46 243 241 242
-1.12 -34.00 -0.46 243 241 242
-1.12 -34.09 -0.46 244 242 243
-1.12 -34.18 -0.46 243 241 242
-1.12 -34.27 -0.46 241 239 240
-1.12 -34.36 -0.46 243 241 242
-1.12 -34.45 -0.46 246 244 245
-1.12 -34.54 -0.46 0 0 0
-1.12 -34.63 -0.46 0 0 0
-1.12 -34.72 -0.46 0 0 0
-1.12 -34.81 -0.46 0 0 0
-0.94 -35.03 -0.63 0 0 0
-0.94 -35.48 -0.63 0 0 0
-0.94 -35.57 -0.63 0 0 0
-0.94 -35.66 -0.63 0 0 0
-0.94 -35.75 -0.63 0 0 0
-0.31 20.94 -1.36 102 92 82
-0.49 20.71 -1.18 128 118 108
-0.49 20.62 -1.18 124 116 105
-0.49 20.53 -1.18 126 118 107
-0.49 20.44 -1.18 127 118 109
-0.31 20.48 -1.36 124 115 106
-0.31 20.38 -1.36 123 114 107
-0.31 20.29 -1.36 124 115 108
-0.31 20.20 -1.36 125 116 109
-0.31 20.11 -1.36 124 115 108
-0.31 20.02 -1.36 126 115 111
-0.31 19.92 -1.36 126 115 111
-0.31 19.83 -1.36 126 117 112
-0.31 19.74 -1.36 127 120 114
-0.31 19.65 -1.36 128 121 115
-0.31 19.55 -1.36 126 121 115
-0.49 19.34 -1.18 125 120 114
-0.49 19.25 -1.18 121 116 110
-0.49 19.16 -1.18 123 118 112
-0.49 19.06 -1.18 125 120 114
-0.49 18.97 -1.18 125 120 114
-0.49 18.88 -1.18 126 119 113
-0.49 18.79 -1.18 127 120 114
-0.31 18.82 -1.36 130 123 117
-0.31 18.73 -1.36 132 124 121
-0.49 18.51 -1.18 127 122 118
-0.49 18.42 -1.18 128 123 120
-0.49 18.33 -1.18 128 123 119
-0.49 18.24 -1.18 128 123 119
-0.49 18.15 -1.18 127 123 114
-0.49 18.06 -1.18 128 124 115
-0.49 17.96 -1.18 129 125 114
-0.49 17.87 -1.18 130 126 115
-0.49 17.78 -1.18 131 127 116
-0.49 17.69 -1.18 130 126 115
-0.31 17.71 -1.36 128 124 115
-0.31 17.62 -1.36 128 123 117
-0.31 17.53 -1.36 129 124 120
-0.31 17.44 -1.36 130 125 122
-0.31 17.34 -1.36 130 125 122
-0.31 17.25 -1.36 127 123 120
-0.31 17.16 -1.36 127 123 120
-0.31 17.07 -1.36 128 125 120
-0.31 16.98 -1.36 129 126 121
-0.13 17.00 -1.53 129 126 119
-0.13 16.90 -1.53 130 127 120
-0.13 16.81 -1.53 131 127 118
-0.31 16.61 -1.36 130 126 117
-0.31 16.52 -1.36 135 128 120
-0.13 16.53 -1.53 135 128 122
-0.13 16.44 -1.53 134 127 121
-0.31 16.24 -1.36 133 125 122
-0.31 16.15 -1.36 133 123 122
-0.31 16.06 -1.36 133 123 122
-0.31 15.96 -1.36 134 124 125
-0.31 15.87 -1.36 134 123 127
-0.31 15.78 -1.36 134 125 128
-0.49 15.58 -1.18 134 125 130
-0.49 15.49 -1.18 133 127 129
-0.49 15.40 -1.18 133 127 129
-0.49 15.31 -1.18 134 129 126
-0.49 15.21 -1.18 134 129 125
-0.49 15.12 -1.18 135 130 126
-0.31 15.14 -1.36 137 132 126
-0.31 15.04 -1.36 137 132 126
-0.31 14.95 -1.36 137 132 126
-0.31 14.86 -1.36 137 132 126
-0.31 14.77 -1.36 137 132 126
-0.31 14.67 -1.36 138 133 127
-0.31 14.58 -1.36 138 133 127
-0.31 14.49 -1.36 139 134 130
-0.31 14.40 -1.36 140 137 132
-0.31 14.31 -1.36 138 134 131
-0.31 14.21 -1.36 137 134 129
-0.31 14.12 -1.36 139 136 131
-0.31 14.03 -1.36 138 137 132
-0.13 14.04 -1.53 138 137 132
-0.13 13.94 -1.53 137 138 132
-0.13 13.85 -1.53 138 139 133
-0.31 13.66 -1.36 138 139 133
-0.31 13.57 -1.36 138 139 133
-0.31 13.48 -1.36 140 139 135
-0.31 13.39 -1.36 140 139 135
-0.31 13.29 -1.36 143 139 138
-0.31 13.20 -1.36 143 139 138
-0.31 13.11 -1.36 143 139 138
-0.49 12.92 -1.18 143 142 140
-0.49 12.83 -1.18 143 142 140
-0.49 12.74 -1.18 142 141 139
-0.49 12.65 -1.18 143 142 140
-0.49 12.56 -1.18 145 144 142
-0.49 12.47 -1.18 145 144 142
-0.49 12.37 -1.18 145 144 140
-0.31 12.37 -1.36 145 144 140
-0.31 12.28 -1.36 145 144 140
-0.31 12.19 -1.36 147 146 142
-0.31 12.10 -1.36 148 147 143
-0.31 12.00 -1.36 146 145 141
-0.31 11.91 -1.36 144 143 138
-0.31 11.82 -1.36 144 143 138
-0.31 11.73 -1.36 145 144 139
-0.31 11.64 -1.36 145 144 139
-0.31 11.54 -1.36 148 145 140
-0.31 11.45 -1.36 149 146 141
-0.31 11.36 -1.36 148 145 140
-0.31 11.27 -1.36 146 143 138
-0.31 11.18 -1.36 145 142 137
-0.31 11.08 -1.36 146 143 138
-0.31 10.99 -1.36 146 143 134
-0.31 10.90 -1.36 143 144 130
-0.31 10.81 -1.36 143 144 130
-0.31 10.72 -1.36 144 144 132
-0.49 10.54 -1.18 144 144 134
-0.49 10.45 -1.18 143 143 135
-0.49 10.36 -1.18 142 141 137
-0.49 10.27 -1.18 142 141 137
-0.49 10.17 -1.18 141 140 136
-0.49 10.08 -1.18 141 138 133
-0.49 9.99 -1.18 142 139 132
-0.49 9.90 -1.18 139 138 133
-0.49 9.81 -1.18 138 137 132
-0.49 9.72 -1.18 137 136 132
-0.49 9.62 -1.18 137 136 132
-0.31 9.61 -1.36 137 137 135
-0.13 9.60 -1.53 138 138 136
0.03 9.57 -1.68 134 136 133
-4.08 7.74 2.26 134 136 133
-4.08 7.65 2.26 131 136 132
-4.08 7.57 2.26 129 134 130
-4.08 7.49 2.26 125 130 124
-4.08 7.40 2.26 122 127 121
-4.08 7.32 2.26 123 130 123
-4.08 7.24 2.26 126 135 130
-4.08 7.15 2.26 131 143 139
-4.08 7.07 2.26 132 144 142
-4.08 6.99 2.26 134 146 146
-4.08 6.90 2.26 135 147 147
-4.08 6.82 2.26 136 147 149
-4.08 6.74 2.26 135 150 153
-4.08 6.65 2.26 137 152 157
-4.08 6.57 2.26 151 170 174
-4.08 6.49 2.26 135 155 162
-4.08 6.40 2.26 145 168 174
-4.08 6.32 2.26 152 179 186
-4.08 6.24 2.26 158 187 195
-4.08 6.15 2.26 158 188 196
-4.08 6.07 2.26 159 194 200
-4.08 5.99 2.26 159 192 199
-4.08 5.91 2.26 173 204 209
-4.08 5.82 2.26 176 205 211
-4.08 5.74 2.26 181 208 215
-4.21 5.61 2.38 186 213 220
-4.21 5.52 2.38 192 216 226
-4.21 5.44 2.38 195 219 229
-4.21 5.36 2.38 197 219 230
-4.21 5.28 2.38 198 220 231
-4.21 4.86 2.38 206 228 241
-4.21 4.78 2.38 206 228 241
-4.21 4.69 2.38 205 229 241
-4.21 4.61 2.38 194 221 232
-4.21 4.53 2.38 195 223 234
-4.08 4.49 2.26 197 225 236
-4.08 4.41 2.26 196 224 235
-4.08 4.32 2.26 193 222 230
-4.08 4.24 2.26 190 219 227
-4.08 4.16 2.26 190 217 224
-4.08 4.07 2.26 190 217 224
-4.08 3.99 2.26 189 217 221
-4.21 3.86 2.38 188 216 220
-4.21 3.78 2.38 188 215 222
-4.21 3.70 2.38 186 213 220
-4.21 3.62 2.38 184 211 218
-4.21 3.53 2.38 182 209 216
-4.21 3.45 2.38 181 208 217
-4.37 3.32 2.53 183 207 217
-4.37 3.24 2.53 182 206 216
-4.37 3.15 2.53 183 205 216
-4.37 3.07 2.53 181 206 213
-4.37 2.99 2.53 175 204 210
-4.37 2.91 2.53 174 203 209
-4.37 2.82 2.53 172 203 208
-4.21 2.79 2.38 172 203 208
-4.21 2.70 2.38 162 197 201
-4.21 2.62 2.38 161 196 200
-4.21 2.54 2.38 161 196 202
-4.21 2.45 2.38 160 195 201
-4.21 2.37 2.38 159 193 202
-4.21 2.29 2.38 158 192 201
-4.21 2.21 2.38 156 190 199
-4.21 2.12 2.38 156 189 198
-4.21 2.04 2.38 158 191 198
-4.21 1.96 2.38 160 190 198
-4.21 1.87 2.38 158 191 198
-4.21 1.79 2.38 157 190 197
-4.21 1.71 2.38 157 190 197
-4.21 1.62 2.38 155 188 195
-4.21 1.54 2.38 153 188 192
-4.21 1.46 2.38 151 186 190
-4.21 1.38 2.38 151 189 192
-4.37 1.25 2.53 151 189 192
-4.37 1.17 2.53 150 190 192
-4.37 1.09 2.53 148 188 190
-4.21 1.04 2.38 142 182 184
-4.21 0.96 2.38 140 181 183
-4.21 0.88 2.38 140 181 183
-4.21 0.79 2.38 144 185 189
-4.21 0.71 2.38 144 185 189
-4.21 0.63 2.38 144 185 189
-4.21 0.55 2.38 143 184 188
-4.21 0.46 2.38 140 184 187
-4.21 0.38 2.38 139 183 186
-4.21 0.30 2.38 140 183 189
-4.21 0.21 2.38 141 184 190
-4.21 0.13 2.38 140 183 189
-4.21 0.05 2.38 139 182 188
-4.21 -0.04 2.38 140 181 187
-4.21 -0.12 2.38 139 180 186
-4.21 -0.20 2.38 140 179 186
-4.21 -0.28 2.38 140 179 186
-4.21 -0.37 2.38 141 178 186
-4.21 -0.45 2.38 140 177 186
-4.37 -0.56 2.53 140 177 193
-4.37 -0.65 2.53 139 176 194
-4.37 -0.73 2.53 139 176 194
-4.37 -0.81 2.53 139 176 194
-4.37 -0.89 2.53 140 179 196
-4.37 -0.98 2.53 140 182 198
-4.37 -1.06 2.53 140 182 198
-4.37 -1.14 2.53 140 182 196
-4.37 -1.22 2.53 140 182 196
-4.37 -1.31 2.53 142 181 196
-4.37 -1.39 2.53 141 180 195
-4.37 -1.47 2.53 140 179 194
-4.37 -1.55 2.53 139 178 193
-4.37 -1.64 2.53 140 178 191
-4.37 -1.72 2.53 138 178 190
-4.37 -1.80 2.53 141 183 195
