ply
format ascii 1.0
element vertex 1583
property float x
property float y
property float z
property uchar red
property uchar green
property uchar blue
end_header
-15.31 0.56 0.31 255 255 255
-32.96 -20.40 0.92 255 255 255
-15.43 0.71 0.64 255 255 255
-33.55 -17.77 0.70 255 255 255
-31.40 -20.23 1.08 255 255 255
-34.96 -20.87 0.74 255 255 255
-32.78 -20.18 1.47 255 255 255
-37.00 -21.15 1.17 255 255 255
-25.66 -12.57 0.33 255 255 255
-35.00 -20.89 1.33 255 255 255
-33.57 -17.76 -0.32 255 255 255
-33.03 -20.44 -0.18 255 255 255
8.81 24.18 2.75 255 255 255
-34.80 -20.65 -0.41 255 255 255
-25.66 -12.57 0.63 255 255 255
-33.47 -17.64 0.20 255 255 255
-15.15 1.41 1.44 255 255 255
-33.09 -20.49 0.37 255 255 255
20.86 36.05 2.14 255 255 255
13.04 35.01 2.62 255 255 255
-14.62 1.30 1.27 255 255 255
-12.45 5.00 2.34 255 255 255
9.75 34.53 1.74 255 255 255
-14.72 0.85 1.24 255 255 255
13.09 35.03 1.49 255 255 255
-15.16 0.70 1.13 255 255 255
-15.27 0.90 1.20 255 255 255
-15.21 0.64 0.87 255 255 255
-31.48 -20.24 0.55 255 255 255
-15.35 0.79 1.03 255 255 255
-35.03 -20.85 0.16 255 255 255
-15.27 0.58 0.30 255 255 255
-33.08 -20.43 0.92 255 255 255
-15.43 0.70 0.64 255 255 255
-37.08 -21.13 0.55 255 255 255
-31.51 -20.25 1.08 255 255 255
-35.08 -20.89 0.74 255 255 255
-32.81 -20.09 1.47 255 255 255
-37.09 -21.12 1.17 255 255 255
-25.66 -12.51 1.52 255 255 255
-35.12 -20.91 1.33 255 255 255
-25.75 -12.62 0.32 255 255 255
-33.09 -20.39 -0.18 255 255 255
9.00 24.18 2.76 255 255 255
-34.94 -20.69 -0.42 255 255 255
-25.73 -12.58 0.62 255 255 255
17.03 35.61 2.40 255 255 255
-33.59 -17.66 0.20 255 255 255
19.20 46.85 3.34 255 255 255
-33.13 -20.42 0.37 255 255 255
21.14 36.09 2.14 255 255 255
13.29 35.04 2.62 255 255 255
-14.60 1.30 1.27 255 255 255
-12.62 4.71 2.30 255 255 255
10.02 34.63 1.75 255 255 255
-14.71 0.85 1.24 255 255 255
13.34 35.07 1.49 255 255 255
-15.14 0.71 1.13 255 255 255
-15.26 0.88 1.20 255 255 255
-15.20 0.64 0.87 255 255 255
-31.60 -20.25 0.55 255 255 255
-15.34 0.78 1.03 255 255 255
-35.17 -20.87 0.15 255 255 255
-15.28 0.56 0.30 255 255 255
-33.18 -20.42 0.92 255 255 255
-15.37 0.74 0.63 255 255 255
-37.13 -21.04 0.55 255 255 255
-31.64 -20.28 1.07 255 255 255
-35.22 -20.91 0.74 255 255 255
-32.82 -19.97 1.47 255 255 255
-25.68 -12.47 1.52 255 255 255
-35.28 -20.93 1.33 255 255 255
-25.79 -12.60 0.32 255 255 255
-33.22 -20.41 -0.18 255 255 255
9.19 24.18 2.76 255 255 255
-35.04 -20.67 -0.42 255 255 255
-25.81 -12.61 0.62 255 255 255
17.31 35.65 2.40 255 255 255
19.30 46.61 3.33 255 255 255
-33.26 -20.44 0.37 255 255 255
21.44 36.14 2.15 255 255 255
13.54 35.08 2.63 255 255 255
-12.59 4.72 2.31 255 255 255
-14.58 1.29 1.27 255 255 255
-15.11 1.41 1.33 255 255 255
-14.70 0.84 1.24 255 255 255
6.16 26.27 1.44 255 255 255
-15.11 0.71 1.13 255 255 255
-12.21 5.20 2.04 255 255 255
-15.25 0.86 1.20 255 255 255
-15.19 0.64 0.87 255 255 255
-31.70 -20.26 0.55 255 255 255
-15.34 0.76 1.03 255 255 255
-35.31 -20.90 0.15 255 255 255
-15.25 0.56 0.30 255 255 255
-33.32 -20.46 0.92 255 255 255
-15.40 0.69 0.64 255 255 255
-37.23 -21.02 0.55 255 255 255
-31.77 -20.33 1.07 255 255 255
-35.36 -20.94 0.74 255 255 255
-32.81 -19.85 1.47 255 255 255
-37.28 -21.05 1.17 255 255 255
-25.68 -12.39 1.52 255 255 255
-31.74 -20.28 -0.51 255 255 255
-35.40 -20.95 1.33 255 255 255
-33.38 -20.48 -0.19 255 255 255
-35.20 -20.72 -0.43 255 255 255
-31.77 -20.29 0.02 255 255 255
17.62 35.69 2.41 255 255 255
-37.27 -21.00 -0.08 255 255 255
19.80 46.87 3.35 255 255 255
-33.40 -20.48 0.36 255 255 255
21.79 36.16 2.15 255 255 255
13.79 35.09 2.63 255 255 255
-14.55 1.29 1.27 255 255 255
-12.59 4.65 2.30 255 255 255
10.43 34.63 1.75 255 255 255
-14.66 0.85 1.24 255 255 255
6.14 26.03 1.44 255 255 255
-12.16 5.20 2.04 255 255 255
-15.09 0.72 1.12 255 255 255
-15.25 0.85 1.20 255 255 255
-15.17 0.63 0.86 255 255 255
-31.81 -20.27 0.55 255 255 255
-15.34 0.73 1.04 255 255 255
-35.45 -20.91 0.14 255 255 255
-15.23 0.56 0.30 255 255 255
-33.55 -20.59 0.91 255 255 255
-15.41 0.65 0.65 255 255 255
-37.44 -21.08 0.54 255 255 255
-25.69 -12.34 1.23 255 255 255
-35.52 -20.95 0.73 255 255 255
-32.85 -19.76 1.47 255 255 255
-37.45 -21.07 1.17 255 255 255
-25.69 -12.32 1.52 255 255 255
-25.70 -12.34 0.34 255 255 255
-35.54 -20.96 1.33 255 255 255
-33.50 -20.49 -0.20 255 255 255
-35.38 -20.77 -0.44 255 255 255
3.56 22.89 2.97 255 255 255
-25.70 -12.33 0.64 255 255 255
17.87 35.73 2.41 255 255 255
-37.44 -21.02 -0.09 255 255 255
-33.67 -20.66 0.35 255 255 255
22.12 36.24 2.15 255 255 255
14.06 35.16 2.64 255 255 255
-12.55 4.67 2.30 255 255 255
-14.53 1.29 1.27 255 255 255
-0.96 19.65 1.56 255 255 255
-14.64 0.85 1.24 255 255 255
6.26 25.97 1.44 255 255 255
-12.14 5.18 2.04 255 255 255
-15.07 0.72 1.12 255 255 255
-15.24 0.83 1.20 255 255 255
-15.14 0.64 0.86 255 255 255
-25.71 -12.31 0.93 255 255 255
-15.34 0.71 1.04 255 255 255
-35.60 -20.95 0.13 255 255 255
-0.94 19.61 2.86 255 255 255
-15.22 0.56 0.29 255 255 255
-15.41 0.63 0.65 255 255 255
-37.52 -21.04 0.54 255 255 255
-25.71 -12.31 1.23 255 255 255
-35.64 -20.98 0.73 255 255 255
-32.94 -19.76 1.47 255 255 255
-37.60 -21.10 1.17 255 255 255
-25.69 -12.27 1.52 255 255 255
-35.69 -21.00 1.33 255 255 255
-25.72 -12.30 0.34 255 255 255
-33.61 -20.50 -0.20 255 255 255
-35.45 -20.74 -0.45 255 255 255
3.60 22.74 2.96 255 255 255
-25.72 -12.29 0.64 255 255 255
18.18 35.78 2.42 255 255 255
-37.65 -21.09 -0.10 255 255 255
-0.90 19.60 2.21 255 255 255
-33.77 -20.65 0.35 255 255 255
22.43 36.29 2.16 255 255 255
14.31 35.20 2.64 255 255 255
-14.51 1.29 1.27 255 255 255
-12.43 4.75 2.32 255 255 255
-0.89 19.59 1.56 255 255 255
-14.61 0.85 1.24 255 255 255
6.24 25.76 1.44 255 255 255
-12.03 5.26 2.05 255 255 255
-15.05 0.72 1.12 255 255 255
-15.23 0.82 1.20 255 255 255
-15.12 0.64 0.86 255 255 255
-32.05 -20.32 0.54 255 255 255
-15.32 0.71 1.04 255 255 255
-35.74 -20.95 0.13 255 255 255
-15.19 0.56 0.29 255 255 255
-0.91 19.51 2.85 255 255 255
-33.87 -20.70 0.91 255 255 255
-15.41 0.61 0.65 255 255 255
-37.68 -21.05 0.53 255 255 255
-35.81 -21.00 0.73 255 255 255
-33.09 -19.80 1.47 255 255 255
-37.73 -21.08 1.17 255 255 255
-25.71 -12.21 1.52 255 255 255
-35.85 -21.03 1.33 255 255 255
-32.07 -20.30 -0.53 255 255 255
-33.74 -20.50 -0.21 255 255 255
-35.61 -20.76 -0.45 255 255 255
3.72 22.71 2.96 255 255 255
-32.08 -20.29 0.01 255 255 255
18.49 35.82 2.42 255 255 255
-37.91 -21.21 -0.11 255 255 255
-0.81 19.53 2.21 255 255 255
-33.91 -20.68 0.34 255 255 255
22.78 36.31 2.16 255 255 255
-14.49 1.28 1.27 255 255 255
-0.76 19.58 1.56 255 255 255
-14.59 0.85 1.24 255 255 255
-3.86 13.91 1.37 255 255 255
-12.00 5.25 2.05 255 255 255
-15.02 0.72 1.12 255 255 255
-15.23 0.80 1.20 255 255 255
-32.16 -20.32 0.54 255 255 255
-15.33 0.69 1.04 255 255 255
-35.86 -20.95 0.13 255 255 255
-15.18 0.56 0.29 255 255 255
-0.81 19.46 2.85 255 255 255
-33.96 -20.69 0.91 255 255 255
-15.40 0.61 0.65 255 255 255
-38.14 -21.36 0.52 255 255 255
-32.21 -20.36 1.07 255 255 255
-35.88 -20.94 0.73 255 255 255
-33.19 -19.78 1.47 255 255 255
-38.08 -21.29 1.16 255 255 255
-25.72 -12.16 1.52 255 255 255
-35.89 -20.94 1.33 255 255 255
-32.17 -20.30 -0.53 255 255 255
-33.85 -20.51 -0.21 255 255 255
9.25 23.32 2.74 255 255 255
-35.76 -20.79 -0.46 255 255 255
2.92 21.61 2.89 255 255 255
-32.19 -20.30 0.00 255 255 255
18.77 35.83 2.42 255 255 255
-38.17 -21.32 -0.13 255 255 255
-0.68 19.54 2.21 255 255 255
-34.02 -20.68 0.34 255 255 255
-3.81 13.86 1.87 255 255 255
-11.89 5.34 2.41 255 255 255
-14.46 1.29 1.27 255 255 255
11.38 34.80 1.76 255 255 255
-14.56 0.85 1.24 255 255 255
-15.00 0.73 1.12 255 255 255
-11.92 5.29 2.06 255 255 255
-15.21 0.79 1.20 255 255 255
-15.07 0.65 0.86 255 255 255
-32.28 -20.35 0.53 255 255 255
-15.32 0.67 1.04 255 255 255
-35.91 -20.88 0.13 255 255 255
-15.15 0.57 0.28 255 255 255
-34.10 -20.72 0.90 255 255 255
-15.39 0.60 0.65 255 255 255
-38.31 -21.38 0.51 255 255 255
-32.30 -20.36 1.07 255 255 255
-36.08 -21.01 0.72 255 255 255
-33.34 -19.83 1.47 255 255 255
-38.26 -21.32 1.16 255 255 255
-25.75 -12.12 1.52 255 255 255
-32.29 -20.32 -0.54 255 255 255
-36.13 -21.05 1.33 255 255 255
-33.97 -20.52 -0.22 255 255 255
6.68 20.74 2.59 255 255 255
-35.93 -20.83 -0.47 255 255 255
-3.81 13.79 2.37 255 255 255
-32.30 -20.31 -0.00 255 255 255
19.05 35.87 2.43 255 255 255
-38.35 -21.35 -0.14 255 255 255
-34.16 -20.71 0.33 255 255 255
-3.79 13.78 1.87 255 255 255
-11.87 5.31 2.41 255 255 255
-14.44 1.29 1.27 255 255 255
11.63 34.84 1.76 255 255 255
-14.53 0.85 1.24 255 255 255
-3.79 13.76 1.37 255 255 255
-11.84 5.34 2.07 255 255 255
-14.97 0.73 1.12 255 255 255
-15.21 0.78 1.20 255 255 255
-14.97 0.73 0.84 255 255 255
-32.38 -20.36 0.53 255 255 255
-15.31 0.66 1.04 255 255 255
-36.15 -21.01 0.11 255 255 255
-15.13 0.56 0.28 255 255 255
-11.71 5.49 1.85 255 255 255
-34.22 -20.74 0.90 255 255 255
-15.37 0.59 0.65 255 255 255
-38.48 -21.41 0.51 255 255 255
-32.42 -20.40 1.06 255 255 255
-36.23 -21.06 0.72 255 255 255
-33.46 -19.86 1.47 255 255 255
-38.49 -21.41 1.16 255 255 255
-36.27 -21.07 1.33 255 255 255
-32.39 -20.33 -0.55 255 255 255
-34.11 -20.55 -0.23 255 255 255
6.73 20.64 2.59 255 255 255
-36.05 -20.83 -0.48 255 255 255
-3.78 13.71 2.37 255 255 255
-32.41 -20.34 -0.01 255 255 255
19.38 35.99 2.44 255 255 255
-38.46 -21.35 -0.14 255 255 255
-34.28 -20.73 0.33 255 255 255
6.72 20.60 1.81 255 255 255
-3.74 13.72 1.87 255 255 255
-14.41 1.29 1.27 255 255 255
-14.51 0.86 1.24 255 255 255
-3.74 13.71 1.37 255 255 255
-14.95 0.73 1.12 255 255 255
-15.18 0.79 1.20 255 255 255
-14.94 0.74 0.84 255 255 255
-32.59 -20.51 0.52 255 255 255
-15.29 0.67 1.04 255 255 255
-33.16 -17.82 0.33 255 255 255
-11.71 5.45 1.85 255 255 255
-15.11 0.56 0.28 255 255 255
-34.36 -20.76 0.90 255 255 255
-15.35 0.59 0.65 255 255 255
-38.63 -21.43 0.51 255 255 255
-32.62 -20.52 1.06 255 255 255
-36.37 -21.07 0.72 255 255 255
-33.57 -19.87 1.47 255 255 255
-38.67 -21.45 1.16 255 255 255
-36.42 -21.10 1.33 255 255 255
-32.60 -20.46 -0.57 255 255 255
-34.23 -20.56 -0.23 255 255 255
-33.25 -17.87 -0.18 255 255 255
-3.71 13.67 2.37 255 255 255
-32.62 -20.46 -0.02 255 255 255
-38.65 -21.38 -0.15 255 255 255
-34.42 -20.76 0.32 255 255 255
6.85 20.55 1.81 255 255 255
-3.69 13.68 1.87 255 255 255
-14.38 1.29 1.27 255 255 255
12.09 34.91 1.76 255 255 255
-14.47 0.87 1.24 255 255 255
-3.67 13.68 1.37 255 255 255
-14.93 0.73 1.12 255 255 255
-15.18 0.77 1.20 255 255 255
-14.89 0.77 0.84 255 255 255
-15.27 0.67 1.04 255 255 255
-33.21 -17.77 0.33 255 255 255
-15.09 0.57 0.27 255 255 255
-34.49 -20.78 0.90 255 255 255
-15.35 0.58 0.65 255 255 255
-38.80 -21.46 0.50 255 255 255
-36.52 -21.10 0.71 255 255 255
-33.70 -19.88 1.47 255 255 255
-38.83 -21.45 1.16 255 255 255
-32.68 -20.43 -0.57 255 255 255
-36.56 -21.12 1.33 255 255 255
-34.37 -20.59 -0.24 255 255 255
-33.25 -17.77 -0.18 255 255 255
-3.60 13.68 2.37 255 255 255
-32.72 -20.46 -0.03 255 255 255
19.97 36.04 2.44 255 255 255
-38.82 -21.40 -0.16 255 255 255
-34.54 -20.77 0.32 255 255 255
-3.57 13.70 1.87 255 255 255
-14.36 1.29 1.27 255 255 255
12.37 34.95 1.76 255 255 255
-14.44 0.87 1.24 255 255 255
-3.56 13.68 1.37 255 255 255
-14.91 0.73 1.12 255 255 255
-15.17 0.76 1.20 255 255 255
-14.87 0.77 0.83 255 255 255
-32.71 -20.39 0.52 255 255 255
-15.25 0.67 1.04 255 255 255
-33.29 -17.75 0.33 255 255 255
-15.06 0.58 0.26 255 255 255
-34.64 -20.81 0.89 255 255 255
-15.32 0.58 0.64 255 255 255
-38.96 -21.45 0.50 255 255 255
-32.74 -20.40 1.06 255 255 255
-33.45 -17.89 0.83 255 255 255
-33.85 -19.92 1.47 255 255 255
-38.97 -21.45 1.16 255 255 255
-32.74 -20.38 1.60 255 255 255
-36.71 -21.14 1.32 255 255 255
-32.78 -20.42 -0.57 255 255 255
-34.51 -20.62 -0.25 255 255 255
10.00 23.14 2.75 255 255 255
-33.26 -17.66 -0.17 255 255 255
-32.77 -20.39 -0.02 255 255 255
20.28 36.09 2.45 255 255 255
-38.99 -21.43 -0.16 255 255 255
-34.68 -20.79 0.32 255 255 255
16.14 35.44 2.68 255 255 255
-14.33 1.29 1.27 255 255 255
12.59 34.98 1.77 255 255 255
-14.42 0.86 1.24 255 255 255
-14.89 0.73 1.12 255 255 255
-15.15 0.76 1.20 255 255 255
-14.88 0.74 0.84 255 255 255
-32.82 -20.38 0.52 255 255 255
-15.23 0.67 1.03 255 255 255
-33.36 -17.70 0.33 255 255 255
-15.04 0.58 0.26 255 255 255
-34.70 -20.74 0.90 255 255 255
-15.30 0.58 0.64 255 255 255
8.66 24.28 2.97 255 255 255
-38.99 -21.35 0.50 255 255 255
-32.87 -20.44 1.06 255 255 255
-33.51 -17.83 0.83 255 255 255
-33.96 -19.92 1.47 255 255 255
-39.19 -21.51 1.16 255 255 255
-32.77 -20.29 1.60 255 255 255
-32.89 -20.42 -0.58 255 255 255
-36.87 -21.15 1.32 255 255 255
-34.65 -20.64 -0.26 255 255 255
10.06 23.01 2.75 255 255 255
-33.32 -17.62 -0.17 255 255 255
-32.87 -20.37 -0.03 255 255 255
20.56 36.10 2.45 255 255 255
-39.17 -21.45 -0.17 255 255 255
-34.71 -20.70 0.32 255 255 255
-14.30 1.29 1.27 255 255 255
12.83 35.02 1.77 255 255 255
-14.39 0.87 1.24 255 255 255
6.71 24.74 1.43 255 255 255
-14.86 0.73 1.12 255 255 255
-15.11 0.78 1.20 255 255 255
-14.85 0.75 0.83 255 255 255
-32.98 -20.46 0.51 255 255 255
-15.21 0.67 1.03 255 255 255
-33.43 -17.67 0.33 255 255 255
-15.03 0.56 0.26 255 255 255
-34.89 -20.84 0.89 255 255 255
8.68 24.14 2.97 255 255 255
-15.28 0.58 0.64 255 255 255
-39.30 -21.51 0.49 255 255 255
-32.99 -20.47 1.06 255 255 255
-36.98 -21.18 0.70 255 255 255
-34.11 -19.96 1.47 255 255 255
-39.59 -21.75 1.15 255 255 255
-32.78 -20.18 1.60 255 255 255
-32.95 -20.38 -0.58 255 255 255
-37.02 -21.19 1.33 255 255 255
-34.77 -20.66 -0.26 255 255 255
-33.46 -17.66 -0.18 255 255 255
-33.00 -20.42 -0.04 255 255 255
20.90 36.15 2.46 255 255 255
-39.33 -21.47 -0.18 255 255 255
-34.94 -20.83 0.31 255 255 255
16.72 35.52 2.69 255 255 255
-14.28 1.29 1.27 255 255 255
13.08 35.03 1.77 255 255 255
-14.36 0.88 1.24 255 255 255
6.80 24.64 1.43 255 255 255
-14.83 0.74 1.12 255 255 255
-15.09 0.77 1.20 255 255 255
-14.88 0.69 0.84 255 255 255
-33.10 -20.48 0.51 255 255 255
-15.19 0.67 1.03 255 255 255
-33.58 -17.72 0.32 255 255 255
-15.02 0.55 0.26 255 255 255
-35.03 -20.86 0.89 255 255 255
-15.26 0.59 0.64 255 255 255
8.96 24.22 2.98 255 255 255
-39.47 -21.52 0.48 255 255 255
-33.09 -20.45 1.06 255 255 255
-37.07 -21.13 0.70 255 255 255
-34.21 -19.95 1.47 255 255 255
-39.78 -21.78 1.15 255 255 255
-32.79 -20.08 1.60 255 255 255
-33.14 -20.48 -0.60 255 255 255
-37.08 -21.12 1.33 255 255 255
-34.87 -20.64 -0.27 255 255 255
-6.56 7.83 1.87 255 255 255
-33.09 -20.41 -0.04 255 255 255
21.18 36.16 2.46 255 255 255
-39.53 -21.51 -0.19 255 255 255
-35.07 -20.83 0.30 255 255 255
-6.55 7.82 1.52 255 255 255
16.98 35.53 2.70 255 255 255
-14.25 1.29 1.27 255 255 255
13.33 35.09 1.77 255 255 255
-14.32 0.89 1.24 255 255 255
6.95 24.62 1.43 255 255 255
-14.81 0.74 1.12 255 255 255
-15.07 0.77 1.20 255 255 255
-14.89 0.67 0.84 255 255 255
-33.22 -20.49 0.50 255 255 255
-15.17 0.67 1.03 255 255 255
-33.65 -17.67 0.32 255 255 255
-15.01 0.55 0.26 255 255 255
-35.17 -20.88 0.89 255 255 255
-15.25 0.58 0.64 255 255 255
9.23 24.30 2.99 255 255 255
-39.63 -21.52 0.48 255 255 255
-33.25 -20.50 1.06 255 255 255
-34.36 -19.98 1.47 255 255 255
-39.96 -21.80 1.15 255 255 255
-32.81 -19.96 1.60 255 255 255
-37.15 -21.05 1.33 255 255 255
-33.09 -20.29 -0.58 255 255 255
-35.02 -20.67 -0.27 255 255 255
-37.14 -21.03 -0.55 255 255 255
-33.24 -20.44 -0.05 255 255 255
21.52 36.21 2.47 255 255 255
-39.80 -21.61 -0.20 255 255 255
-35.22 -20.86 0.30 255 255 255
-6.54 7.75 1.52 255 255 255
17.26 35.54 2.70 255 255 255
-14.23 1.29 1.27 255 255 255
13.58 35.10 1.77 255 255 255
-14.30 0.88 1.24 255 255 255
7.76 25.31 1.44 255 255 255
-14.78 0.75 1.12 255 255 255
-15.06 0.77 1.20 255 255 255
-14.86 0.67 0.84 255 255 255
-33.36 -20.53 0.50 255 255 255
-15.15 0.67 1.03 255 255 255
-6.51 7.75 2.23 255 255 255
-33.67 -17.58 0.32 255 255 255
-14.99 0.54 0.26 255 255 255
-35.31 -20.89 0.88 255 255 255
-15.24 0.57 0.64 255 255 255
-39.80 -21.54 0.48 255 255 255
-33.36 -20.50 1.05 255 255 255
-37.27 -21.06 0.70 255 255 255
-34.48 -20.00 1.47 255 255 255
-46.63 -27.51 1.07 255 255 255
-32.82 -19.85 1.60 255 255 255
-37.34 -21.10 1.33 255 255 255
-33.12 -20.20 -0.58 255 255 255
-35.19 -20.71 -0.28 255 255 255
-6.52 7.70 1.87 255 255 255
-37.30 -21.04 -0.55 255 255 255
-33.43 -20.54 -0.06 255 255 255
21.83 36.26 2.47 255 255 255
-39.89 -21.54 -0.20 255 255 255
-35.36 -20.88 0.29 255 255 255
-6.52 7.70 1.52 255 255 255
17.56 35.62 2.71 255 255 255
-14.21 1.28 1.27 255 255 255
13.83 35.14 1.77 255 255 255
-14.27 0.89 1.24 255 255 255
7.72 25.07 1.44 255 255 255
-6.54 7.67 2.58 255 255 255
-14.76 0.75 1.12 255 255 255
-15.03 0.77 1.20 255 255 255
-14.84 0.67 0.84 255 255 255
-33.57 -20.64 0.49 255 255 255
-15.12 0.67 1.03 255 255 255
-6.51 7.68 2.23 255 255 255
-37.40 -21.07 0.07 255 255 255
-14.98 0.54 0.26 255 255 255
-35.45 -20.91 0.88 255 255 255
-15.22 0.58 0.63 255 255 255
-39.97 -21.55 0.47 255 255 255
-37.41 -21.07 0.70 255 255 255
-34.61 -20.01 1.47 255 255 255
-46.63 -27.32 1.07 255 255 255
-32.88 -19.79 1.60 255 255 255
-37.48 -21.10 1.33 255 255 255
-35.30 -20.71 -0.29 255 255 255
-6.50 7.66 1.87 255 255 255
-37.41 -21.02 -0.56 255 255 255
-33.65 -20.67 -0.07 255 255 255
22.17 36.31 2.48 255 255 255
-39.97 -21.49 -0.20 255 255 255
-35.50 -20.90 0.29 255 255 255
-6.49 7.66 1.52 255 255 255
17.84 35.66 2.71 255 255 255
-14.18 1.29 1.27 255 255 255
14.05 35.14 1.78 255 255 255
-14.25 0.89 1.24 255 255 255
7.94 25.13 1.44 255 255 255
-6.52 7.62 2.58 255 255 255
-14.73 0.76 1.11 255 255 255
-15.02 0.76 1.20 255 255 255
-14.82 0.66 0.84 255 255 255
-15.11 0.67 1.03 255 255 255
-6.49 7.62 2.22 255 255 255
-37.50 -21.05 0.07 255 255 255
-14.97 0.53 0.26 255 255 255
-35.57 -20.93 0.88 255 255 255
8.80 23.34 2.94 255 255 255
-15.20 0.57 0.63 255 255 255
-40.13 -21.57 0.47 255 255 255
-33.73 -20.69 1.05 255 255 255
-37.59 -21.11 0.69 255 255 255
-34.75 -20.03 1.47 255 255 255
-46.66 -27.20 1.07 255 255 255
-32.98 -19.80 1.60 255 255 255
-37.62 -21.12 1.32 255 255 255
-35.44 -20.73 -0.30 255 255 255
-6.46 7.62 1.87 255 255 255
-37.57 -21.05 -0.57 255 255 255
-33.76 -20.68 -0.08 255 255 255
22.48 36.35 2.48 255 255 255
-40.12 -21.48 -0.21 255 255 255
-35.64 -20.92 0.28 255 255 255
-6.44 7.63 1.52 255 255 255
18.09 35.66 2.72 255 255 255
-14.15 1.29 1.27 255 255 255
6.65 26.26 1.66 255 255 255
-14.20 0.90 1.24 255 255 255
-6.48 7.58 2.58 255 255 255
-14.71 0.75 1.11 255 255 255
-14.99 0.77 1.20 255 255 255
-14.79 0.67 0.84 255 255 255
-33.82 -20.68 0.48 255 255 255
-15.09 0.67 1.03 255 255 255
-6.45 7.59 2.23 255 255 255
-37.73 -21.11 0.06 255 255 255
-14.95 0.52 0.25 255 255 255
-35.73 -20.95 0.88 255 255 255
-15.18 0.57 0.63 255 255 255
-40.36 -21.62 0.46 255 255 255
-33.87 -20.72 1.05 255 255 255
-37.76 -21.13 0.69 255 255 255
-34.89 -20.05 1.47 255 255 255
-28.99 -11.84 -0.24 255 255 255
-46.76 -27.11 1.08 255 255 255
-33.11 -19.82 1.60 255 255 255
-38.01 -21.35 1.32 255 255 255
-35.59 -20.76 -0.30 255 255 255
-6.40 7.60 1.87 255 255 255
-37.72 -21.06 -0.58 255 255 255
-33.89 -20.68 -0.08 255 255 255
22.82 36.40 2.49 255 255 255
-40.31 -21.52 -0.22 255 255 255
-35.79 -20.95 0.28 255 255 255
-6.34 7.65 1.52 255 255 255
18.40 35.71 2.72 255 255 255
-14.13 1.29 1.27 255 255 255
-3.89 13.89 1.50 255 255 255
-14.17 0.90 1.24 255 255 255
-6.42 7.56 2.58 255 255 255
-14.69 0.75 1.11 255 255 255
-14.97 0.77 1.20 255 255 255
-14.76 0.68 0.83 255 255 255
-33.95 -20.71 0.48 255 255 255
-6.38 7.59 2.23 255 255 255
-38.02 -21.27 0.04 255 255 255
-14.93 0.51 0.25 255 255 255
-35.86 -20.97 0.88 255 255 255
-15.16 0.57 0.63 255 255 255
-40.56 -21.66 0.46 255 255 255
-33.98 -20.72 1.05 255 255 255
-38.10 -21.33 0.68 255 255 255
-28.96 -11.75 -0.23 255 255 255
-35.01 -20.07 1.47 255 255 255
-40.68 -21.74 1.15 255 255 255
-33.22 -19.83 1.60 255 255 255
-38.19 -21.40 1.32 255 255 255
-35.77 -20.82 -0.32 255 255 255
-37.91 -21.10 -0.59 255 255 255
-34.01 -20.71 -0.09 255 255 255
-40.50 -21.54 -0.23 255 255 255
-35.89 -20.93 0.28 255 255 255
18.68 35.75 2.73 255 255 255
-14.10 1.29 1.27 255 255 255
-14.13 0.91 1.24 255 255 255
-6.35 7.55 2.59 255 255 255
8.50 25.12 1.44 255 255 255
-14.65 0.76 1.11 255 255 255
-14.95 0.77 1.20 255 255 255
-14.77 0.65 0.83 255 255 255
-34.08 -20.73 0.48 255 255 255
-15.04 0.68 1.03 255 255 255
-38.19 -21.30 0.03 255 255 255
-14.92 0.51 0.25 255 255 255
-35.92 -20.90 0.88 255 255 255
6.64 20.78 2.79 255 255 255
-15.14 0.57 0.63 255 255 255
-40.83 -21.76 0.45 255 255 255
-34.11 -20.75 1.05 255 255 255
-38.23 -21.32 0.68 255 255 255
-28.90 -11.62 -0.22 255 255 255
-35.15 -20.09 1.47 255 255 255
-33.36 -19.87 1.61 255 255 255
-38.36 -21.43 1.32 255 255 255
-35.91 -20.84 -0.32 255 255 255
-38.05 -21.11 -0.60 255 255 255
-34.13 -20.72 -0.09 255 255 255
-40.67 -21.56 -0.24 255 255 255
-35.94 -20.85 0.28 255 255 255
18.99 35.80 2.74 255 255 255
-14.06 1.29 1.27 255 255 255
-3.81 13.76 1.49 255 255 255
-14.11 0.91 1.24 255 255 255
8.74 25.19 1.44 255 255 255
-14.63 0.75 1.11 255 255 255
-14.93 0.77 1.20 255 255 255
-14.72 0.67 0.83 255 255 255
-34.22 -20.75 0.47 255 255 255
-14.98 0.72 1.02 255 255 255
-38.34 -21.32 0.03 255 255 255
-3.79 13.74 2.50 255 255 255
-14.90 0.51 0.25 255 255 255
-36.16 -21.01 0.87 255 255 255
6.68 20.64 2.79 255 255 255
-15.12 0.57 0.62 255 255 255
-40.99 -21.75 0.45 255 255 255
-34.24 -20.76 1.04 255 255 255
-38.53 -21.47 0.67 255 255 255
-28.86 -11.53 -0.21 255 255 255
-35.29 -20.12 1.48 255 255 255
-41.28 -21.98 1.14 255 255 255
-33.49 -19.89 1.61 255 255 255
-38.53 -21.45 1.32 255 255 255
-36.01 -20.81 -0.33 255 255 255
-38.23 -21.14 -0.61 255 255 255
-34.26 -20.74 -0.10 255 255 255
6.73 20.63 2.00 255 255 255
-40.83 -21.56 -0.24 255 255 255
-3.75 13.73 2.00 255 255 255
-36.20 -20.99 0.26 255 255 255
19.33 35.85 2.74 255 255 255
-14.03 1.30 1.27 255 255 255
-3.74 13.73 1.50 255 255 255
-14.08 0.91 1.24 255 255 255
8.96 25.22 1.44 255 255 255
-14.60 0.77 1.11 255 255 255
-14.91 0.77 1.20 255 255 255
-14.69 0.68 0.83 255 255 255
-34.34 -20.76 0.47 255 255 255
-14.93 0.75 1.02 255 255 255
-38.53 -21.34 0.02 255 255 255
-3.72 13.70 2.50 255 255 255
-14.89 0.50 0.25 255 255 255
-36.30 -21.02 0.87 255 255 255
6.81 20.61 2.79 255 255 255
-15.10 0.57 0.62 255 255 255
-41.14 -21.75 0.44 255 255 255
-34.38 -20.79 1.04 255 255 255
-38.62 -21.41 0.67 255 255 255
-28.87 -11.47 -0.20 255 255 255
-35.43 -20.13 1.48 255 255 255
-41.46 -22.00 1.14 255 255 255
-33.60 -19.90 1.61 255 255 255
-38.70 -21.47 1.32 255 255 255
-38.40 -21.17 -0.62 255 255 255
-34.40 -20.75 -0.11 255 255 255
-41.03 -21.58 -0.25 255 255 255
-3.68 13.69 2.00 255 255 255
19.63 35.93 2.75 255 255 255
-13.99 1.31 1.27 255 255 255
-3.67 13.69 1.50 255 255 255
-14.05 0.91 1.24 255 255 255
-14.57 0.77 1.11 255 255 255
-14.89 0.77 1.19 255 255 255
-14.66 0.68 0.82 255 255 255
-34.47 -20.77 0.47 255 255 255
-14.93 0.73 1.02 255 255 255
-38.68 -21.36 0.01 255 255 255
-14.86 0.50 0.24 255 255 255
-3.64 13.69 2.50 255 255 255
-36.44 -21.04 0.87 255 255 255
9.75 23.15 2.96 255 255 255
-15.08 0.57 0.62 255 255 255
-41.32 -21.75 0.44 255 255 255
-34.50 -20.80 1.04 255 255 255
-38.75 -21.40 0.67 255 255 255
-28.85 -11.39 -0.20 255 255 255
-35.61 -20.18 1.48 255 255 255
-41.50 -21.89 1.14 255 255 255
-33.71 -19.90 1.61 255 255 255
-38.87 -21.50 1.32 255 255 255
-33.18 -17.70 -0.04 255 255 255
-38.56 -21.18 -0.63 255 255 255
-34.53 -20.78 -0.11 255 255 255
-41.18 -21.57 -0.26 255 255 255
-3.58 13.69 2.00 255 255 255
-33.25 -17.76 0.46 255 255 255
19.89 35.93 2.75 255 255 255
-13.97 1.30 1.27 255 255 255
-14.01 0.92 1.24 255 255 255
-14.55 0.77 1.11 255 255 255
-14.86 0.77 1.19 255 255 255
-14.59 0.73 0.82 255 255 255
-34.60 -20.81 0.46 255 255 255
-14.88 0.75 1.02 255 255 255
-38.85 -21.38 0.01 255 255 255
-14.72 0.61 0.20 255 255 255
-36.59 -21.07 0.87 255 255 255
-15.07 0.56 0.62 255 255 255
-41.45 -21.73 0.44 255 255 255
-34.64 -20.82 1.04 255 255 255
-38.92 -21.44 0.66 255 255 255
-28.84 -11.32 -0.19 255 255 255
-35.72 -20.18 1.48 255 255 255
-41.49 -21.75 1.15 255 255 255
-33.85 -19.93 1.61 255 255 255
-38.95 -21.43 1.32 255 255 255
-33.26 -17.68 -0.05 255 255 255
-38.74 -21.22 -0.64 255 255 255
-34.63 -20.77 -0.12 255 255 255
-41.38 -21.61 -0.27 255 255 255
-33.32 -17.73 0.46 255 255 255
20.20 35.98 2.76 255 255 255
-13.94 1.30 1.27 255 255 255
6.92 25.20 1.65 255 255 255
-13.96 0.94 1.24 255 255 255
9.61 25.32 1.44 255 255 255
-14.53 0.77 1.11 255 255 255
-14.84 0.77 1.19 255 255 255
-14.58 0.72 0.82 255 255 255
-34.67 -20.74 0.46 255 255 255
-14.85 0.76 1.01 255 255 255
-39.04 -21.43 -0.00 255 255 255
-14.70 0.61 0.19 255 255 255
-36.75 -21.10 0.86 255 255 255
9.85 22.90 2.96 255 255 255
-15.05 0.57 0.62 255 255 255
-41.47 -21.61 0.44 255 255 255
-34.68 -20.74 1.04 255 255 255
-39.10 -21.46 0.66 255 255 255
-28.84 -11.26 -0.19 255 255 255
-35.88 -20.21 1.48 255 255 255
-41.55 -21.65 1.14 255 255 255
-34.00 -19.97 1.61 255 255 255
-45.19 -26.94 1.30 255 255 255
-33.33 -17.64 -0.05 255 255 255
-38.90 -21.23 -0.65 255 255 255
-34.70 -20.72 -0.12 255 255 255
-41.62 -21.67 -0.28 255 255 255
-33.38 -17.68 0.46 255 255 255
20.51 35.99 2.77 255 255 255
-13.94 1.28 1.27 255 255 255
6.96 25.03 1.65 255 255 255
-13.94 0.93 1.24 255 255 255
14.09 29.57 1.46 255 255 255
-14.48 0.79 1.11 255 255 255
-14.81 0.78 1.19 255 255 255
-14.56 0.71 0.82 255 255 255
-34.87 -20.83 0.45 255 255 255
-14.83 0.76 1.01 255 255 255
-39.28 -21.50 -0.01 255 255 255
-14.69 0.60 0.20 255 255 255
-36.90 -21.12 0.86 255 255 255
9.82 22.69 2.95 255 255 255
-15.02 0.57 0.61 255 255 255
-41.70 -21.66 0.43 255 255 255
-34.92 -20.87 1.04 255 255 255
-39.33 -21.53 0.65 255 255 255
-36.02 -20.22 1.48 255 255 255
-28.84 -11.20 -0.18 255 255 255
-41.76 -21.69 1.15 255 255 255
-34.10 -19.96 1.61 255 255 255
-45.21 -26.78 1.30 255 255 255
-33.44 -17.65 -0.05 255 255 255
-39.03 -21.22 -0.65 255 255 255
-34.92 -20.83 -0.13 255 255 255
-6.56 7.88 1.61 255 255 255
-41.76 -21.65 -0.28 255 255 255
-33.49 -17.68 0.45 255 255 255
20.82 36.04 2.77 255 255 255
-13.95 1.24 1.27 255 255 255
7.14 25.02 1.65 255 255 255
-13.91 0.94 1.24 255 255 255
11.94 27.23 1.45 255 255 255
-14.44 0.80 1.10 255 255 255
-14.79 0.78 1.19 255 255 255
-14.54 0.71 0.81 255 255 255
-35.02 -20.87 0.45 255 255 255
-14.84 0.73 1.02 255 255 255
-39.46 -21.54 -0.02 255 255 255
-14.68 0.59 0.19 255 255 255
-37.06 -21.14 0.86 255 255 255
-14.99 0.58 0.61 255 255 255
9.87 22.55 2.95 255 255 255
-41.98 -21.75 0.42 255 255 255
-35.04 -20.88 1.03 255 255 255
-39.52 -21.56 0.65 255 255 255
-28.84 -11.13 -0.18 255 255 255
-36.18 -20.26 1.48 255 255 255
-41.99 -21.74 1.14 255 255 255
-34.24 -19.98 1.61 255 255 255
-45.28 -26.67 1.30 255 255 255
15.60 24.78 2.95 255 255 255
-35.06 -20.85 -0.14 255 255 255
-6.57 7.80 1.61 255 255 255
-41.91 -21.62 -0.29 255 255 255
-33.64 -17.72 0.45 255 255 255
21.13 36.08 2.78 255 255 255
-6.57 7.79 1.25 255 255 255
-13.87 0.94 1.24 255 255 255
11.86 26.93 1.45 255 255 255
-14.42 0.79 1.10 255 255 255
-6.52 7.82 2.32 255 255 255
-14.76 0.79 1.19 255 255 255
-14.54 0.69 0.81 255 255 255
-35.14 -20.88 0.45 255 255 255
-14.85 0.70 1.02 255 255 255
-39.65 -21.57 -0.03 255 255 255
-14.66 0.58 0.19 255 255 255
-37.11 -21.07 0.86 255 255 255
-14.97 0.58 0.61 255 255 255
-6.56 7.78 1.96 255 255 255
-43.27 -22.66 0.37 255 255 255
-35.18 -20.90 1.03 255 255 255
-39.67 -21.57 0.65 255 255 255
-36.33 -20.27 1.48 255 255 255
-28.85 -11.07 -0.17 255 255 255
-43.38 -22.72 1.13 255 255 255
-34.40 -20.04 1.61 255 255 255
-45.52 -26.72 1.30 255 255 255
-37.08 -20.98 -0.38 255 255 255
15.66 24.65 2.95 255 255 255
-35.20 -20.87 -0.14 255 255 255
-6.56 7.75 1.60 255 255 255
-43.38 -22.66 -0.39 255 255 255
-37.14 -21.02 0.24 255 255 255
21.44 36.13 2.79 255 255 255
-6.56 7.74 1.25 255 255 255
-13.84 0.95 1.24 255 255 255
11.86 26.74 1.45 255 255 255
-14.41 0.78 1.10 255 255 255
-14.73 0.79 1.19 255 255 255
-6.51 7.76 2.32 255 255 255
-14.51 0.70 0.81 255 255 255
-35.27 -20.89 0.44 255 255 255
-14.83 0.70 1.02 255 255 255
-39.78 -21.55 -0.03 255 255 255
-14.64 0.59 0.19 255 255 255
-37.19 -21.01 0.86 255 255 255
-6.54 7.72 1.96 255 255 255
-14.95 0.58 0.60 255 255 255
-43.36 -22.58 0.37 255 255 255
-35.32 -20.93 1.03 255 255 255
-39.86 -21.59 0.64 255 255 255
-28.85 -11.02 -0.17 255 255 255
-36.47 -20.28 1.48 255 255 255
-43.46 -22.63 1.13 255 255 255
-34.51 -20.03 1.61 255 255 255
-45.72 -26.73 1.30 255 255 255
-37.26 -21.02 -0.39 255 255 255
-35.34 -20.88 -0.15 255 255 255
-6.53 7.70 1.60 255 255 255
-44.53 -23.43 -0.46 255 255 255
-37.27 -21.02 0.23 255 255 255
20.16 28.00 2.03 255 255 255
21.78 36.18 2.79 255 255 255
-6.53 7.69 1.25 255 255 255
7.61 24.98 1.65 255 255 255
-13.78 0.97 1.24 255 255 255
11.83 26.50 1.45 255 255 255
-14.36 0.80 1.10 255 255 255
-14.72 0.78 1.19 255 255 255
-6.53 7.67 2.31 255 255 255
-14.48 0.70 0.81 255 255 255
-35.41 -20.92 0.44 255 255 255
-14.82 0.69 1.02 255 255 255
-39.95 -21.57 -0.04 255 255 255
-14.62 0.58 0.18 255 255 255
-37.35 -21.05 0.86 255 255 255
-6.52 7.67 1.96 255 255 255
-14.92 0.58 0.60 255 255 255
-44.70 -23.50 0.32 255 255 255
-35.46 -20.96 1.03 255 255 255
-39.99 -21.59 0.64 255 255 255
-36.60 -20.31 1.48 255 255 255
-28.87 -10.97 -0.17 255 255 255
-47.86 -25.97 1.08 255 255 255
-34.67 -20.08 1.62 255 255 255
-40.17 -21.73 1.32 255 255 255
-37.40 -21.04 -0.40 255 255 255
-35.46 -20.91 -0.16 255 255 255
-6.49 7.67 1.60 255 255 255
-44.56 -23.31 -0.46 255 255 255
-37.48 -21.10 0.22 255 255 255
22.08 36.23 2.80 255 255 255
-6.48 7.67 1.25 255 255 255
-13.77 0.95 1.24 255 255 255
12.88 27.34 1.45 255 255 255
-14.34 0.80 1.10 255 255 255
-6.48 7.65 2.32 255 255 255
-14.70 0.78 1.19 255 255 255
-14.44 0.71 0.81 255 255 255
-35.55 -20.94 0.43 255 255 255
-14.78 0.70 1.01 255 255 255
-40.13 -21.60 -0.04 255 255 255
-14.59 0.58 0.18 255 255 255
-37.48 -21.05 0.85 255 255 255
-14.90 0.58 0.60 255 255 255
-6.48 7.65 1.96 255 255 255
-43.82 -22.66 0.36 255 255 255
-35.60 -20.97 1.03 255 255 255
-40.16 -21.60 0.64 255 255 255
-36.72 -20.29 1.48 255 255 255
-28.89 -10.93 -0.17 255 255 255
-43.86 -22.68 1.13 255 255 255
-34.78 -20.08 1.62 255 255 255
-40.20 -21.62 1.32 255 255 255
-30.21 -11.95 0.19 255 255 255
-37.59 -21.10 -0.41 255 255 255
3.68 14.65 2.34 255 255 255
-35.60 -20.91 -0.16 255 255 255
-6.42 7.66 1.61 255 255 255
-44.57 -23.17 -0.45 255 255 255
-37.65 -21.14 0.22 255 255 255
3.70 14.66 1.70 255 255 255
22.42 36.28 2.81 255 255 255
-6.38 7.69 1.25 255 255 255
-13.73 0.96 1.24 255 255 255
12.90 27.15 1.45 255 255 255
-6.45 7.61 2.32 255 255 255
-14.67 0.79 1.19 255 255 255
-14.44 0.69 0.81 255 255 255
-35.70 -20.96 0.43 255 255 255
-14.76 0.70 1.01 255 255 255
-40.33 -21.64 -0.05 255 255 255
-14.56 0.59 0.17 255 255 255
-37.65 -21.07 0.85 255 255 255
-14.88 0.58 0.60 255 255 255
-6.40 7.63 1.96 255 255 255
-35.74 -20.99 1.03 255 255 255
-40.47 -21.74 0.63 255 255 255
-28.91 -10.88 -0.16 255 255 255
-36.90 -20.35 1.48 255 255 255
-44.06 -22.69 1.13 255 255 255
-34.90 -20.09 1.62 255 255 255
-30.25 -11.92 0.19 255 255 255
-37.69 -21.06 -0.42 255 255 255
3.72 14.57 2.34 255 255 255
-35.71 -20.91 -0.17 255 255 255
-44.43 -22.91 -0.44 255 255 255
-37.69 -21.04 0.22 255 255 255
3.79 14.60 1.70 255 255 255
22.74 36.29 2.81 255 255 255
-13.68 0.97 1.24 255 255 255
11.96 26.05 1.45 255 255 255
-14.64 0.79 1.19 255 255 255
-6.35 7.62 2.32 255 255 255
-14.39 0.71 0.80 255 255 255
-35.84 -20.98 0.43 255 255 255
-14.74 0.69 1.01 255 255 255
-40.56 -21.69 -0.06 255 255 255
-14.53 0.59 0.17 255 255 255
-38.05 -21.33 0.84 255 255 255
-14.86 0.58 0.59 255 255 255
-44.32 -22.77 0.35 255 255 255
-35.85 -20.97 1.03 255 255 255
-40.64 -21.75 0.63 255 255 255
-28.93 -10.84 -0.16 255 255 255
-37.07 -20.38 1.48 255 255 255
-44.44 -22.83 1.12 255 255 255
-35.07 -20.14 1.62 255 255 255
-41.37 -22.36 1.32 255 255 255
-30.28 -11.87 0.19 255 255 255
-37.85 -21.08 -0.43 255 255 255
3.82 14.52 2.34 255 255 255
-35.81 -20.88 -0.17 255 255 255
-44.47 -22.79 -0.44 255 255 255
16.15 26.82 1.19 255 255 255
8.57 25.24 1.66 255 255 255
-13.63 0.99 1.23 255 255 255
6.68 20.87 1.42 255 255 255
-14.25 0.81 1.10 255 255 255
-14.61 0.79 1.19 255 255 255
-14.36 0.72 0.80 255 255 255
-35.90 -20.91 0.43 255 255 255
-14.71 0.70 1.01 255 255 255
-40.76 -21.72 -0.07 255 255 255
-14.50 0.60 0.16 255 255 255
-38.21 -21.35 0.84 255 255 255
-14.84 0.58 0.59 255 255 255
-44.44 -22.71 0.35 255 255 255
-35.92 -20.92 1.03 255 255 255
-40.86 -21.79 0.62 255 255 255
-28.94 -10.79 -0.16 255 255 255
-37.21 -20.38 1.48 255 255 255
-44.61 -22.82 1.12 255 255 255
-35.22 -20.17 1.62 255 255 255
-41.40 -22.23 1.32 255 255 255
-30.19 -11.74 0.20 255 255 255
-37.99 -21.08 -0.43 255 255 255
18.05 25.34 3.03 255 255 255
-35.94 -20.88 -0.18 255 255 255
-44.53 -22.71 -0.43 255 255 255
-38.22 -21.28 0.19 255 255 255
16.32 26.75 1.19 255 255 255
8.82 25.29 1.66 255 255 255
-13.61 0.98 1.23 255 255 255
6.68 20.69 1.41 255 255 255
-14.22 0.81 1.10 255 255 255
-14.59 0.79 1.19 255 255 255
-14.34 0.71 0.80 255 255 255
-36.12 -21.01 0.42 255 255 255
-14.68 0.71 1.01 255 255 255
-40.95 -21.76 -0.08 255 255 255
-14.48 0.60 0.16 255 255 255
-38.41 -21.39 0.84 255 255 255
-14.81 0.58 0.59 255 255 255
-45.53 -23.39 0.31 255 255 255
-36.17 -21.05 1.02 255 255 255
-41.03 -21.80 0.62 255 255 255
-28.97 -10.75 -0.16 255 255 255
-37.35 -20.39 1.48 255 255 255
-47.67 -25.01 1.09 255 255 255
-35.30 -20.14 1.62 255 255 255
-41.42 -22.11 1.32 255 255 255
-30.19 -11.67 0.21 255 255 255
-38.17 -21.13 -0.44 255 255 255
-36.08 -20.90 -0.18 255 255 255
-44.83 -22.78 -0.45 255 255 255
-38.41 -21.33 0.19 255 255 255
6.71 20.59 2.20 255 255 255
16.48 26.69 1.19 255 255 255
-13.57 0.99 1.23 255 255 255
6.74 20.59 1.41 255 255 255
-14.19 0.81 1.10 255 255 255
-14.56 0.80 1.19 255 255 255
-14.26 0.76 0.79 255 255 255
-33.24 -17.95 0.58 255 255 255
-14.65 0.71 1.01 255 255 255
-41.10 -21.75 -0.08 255 255 255
-14.44 0.60 0.15 255 255 255
-38.59 -21.44 0.83 255 255 255
-14.79 0.59 0.58 255 255 255
-45.79 -23.44 0.30 255 255 255
-36.31 -21.07 1.02 255 255 255
-41.20 -21.81 0.62 255 255 255
-28.99 -10.71 -0.16 255 255 255
-37.55 -20.45 1.48 255 255 255
-47.69 -24.86 1.09 255 255 255
-35.46 -20.17 1.62 255 255 255
-33.19 -17.85 -0.43 255 255 255
-41.44 -21.99 1.32 255 255 255
-30.22 -11.63 0.21 255 255 255
-38.33 -21.14 -0.45 255 255 255
17.76 24.72 3.00 255 255 255
-44.96 -22.74 -0.45 255 255 255
-38.56 -21.34 0.18 255 255 255
6.86 20.57 2.20 255 255 255
16.68 26.66 1.19 255 255 255
-13.53 1.00 1.23 255 255 255
-14.16 0.82 1.10 255 255 255
-14.53 0.80 1.19 255 255 255
-14.20 0.79 0.78 255 255 255
-33.24 -17.85 0.58 255 255 255
-14.63 0.72 1.01 255 255 255
-41.28 -21.76 -0.09 255 255 255
-14.41 0.62 0.14 255 255 255
-38.75 -21.45 0.83 255 255 255
-14.77 0.59 0.58 255 255 255
-45.95 -23.40 0.30 255 255 255
-36.46 -21.09 1.02 255 255 255
-41.33 -21.79 0.62 255 255 255
-29.02 -10.67 -0.16 255 255 255
-37.72 -20.49 1.48 255 255 255
-47.74 -24.74 1.09 255 255 255
-35.64 -20.23 1.62 255 255 255
-41.46 -21.86 1.32 255 255 255
-30.20 -11.55 0.21 255 255 255
-38.47 -21.15 -0.46 255 255 255
17.70 24.48 3.00 255 255 255
-33.22 -17.76 0.08 255 255 255
-45.24 -22.80 -0.47 255 255 255
-38.72 -21.34 0.18 255 255 255
16.91 26.61 1.19 255 255 255
-13.49 1.00 1.23 255 255 255
13.84 26.79 1.45 255 255 255
-14.12 0.83 1.09 255 255 255
-14.49 0.81 1.19 255 255 255
-14.15 0.81 0.78 255 255 255
-33.30 -17.79 0.58 255 255 255
-14.59 0.73 1.00 255 255 255
-41.39 -21.71 -0.09 255 255 255
-14.37 0.63 0.13 255 255 255
-38.90 -21.46 0.83 255 255 255
-14.74 0.59 0.58 255 255 255
-45.79 -23.13 0.31 255 255 255
-36.62 -21.11 1.02 255 255 255
-41.43 -21.73 0.61 255 255 255
-37.86 -20.48 1.48 255 255 255
-29.05 -10.63 -0.16 255 255 255
-45.78 -23.12 1.12 255 255 255
-29.49 -11.86 -0.11 255 255 255
-35.75 -20.22 1.62 255 255 255
-33.21 -17.66 -0.42 255 255 255
-41.46 -21.74 1.32 255 255 255
-30.22 -11.49 0.22 255 255 255
-38.73 -21.24 -0.47 255 255 255
14.29 21.74 2.83 255 255 255
-33.29 -17.73 0.08 255 255 255
-45.56 -22.89 -0.48 255 255 255
-38.88 -21.36 0.17 255 255 255
20.32 36.07 1.82 255 255 255
-13.44 1.01 1.23 255 255 255
13.45 26.24 1.45 255 255 255
-14.09 0.83 1.09 255 255 255
-14.47 0.81 1.19 255 255 255
-14.13 0.80 0.77 255 255 255
-33.40 -17.77 0.58 255 255 255
-14.57 0.73 1.00 255 255 255
-41.48 -21.64 -0.09 255 255 255
-14.18 0.76 0.07 255 255 255
-38.98 -21.38 0.83 255 255 255
-14.71 0.59 0.57 255 255 255
-45.79 -22.98 0.31 255 255 255
-36.76 -21.11 1.02 255 255 255
-41.50 -21.64 0.62 255 255 255
-38.03 -20.50 1.49 255 255 255
-29.08 -10.59 -0.16 255 255 255
-45.79 -22.95 1.12 255 255 255
-35.89 -20.23 1.62 255 255 255
-29.46 -11.77 -0.10 255 255 255
-41.59 -21.69 1.32 255 255 255
-33.34 -17.67 -0.43 255 255 255
-30.19 -11.40 0.22 255 255 255
-38.84 -21.20 -0.48 255 255 255
14.40 21.65 2.83 255 255 255
-33.38 -17.69 0.08 255 255 255
-45.77 -22.87 -0.49 255 255 255
-39.09 -21.40 0.17 255 255 255
-13.41 1.01 1.23 255 255 255
13.79 26.32 1.45 255 255 255
-14.03 0.86 1.09 255 255 255
-14.45 0.81 1.19 255 255 255
-14.07 0.82 0.77 255 255 255
-33.53 -17.81 0.58 255 255 255
-14.53 0.73 1.00 255 255 255
-41.60 -21.61 -0.10 255 255 255
-14.18 0.74 0.08 255 255 255
-39.24 -21.49 0.82 255 255 255
-14.68 0.60 0.57 255 255 255
-45.57 -22.67 0.32 255 255 255
-36.93 -21.16 1.01 255 255 255
-41.78 -21.74 0.61 255 255 255
-29.12 -10.56 -0.16 255 255 255
-38.20 -20.53 1.49 255 255 255
-45.81 -22.84 1.12 255 255 255
-36.04 -20.27 1.63 255 255 255
-29.42 -11.68 -0.09 255 255 255
-33.55 -17.78 -0.45 255 255 255
-41.81 -21.75 1.32 255 255 255
-30.22 -11.36 0.22 255 255 255
-39.02 -21.24 -0.49 255 255 255
17.92 24.07 2.99 255 255 255
-33.44 -17.66 0.07 255 255 255
-45.73 -22.71 -0.48 255 255 255
-39.33 -21.50 0.15 255 255 255
-13.38 1.01 1.23 255 255 255
-6.56 7.87 1.34 255 255 255
-14.01 0.85 1.09 255 255 255
-14.43 0.81 1.19 255 255 255
-14.06 0.81 0.77 255 255 255
-37.03 -21.15 0.39 255 255 255
-14.53 0.72 1.00 255 255 255
-41.98 -21.78 -0.12 255 255 255
-14.18 0.71 0.08 255 255 255
-39.43 -21.53 0.82 255 255 255
-14.66 0.60 0.57 255 255 255
-45.80 -22.70 0.32 255 255 255
-37.04 -21.14 1.01 255 255 255
-41.97 -21.75 0.60 255 255 255
-29.16 -10.54 -0.16 255 255 255
-38.35 -20.55 1.49 255 255 255
-45.75 -22.63 1.12 255 255 255
-29.38 -11.58 -0.08 255 255 255
-36.21 -20.31 1.63 255 255 255
-42.05 -21.80 1.32 255 255 255
-30.24 -11.31 0.22 255 255 255
-39.21 -21.28 -0.50 255 255 255
-33.52 -17.63 0.07 255 255 255
-45.79 -22.62 -0.48 255 255 255
-39.51 -21.53 0.15 255 255 255
21.20 36.14 1.82 255 255 255
22.06 26.85 0.87 255 255 255
-6.57 7.79 1.34 255 255 255
-13.97 0.86 1.09 255 255 255
-14.40 0.82 1.19 255 255 255
-14.01 0.83 0.76 255 255 255
-37.09 -21.06 0.39 255 255 255
-14.50 0.72 1.00 255 255 255
-43.24 -22.64 -0.19 255 255 255
-14.19 0.69 0.09 255 255 255
-39.59 -21.53 0.82 255 255 255
-14.63 0.60 0.56 255 255 255
-45.83 -22.56 0.32 255 255 255
-37.10 -21.07 1.01 255 255 255
-43.31 -22.68 0.56 255 255 255
-38.54 -20.58 1.49 255 255 255
-29.19 -10.49 -0.16 255 255 255
-45.85 -22.56 1.12 255 255 255
-36.32 -20.29 1.63 255 255 255
-29.38 -11.51 -0.08 255 255 255
-43.30 -22.66 1.32 255 255 255
-30.26 -11.26 0.22 255 255 255
-39.41 -21.32 -0.51 255 255 255
18.68 24.25 3.02 255 255 255
-45.75 -22.43 -0.47 255 255 255
-39.66 -21.51 0.14 255 255 255
-6.54 7.75 1.69 255 255 255
18.34 26.76 1.18 255 255 255
21.51 36.19 1.82 255 255 255
-6.54 7.74 1.34 255 255 255
-13.95 0.85 1.09 255 255 255
-14.36 0.82 1.19 255 255 255
-13.97 0.84 0.76 255 255 255
-37.16 -21.01 0.39 255 255 255
-14.47 0.73 1.00 255 255 255
-43.35 -22.60 -0.19 255 255 255
-14.19 0.66 0.09 255 255 255
-46.59 -27.56 0.63 255 255 255
-14.61 0.60 0.56 255 255 255
-45.77 -22.38 0.32 255 255 255
-37.23 -21.06 1.01 255 255 255
-43.46 -22.67 0.56 255 255 255
-28.67 -11.77 -0.42 255 255 255
-29.22 -10.45 -0.16 255 255 255
-38.71 -20.61 1.49 255 255 255
-45.89 -22.44 1.12 255 255 255
-29.38 -11.44 -0.07 255 255 255
-36.48 -20.31 1.63 255 255 255
-43.47 -22.65 1.32 255 255 255
-30.24 -11.18 0.23 255 255 255
-39.57 -21.32 -0.52 255 255 255
18.51 23.90 3.00 255 255 255
-6.55 7.69 2.05 255 255 255
-37.23 -21.00 -0.24 255 255 255
-45.84 -22.36 -0.48 255 255 255
-39.83 -21.54 0.14 255 255 255
-6.52 7.70 1.69 255 255 255
18.65 26.78 1.18 255 255 255
21.85 36.24 1.83 255 255 255
-6.51 7.70 1.34 255 255 255
-13.92 0.85 1.09 255 255 255
-14.33 0.82 1.19 255 255 255
-6.52 7.67 2.40 255 255 255
-13.95 0.83 0.76 255 255 255
-37.40 -21.11 0.38 255 255 255
-14.43 0.74 1.00 255 255 255
-44.54 -23.39 -0.26 255 255 255
-14.18 0.65 0.09 255 255 255
-46.57 -27.37 0.63 255 255 255
-14.58 0.60 0.56 255 255 255
3.60 14.75 2.50 255 255 255
-45.79 -22.25 0.33 255 255 255
-37.40 -21.09 1.01 255 255 255
-43.65 -22.67 0.56 255 255 255
-28.71 -11.74 -0.42 255 255 255
-38.88 -20.63 1.49 255 255 255
-29.24 -10.41 -0.16 255 255 255
-45.91 -22.31 1.12 255 255 255
-36.65 -20.35 1.63 255 255 255
-29.37 -11.37 -0.07 255 255 255
-43.69 -22.69 1.32 255 255 255
-30.25 -11.12 0.23 255 255 255
-39.75 -21.35 -0.53 255 255 255
-6.51 7.65 2.05 255 255 255
-37.43 -21.07 -0.25 255 255 255
-45.92 -22.27 -0.48 255 255 255
-40.00 -21.56 0.13 255 255 255
-6.50 7.65 1.69 255 255 255
3.68 14.74 1.22 255 255 255
22.15 36.28 1.83 255 255 255
-6.46 7.67 1.34 255 255 255
-13.87 0.87 1.09 255 255 255
-14.30 0.83 1.19 255 255 255
-6.50 7.63 2.40 255 255 255
-13.94 0.81 0.76 255 255 255
-37.48 -21.07 0.38 255 255 255
-14.42 0.72 1.00 255 255 255
-44.54 -23.25 -0.26 255 255 255
-14.18 0.63 0.09 255 255 255
-40.09 -21.58 0.81 255 255 255
3.64 14.65 2.50 255 255 255
-14.56 0.60 0.55 255 255 255
-37.56 -21.13 1.01 255 255 255
-43.85 -22.70 0.55 255 255 255
-28.72 -11.69 -0.41 255 255 255
-29.31 -10.40 -0.16 255 255 255
-39.06 -20.66 1.49 255 255 255
-46.10 -22.31 1.12 255 255 255
-29.36 -11.30 -0.06 255 255 255
-36.77 -20.36 1.63 255 255 255
-43.88 -22.70 1.32 255 255 255
-30.26 -11.07 0.23 255 255 255
-39.95 -21.40 -0.54 255 255 255
18.73 23.70 3.00 255 255 255
-6.49 7.60 2.05 255 255 255
-37.55 -21.07 -0.25 255 255 255
3.70 14.66 1.86 255 255 255
-46.12 -22.27 -0.48 255 255 255
-40.16 -21.56 0.13 255 255 255
-6.45 7.63 1.69 255 255 255
3.72 14.67 1.22 255 255 255
22.49 36.33 1.83 255 255 255
-6.39 7.67 1.34 255 255 255
-13.83 0.88 1.08 255 255 255
-14.27 0.83 1.18 255 255 255
-6.44 7.61 2.40 255 255 255
-13.94 0.79 0.76 255 255 255
-37.65 -21.11 0.38 255 255 255
-14.37 0.75 0.99 255 255 255
-44.56 -23.12 -0.26 255 255 255
-14.16 0.62 0.09 255 255 255
-40.27 -21.60 0.81 255 255 255
-14.53 0.61 0.55 255 255 255
3.70 14.59 2.50 255 255 255
-46.30 -22.33 0.31 255 255 255
-37.65 -21.09 1.01 255 255 255
-28.80 -11.70 -0.42 255 255 255
-44.15 -22.79 0.55 255 255 255
-29.37 -10.38 -0.17 255 255 255
-39.23 -20.69 1.49 255 255 255
-46.36 -22.35 1.12 255 255 255
-29.36 -11.24 -0.06 255 255 255
-36.96 -20.41 1.63 255 255 255
-44.12 -22.75 1.32 255 255 255
-30.27 -11.01 0.24 255 255 255
-40.12 -21.41 -0.55 255 255 255
-6.44 7.58 2.05 255 255 255
-37.70 -21.07 -0.26 255 255 255
3.80 14.62 1.86 255 255 255
-46.42 -22.32 -0.50 255 255 255
-40.43 -21.65 0.12 255 255 255
-6.36 7.63 1.69 255 255 255
22.80 36.38 1.83 255 255 255
-13.80 0.88 1.08 255 255 255
-14.24 0.84 1.18 255 255 255
-6.39 7.58 2.41 255 255 255
-13.96 0.76 0.76 255 255 255
-38.02 -21.32 0.36 255 255 255
-14.35 0.74 0.99 255 255 255
-44.58 -22.99 -0.25 255 255 255
-14.07 0.67 0.07 255 255 255
-40.56 -21.71 0.80 255 255 255
-14.50 0.61 0.55 255 255 255
3.76 14.51 2.50 255 255 255
-46.64 -22.41 0.31 255 255 255
-38.03 -21.31 1.00 255 255 255
-28.57 -11.44 -0.38 255 255 255
-44.31 -22.75 0.54 255 255 255
-29.45 -10.38 -0.18 255 255 255
-39.40 -20.71 1.49 255 255 255
-46.74 -22.46 1.12 255 255 255
-29.38 -11.18 -0.06 255 255 255
-37.11 -20.43 1.64 255 255 255
-44.37 -22.79 1.32 255 255 255
-30.31 -10.98 0.24 255 255 255
-40.31 -21.43 -0.56 255 255 255
-37.82 -21.06 -0.26 255 255 255
19.93 27.00 2.29 255 255 255
-46.69 -22.37 -0.51 255 255 255
-40.63 -21.69 0.11 255 255 255
-13.74 0.90 1.08 255 255 255
-14.21 0.84 1.18 255 255 255
-13.90 0.78 0.76 255 255 255
-14.31 0.76 0.99 255 255 255
-44.52 -22.79 -0.24 255 255 255
-13.98 0.72 0.04 255 255 255
-40.76 -21.74 0.80 255 255 255
-14.47 0.62 0.54 255 255 255
-47.02 -22.52 0.29 255 255 255
-38.21 -21.34 1.00 255 255 255
-45.06 -23.18 0.52 255 255 255
-28.62 -11.41 -0.38 255 255 255
-29.53 -10.38 -0.18 255 255 255
-39.59 -20.73 1.49 255 255 255
-47.03 -22.51 1.12 255 255 255
-29.38 -11.12 -0.05 255 255 255
-37.26 -20.45 1.64 255 255 255
-47.66 -25.16 1.31 255 255 255
-30.28 -10.89 0.24 255 255 255
-40.51 -21.47 -0.57 255 255 255
-30.45 -11.94 0.27 255 255 255
-37.92 -21.02 -0.27 255 255 255
19.87 26.74 2.28 255 255 255
-47.01 -22.44 -0.53 255 255 255
6.69 20.74 2.40 255 255 255
-40.78 -21.69 0.10 255 255 255
-13.71 0.90 1.08 255 255 255
-14.18 0.84 1.18 255 255 255
-13.75 0.87 0.74 255 255 255
-38.37 -21.39 0.35 255 255 255
-14.27 0.76 0.99 255 255 255
-44.93 -22.96 -0.26 255 255 255
-13.94 0.73 0.03 255 255 255
-40.93 -21.75 0.80 255 255 255
-14.44 0.62 0.54 255 255 255
-47.41 -22.64 0.28 255 255 255
-38.45 -21.43 1.00 255 255 255
-28.62 -11.34 -0.38 255 255 255
-39.78 -20.76 1.49 255 255 255
-29.62 -10.38 -0.19 255 255 255
-47.28 -22.54 1.12 255 255 255
-37.41 -20.45 1.64 255 255 255
-29.40 -11.08 -0.05 255 255 255
-47.67 -25.02 1.31 255 255 255
-30.36 -10.88 0.24 255 255 255
-40.69 -21.49 -0.58 255 255 255
-30.45 -11.87 0.27 255 255 255
-38.12 -21.08 -0.28 255 255 255
19.81 26.49 2.28 255 255 255
-47.25 -22.45 -0.54 255 255 255
6.72 20.62 2.40 255 255 255
-40.99 -21.72 0.10 255 255 255
6.74 20.60 1.61 255 255 255
-14.15 0.84 1.18 255 255 255
-13.75 0.85 0.74 255 255 255
-14.22 0.79 0.98 255 255 255
-45.82 -23.49 -0.31 255 255 255
-13.89 0.74 0.02 255 255 255
-41.10 -21.75 0.80 255 255 255
-14.41 0.63 0.53 255 255 255
-47.59 -22.61 0.28 255 255 255
-38.62 -21.47 1.00 255 255 255
-28.69 -11.35 -0.38 255 255 255
-45.85 -23.49 0.50 255 255 255
-39.92 -20.75 1.49 255 255 255
-29.70 -10.37 -0.20 255 255 255
-47.64 -22.63 1.11 255 255 255
-37.59 -20.49 1.64 255 255 255
-29.41 -11.03 -0.05 255 255 255
-47.79 -24.94 1.31 255 255 255
-30.39 -10.84 0.24 255 255 255
-40.84 -21.47 -0.59 255 255 255
-30.43 -11.79 0.28 255 255 255
-38.39 -21.20 -0.29 255 255 255
6.84 20.56 2.40 255 255 255
-41.16 -21.73 0.09 255 255 255
20.94 27.11 1.17 255 255 255
18.59 28.22 1.46 255 255 255
-13.68 0.88 1.08 255 255 255
-14.12 0.85 1.18 255 255 255
-13.76 0.81 0.74 255 255 255
-14.16 0.81 0.98 255 255 255
-13.85 0.75 0.01 255 255 255
-41.27 -21.76 0.79 255 255 255
-14.39 0.63 0.53 255 255 255
-47.81 -22.61 0.27 255 255 255
-38.78 -21.47 1.00 255 255 255
-45.75 -23.27 0.51 255 255 255
-29.81 -10.39 -0.21 255 255 255
-40.17 -20.84 1.50 255 255 255
-47.72 -22.53 1.12 255 255 255
-29.43 -10.98 -0.05 255 255 255
-37.73 -20.50 1.64 255 255 255
-30.40 -10.79 0.24 255 255 255
-41.16 -21.62 -0.61 255 255 255
-30.42 -11.71 0.28 255 255 255
-38.43 -21.10 -0.29 255 255 255
14.22 21.85 2.12 255 255 255
-47.72 -22.48 -0.56 255 255 255
10.09 23.41 2.54 255 255 255
-41.33 -21.73 0.09 255 255 255
-13.64 0.88 1.08 255 255 255
-14.08 0.86 1.18 255 255 255
-13.74 0.81 0.74 255 255 255
-38.96 -21.52 0.33 255 255 255
-14.13 0.81 0.98 255 255 255
-45.76 -23.13 -0.30 255 255 255
-13.82 0.75 0.00 255 255 255
-41.42 -21.75 0.79 255 255 255
14.22 21.76 3.06 255 255 255
-14.35 0.63 0.53 255 255 255
-48.23 -22.74 0.26 255 255 255
-38.91 -21.45 0.99 255 255 255
-45.75 -23.09 0.51 255 255 255
-28.55 -11.10 -0.35 255 255 255
-29.90 -10.39 -0.22 255 255 255
-40.35 -20.84 1.50 255 255 255
-48.40 -22.83 1.11 255 255 255
-29.44 -10.92 -0.05 255 255 255
-37.93 -20.54 1.64 255 255 255
-45.78 -23.09 1.32 255 255 255
-30.44 -10.74 0.24 255 255 255
-41.32 -21.60 -0.62 255 255 255
-30.43 -11.64 0.29 255 255 255
-38.71 -21.22 -0.31 255 255 255
14.30 21.74 2.12 255 255 255
-48.04 -22.53 -0.57 255 255 255
10.15 23.28 2.54 255 255 255
-41.43 -21.68 0.08 255 255 255
14.31 21.74 1.19 255 255 255
14.82 24.67 1.44 255 255 255
-13.60 0.89 1.08 255 255 255
-14.05 0.86 1.18 255 255 255
-13.68 0.83 0.74 255 255 255
-38.98 -21.41 0.33 255 255 255
-14.13 0.79 0.98 255 255 255
-45.73 -22.95 -0.29 255 255 255
-13.78 0.76 -0.00 255 255 255
-41.48 -21.66 0.79 255 255 255
