ply
format ascii 1.0
element vertex 1610
property float x
property float y
property float z
property uchar red
property uchar green
property uchar blue
end_header
-27.33 -19.71 1.81 255 255 255
-6.29 20.96 1.48 255 255 255
-29.18 -20.72 1.73 255 255 255
-15.46 0.85 0.53 255 255 255
4.21 33.85 1.05 255 255 255
-25.08 -19.53 1.57 255 255 255
1.68 33.42 2.23 255 255 255
-15.38 0.65 0.83 255 255 255
-27.36 -19.72 1.34 255 255 255
6.90 34.18 1.80 255 255 255
-15.40 0.95 0.94 255 255 255
-15.31 0.76 1.06 255 255 255
-6.27 20.97 2.08 255 255 255
4.26 33.85 2.02 255 255 255
-15.36 1.03 1.10 255 255 255
-15.14 0.71 1.17 255 255 255
16.14 48.13 3.34 255 255 255
-15.30 1.15 1.24 255 255 255
-6.26 20.95 2.68 255 255 255
-15.25 0.86 1.21 255 255 255
-15.36 1.45 1.25 255 255 255
-14.99 0.94 1.28 255 255 255
-15.02 1.67 1.31 255 255 255
-29.23 -20.73 1.22 255 255 255
-14.98 1.31 1.29 255 255 255
-26.15 -19.51 1.46 255 255 255
-6.24 20.95 0.89 255 255 255
-27.40 -19.75 0.87 255 255 255
0.09 23.74 0.97 255 255 255
-25.11 -19.52 1.12 255 255 255
1.79 33.45 1.29 255 255 255
-29.22 -20.69 0.70 255 255 255
-26.16 -19.50 1.00 255 255 255
-27.45 -19.82 0.39 255 255 255
-25.12 -19.52 0.68 255 255 255
-29.23 -20.69 0.19 255 255 255
-26.17 -19.50 0.55 255 255 255
-27.33 -19.58 -0.30 255 255 255
-26.15 -19.45 0.10 255 255 255
-27.51 -19.89 1.82 255 255 255
-15.37 0.64 -0.05 255 255 255
-6.22 20.88 1.48 255 255 255
-29.27 -20.71 1.73 255 255 255
-15.46 0.82 0.53 255 255 255
4.40 33.85 1.05 255 255 255
-25.16 -19.54 1.57 255 255 255
1.85 33.45 2.23 255 255 255
-15.38 0.63 0.83 255 255 255
-27.53 -19.89 1.34 255 255 255
7.12 34.22 1.80 255 255 255
-15.40 0.94 0.94 255 255 255
-15.32 0.72 1.06 255 255 255
-6.22 20.89 2.08 255 255 255
4.42 33.84 2.02 255 255 255
-15.37 0.99 1.11 255 255 255
-15.13 0.71 1.17 255 255 255
16.21 47.86 3.34 255 255 255
-15.29 1.13 1.24 255 255 255
-15.25 0.84 1.21 255 255 255
-6.19 20.90 2.68 255 255 255
-15.35 1.44 1.25 255 255 255
-14.98 0.92 1.28 255 255 255
-15.04 1.60 1.31 255 255 255
-29.29 -20.69 1.22 255 255 255
-14.97 1.30 1.29 255 255 255
-26.25 -19.55 1.46 255 255 255
-6.17 20.88 0.89 255 255 255
-27.55 -19.87 0.86 255 255 255
0.22 23.74 0.97 255 255 255
-25.19 -19.54 1.12 255 255 255
1.97 33.48 1.29 255 255 255
-29.30 -20.69 0.70 255 255 255
-26.25 -19.53 1.00 255 255 255
-27.57 -19.86 0.39 255 255 255
-25.20 -19.53 0.68 255 255 255
-29.31 -20.67 0.18 255 255 255
-26.31 -19.62 0.54 255 255 255
-27.48 -19.71 -0.32 255 255 255
-26.22 -19.43 0.09 255 255 255
-27.61 -19.91 1.82 255 255 255
-15.35 0.64 -0.06 255 255 255
-6.14 20.86 1.48 255 255 255
-29.39 -20.76 1.73 255 255 255
-15.45 0.81 0.54 255 255 255
4.58 33.84 1.05 255 255 255
-25.24 -19.55 1.57 255 255 255
2.04 33.48 2.23 255 255 255
-15.36 0.63 0.83 255 255 255
-27.61 -19.90 1.34 255 255 255
-15.38 0.93 0.94 255 255 255
7.33 34.25 1.80 255 255 255
-6.11 20.89 2.08 255 255 255
-15.32 0.70 1.06 255 255 255
4.63 33.90 2.03 255 255 255
-15.36 0.97 1.11 255 255 255
-15.11 0.71 1.17 255 255 255
16.24 47.48 3.33 255 255 255
-15.29 1.11 1.24 255 255 255
-15.25 0.82 1.21 255 255 255
-15.35 1.41 1.25 255 255 255
-14.96 0.93 1.28 255 255 255
-15.01 1.63 1.31 255 255 255
-29.43 -20.76 1.21 255 255 255
-14.97 1.27 1.30 255 255 255
-26.37 -19.63 1.46 255 255 255
-6.06 20.90 0.89 255 255 255
-27.64 -19.89 0.86 255 255 255
0.34 23.69 0.97 255 255 255
-25.26 -19.54 1.12 255 255 255
2.14 33.51 1.29 255 255 255
-26.38 -19.64 1.00 255 255 255
-27.65 -19.87 0.38 255 255 255
-25.27 -19.54 0.68 255 255 255
-26.39 -19.64 0.54 255 255 255
-27.64 -19.84 -0.33 255 255 255
-26.32 -19.50 0.09 255 255 255
-27.68 -19.90 1.82 255 255 255
-15.34 0.64 -0.06 255 255 255
-6.02 20.89 1.49 255 255 255
-29.48 -20.76 1.73 255 255 255
-0.68 24.86 1.14 255 255 255
-15.45 0.79 0.54 255 255 255
-25.31 -19.57 1.57 255 255 255
-15.35 0.63 0.83 255 255 255
2.21 33.50 2.24 255 255 255
-27.71 -19.91 1.34 255 255 255
-15.38 0.92 0.94 255 255 255
7.52 34.28 1.80 255 255 255
-0.12 33.18 2.43 255 255 255
-15.30 0.71 1.06 255 255 255
4.81 33.90 2.03 255 255 255
-15.36 0.95 1.11 255 255 255
-15.10 0.71 1.17 255 255 255
15.71 46.36 3.29 255 255 255
-15.29 1.09 1.24 255 255 255
-15.24 0.80 1.21 255 255 255
-15.34 1.39 1.25 255 255 255
-14.95 0.93 1.28 255 255 255
-15.03 1.54 1.31 255 255 255
-29.53 -20.76 1.21 255 255 255
-14.97 1.25 1.30 255 255 255
-26.50 -19.72 1.46 255 255 255
-5.95 20.93 0.89 255 255 255
-27.72 -19.88 0.86 255 255 255
0.46 23.70 0.96 255 255 255
-25.34 -19.55 1.12 255 255 255
2.32 33.50 1.29 255 255 255
-29.54 -20.77 0.69 255 255 255
-26.51 -19.73 1.00 255 255 255
-27.73 -19.85 0.38 255 255 255
-25.35 -19.54 0.67 255 255 255
-29.51 -20.70 0.18 255 255 255
-26.51 -19.72 0.53 255 255 255
-27.72 -19.83 -0.34 255 255 255
-27.73 -19.84 1.82 255 255 255
-26.43 -19.55 0.08 255 255 255
-29.59 -20.78 1.73 255 255 255
-15.44 0.78 0.54 255 255 255
-0.70 24.61 1.14 255 255 255
-25.40 -19.58 1.57 255 255 255
2.38 33.50 2.24 255 255 255
-15.34 0.62 0.83 255 255 255
-27.75 -19.86 1.34 255 255 255
-15.38 0.88 0.95 255 255 255
7.72 34.28 1.80 255 255 255
-15.30 0.68 1.06 255 255 255
0.05 33.21 2.43 255 255 255
-15.35 0.95 1.11 255 255 255
-15.08 0.71 1.17 255 255 255
16.17 46.68 3.31 255 255 255
-15.28 1.07 1.24 255 255 255
-15.23 0.79 1.21 255 255 255
-15.34 1.36 1.25 255 255 255
-14.94 0.92 1.28 255 255 255
-15.02 1.55 1.31 255 255 255
-29.64 -20.79 1.21 255 255 255
-14.95 1.24 1.29 255 255 255
-26.53 -19.64 1.46 255 255 255
-4.77 23.16 0.84 255 255 255
-27.78 -19.83 0.86 255 255 255
0.56 23.65 0.96 255 255 255
-25.43 -19.56 1.12 255 255 255
2.50 33.56 1.29 255 255 255
-29.64 -20.77 0.69 255 255 255
-26.56 -19.65 1.00 255 255 255
-27.79 -19.82 0.38 255 255 255
-25.43 -19.55 0.67 255 255 255
-29.64 -20.75 0.17 255 255 255
-26.55 -19.64 0.53 255 255 255
-27.78 -19.79 -0.34 255 255 255
-26.51 -19.55 0.08 255 255 255
-27.81 -19.82 1.82 255 255 255
-15.32 0.63 -0.06 255 255 255
-29.69 -20.79 1.74 255 255 255
-15.44 0.76 0.55 255 255 255
-0.64 24.52 1.14 255 255 255
-25.48 -19.59 1.57 255 255 255
-15.33 0.61 0.83 255 255 255
2.56 33.56 2.24 255 255 255
-27.84 -19.85 1.34 255 255 255
-15.38 0.86 0.95 255 255 255
7.93 34.34 1.80 255 255 255
-15.30 0.67 1.06 255 255 255
0.19 33.23 2.44 255 255 255
-15.35 0.92 1.11 255 255 255
5.19 33.99 2.03 255 255 255
-15.06 0.71 1.17 255 255 255
16.32 46.55 3.31 255 255 255
-15.27 1.06 1.24 255 255 255
-15.23 0.77 1.21 255 255 255
-15.33 1.34 1.25 255 255 255
-14.92 0.92 1.28 255 255 255
-15.01 1.54 1.31 255 255 255
-29.75 -20.81 1.21 255 255 255
-14.94 1.25 1.30 255 255 255
-26.59 -19.59 1.46 255 255 255
-4.64 23.18 0.83 255 255 255
-27.87 -19.83 0.86 255 255 255
0.69 23.65 0.96 255 255 255
-25.50 -19.58 1.12 255 255 255
-15.08 1.39 1.41 255 255 255
-29.75 -20.79 0.69 255 255 255
-26.60 -19.61 1.00 255 255 255
-27.88 -19.83 0.38 255 255 255
-25.51 -19.57 0.67 255 255 255
-29.74 -20.76 0.17 255 255 255
-26.61 -19.59 0.53 255 255 255
-27.87 -19.80 -0.34 255 255 255
-27.89 -19.82 1.82 255 255 255
-26.56 -19.51 0.08 255 255 255
-4.47 23.45 1.49 255 255 255
-15.31 0.63 -0.06 255 255 255
-29.80 -20.81 1.74 255 255 255
-15.44 0.74 0.55 255 255 255
-0.66 24.30 1.15 255 255 255
-25.55 -19.59 1.57 255 255 255
2.74 33.55 2.24 255 255 255
-15.32 0.61 0.83 255 255 255
-27.93 -19.87 1.34 255 255 255
8.14 34.34 1.80 255 255 255
-15.37 0.86 0.95 255 255 255
0.38 33.25 2.44 255 255 255
-15.29 0.66 1.06 255 255 255
5.38 33.98 2.03 255 255 255
-15.34 0.90 1.11 255 255 255
-15.04 0.72 1.17 255 255 255
16.55 46.49 3.31 255 255 255
-15.26 1.05 1.24 255 255 255
-15.22 0.77 1.21 255 255 255
-15.33 1.32 1.25 255 255 255
-14.91 0.91 1.28 255 255 255
-15.00 1.52 1.31 255 255 255
-29.86 -20.83 1.21 255 255 255
-14.92 1.25 1.29 255 255 255
-26.65 -19.57 1.46 255 255 255
-4.51 23.23 0.83 255 255 255
-27.96 -19.85 0.86 255 255 255
0.82 23.64 0.96 255 255 255
-25.59 -19.59 1.12 255 255 255
2.87 33.61 1.29 255 255 255
-29.85 -20.80 0.69 255 255 255
-26.66 -19.58 1.00 255 255 255
-27.98 -19.85 0.38 255 255 255
-25.60 -19.58 0.67 255 255 255
-29.86 -20.80 0.16 255 255 255
-26.68 -19.58 0.53 255 255 255
-27.97 -19.82 -0.35 255 255 255
-27.99 -19.85 1.82 255 255 255
-26.63 -19.48 0.08 255 255 255
-15.31 0.61 -0.05 255 255 255
0.53 33.35 1.52 255 255 255
-29.89 -20.81 1.74 255 255 255
-0.63 24.13 1.15 255 255 255
-15.44 0.71 0.56 255 255 255
-25.63 -19.61 1.57 255 255 255
-15.32 0.59 0.83 255 255 255
2.92 33.61 2.25 255 255 255
-28.05 -19.92 1.34 255 255 255
8.34 34.37 1.80 255 255 255
-15.37 0.84 0.95 255 255 255
-15.27 0.66 1.06 255 255 255
0.53 33.28 2.44 255 255 255
5.57 34.04 2.04 255 255 255
-15.34 0.88 1.12 255 255 255
-3.58 21.94 2.62 255 255 255
-15.03 0.72 1.16 255 255 255
-15.26 1.03 1.24 255 255 255
16.85 46.57 3.32 255 255 255
-15.20 0.77 1.21 255 255 255
-15.33 1.30 1.25 255 255 255
-14.89 0.92 1.28 255 255 255
-14.99 1.51 1.31 255 255 255
-29.95 -20.82 1.21 255 255 255
-14.90 1.24 1.29 255 255 255
-26.73 -19.58 1.46 255 255 255
-4.36 23.32 0.83 255 255 255
-28.10 -19.93 0.86 255 255 255
0.93 23.61 0.96 255 255 255
-25.67 -19.59 1.12 255 255 255
3.02 33.64 1.29 255 255 255
-29.96 -20.82 0.69 255 255 255
-26.75 -19.58 1.00 255 255 255
-28.10 -19.93 0.37 255 255 255
-25.68 -19.59 0.67 255 255 255
-29.96 -20.80 0.16 255 255 255
-26.76 -19.59 0.53 255 255 255
-28.10 -19.89 -0.36 255 255 255
-26.71 -19.48 0.08 255 255 255
-15.30 0.60 -0.05 255 255 255
-30.01 -20.84 1.74 255 255 255
-15.43 0.70 0.56 255 255 255
-0.56 24.06 1.15 255 255 255
-25.72 -19.63 1.57 255 255 255
3.09 33.60 2.25 255 255 255
-15.30 0.59 0.83 255 255 255
-28.61 -20.69 1.34 255 255 255
-15.37 0.81 0.96 255 255 255
8.55 34.43 1.81 255 255 255
0.69 33.30 2.45 255 255 255
-15.26 0.66 1.06 255 255 255
-15.34 0.86 1.12 255 255 255
5.76 34.04 2.04 255 255 255
-2.88 22.98 2.68 255 255 255
-15.00 0.73 1.16 255 255 255
-15.25 1.02 1.24 255 255 255
17.13 46.61 3.32 255 255 255
-15.20 0.75 1.21 255 255 255
-15.31 1.29 1.25 255 255 255
-14.89 0.90 1.28 255 255 255
-15.03 1.40 1.32 255 255 255
-30.07 -20.87 1.21 255 255 255
-14.89 1.24 1.29 255 255 255
-26.91 -19.75 1.46 255 255 255
-4.25 23.32 0.83 255 255 255
-28.64 -20.67 0.84 255 255 255
1.06 23.61 0.96 255 255 255
-25.74 -19.60 1.12 255 255 255
3.20 33.63 1.29 255 255 255
-30.06 -20.83 0.69 255 255 255
-26.93 -19.76 0.99 255 255 255
-28.65 -20.65 0.33 255 255 255
-25.75 -19.60 0.67 255 255 255
-30.07 -20.81 0.16 255 255 255
-26.93 -19.74 0.52 255 255 255
-28.66 -20.64 -0.43 255 255 255
-26.79 -19.50 0.07 255 255 255
0.84 33.34 1.52 255 255 255
-30.11 -20.86 1.74 255 255 255
-15.42 0.68 0.56 255 255 255
-0.42 24.05 1.15 255 255 255
-25.80 -19.64 1.57 255 255 255
3.28 33.63 2.25 255 255 255
-15.29 0.59 0.83 255 255 255
-28.71 -20.70 1.34 255 255 255
-15.36 0.80 0.96 255 255 255
8.74 34.43 1.81 255 255 255
0.86 33.33 2.45 255 255 255
-15.25 0.66 1.06 255 255 255
-15.32 0.86 1.12 255 255 255
5.96 34.10 2.04 255 255 255
-3.17 22.26 2.64 255 255 255
-14.99 0.73 1.16 255 255 255
-15.24 1.00 1.24 255 255 255
17.41 46.65 3.33 255 255 255
-15.18 0.76 1.21 255 255 255
-15.31 1.26 1.25 255 255 255
-14.92 0.83 1.28 255 255 255
-30.18 -20.89 1.21 255 255 255
-14.87 1.24 1.29 255 255 255
-26.96 -19.71 1.46 255 255 255
-28.74 -20.68 0.84 255 255 255
1.19 23.60 0.96 255 255 255
-25.82 -19.62 1.12 255 255 255
3.38 33.66 1.29 255 255 255
-30.17 -20.85 0.68 255 255 255
-26.97 -19.72 0.99 255 255 255
-28.74 -20.66 0.33 255 255 255
-25.83 -19.62 0.66 255 255 255
-30.17 -20.84 0.15 255 255 255
-26.99 -19.72 0.52 255 255 255
-28.75 -20.67 -0.44 255 255 255
-26.88 -19.53 0.07 255 255 255
1.01 33.36 1.52 255 255 255
-30.21 -20.86 1.74 255 255 255
-15.42 0.67 0.56 255 255 255
-25.87 -19.65 1.57 255 255 255
3.45 33.66 2.25 255 255 255
-15.27 0.59 0.83 255 255 255
-28.80 -20.72 1.34 255 255 255
9.02 34.50 1.81 255 255 255
-15.35 0.79 0.96 255 255 255
1.03 33.32 2.45 255 255 255
-15.24 0.65 1.06 255 255 255
-15.32 0.84 1.12 255 255 255
6.17 34.10 2.04 255 255 255
-14.97 0.74 1.16 255 255 255
-15.24 0.98 1.24 255 255 255
-15.17 0.75 1.21 255 255 255
-15.31 1.24 1.26 255 255 255
-14.93 0.79 1.29 255 255 255
-14.90 1.56 1.31 255 255 255
-30.27 -20.87 1.21 255 255 255
-14.85 1.25 1.29 255 255 255
-27.09 -19.80 1.46 255 255 255
-28.85 -20.70 0.83 255 255 255
1.30 23.57 0.96 255 255 255
-25.91 -19.64 1.12 255 255 255
3.55 33.69 1.29 255 255 255
-30.27 -20.85 0.68 255 255 255
-27.12 -19.80 0.99 255 255 255
-28.85 -20.69 0.32 255 255 255
-25.92 -19.63 0.66 255 255 255
-30.28 -20.84 0.15 255 255 255
-27.11 -19.77 0.52 255 255 255
-28.85 -20.67 -0.44 255 255 255
-26.96 -19.52 0.07 255 255 255
1.16 33.39 1.52 255 255 255
-30.34 -20.89 1.74 255 255 255
-15.41 0.67 0.56 255 255 255
-25.94 -19.63 1.57 255 255 255
-15.26 0.59 0.83 255 255 255
3.62 33.68 2.26 255 255 255
-28.91 -20.72 1.34 255 255 255
-15.36 0.75 0.96 255 255 255
9.20 34.53 1.81 255 255 255
-15.22 0.66 1.06 255 255 255
1.20 33.38 2.45 255 255 255
6.35 34.16 2.05 255 255 255
-15.32 0.82 1.12 255 255 255
-14.96 0.73 1.16 255 255 255
-15.23 0.98 1.24 255 255 255
-15.16 0.74 1.21 255 255 255
-15.30 1.23 1.26 255 255 255
-14.88 0.84 1.28 255 255 255
-30.37 -20.89 1.21 255 255 255
-14.84 1.24 1.29 255 255 255
-27.12 -19.69 1.46 255 255 255
-12.17 5.37 2.35 255 255 255
-28.95 -20.72 0.83 255 255 255
1.44 23.59 0.96 255 255 255
-25.98 -19.62 1.12 255 255 255
3.73 33.75 1.29 255 255 255
-30.39 -20.88 0.68 255 255 255
-27.12 -19.68 0.99 255 255 255
-28.95 -20.71 0.32 255 255 255
-25.95 -19.54 0.66 255 255 255
-30.38 -20.86 0.15 255 255 255
-27.13 -19.67 0.52 255 255 255
-28.95 -20.68 -0.45 255 255 255
-27.05 -19.53 0.06 255 255 255
1.35 33.41 1.52 255 255 255
-30.44 -20.89 1.75 255 255 255
-15.39 0.67 0.56 255 255 255
-25.98 -19.54 1.57 255 255 255
3.82 33.71 2.26 255 255 255
-15.25 0.59 0.82 255 255 255
-29.01 -20.73 1.34 255 255 255
-15.35 0.74 0.96 255 255 255
9.42 34.53 1.81 255 255 255
-15.20 0.66 1.06 255 255 255
1.37 33.37 2.46 255 255 255
6.56 34.19 2.05 255 255 255
-15.32 0.80 1.12 255 255 255
-14.94 0.73 1.16 255 255 255
-15.22 0.96 1.24 255 255 255
18.22 46.71 3.35 255 255 255
-15.15 0.74 1.21 255 255 255
-15.29 1.21 1.26 255 255 255
-14.88 0.81 1.28 255 255 255
-14.89 1.53 1.31 255 255 255
-30.49 -20.91 1.21 255 255 255
-14.82 1.25 1.29 255 255 255
-27.17 -19.64 1.46 255 255 255
-12.11 5.40 2.35 255 255 255
-29.04 -20.71 0.83 255 255 255
1.57 23.56 0.96 255 255 255
-26.02 -19.53 1.12 255 255 255
3.94 33.74 1.29 255 255 255
-30.49 -20.87 0.68 255 255 255
-27.18 -19.65 0.99 255 255 255
-29.04 -20.71 0.32 255 255 255
-26.01 -19.50 0.66 255 255 255
-30.49 -20.86 0.14 255 255 255
-27.19 -19.64 0.52 255 255 255
-29.05 -20.68 -0.45 255 255 255
-27.14 -19.54 0.06 255 255 255
1.52 33.41 1.52 255 255 255
-30.51 -20.85 1.75 255 255 255
-15.39 0.66 0.56 255 255 255
-26.04 -19.51 1.57 255 255 255
3.99 33.74 2.26 255 255 255
-15.23 0.59 0.82 255 255 255
-29.12 -20.76 1.34 255 255 255
9.64 34.56 1.81 255 255 255
1.55 33.43 2.46 255 255 255
-15.19 0.66 1.06 255 255 255
-15.31 0.78 1.12 255 255 255
6.76 34.22 2.05 255 255 255
-14.92 0.74 1.16 255 255 255
-15.21 0.94 1.24 255 255 255
-15.13 0.74 1.21 255 255 255
-15.29 1.19 1.26 255 255 255
-14.85 0.84 1.28 255 255 255
-14.87 1.53 1.31 255 255 255
-30.52 -20.82 1.21 255 255 255
-14.80 1.24 1.29 255 255 255
-27.25 -19.65 1.46 255 255 255
-12.57 4.65 2.26 255 255 255
-29.14 -20.73 0.83 255 255 255
-1.02 19.80 1.02 255 255 255
-26.07 -19.50 1.12 255 255 255
4.11 33.77 1.29 255 255 255
-30.52 -20.79 0.68 255 255 255
-27.27 -19.65 0.99 255 255 255
-29.15 -20.72 0.32 255 255 255
-26.08 -19.49 0.66 255 255 255
-30.53 -20.79 0.14 255 255 255
-27.29 -19.66 0.52 255 255 255
-29.15 -20.71 -0.46 255 255 255
-27.23 -19.55 0.05 255 255 255
1.69 33.43 1.52 255 255 255
-30.53 -20.75 1.74 255 255 255
-15.37 0.65 0.56 255 255 255
0.14 23.93 1.15 255 255 255
-26.12 -19.53 1.57 255 255 255
-15.22 0.58 0.82 255 255 255
4.19 33.77 2.26 255 255 255
-29.21 -20.76 1.34 255 255 255
-1.01 19.75 1.66 255 255 255
-15.35 0.70 0.97 255 255 255
-15.17 0.66 1.06 255 255 255
1.71 33.42 2.46 255 255 255
-15.29 0.79 1.12 255 255 255
6.95 34.22 2.05 255 255 255
-14.90 0.74 1.16 255 255 255
-15.21 0.92 1.24 255 255 255
-0.99 19.75 2.29 255 255 255
-15.12 0.73 1.21 255 255 255
-15.29 1.16 1.26 255 255 255
-14.84 0.83 1.28 255 255 255
-14.86 1.52 1.31 255 255 255
-30.54 -20.71 1.21 255 255 255
-14.78 1.24 1.29 255 255 255
-27.34 -19.65 1.46 255 255 255
-12.42 4.82 2.29 255 255 255
-29.22 -20.73 0.83 255 255 255
-0.98 19.70 1.03 255 255 255
-26.16 -19.52 1.11 255 255 255
4.29 33.80 1.29 255 255 255
-30.54 -20.68 0.68 255 255 255
-27.36 -19.66 0.99 255 255 255
-29.24 -20.72 0.31 255 255 255
-26.16 -19.50 0.66 255 255 255
-30.54 -20.66 0.15 255 255 255
-27.38 -19.68 0.52 255 255 255
-29.24 -20.69 -0.46 255 255 255
-27.31 -19.56 0.05 255 255 255
1.86 33.46 1.53 255 255 255
-30.55 -20.64 1.74 255 255 255
-15.38 0.62 0.57 255 255 255
0.27 23.92 1.15 255 255 255
-26.22 -19.56 1.57 255 255 255
4.38 33.80 2.27 255 255 255
-15.21 0.58 0.82 255 255 255
-29.28 -20.73 1.34 255 255 255
-15.34 0.68 0.97 255 255 255
-0.94 19.68 1.66 255 255 255
1.90 33.45 2.47 255 255 255
-15.16 0.65 1.06 255 255 255
-15.32 0.73 1.13 255 255 255
7.15 34.25 2.05 255 255 255
-14.88 0.75 1.16 255 255 255
-0.93 19.67 2.29 255 255 255
-15.20 0.92 1.24 255 255 255
-15.10 0.74 1.21 255 255 255
-15.28 1.15 1.26 255 255 255
-14.85 0.79 1.28 255 255 255
-14.83 1.53 1.31 255 255 255
-30.56 -20.58 1.21 255 255 255
-14.77 1.24 1.29 255 255 255
-27.53 -19.84 1.46 255 255 255
-12.98 5.46 1.25 255 255 255
-12.39 4.80 2.29 255 255 255
-29.33 -20.74 0.83 255 255 255
-0.90 19.65 1.03 255 255 255
-26.24 -19.52 1.11 255 255 255
4.50 33.83 1.29 255 255 255
-30.55 -20.58 0.68 255 255 255
-27.54 -19.83 0.98 255 255 255
-29.33 -20.73 0.31 255 255 255
-26.30 -19.62 0.66 255 255 255
-30.56 -20.55 0.15 255 255 255
-27.56 -19.84 0.51 255 255 255
-29.33 -20.71 -0.46 255 255 255
-27.41 -19.58 0.05 255 255 255
2.03 33.49 1.53 255 255 255
-30.55 -20.51 1.74 255 255 255
-15.38 0.59 0.58 255 255 255
-26.35 -19.66 1.57 255 255 255
-15.19 0.59 0.82 255 255 255
4.53 33.82 2.27 255 255 255
-29.42 -20.79 1.35 255 255 255
-0.88 19.61 1.66 255 255 255
-15.33 0.67 0.97 255 255 255
-15.14 0.66 1.06 255 255 255
2.05 33.47 2.47 255 255 255
-15.31 0.71 1.13 255 255 255
7.37 34.31 2.06 255 255 255
-14.87 0.74 1.16 255 255 255
-0.88 19.59 2.29 255 255 255
-15.20 0.90 1.25 255 255 255
-15.10 0.72 1.21 255 255 255
-15.27 1.13 1.26 255 255 255
-14.82 0.80 1.28 255 255 255
-14.82 1.52 1.31 255 255 255
-30.56 -20.46 1.21 255 255 255
-14.75 1.24 1.29 255 255 255
-27.62 -19.85 1.46 255 255 255
-12.39 4.76 2.29 255 255 255
-12.95 5.45 1.25 255 255 255
-29.46 -20.79 0.83 255 255 255
-0.79 19.65 1.02 255 255 255
-26.38 -19.65 1.11 255 255 255
4.67 33.85 1.29 255 255 255
-30.57 -20.45 0.68 255 255 255
-27.63 -19.85 0.98 255 255 255
-26.39 -19.65 0.65 255 255 255
-30.58 -20.45 0.16 255 255 255
-27.65 -19.85 0.51 255 255 255
-29.46 -20.74 -0.47 255 255 255
-27.63 -19.81 0.03 255 255 255
2.21 33.54 1.53 255 255 255
-30.58 -20.42 1.74 255 255 255
-15.37 0.59 0.58 255 255 255
-26.45 -19.70 1.57 255 255 255
4.74 33.88 2.27 255 255 255
-15.17 0.60 0.81 255 255 255
-29.52 -20.81 1.34 255 255 255
-15.34 0.64 0.97 255 255 255
-0.76 19.60 1.66 255 255 255
2.22 33.50 2.47 255 255 255
-15.13 0.66 1.05 255 255 255
-15.30 0.71 1.13 255 255 255
-14.85 0.75 1.16 255 255 255
-0.78 19.55 2.29 255 255 255
-15.18 0.90 1.24 255 255 255
-15.08 0.74 1.21 255 255 255
-15.26 1.12 1.26 255 255 255
-14.80 0.81 1.28 255 255 255
-14.80 1.52 1.31 255 255 255
-30.60 -20.38 1.21 255 255 255
-14.73 1.24 1.29 255 255 255
-27.71 -19.86 1.46 255 255 255
-12.92 5.45 1.25 255 255 255
-29.55 -20.79 0.82 255 255 255
-26.49 -19.71 1.11 255 255 255
4.86 33.92 1.29 255 255 255
-30.60 -20.36 0.69 255 255 255
-27.72 -19.87 0.98 255 255 255
-29.56 -20.78 0.30 255 255 255
-26.50 -19.70 0.65 255 255 255
-30.60 -20.35 0.16 255 255 255
-27.74 -19.87 0.50 255 255 255
-29.56 -20.76 -0.48 255 255 255
-27.72 -19.83 0.02 255 255 255
-15.12 1.37 1.44 255 255 255
-30.63 -20.36 1.74 255 255 255
-15.36 0.59 0.57 255 255 255
-26.53 -19.70 1.57 255 255 255
-15.16 0.60 0.81 255 255 255
4.93 33.88 2.27 255 255 255
-29.62 -20.82 1.34 255 255 255
-15.32 0.65 0.97 255 255 255
10.75 34.76 1.82 255 255 255
-15.11 0.67 1.05 255 255 255
-3.08 23.46 2.18 255 255 255
-15.28 0.71 1.13 255 255 255
7.76 34.34 2.06 255 255 255
-14.84 0.73 1.16 255 255 255
-0.63 19.59 2.30 255 255 255
-15.18 0.88 1.25 255 255 255
-15.06 0.73 1.21 255 255 255
-15.26 1.11 1.26 255 255 255
-14.77 0.82 1.28 255 255 255
-14.78 1.52 1.31 255 255 255
-30.65 -20.32 1.21 255 255 255
-14.72 1.24 1.29 255 255 255
-27.76 -19.82 1.46 255 255 255
-12.88 5.46 1.24 255 255 255
-29.66 -20.82 0.82 255 255 255
-26.55 -19.67 1.11 255 255 255
-0.49 24.86 1.32 255 255 255
-30.64 -20.30 0.69 255 255 255
-27.78 -19.82 0.98 255 255 255
-29.65 -20.78 0.30 255 255 255
-26.54 -19.63 0.65 255 255 255
-30.65 -20.28 0.16 255 255 255
-27.79 -19.82 0.50 255 255 255
-27.78 -19.79 0.02 255 255 255
2.55 33.60 1.53 255 255 255
-30.67 -20.29 1.74 255 255 255
-15.35 0.57 0.58 255 255 255
-26.57 -19.65 1.57 255 255 255
-15.14 0.60 0.81 255 255 255
5.12 33.91 2.28 255 255 255
-29.72 -20.84 1.34 255 255 255
10.99 34.80 1.82 255 255 255
-15.31 0.64 0.97 255 255 255
-15.09 0.67 1.05 255 255 255
-2.89 23.60 2.19 255 255 255
7.97 34.40 2.06 255 255 255
-15.28 0.68 1.13 255 255 255
-14.82 0.74 1.15 255 255 255
-15.17 0.87 1.25 255 255 255
20.37 47.09 3.40 255 255 255
-3.85 21.85 2.77 255 255 255
-15.04 0.74 1.21 255 255 255
-15.25 1.09 1.26 255 255 255
-14.76 0.82 1.28 255 255 255
-14.78 1.50 1.31 255 255 255
-11.79 5.48 2.00 255 255 255
-30.71 -20.28 1.21 255 255 255
-14.70 1.23 1.29 255 255 255
-27.84 -19.81 1.46 255 255 255
-12.84 5.46 1.24 255 255 255
-29.76 -20.84 0.82 255 255 255
-26.59 -19.62 1.11 255 255 255
-0.55 24.58 1.33 255 255 255
-30.71 -20.26 0.69 255 255 255
-27.85 -19.81 0.98 255 255 255
-29.75 -20.81 0.30 255 255 255
-26.60 -19.60 0.65 255 255 255
-30.71 -20.24 0.16 255 255 255
-27.87 -19.82 0.50 255 255 255
-27.86 -19.79 0.02 255 255 255
2.74 33.59 1.53 255 255 255
-30.72 -20.22 1.74 255 255 255
-26.62 -19.62 1.57 255 255 255
5.30 33.94 2.28 255 255 255
-15.14 0.59 0.81 255 255 255
-29.83 -20.86 1.34 255 255 255
-15.30 0.64 0.97 255 255 255
11.21 34.83 1.82 255 255 255
2.76 33.58 2.48 255 255 255
-15.08 0.66 1.05 255 255 255
8.17 34.40 2.06 255 255 255
-15.27 0.68 1.13 255 255 255
-14.81 0.73 1.15 255 255 255
20.65 47.11 3.40 255 255 255
-15.16 0.87 1.25 255 255 255
-15.03 0.74 1.21 255 255 255
-3.74 21.84 2.78 255 255 255
-15.24 1.08 1.26 255 255 255
-14.74 0.83 1.28 255 255 255
-14.78 1.48 1.31 255 255 255
-30.76 -20.23 1.21 255 255 255
-14.68 1.23 1.29 255 255 255
-27.92 -19.81 1.46 255 255 255
-15.06 1.39 1.34 255 255 255
-29.85 -20.84 0.82 255 255 255
-26.65 -19.60 1.11 255 255 255
-0.53 24.39 1.33 255 255 255
-30.76 -20.20 0.69 255 255 255
-27.94 -19.82 0.98 255 255 255
-29.87 -20.85 0.29 255 255 255
-26.66 -19.58 0.65 255 255 255
-30.77 -20.20 0.16 255 255 255
-27.96 -19.83 0.50 255 255 255
-27.95 -19.81 0.02 255 255 255
2.91 33.62 1.53 255 255 255
-30.82 -20.23 1.74 255 255 255
-15.33 0.57 0.57 255 255 255
1.13 24.00 1.14 255 255 255
-26.70 -19.61 1.57 255 255 255
-15.11 0.61 0.81 255 255 255
5.49 33.96 2.28 255 255 255
-29.93 -20.89 1.35 255 255 255
11.43 34.83 1.83 255 255 255
-15.28 0.65 0.97 255 255 255
2.92 33.57 2.48 255 255 255
-15.06 0.68 1.05 255 255 255
8.39 34.44 2.07 255 255 255
-15.26 0.67 1.13 255 255 255
-14.79 0.73 1.15 255 255 255
20.96 47.15 3.41 255 255 255
-15.15 0.85 1.25 255 255 255
-15.01 0.74 1.21 255 255 255
-3.54 21.98 2.79 255 255 255
-15.23 1.06 1.26 255 255 255
-14.75 0.79 1.28 255 255 255
-11.70 5.49 2.00 255 255 255
-14.76 1.47 1.31 255 255 255
-30.87 -20.23 1.21 255 255 255
-14.66 1.24 1.29 255 255 255
-28.04 -19.86 1.46 255 255 255
-15.05 1.39 1.34 255 255 255
-29.98 -20.85 0.82 255 255 255
-26.74 -19.60 1.11 255 255 255
-0.45 24.30 1.33 255 255 255
-30.88 -20.21 0.69 255 255 255
-28.05 -19.86 0.98 255 255 255
-29.98 -20.85 0.29 255 255 255
-26.76 -19.60 0.65 255 255 255
-30.88 -20.19 0.16 255 255 255
-28.10 -19.90 0.49 255 255 255
-28.07 -19.86 0.01 255 255 255
3.10 33.65 1.53 255 255 255
-30.93 -20.23 1.74 255 255 255
-15.31 0.57 0.57 255 255 255
1.21 23.93 1.14 255 255 255
-26.85 -19.73 1.58 255 255 255
5.69 33.99 2.29 255 255 255
-15.13 0.56 0.82 255 255 255
-30.04 -20.89 1.34 255 255 255
-15.27 0.64 0.97 255 255 255
11.67 34.90 1.83 255 255 255
-2.56 23.57 2.19 255 255 255
-15.25 0.67 1.13 255 255 255
8.61 34.47 2.07 255 255 255
-14.78 0.74 1.15 255 255 255
21.25 47.16 3.42 255 255 255
-15.16 0.82 1.25 255 255 255
-14.98 0.75 1.20 255 255 255
-3.41 22.03 2.79 255 255 255
-15.23 1.04 1.26 255 255 255
-14.71 0.82 1.28 255 255 255
-14.74 1.47 1.31 255 255 255
-31.01 -20.28 1.21 255 255 255
-14.66 1.22 1.29 255 255 255
-28.61 -20.63 1.47 255 255 255
-2.07 24.36 0.79 255 255 255
-30.08 -20.87 0.82 255 255 255
4.94 26.09 0.90 255 255 255
-26.90 -19.74 1.11 255 255 255
-0.38 24.21 1.33 255 255 255
-31.01 -20.26 0.68 255 255 255
-28.63 -20.64 0.96 255 255 255
-30.08 -20.86 0.29 255 255 255
-26.91 -19.73 0.64 255 255 255
-31.00 -20.22 0.15 255 255 255
-28.64 -20.63 0.46 255 255 255
3.27 33.67 1.53 255 255 255
-31.11 -20.34 1.74 255 255 255
-15.30 0.57 0.57 255 255 255
1.25 23.81 1.14 255 255 255
-26.94 -19.74 1.58 255 255 255
5.88 33.99 2.29 255 255 255
-15.12 0.55 0.82 255 255 255
-30.14 -20.90 1.34 255 255 255
-15.26 0.63 0.97 255 255 255
11.92 34.94 1.83 255 255 255
3.30 33.69 2.49 255 255 255
-15.06 0.63 1.05 255 255 255
-15.24 0.67 1.13 255 255 255
-14.75 0.75 1.15 255 255 255
21.58 47.28 3.42 255 255 255
-15.15 0.81 1.25 255 255 255
-14.97 0.75 1.20 255 255 255
-3.21 22.17 2.80 255 255 255
-15.22 1.04 1.26 255 255 255
-14.69 0.82 1.28 255 255 255
-14.72 1.47 1.31 255 255 255
-31.16 -20.34 1.21 255 255 255
-14.64 1.22 1.29 255 255 255
-28.71 -20.64 1.47 255 255 255
-2.00 24.24 0.80 255 255 255
-30.18 -20.89 0.81 255 255 255
5.03 26.01 0.90 255 255 255
-26.97 -19.73 1.11 255 255 255
-0.34 24.08 1.33 255 255 255
-31.18 -20.35 0.68 255 255 255
-28.73 -20.65 0.96 255 255 255
-30.19 -20.88 0.28 255 255 255
-26.98 -19.73 0.64 255 255 255
-31.16 -20.30 0.14 255 255 255
-28.74 -20.65 0.46 255 255 255
-28.73 -20.62 -0.05 255 255 255
3.45 33.70 1.53 255 255 255
-31.25 -20.38 1.75 255 255 255
9.02 34.58 1.02 255 255 255
-15.29 0.56 0.57 255 255 255
-27.05 -19.79 1.58 255 255 255
-15.06 0.61 0.80 255 255 255
6.07 34.05 2.29 255 255 255
-30.26 -20.92 1.34 255 255 255
12.14 34.97 1.83 255 255 255
-15.25 0.63 0.97 255 255 255
3.47 33.69 2.49 255 255 255
-15.02 0.67 1.05 255 255 255
9.03 34.56 2.07 255 255 255
-15.22 0.67 1.13 255 255 255
-14.73 0.75 1.15 255 255 255
21.97 47.40 3.43 255 255 255
-15.14 0.79 1.25 255 255 255
-14.96 0.75 1.20 255 255 255
-15.21 1.03 1.26 255 255 255
-14.69 0.79 1.28 255 255 255
-14.73 1.44 1.31 255 255 255
-31.29 -20.37 1.21 255 255 255
-14.63 1.20 1.29 255 255 255
-28.81 -20.67 1.47 255 255 255
-1.94 24.14 0.80 255 255 255
-30.28 -20.90 0.81 255 255 255
5.02 25.79 0.90 255 255 255
-27.09 -19.79 1.11 255 255 255
-0.27 23.99 1.33 255 255 255
-31.29 -20.36 0.68 255 255 255
-28.83 -20.67 0.96 255 255 255
-30.29 -20.89 0.28 255 255 255
-27.08 -19.75 0.64 255 255 255
-31.28 -20.32 0.14 255 255 255
-28.85 -20.68 0.45 255 255 255
-28.83 -20.65 -0.06 255 255 255
3.64 33.73 1.53 255 255 255
-31.34 -20.37 1.75 255 255 255
9.21 34.57 1.02 255 255 255
-15.28 0.56 0.57 255 255 255
-27.10 -19.75 1.58 255 255 255
-15.06 0.59 0.81 255 255 255
6.26 34.05 2.29 255 255 255
-30.37 -20.94 1.34 255 255 255
12.38 35.01 1.83 255 255 255
-15.23 0.63 0.97 255 255 255
3.64 33.71 2.50 255 255 255
-13.81 2.33 0.83 255 255 255
-15.21 0.67 1.13 255 255 255
-14.71 0.76 1.15 255 255 255
-15.14 0.77 1.25 255 255 255
-2.55 22.93 2.85 255 255 255
-14.95 0.74 1.20 255 255 255
-15.20 1.01 1.26 255 255 255
-14.69 0.77 1.28 255 255 255
-14.74 1.39 1.31 255 255 255
-31.37 -20.34 1.21 255 255 255
-14.62 1.19 1.29 255 255 255
-28.92 -20.69 1.47 255 255 255
-1.84 24.11 0.80 255 255 255
-30.39 -20.92 0.81 255 255 255
5.05 25.64 0.90 255 255 255
-27.13 -19.72 1.11 255 255 255
-31.37 -20.33 0.68 255 255 255
-28.94 -20.68 0.96 255 255 255
-30.40 -20.91 0.28 255 255 255
-27.12 -19.68 0.64 255 255 255
-31.36 -20.30 0.14 255 255 255
-28.94 -20.69 0.45 255 255 255
-28.93 -20.65 -0.06 255 255 255
3.82 33.76 1.53 255 255 255
-31.37 -20.28 1.75 255 255 255
9.40 34.57 1.02 255 255 255
-15.26 0.56 0.57 255 255 255
-27.14 -19.68 1.58 255 255 255
-15.03 0.60 0.80 255 255 255
6.48 34.11 2.30 255 255 255
-30.46 -20.94 1.35 255 255 255
-15.21 0.64 0.97 255 255 255
12.63 35.05 1.83 255 255 255
-13.81 2.29 0.83 255 255 255
3.83 33.74 2.50 255 255 255
-15.19 0.67 1.13 255 255 255
-14.69 0.76 1.15 255 255 255
-15.11 0.79 1.25 255 255 255
-14.93 0.74 1.20 255 255 255
-15.19 1.00 1.26 255 255 255
-14.63 0.83 1.28 255 255 255
-14.72 1.38 1.31 255 255 255
-31.39 -20.24 1.21 255 255 255
-14.62 1.16 1.29 255 255 255
-29.01 -20.70 1.47 255 255 255
-1.74 24.06 0.80 255 255 255
-30.48 -20.88 0.81 255 255 255
5.10 25.47 0.90 255 255 255
-27.18 -19.66 1.11 255 255 255
-31.39 -20.23 0.68 255 255 255
-29.02 -20.70 0.96 255 255 255
-30.48 -20.88 0.28 255 255 255
-27.18 -19.65 0.64 255 255 255
-31.39 -20.20 0.14 255 255 255
-29.05 -20.69 0.45 255 255 255
-29.03 -20.67 -0.06 255 255 255
3.99 33.78 1.53 255 255 255
-31.45 -20.25 1.75 255 255 255
-15.24 0.57 0.56 255 255 255
9.64 34.61 1.02 255 255 255
-27.22 -19.68 1.58 255 255 255
-15.02 0.60 0.80 255 255 255
6.68 34.14 2.30 255 255 255
-30.49 -20.83 1.35 255 255 255
12.85 35.05 1.83 255 255 255
-15.20 0.63 0.97 255 255 255
4.00 33.74 2.50 255 255 255
-14.96 0.69 1.04 255 255 255
9.69 34.63 2.08 255 255 255
-15.18 0.66 1.12 255 255 255
-14.67 0.76 1.15 255 255 255
-15.08 0.81 1.25 255 255 255
-14.91 0.75 1.20 255 255 255
-15.18 0.99 1.26 255 255 255
-14.60 0.84 1.28 255 255 255
-14.71 1.38 1.31 255 255 255
-31.47 -20.23 1.21 255 255 255
-14.62 1.15 1.29 255 255 255
-29.12 -20.73 1.47 255 255 255
-1.64 24.03 0.80 255 255 255
-30.49 -20.79 0.81 255 255 255
5.10 25.31 0.90 255 255 255
-27.25 -19.67 1.11 255 255 255
-31.50 -20.25 0.67 255 255 255
-29.11 -20.71 0.96 255 255 255
-30.49 -20.77 0.28 255 255 255
-27.26 -19.65 0.64 255 255 255
-31.48 -20.19 0.14 255 255 255
-29.13 -20.71 0.45 255 255 255
-29.12 -20.70 -0.07 255 255 255
4.17 33.78 1.53 255 255 255
-31.56 -20.26 1.75 255 255 255
-15.24 0.56 0.56 255 255 255
-1.02 19.76 1.18 255 255 255
-27.31 -19.70 1.58 255 255 255
6.87 34.14 2.30 255 255 255
-14.99 0.62 0.80 255 255 255
-30.50 -20.74 1.34 255 255 255
13.10 35.09 1.84 255 255 255
-15.19 0.63 0.97 255 255 255
-14.93 0.70 1.04 255 255 255
4.21 33.83 2.51 255 255 255
-15.17 0.66 1.12 255 255 255
-1.01 19.75 1.82 255 255 255
-14.65 0.77 1.15 255 255 255
-15.09 0.77 1.25 255 255 255
-14.90 0.74 1.20 255 255 255
-15.18 0.98 1.26 255 255 255
-1.00 19.72 2.45 255 255 255
-14.57 0.85 1.28 255 255 255
-14.70 1.36 1.31 255 255 255
-31.60 -20.25 1.21 255 255 255
-14.61 1.14 1.29 255 255 255
-29.20 -20.72 1.47 255 255 255
-1.54 24.00 0.80 255 255 255
-30.51 -20.67 0.81 255 255 255
5.17 25.18 0.91 255 255 255
-27.34 -19.67 1.11 255 255 255
0.28 24.04 1.33 255 255 255
-31.62 -20.25 0.67 255 255 255
-29.24 -20.75 0.96 255 255 255
-30.50 -20.64 0.28 255 255 255
-27.37 -19.68 0.63 255 255 255
-31.60 -20.22 0.13 255 255 255
-29.23 -20.70 0.44 255 255 255
-30.51 -20.62 -0.51 255 255 255
-29.23 -20.70 -0.07 255 255 255
4.39 33.87 1.54 255 255 255
-15.22 0.56 0.56 255 255 255
-0.97 19.65 1.18 255 255 255
-27.48 -19.83 1.58 255 255 255
-14.94 0.67 0.78 255 255 255
7.05 34.17 2.31 255 255 255
-30.52 -20.61 1.34 255 255 255
-15.18 0.63 0.96 255 255 255
13.35 35.12 1.84 255 255 255
4.37 33.79 2.51 255 255 255
-14.83 0.82 1.02 255 255 255
-0.95 19.66 1.82 255 255 255
-15.15 0.66 1.12 255 255 255
-14.63 0.77 1.14 255 255 255
-15.07 0.79 1.25 255 255 255
-14.88 0.74 1.20 255 255 255
-0.94 19.65 2.45 255 255 255
-15.17 0.96 1.26 255 255 255
-12.14 5.19 2.13 255 255 255
-14.55 0.86 1.28 255 255 255
-14.70 1.33 1.31 255 255 255
-31.73 -20.29 1.21 255 255 255
-14.59 1.13 1.29 255 255 255
-29.29 -20.70 1.47 255 255 255
-1.44 23.96 0.80 255 255 255
-30.52 -20.54 0.82 255 255 255
5.23 25.08 0.91 255 255 255
-27.53 -19.83 1.10 255 255 255
0.36 23.94 1.33 255 255 255
-31.73 -20.28 0.67 255 255 255
-29.30 -20.69 0.96 255 255 255
-30.52 -20.53 0.29 255 255 255
-27.55 -19.85 0.63 255 255 255
-31.72 -20.23 0.13 255 255 255
-29.31 -20.69 0.44 255 255 255
-30.52 -20.51 -0.51 255 255 255
-29.30 -20.68 -0.07 255 255 255
4.58 33.87 1.54 255 255 255
-31.80 -20.31 1.75 255 255 255
-0.87 19.62 1.18 255 255 255
-15.20 0.56 0.56 255 255 255
-27.58 -19.87 1.58 255 255 255
-14.99 0.58 0.80 255 255 255
7.28 34.20 2.31 255 255 255
-30.54 -20.50 1.34 255 255 255
-15.16 0.62 0.96 255 255 255
-3.84 13.90 1.60 255 255 255
4.57 33.82 2.51 255 255 255
-14.78 0.86 1.02 255 255 255
-0.86 19.61 1.82 255 255 255
-15.13 0.67 1.12 255 255 255
-14.60 0.78 1.14 255 255 255
-15.05 0.79 1.25 255 255 255
-14.86 0.74 1.20 255 255 255
-15.15 0.97 1.26 255 255 255
-0.87 19.59 2.45 255 255 255
-12.11 5.18 2.13 255 255 255
-14.57 0.82 1.28 255 255 255
-14.72 1.28 1.32 255 255 255
-31.84 -20.30 1.21 255 255 255
-14.58 1.12 1.29 255 255 255
-29.41 -20.75 1.47 255 255 255
-1.31 23.94 0.80 255 255 255
-30.54 -20.45 0.82 255 255 255
-27.62 -19.86 1.10 255 255 255
-31.85 -20.29 0.67 255 255 255
-30.55 -20.43 0.29 255 255 255
-27.63 -19.87 0.62 255 255 255
-31.83 -20.25 0.13 255 255 255
-29.44 -20.75 0.44 255 255 255
-30.55 -20.40 -0.50 255 255 255
-29.44 -20.75 -0.08 255 255 255
4.77 33.90 1.54 255 255 255
-31.91 -20.32 1.76 255 255 255
-0.75 19.64 1.18 255 255 255
-27.67 -19.89 1.58 255 255 255
7.50 34.27 2.31 255 255 255
-14.98 0.57 0.80 255 255 255
-30.58 -20.42 1.34 255 255 255
-15.15 0.62 0.96 255 255 255
4.76 33.85 2.52 255 255 255
-14.73 0.91 1.01 255 255 255
-15.12 0.67 1.12 255 255 255
10.61 34.80 2.09 255 255 255
-14.58 0.79 1.14 255 255 255
-15.06 0.76 1.25 255 255 255
-14.85 0.75 1.20 255 255 255
-0.74 19.57 2.45 255 255 255
-15.15 0.94 1.26 255 255 255
-12.02 5.25 2.14 255 255 255
-14.53 0.84 1.28 255 255 255
-14.70 1.28 1.32 255 255 255
-31.96 -20.32 1.21 255 255 255
-14.57 1.12 1.29 255 255 255
-29.51 -20.78 1.48 255 255 255
-1.20 23.92 0.79 255 255 255
-30.59 -20.39 0.82 255 255 255
-3.83 13.75 1.12 255 255 255
-27.71 -19.88 1.10 255 255 255
-31.97 -20.32 0.66 255 255 255
-29.52 -20.76 0.95 255 255 255
-30.61 -20.38 0.29 255 255 255
-27.72 -19.86 0.62 255 255 255
-31.95 -20.27 0.12 255 255 255
-29.54 -20.77 0.43 255 255 255
-30.60 -20.35 -0.50 255 255 255
-29.53 -20.74 -0.08 255 255 255
4.96 33.96 1.54 255 255 255
10.76 34.78 1.01 255 255 255
-15.20 0.53 0.57 255 255 255
-27.75 -19.88 1.58 255 255 255
-14.94 0.60 0.79 255 255 255
-30.61 -20.34 1.34 255 255 255
-3.77 13.75 1.60 255 255 255
-15.14 0.62 0.96 255 255 255
4.97 33.91 2.52 255 255 255
-14.74 0.87 1.01 255 255 255
-15.10 0.67 1.12 255 255 255
10.83 34.80 2.09 255 255 255
-14.57 0.77 1.14 255 255 255
-3.76 13.75 2.09 255 255 255
-15.02 0.79 1.24 255 255 255
-14.82 0.76 1.20 255 255 255
-15.15 0.92 1.26 255 255 255
-14.47 0.89 1.27 255 255 255
-11.99 5.25 2.14 255 255 255
-14.69 1.28 1.32 255 255 255
-32.08 -20.32 1.21 255 255 255
-14.56 1.11 1.29 255 255 255
-29.62 -20.78 1.48 255 255 255
-1.08 23.91 0.79 255 255 255
-30.63 -20.30 0.82 255 255 255
-3.76 13.72 1.12 255 255 255
-27.77 -19.84 1.10 255 255 255
-32.10 -20.33 0.66 255 255 255
-29.64 -20.79 0.95 255 255 255
-30.63 -20.28 0.29 255 255 255
-27.77 -19.81 0.62 255 255 255
-32.08 -20.28 0.12 255 255 255
-29.65 -20.78 0.43 255 255 255
-30.64 -20.26 -0.50 255 255 255
-29.64 -20.76 -0.09 255 255 255
5.11 33.92 1.54 255 255 255
10.97 34.84 1.01 255 255 255
-15.18 0.54 0.56 255 255 255
-27.81 -19.84 1.58 255 255 255
-14.86 0.69 0.77 255 255 255
7.89 34.29 2.32 255 255 255
-30.69 -20.31 1.35 255 255 255
-3.72 13.72 1.60 255 255 255
-15.12 0.62 0.96 255 255 255
-14.72 0.88 1.01 255 255 255
5.14 33.94 2.53 255 255 255
-15.09 0.67 1.12 255 255 255
11.04 34.87 2.09 255 255 255
-14.53 0.80 1.14 255 255 255
-15.01 0.78 1.25 255 255 255
-3.71 13.71 2.09 255 255 255
-14.81 0.75 1.20 255 255 255
-15.13 0.92 1.26 255 255 255
-14.48 0.85 1.27 255 255 255
-11.93 5.28 2.14 255 255 255
-14.67 1.28 1.31 255 255 255
-32.21 -20.36 1.21 255 255 255
-14.54 1.10 1.29 255 255 255
-29.73 -20.79 1.48 255 255 255
-0.98 23.88 0.79 255 255 255
-30.70 -20.25 0.82 255 255 255
-3.69 13.69 1.12 255 255 255
-27.84 -19.81 1.10 255 255 255
-32.22 -20.35 0.66 255 255 255
-29.74 -20.81 0.95 255 255 255
-30.71 -20.25 0.29 255 255 255
-27.85 -19.80 0.62 255 255 255
-32.19 -20.29 0.11 255 255 255
-29.76 -20.82 0.43 255 255 255
-25.67 -12.49 1.87 255 255 255
-30.71 -20.23 -0.50 255 255 255
-29.75 -20.78 -0.09 255 255 255
5.31 33.98 1.54 255 255 255
-25.66 -12.48 1.55 255 255 255
11.19 34.84 1.01 255 255 255
-15.17 0.54 0.56 255 255 255
-27.90 -19.84 1.58 255 255 255
8.09 34.32 2.32 255 255 255
-14.94 0.57 0.80 255 255 255
-30.74 -20.26 1.35 255 255 255
-3.64 13.70 1.60 255 255 255
-15.11 0.62 0.96 255 255 255
-14.75 0.81 1.02 255 255 255
5.34 33.97 2.53 255 255 255
11.29 34.90 2.10 255 255 255
-15.07 0.67 1.12 255 255 255
-14.49 0.83 1.13 255 255 255
-14.99 0.79 1.25 255 255 255
-3.61 13.70 2.09 255 255 255
-14.80 0.74 1.20 255 255 255
-15.12 0.92 1.26 255 255 255
-11.87 5.30 2.14 255 255 255
-14.45 0.87 1.27 255 255 255
-14.65 1.28 1.31 255 255 255
-32.32 -20.37 1.21 255 255 255
-14.53 1.09 1.29 255 255 255
-29.83 -20.81 1.48 255 255 255
-0.86 23.86 0.79 255 255 255
-30.78 -20.24 0.82 255 255 255
-3.60 13.69 1.12 255 255 255
-27.93 -19.82 1.10 255 255 255
0.98 23.88 1.33 255 255 255
-32.33 -20.36 0.66 255 255 255
-29.85 -20.82 0.95 255 255 255
-30.80 -20.24 0.29 255 255 255
-27.94 -19.82 0.62 255 255 255
-32.30 -20.30 0.11 255 255 255
-25.67 -12.43 1.87 255 255 255
-30.79 -20.21 -0.50 255 255 255
-29.85 -20.77 -0.10 255 255 255
5.49 34.01 1.54 255 255 255
-25.67 -12.41 1.55 255 255 255
11.46 34.91 1.01 255 255 255
-15.15 0.54 0.56 255 255 255
-27.99 -19.86 1.58 255 255 255
-14.91 0.58 0.79 255 255 255
8.30 34.36 2.32 255 255 255
-30.86 -20.28 1.35 255 255 255
-15.08 0.64 0.96 255 255 255
-14.73 0.82 1.02 255 255 255
5.53 34.00 2.53 255 255 255
11.51 34.91 2.10 255 255 255
-15.05 0.68 1.12 255 255 255
-14.47 0.83 1.13 255 255 255
-14.98 0.79 1.24 255 255 255
-14.78 0.75 1.20 255 255 255
-15.11 0.90 1.26 255 255 255
-14.43 0.87 1.27 255 255 255
-11.79 5.37 2.15 255 255 255
-14.63 1.28 1.31 255 255 255
-32.43 -20.38 1.21 255 255 255
-14.52 1.08 1.29 255 255 255
-29.93 -20.83 1.48 255 255 255
-0.75 23.86 0.79 255 255 255
-30.89 -20.26 0.82 255 255 255
6.25 25.14 0.90 255 255 255
-28.03 -19.85 1.10 255 255 255
1.11 23.88 1.33 255 255 255
-32.49 -20.43 0.65 255 255 255
-29.95 -20.84 0.95 255 255 255
-30.90 -20.25 0.29 255 255 255
-28.07 -19.89 0.62 255 255 255
-32.44 -20.34 0.10 255 255 255
-25.67 -12.36 1.86 255 255 255
-29.96 -20.83 0.42 255 255 255
-30.90 -20.22 -0.51 255 255 255
-29.96 -20.81 -0.10 255 255 255
5.67 34.00 1.54 255 255 255
-25.67 -12.35 1.55 255 255 255
-15.14 0.54 0.55 255 255 255
11.68 34.95 1.01 255 255 255
-28.13 -19.94 1.59 255 255 255
-14.90 0.57 0.79 255 255 255
8.52 34.39 2.33 255 255 255
-31.01 -20.35 1.34 255 255 255
5.71 34.03 2.54 255 255 255
-14.71 0.82 1.02 255 255 255
11.72 34.97 2.10 255 255 255
-14.44 0.84 1.13 255 255 255
-14.96 0.78 1.24 255 255 255
-14.76 0.75 1.20 255 255 255
-15.16 0.81 1.27 255 255 255
-14.41 0.88 1.27 255 255 255
-14.61 1.28 1.31 255 255 255
-32.66 -20.51 1.21 255 255 255
-14.50 1.08 1.29 255 255 255
-30.04 -20.84 1.48 255 255 255
-0.62 23.87 0.79 255 255 255
-31.08 -20.37 0.81 255 255 255
6.29 24.99 0.90 255 255 255
-28.17 -19.93 1.10 255 255 255
1.18 23.80 1.33 255 255 255
-32.66 -20.48 0.65 255 255 255
-30.05 -20.84 0.95 255 255 255
-31.08 -20.36 0.28 255 255 255
-28.64 -20.65 0.58 255 255 255
-32.67 -20.47 0.09 255 255 255
-25.68 -12.30 1.86 255 255 255
-31.07 -20.30 -0.52 255 255 255
-30.06 -20.82 -0.11 255 255 255
-0.04 24.67 1.51 255 255 255
-25.68 -12.28 1.55 255 255 255
-15.12 0.53 0.55 255 255 255
5.16 26.28 1.10 255 255 255
-28.67 -20.65 1.60 255 255 255
8.74 34.42 2.33 255 255 255
-14.89 0.56 0.79 255 255 255
-31.15 -20.39 1.35 255 255 255
-15.05 0.63 0.95 255 255 255
5.91 34.06 2.54 255 255 255
-14.68 0.83 1.01 255 255 255
-15.03 0.67 1.12 255 255 255
11.95 34.94 2.10 255 255 255
-14.42 0.85 1.13 255 255 255
-11.67 5.43 1.83 255 255 255
-14.93 0.81 1.24 255 255 255
-14.74 0.76 1.19 255 255 255
-15.15 0.80 1.27 255 255 255
-14.39 0.88 1.27 255 255 255
-14.60 1.27 1.31 255 255 255
-25.72 -12.29 1.24 255 255 255
-14.48 1.08 1.29 255 255 255
-30.15 -20.86 1.48 255 255 255
-0.50 23.84 0.79 255 255 255
-31.18 -20.38 0.81 255 255 255
6.33 24.83 0.90 255 255 255
-28.71 -20.65 1.09 255 255 255
8.87 34.49 1.29 255 255 255
-25.73 -12.30 0.94 255 255 255
-30.17 -20.85 0.95 255 255 255
-31.19 -20.37 0.28 255 255 255
-28.72 -20.65 0.58 255 255 255
-25.72 -12.28 0.63 255 255 255
-30.19 -20.87 0.42 255 255 255
-25.70 -12.25 1.86 255 255 255
-31.18 -20.32 -0.53 255 255 255
-30.16 -20.82 -0.11 255 255 255
-0.02 24.52 1.51 255 255 255
-25.70 -12.23 1.55 255 255 255
-15.11 0.53 0.55 255 255 255
5.03 25.91 1.11 255 255 255
-28.77 -20.67 1.60 255 255 255
8.95 34.48 2.33 255 255 255
-14.78 0.69 0.76 255 255 255
-31.27 -20.41 1.35 255 255 255
-15.04 0.64 0.95 255 255 255
-14.68 0.82 1.01 255 255 255
6.10 34.05 2.54 255 255 255
12.19 35.01 2.11 255 255 255
-15.02 0.65 1.12 255 255 255
-14.37 0.89 1.13 255 255 255
-14.92 0.79 1.24 255 255 255
-14.72 0.76 1.19 255 255 255
-15.14 0.79 1.27 255 255 255
-14.39 0.85 1.27 255 255 255
-14.58 1.27 1.31 255 255 255
-14.48 1.07 1.29 255 255 255
-30.25 -20.86 1.48 255 255 255
-0.39 23.82 0.79 255 255 255
-31.29 -20.38 0.81 255 255 255
6.40 24.75 0.90 255 255 255
-28.81 -20.67 1.09 255 255 255
9.06 34.48 1.29 255 255 255
-30.26 -20.85 0.95 255 255 255
-31.31 -20.38 0.27 255 255 255
-28.82 -20.66 0.58 255 255 255
-25.71 -12.19 1.86 255 255 255
-30.28 -20.86 0.42 255 255 255
-31.29 -20.34 -0.53 255 255 255
-30.28 -20.84 -0.12 255 255 255
0.03 24.40 1.51 255 255 255
-25.71 -12.18 1.55 255 255 255
-15.09 0.54 0.55 255 255 255
5.04 25.73 1.11 255 255 255
-28.86 -20.68 1.60 255 255 255
-14.81 0.62 0.78 255 255 255
9.16 34.52 2.34 255 255 255
-31.34 -20.36 1.35 255 255 255
-15.01 0.66 0.95 255 255 255
6.31 34.12 2.55 255 255 255
-14.67 0.81 1.01 255 255 255
-14.99 0.67 1.12 255 255 255
12.44 35.05 2.11 255 255 255
-14.40 0.83 1.13 255 255 255
-14.90 0.79 1.24 255 255 255
-14.70 0.76 1.19 255 255 255
-15.13 0.78 1.27 255 255 255
-14.35 0.87 1.27 255 255 255
-14.56 1.27 1.31 255 255 255
-32.91 -20.42 1.21 255 255 255
-14.47 1.05 1.29 255 255 255
-30.36 -20.89 1.48 255 255 255
-0.28 23.79 0.79 255 255 255
-31.34 -20.32 0.81 255 255 255
6.54 24.69 0.90 255 255 255
-28.91 -20.68 1.09 255 255 255
9.28 34.49 1.29 255 255 255
-32.91 -20.40 0.65 255 255 255
-30.37 -20.88 0.95 255 255 255
-31.33 -20.29 0.27 255 255 255
-28.92 -20.69 0.58 255 255 255
-32.89 -20.35 0.09 255 255 255
-30.38 -20.88 0.41 255 255 255
-25.72 -12.13 1.86 255 255 255
-30.39 -20.87 -0.12 255 255 255
0.12 24.32 1.51 255 255 255
-25.72 -12.12 1.55 255 255 255
-15.08 0.54 0.55 255 255 255
5.12 25.63 1.11 255 255 255
-28.96 -20.70 1.60 255 255 255
9.39 34.52 2.34 255 255 255
-14.75 0.68 0.76 255 255 255
-31.37 -20.28 1.35 255 255 255
6.81 24.91 1.73 255 255 255
-14.92 0.76 0.93 255 255 255
-14.72 0.72 1.02 255 255 255
6.50 34.11 2.55 255 255 255
12.69 35.08 2.11 255 255 255
-14.96 0.70 1.11 255 255 255
-14.34 0.86 1.13 255 255 255
-14.90 0.77 1.24 255 255 255
-14.68 0.76 1.19 255 255 255
-15.07 0.85 1.27 255 255 255
-14.37 0.84 1.27 255 255 255
-14.54 1.27 1.31 255 255 255
-33.03 -20.42 1.21 255 255 255
-14.44 1.06 1.29 255 255 255
-30.47 -20.91 1.48 255 255 255
-0.15 23.78 0.79 255 255 255
-31.39 -20.25 0.81 255 255 255
6.81 24.81 0.89 255 255 255
-29.00 -20.70 1.09 255 255 255
9.49 34.55 1.29 255 255 255
-33.02 -20.40 0.65 255 255 255
-30.48 -20.90 0.94 255 255 255
-31.40 -20.25 0.27 255 255 255
-29.02 -20.69 0.58 255 255 255
-33.04 -20.40 0.08 255 255 255
-30.48 -20.88 0.41 255 255 255
-25.77 -12.13 1.86 255 255 255
-30.48 -20.87 -0.13 255 255 255
0.20 24.23 1.51 255 255 255
-25.78 -12.12 1.55 255 255 255
-15.06 0.54 0.54 255 255 255
5.15 25.48 1.11 255 255 255
-29.05 -20.71 1.60 255 255 255
-14.78 0.62 0.77 255 255 255
9.60 34.55 2.34 255 255 255
-31.47 -20.29 1.35 255 255 255
-14.89 0.77 0.93 255 255 255
6.70 34.14 2.55 255 255 255
-14.72 0.70 1.03 255 255 255
-14.96 0.67 1.11 255 255 255
12.91 35.08 2.11 255 255 255
-14.32 0.87 1.12 255 255 255
-14.85 0.83 1.24 255 255 255
-14.66 0.77 1.19 255 255 255
-15.08 0.81 1.27 255 255 255
-14.32 0.87 1.27 255 255 255
-14.52 1.27 1.31 255 255 255
-33.15 -20.45 1.21 255 255 255
-14.43 1.05 1.29 255 255 255
-30.50 -20.82 1.48 255 255 255
-0.04 23.77 0.79 255 255 255
-31.50 -20.27 0.81 255 255 255
6.97 24.80 0.89 255 255 255
-29.11 -20.71 1.09 255 255 255
9.71 34.55 1.29 255 255 255
-33.17 -20.44 0.64 255 255 255
-30.52 -20.81 0.94 255 255 255
-31.51 -20.26 0.27 255 255 255
-29.12 -20.72 0.57 255 255 255
-33.15 -20.41 0.08 255 255 255
-30.52 -20.79 0.41 255 255 255
-30.52 -20.80 -0.12 255 255 255
0.33 24.24 1.51 255 255 255
-15.05 0.54 0.54 255 255 255
5.13 25.25 1.11 255 255 255
-29.15 -20.71 1.60 255 255 255
-14.75 0.64 0.77 255 255 255
9.82 34.58 2.35 255 255 255
-14.87 0.78 0.92 255 255 255
-14.69 0.72 1.02 255 255 255
6.87 34.17 2.56 255 255 255
13.15 35.15 2.12 255 255 255
-14.93 0.70 1.11 255 255 255
-14.33 0.84 1.13 255 255 255
-14.86 0.79 1.24 255 255 255
-14.64 0.77 1.19 255 255 255
-15.09 0.77 1.27 255 255 255
-14.29 0.88 1.27 255 255 255
-14.51 1.27 1.31 255 255 255
-33.29 -20.47 1.21 255 255 255
-14.41 1.05 1.29 255 255 255
-30.52 -20.69 1.48 255 255 255
0.08 23.75 0.79 255 255 255
-31.61 -20.27 0.81 255 255 255
6.97 24.65 0.89 255 255 255
-29.22 -20.74 1.09 255 255 255
-0.98 19.73 1.34 255 255 255
-33.28 -20.44 0.64 255 255 255
-30.54 -20.70 0.95 255 255 255
-31.63 -20.27 0.27 255 255 255
-29.22 -20.72 0.57 255 255 255
-33.30 -20.44 0.07 255 255 255
-30.54 -20.68 0.41 255 255 255
-25.51 -12.67 0.23 255 255 255
-30.54 -20.67 -0.12 255 255 255
0.44 24.21 1.51 255 255 255
5.28 25.24 1.11 255 255 255
-15.03 0.55 0.54 255 255 255
-29.26 -20.74 1.60 255 255 255
-14.73 0.64 0.76 255 255 255
-0.95 19.68 1.97 255 255 255
-31.72 -20.34 1.35 255 255 255
-14.84 0.79 0.92 255 255 255
7.09 34.20 2.56 255 255 255
-14.68 0.70 1.02 255 255 255
13.40 35.16 2.12 255 255 255
-14.93 0.68 1.11 255 255 255
-14.29 0.86 1.12 255 255 255
-0.93 19.69 2.61 255 255 255
-14.86 0.77 1.24 255 255 255
-14.62 0.77 1.19 255 255 255
-15.04 0.82 1.27 255 255 255
-14.28 0.87 1.27 255 255 255
-14.48 1.28 1.31 255 255 255
-33.52 -20.60 1.21 255 255 255
-14.40 1.04 1.29 255 255 255
-30.54 -20.59 1.48 255 255 255
0.19 23.72 0.78 255 255 255
-31.75 -20.32 0.80 255 255 255
7.49 25.01 0.88 255 255 255
-29.30 -20.72 1.09 255 255 255
-0.91 19.64 1.34 255 255 255
-33.50 -20.55 0.64 255 255 255
-30.56 -20.60 0.95 255 255 255
-31.75 -20.29 0.26 255 255 255
-29.30 -20.70 0.57 255 255 255
-33.55 -20.59 0.06 255 255 255
-30.55 -20.57 0.42 255 255 255
-30.55 -20.56 -0.11 255 255 255
0.57 24.19 1.51 255 255 255
-32.84 -19.78 1.76 255 255 255
-15.00 0.56 0.53 255 255 255
-3.89 13.86 1.24 255 255 255
-29.36 -20.76 1.60 255 255 255
-14.71 0.64 0.76 255 255 255
-0.89 19.59 1.97 255 255 255
-31.85 -20.37 1.35 255 255 255
-14.79 0.85 0.91 255 255 255
7.31 34.23 2.56 255 255 255
-14.66 0.70 1.02 255 255 255
-14.90 0.69 1.11 255 255 255
-0.89 19.58 2.61 255 255 255
-14.27 0.87 1.12 255 255 255
-14.83 0.79 1.24 255 255 255
-14.60 0.77 1.19 255 255 255
-15.03 0.81 1.27 255 255 255
-3.83 13.88 2.21 255 255 255
-14.29 0.84 1.27 255 255 255
-14.46 1.28 1.31 255 255 255
-3.82 13.88 2.70 255 255 255
-14.38 1.05 1.29 255 255 255
-30.56 -20.48 1.48 255 255 255
0.32 23.71 0.78 255 255 255
-31.87 -20.33 0.80 255 255 255
7.68 25.02 0.88 255 255 255
-29.40 -20.74 1.09 255 255 255
-0.82 19.61 1.34 255 255 255
-30.57 -20.49 0.95 255 255 255
-31.86 -20.30 0.26 255 255 255
