ply
format ascii 1.0
element vertex 1589
property float x
property float y
property float z
property uchar red
property uchar green
property uchar blue
end_header
-14.06 0.93 1.24 255 255 255
-13.83 0.99 0.95 255 255 255
-11.68 5.47 1.91 255 255 255
-23.56 -19.33 0.77 255 255 255
-14.11 0.82 1.11 255 255 255
-25.88 -19.61 0.48 255 255 255
-14.01 0.69 0.54 255 255 255
-24.68 -19.45 1.09 255 255 255
-14.10 0.83 0.79 255 255 255
-19.04 -8.64 0.14 255 255 255
-27.12 -19.66 0.81 255 255 255
-23.58 -19.36 1.21 255 255 255
-19.06 -8.66 0.50 255 255 255
-25.91 -19.63 0.95 255 255 255
-24.71 -19.48 1.54 255 255 255
-24.30 -18.69 -0.22 255 255 255
-27.14 -19.67 1.30 255 255 255
-25.43 -18.81 -0.51 255 255 255
-23.60 -19.36 1.65 255 255 255
-25.93 -19.64 1.43 255 255 255
-23.58 -19.32 -0.13 255 255 255
-27.05 -19.51 -0.16 255 255 255
-25.93 -19.63 1.90 255 255 255
-24.39 -18.84 0.21 255 255 255
-25.51 -18.91 0.05 255 255 255
-23.59 -19.32 0.32 255 255 255
5.63 33.98 2.11 255 255 255
-27.14 -19.64 0.32 255 255 255
0.80 33.28 2.50 255 255 255
-24.71 -19.43 0.63 255 255 255
8.31 34.33 1.89 255 255 255
3.13 33.57 2.31 255 255 255
-12.18 5.33 2.22 255 255 255
-0.28 23.92 1.18 255 255 255
0.86 33.30 1.59 255 255 255
1.35 23.71 1.00 255 255 255
3.18 33.62 1.37 255 255 255
-13.87 0.89 1.18 255 255 255
-14.04 0.93 1.24 255 255 255
-11.66 5.45 1.91 255 255 255
-13.83 0.97 0.95 255 255 255
-23.62 -19.30 0.77 255 255 255
-14.10 0.82 1.11 255 255 255
-25.93 -19.56 0.48 255 255 255
-14.00 0.68 0.54 255 255 255
-24.76 -19.45 1.08 255 255 255
-14.11 0.79 0.79 255 255 255
-27.19 -19.64 0.81 255 255 255
-19.06 -8.63 0.14 255 255 255
-23.64 -19.33 1.21 255 255 255
-19.09 -8.66 0.49 255 255 255
-25.95 -19.56 0.95 255 255 255
-24.79 -19.48 1.54 255 255 255
-27.21 -19.65 1.30 255 255 255
-24.35 -18.66 -0.22 255 255 255
-23.66 -19.32 1.65 255 255 255
-25.96 -19.55 1.43 255 255 255
-23.63 -19.28 -0.12 255 255 255
-27.13 -19.52 -0.17 255 255 255
-25.97 -19.55 1.90 255 255 255
-24.77 -19.43 0.17 255 255 255
-25.91 -19.46 0.01 255 255 255
-23.64 -19.27 0.32 255 255 255
5.81 34.01 2.11 255 255 255
-27.21 -19.62 0.32 255 255 255
0.96 33.27 2.50 255 255 255
-24.79 -19.44 0.62 255 255 255
8.51 34.36 1.89 255 255 255
3.31 33.60 2.31 255 255 255
-12.15 5.32 2.22 255 255 255
-0.13 23.97 1.18 255 255 255
1.01 33.32 1.59 255 255 255
1.45 23.66 1.00 255 255 255
3.35 33.65 1.37 255 255 255
-13.86 0.89 1.18 255 255 255
-14.03 0.93 1.24 255 255 255
-13.85 0.91 0.96 255 255 255
-23.67 -19.26 0.77 255 255 255
-14.08 0.83 1.11 255 255 255
-25.97 -19.49 0.48 255 255 255
-13.98 0.69 0.53 255 255 255
-24.84 -19.47 1.08 255 255 255
-14.06 0.86 0.78 255 255 255
-27.28 -19.65 0.81 255 255 255
-23.68 -19.25 1.21 255 255 255
-26.00 -19.51 0.95 255 255 255
-19.11 -8.66 0.49 255 255 255
-24.87 -19.49 1.54 255 255 255
-24.43 -18.67 -0.22 255 255 255
-27.30 -19.65 1.30 255 255 255
-23.69 -19.24 1.65 255 255 255
-26.02 -19.51 1.43 255 255 255
-23.69 -19.23 -0.12 255 255 255
-27.23 -19.53 -0.17 255 255 255
-26.03 -19.52 1.90 255 255 255
-24.86 -19.45 0.16 255 255 255
-25.97 -19.41 0.01 255 255 255
-23.69 -19.23 0.32 255 255 255
6.00 34.04 2.11 255 255 255
-27.31 -19.62 0.31 255 255 255
1.13 33.30 2.50 255 255 255
-24.88 -19.46 0.62 255 255 255
8.72 34.39 1.89 255 255 255
3.48 33.62 2.31 255 255 255
-0.15 23.72 1.18 255 255 255
1.16 33.35 1.59 255 255 255
1.58 23.67 1.00 255 255 255
3.52 33.67 1.37 255 255 255
-13.84 0.91 1.18 255 255 255
-14.01 0.94 1.24 255 255 255
-13.87 0.86 0.96 255 255 255
-23.72 -19.21 0.77 255 255 255
-14.07 0.83 1.11 255 255 255
-26.04 -19.47 0.48 255 255 255
-13.97 0.69 0.53 255 255 255
-24.93 -19.48 1.08 255 255 255
-14.01 0.93 0.77 255 255 255
-27.43 -19.74 0.80 255 255 255
-23.74 -19.21 1.21 255 255 255
-20.59 -11.36 0.11 255 255 255
-26.08 -19.50 0.95 255 255 255
-24.96 -19.51 1.54 255 255 255
-24.55 -18.76 -0.24 255 255 255
-27.48 -19.78 1.30 255 255 255
-23.76 -19.22 1.65 255 255 255
-23.73 -19.19 -0.12 255 255 255
-26.10 -19.51 1.43 255 255 255
-27.33 -19.56 -0.18 255 255 255
-24.95 -19.46 0.16 255 255 255
-26.12 -19.54 1.90 255 255 255
-26.03 -19.38 0.01 255 255 255
-23.75 -19.19 0.32 255 255 255
6.19 34.07 2.11 255 255 255
-27.49 -19.76 0.30 255 255 255
1.28 33.32 2.50 255 255 255
-24.96 -19.47 0.62 255 255 255
3.65 33.65 2.31 255 255 255
0.08 23.93 1.18 255 255 255
1.32 33.34 1.59 255 255 255
3.71 33.70 1.37 255 255 255
-13.83 0.90 1.18 255 255 255
-13.99 0.95 1.23 255 255 255
-13.86 0.85 0.96 255 255 255
-23.79 -19.20 0.77 255 255 255
-14.05 0.83 1.11 255 255 255
-26.14 -19.48 0.47 255 255 255
-13.95 0.69 0.53 255 255 255
-25.02 -19.50 1.08 255 255 255
-13.99 0.95 0.76 255 255 255
-27.61 -19.87 0.80 255 255 255
-23.81 -19.23 1.21 255 255 255
-26.18 -19.52 0.95 255 255 255
-20.63 -11.36 0.10 255 255 255
-25.05 -19.53 1.54 255 255 255
-27.62 -19.86 1.30 255 255 255
-24.99 -19.44 -0.31 255 255 255
-23.83 -19.24 1.65 255 255 255
-26.21 -19.55 1.43 255 255 255
-23.82 -19.20 -0.13 255 255 255
-27.52 -19.70 -0.19 255 255 255
-26.23 -19.57 1.90 255 255 255
-25.03 -19.47 0.15 255 255 255
-0.91 19.65 2.27 255 255 255
-26.11 -19.38 0.00 255 255 255
-23.82 -19.20 0.32 255 255 255
6.39 34.10 2.12 255 255 255
-27.63 -19.84 0.30 255 255 255
1.45 33.35 2.51 255 255 255
-25.05 -19.48 0.62 255 255 255
-0.92 19.63 1.66 255 255 255
3.82 33.68 2.32 255 255 255
0.20 23.90 1.18 255 255 255
1.49 33.40 1.59 255 255 255
-0.89 19.64 1.05 255 255 255
3.88 33.73 1.37 255 255 255
-13.81 0.90 1.18 255 255 255
-13.98 0.95 1.23 255 255 255
-13.84 0.86 0.96 255 255 255
-23.87 -19.21 0.76 255 255 255
-14.04 0.84 1.11 255 255 255
-26.29 -19.61 0.47 255 255 255
-13.93 0.71 0.52 255 255 255
-25.10 -19.50 1.08 255 255 255
-14.00 0.89 0.77 255 255 255
-27.69 -19.86 0.79 255 255 255
-23.89 -19.24 1.21 255 255 255
-20.68 -11.38 0.10 255 255 255
-26.34 -19.65 0.94 255 255 255
-25.12 -19.53 1.54 255 255 255
-25.08 -19.44 -0.31 255 255 255
-27.71 -19.86 1.30 255 255 255
-23.92 -19.26 1.65 255 255 255
-23.89 -19.21 -0.13 255 255 255
-26.36 -19.66 1.43 255 255 255
-27.70 -19.82 -0.21 255 255 255
-26.37 -19.67 1.91 255 255 255
-25.11 -19.48 0.15 255 255 255
-0.87 19.58 2.27 255 255 255
-26.21 -19.40 -0.00 255 255 255
-23.90 -19.19 0.32 255 255 255
6.57 34.13 2.12 255 255 255
-27.72 -19.84 0.29 255 255 255
1.61 33.37 2.51 255 255 255
-25.13 -19.49 0.62 255 255 255
-0.85 19.59 1.66 255 255 255
3.99 33.70 2.32 255 255 255
-11.94 5.50 2.25 255 255 255
0.30 23.88 1.18 255 255 255
1.64 33.42 1.59 255 255 255
-0.82 19.60 1.05 255 255 255
4.05 33.75 1.37 255 255 255
-13.80 0.91 1.17 255 255 255
-13.97 0.95 1.23 255 255 255
-13.83 0.85 0.96 255 255 255
-23.96 -19.24 0.76 255 255 255
-14.03 0.83 1.11 255 255 255
-26.40 -19.64 0.46 255 255 255
-13.92 0.71 0.52 255 255 255
-25.18 -19.50 1.08 255 255 255
-13.96 0.96 0.76 255 255 255
-27.76 -19.83 0.79 255 255 255
-23.97 -19.24 1.21 255 255 255
-26.46 -19.72 0.94 255 255 255
-25.21 -19.54 1.54 255 255 255
-27.77 -19.82 1.30 255 255 255
-25.16 -19.45 -0.31 255 255 255
-24.00 -19.26 1.65 255 255 255
-23.97 -19.22 -0.13 255 255 255
-26.48 -19.73 1.43 255 255 255
-27.76 -19.79 -0.21 255 255 255
-25.20 -19.49 0.15 255 255 255
-26.49 -19.73 1.91 255 255 255
-0.78 19.54 2.27 255 255 255
-26.30 -19.42 -0.01 255 255 255
-23.98 -19.22 0.31 255 255 255
6.76 34.16 2.12 255 255 255
-27.78 -19.79 0.29 255 255 255
-3.24 23.16 2.16 255 255 255
-25.22 -19.50 0.61 255 255 255
-0.75 19.56 1.66 255 255 255
4.16 33.73 2.32 255 255 255
0.37 23.80 1.18 255 255 255
-11.95 5.40 2.23 255 255 255
1.81 33.44 1.60 255 255 255
-0.71 19.59 1.05 255 255 255
4.22 33.78 1.37 255 255 255
-13.78 0.91 1.17 255 255 255
-13.96 0.94 1.23 255 255 255
-13.81 0.86 0.96 255 255 255
-24.03 -19.25 0.76 255 255 255
-14.01 0.84 1.10 255 255 255
-26.49 -19.67 0.46 255 255 255
-13.90 0.71 0.52 255 255 255
-25.27 -19.53 1.08 255 255 255
-13.94 0.96 0.76 255 255 255
-27.82 -19.80 0.79 255 255 255
-24.07 -19.30 1.21 255 255 255
-26.52 -19.68 0.94 255 255 255
-25.29 -19.56 1.54 255 255 255
-27.84 -19.81 1.30 255 255 255
-25.24 -19.48 -0.32 255 255 255
-24.12 -19.38 1.66 255 255 255
-26.52 -19.66 1.42 255 255 255
-24.06 -19.26 -0.14 255 255 255
-27.84 -19.78 -0.21 255 255 255
-26.53 -19.67 1.91 255 255 255
-25.28 -19.52 0.14 255 255 255
-0.66 19.55 2.27 255 255 255
-26.38 -19.42 -0.01 255 255 255
-24.07 -19.26 0.31 255 255 255
6.96 34.19 2.12 255 255 255
-27.86 -19.79 0.29 255 255 255
-3.15 23.15 2.17 255 255 255
-25.30 -19.52 0.61 255 255 255
4.35 33.76 2.33 255 255 255
-11.93 5.38 2.23 255 255 255
0.51 23.80 1.18 255 255 255
1.99 33.44 1.60 255 255 255
-13.77 0.91 1.17 255 255 255
-13.94 0.95 1.23 255 255 255
-13.82 0.83 0.96 255 255 255
-24.16 -19.36 0.75 255 255 255
-13.99 0.85 1.10 255 255 255
-26.54 -19.60 0.46 255 255 255
-3.22 22.88 2.81 255 255 255
-13.89 0.71 0.52 255 255 255
-25.35 -19.54 1.08 255 255 255
-13.93 0.95 0.76 255 255 255
-27.93 -19.81 0.79 255 255 255
-24.19 -19.38 1.20 255 255 255
-26.57 -19.62 0.94 255 255 255
-25.39 -19.57 1.54 255 255 255
-27.95 -19.82 1.30 255 255 255
-25.34 -19.48 -0.32 255 255 255
-24.22 -19.42 1.66 255 255 255
-26.58 -19.62 1.42 255 255 255
-24.17 -19.33 -0.15 255 255 255
-27.93 -19.78 -0.22 255 255 255
-26.59 -19.62 1.91 255 255 255
-25.37 -19.53 0.14 255 255 255
-26.49 -19.45 -0.01 255 255 255
-24.19 -19.35 0.30 255 255 255
-27.97 -19.80 0.29 255 255 255
-3.00 23.21 2.17 255 255 255
-25.39 -19.54 0.61 255 255 255
9.96 34.55 1.90 255 255 255
4.53 33.78 2.33 255 255 255
1.44 25.08 1.18 255 255 255
-11.89 5.41 2.24 255 255 255
2.16 33.47 1.60 255 255 255
4.58 33.80 1.37 255 255 255
-13.75 0.92 1.17 255 255 255
-13.93 0.94 1.23 255 255 255
-13.79 0.85 0.96 255 255 255
-24.24 -19.37 0.75 255 255 255
-13.98 0.84 1.10 255 255 255
-26.60 -19.56 0.46 255 255 255
-3.61 21.91 2.75 255 255 255
-13.88 0.71 0.52 255 255 255
-25.43 -19.55 1.08 255 255 255
-13.91 0.97 0.75 255 255 255
-28.06 -19.88 0.79 255 255 255
-24.26 -19.40 1.20 255 255 255
-26.63 -19.59 0.94 255 255 255
-25.46 -19.58 1.54 255 255 255
-28.08 -19.88 1.30 255 255 255
-25.42 -19.49 -0.33 255 255 255
-24.29 -19.41 1.66 255 255 255
-24.17 -19.17 -0.14 255 255 255
-26.65 -19.60 1.42 255 255 255
-28.07 -19.85 -0.23 255 255 255
-26.67 -19.61 1.91 255 255 255
-25.45 -19.53 0.14 255 255 255
-26.57 -19.46 -0.02 255 255 255
-24.28 -19.37 0.30 255 255 255
7.32 34.21 2.13 255 255 255
-28.12 -19.91 0.28 255 255 255
-2.82 23.38 2.18 255 255 255
-25.47 -19.54 0.61 255 255 255
10.17 34.61 1.91 255 255 255
-11.84 5.44 2.24 255 255 255
1.59 25.12 1.18 255 255 255
2.32 33.52 1.60 255 255 255
4.76 33.83 1.38 255 255 255
-13.73 0.92 1.17 255 255 255
-13.91 0.94 1.23 255 255 255
-13.77 0.85 0.96 255 255 255
-24.32 -19.38 0.75 255 255 255
-13.97 0.84 1.10 255 255 255
-26.68 -19.56 0.46 255 255 255
-3.49 21.94 2.75 255 255 255
-13.86 0.71 0.51 255 255 255
-25.52 -19.57 1.07 255 255 255
-13.90 0.97 0.75 255 255 255
-28.68 -20.64 0.76 255 255 255
-24.35 -19.41 1.20 255 255 255
-26.72 -19.61 0.94 255 255 255
-25.55 -19.59 1.54 255 255 255
-25.47 -19.46 -0.33 255 255 255
-28.72 -20.65 1.29 255 255 255
-24.38 -19.44 1.66 255 255 255
-24.19 -19.08 -0.13 255 255 255
-26.76 -19.64 1.42 255 255 255
-28.71 -20.63 -0.31 255 255 255
-25.54 -19.54 0.13 255 255 255
-26.66 -19.47 -0.02 255 255 255
-24.34 -19.35 0.30 255 255 255
7.54 34.27 2.13 255 255 255
-28.73 -20.64 0.23 255 255 255
-2.64 23.48 2.18 255 255 255
-25.56 -19.55 0.60 255 255 255
10.38 34.64 1.91 255 255 255
4.89 33.84 2.34 255 255 255
0.93 23.88 1.18 255 255 255
2.49 33.55 1.60 255 255 255
-10.79 4.75 1.23 255 255 255
-0.31 24.72 1.36 255 255 255
-13.71 0.93 1.17 255 255 255
-13.89 0.95 1.23 255 255 255
-13.75 0.87 0.96 255 255 255
-24.40 -19.39 0.75 255 255 255
-13.95 0.86 1.10 255 255 255
-26.88 -19.73 0.44 255 255 255
-13.85 0.71 0.51 255 255 255
-3.38 21.93 2.76 255 255 255
-25.62 -19.58 1.07 255 255 255
-13.90 0.93 0.76 255 255 255
-28.81 -20.66 0.76 255 255 255
-24.42 -19.42 1.20 255 255 255
-26.89 -19.74 0.93 255 255 255
-25.65 -19.61 1.54 255 255 255
-25.36 -19.11 -0.30 255 255 255
-28.84 -20.68 1.29 255 255 255
-24.45 -19.43 1.66 255 255 255
-26.92 -19.75 1.42 255 255 255
-24.18 -18.92 -0.12 255 255 255
-28.83 -20.64 -0.31 255 255 255
-25.63 -19.56 0.13 255 255 255
-26.76 -19.47 -0.03 255 255 255
-24.20 -18.93 0.32 255 255 255
7.72 34.27 2.13 255 255 255
-28.86 -20.67 0.22 255 255 255
-2.52 23.50 2.19 255 255 255
-25.65 -19.57 0.60 255 255 255
10.60 34.68 1.91 255 255 255
1.03 23.82 1.18 255 255 255
2.65 33.54 1.60 255 255 255
-10.77 4.73 1.23 255 255 255
-0.33 24.45 1.36 255 255 255
-13.69 0.93 1.17 255 255 255
-11.75 5.47 1.96 255 255 255
-13.88 0.94 1.23 255 255 255
-13.76 0.83 0.96 255 255 255
-24.49 -19.42 0.75 255 255 255
-13.94 0.85 1.10 255 255 255
-26.95 -19.70 0.44 255 255 255
-13.83 0.72 0.51 255 255 255
-3.27 21.94 2.76 255 255 255
-25.71 -19.59 1.07 255 255 255
-13.89 0.94 0.76 255 255 255
-28.90 -20.65 0.75 255 255 255
-24.51 -19.42 1.20 255 255 255
-27.00 -19.76 0.93 255 255 255
-25.73 -19.62 1.54 255 255 255
-28.95 -20.70 1.29 255 255 255
-25.41 -19.06 -0.30 255 255 255
-24.53 -19.44 1.66 255 255 255
-27.02 -19.77 1.42 255 255 255
-24.26 -18.91 -0.12 255 255 255
-28.93 -20.66 -0.32 255 255 255
-25.72 -19.57 0.13 255 255 255
-26.85 -19.50 -0.03 255 255 255
-24.25 -18.88 0.32 255 255 255
7.93 34.33 2.14 255 255 255
-28.96 -20.67 0.22 255 255 255
2.77 33.51 2.53 255 255 255
-25.74 -19.59 0.60 255 255 255
10.82 34.71 1.91 255 255 255
5.25 33.86 2.34 255 255 255
1.18 23.86 1.18 255 255 255
2.82 33.57 1.60 255 255 255
-0.28 24.33 1.36 255 255 255
-13.68 0.93 1.17 255 255 255
-11.72 5.46 1.96 255 255 255
-13.87 0.95 1.23 255 255 255
-13.74 0.83 0.96 255 255 255
-24.57 -19.43 0.74 255 255 255
-13.92 0.85 1.10 255 255 255
-27.07 -19.77 0.44 255 255 255
-3.04 22.20 2.78 255 255 255
-13.82 0.71 0.51 255 255 255
-25.78 -19.60 1.07 255 255 255
-13.87 0.93 0.76 255 255 255
-29.04 -20.72 0.75 255 255 255
-24.58 -19.43 1.20 255 255 255
-27.08 -19.76 0.93 255 255 255
-25.82 -19.64 1.54 255 255 255
-29.04 -20.70 1.29 255 255 255
-25.47 -19.04 -0.30 255 255 255
-24.61 -19.46 1.66 255 255 255
-24.25 -18.77 -0.11 255 255 255
-27.09 -19.75 1.42 255 255 255
-29.02 -20.66 -0.32 255 255 255
-25.80 -19.57 0.12 255 255 255
-26.94 -19.51 -0.04 255 255 255
-24.32 -18.86 0.32 255 255 255
8.12 34.33 2.14 255 255 255
-29.07 -20.70 0.21 255 255 255
2.94 33.57 2.54 255 255 255
-25.82 -19.59 0.60 255 255 255
11.04 34.71 1.91 255 255 255
5.43 33.89 2.35 255 255 255
2.99 33.59 1.60 255 255 255
-0.24 24.18 1.36 255 255 255
-11.68 5.47 1.96 255 255 255
-13.66 0.94 1.17 255 255 255
-13.85 0.95 1.23 255 255 255
-13.69 0.89 0.95 255 255 255
-24.65 -19.43 0.74 255 255 255
-13.91 0.84 1.10 255 255 255
-27.10 -19.67 0.44 255 255 255
-13.81 0.71 0.51 255 255 255
-2.94 22.17 2.78 255 255 255
-25.88 -19.62 1.07 255 255 255
-13.86 0.94 0.75 255 255 255
-29.15 -20.72 0.75 255 255 255
-24.67 -19.44 1.20 255 255 255
-27.12 -19.68 0.93 255 255 255
-25.91 -19.63 1.54 255 255 255
-29.16 -20.72 1.29 255 255 255
-25.52 -18.96 -0.29 255 255 255
-24.71 -19.48 1.66 255 255 255
-27.14 -19.68 1.42 255 255 255
-24.38 -18.84 -0.12 255 255 255
-29.15 -20.69 -0.33 255 255 255
-25.48 -18.89 0.17 255 255 255
-27.04 -19.52 -0.04 255 255 255
-24.69 -19.42 0.28 255 255 255
8.32 34.36 2.14 255 255 255
-29.15 -20.65 0.21 255 255 255
3.11 33.57 2.54 255 255 255
-25.92 -19.61 0.59 255 255 255
11.25 34.74 1.92 255 255 255
5.62 33.92 2.35 255 255 255
3.16 33.62 1.60 255 255 255
-0.18 24.06 1.36 255 255 255
-13.65 0.94 1.17 255 255 255
-13.84 0.94 1.23 255 255 255
-13.68 0.89 0.95 255 255 255
-24.73 -19.44 0.74 255 255 255
-13.89 0.86 1.10 255 255 255
-27.16 -19.63 0.44 255 255 255
-13.79 0.71 0.50 255 255 255
-25.95 -19.60 1.07 255 255 255
-13.85 0.93 0.75 255 255 255
-29.23 -20.72 0.75 255 255 255
-24.76 -19.47 1.20 255 255 255
-27.20 -19.67 0.93 255 255 255
-25.95 -19.59 1.54 255 255 255
-29.24 -20.71 1.29 255 255 255
-25.51 -18.84 -0.28 255 255 255
-24.78 -19.49 1.66 255 255 255
-27.22 -19.68 1.42 255 255 255
-24.41 -18.78 -0.12 255 255 255
-25.91 -19.49 0.12 255 255 255
-27.14 -19.54 -0.05 255 255 255
-24.77 -19.44 0.28 255 255 255
8.55 34.43 2.15 255 255 255
-29.25 -20.68 0.21 255 255 255
3.30 33.59 2.54 255 255 255
-25.97 -19.56 0.59 255 255 255
11.50 34.81 1.92 255 255 255
5.81 33.94 2.35 255 255 255
3.33 33.64 1.61 255 255 255
5.22 26.26 0.96 255 255 255
-0.08 24.04 1.36 255 255 255
-13.63 0.94 1.17 255 255 255
-13.82 0.95 1.23 255 255 255
-13.66 0.90 0.95 255 255 255
-24.81 -19.47 0.74 255 255 255
-13.88 0.86 1.10 255 255 255
-27.25 -19.63 0.44 255 255 255
-13.78 0.72 0.50 255 255 255
-25.97 -19.51 1.07 255 255 255
-13.86 0.89 0.76 255 255 255
-29.33 -20.70 0.75 255 255 255
-24.84 -19.47 1.20 255 255 255
-27.30 -19.69 0.93 255 255 255
-25.99 -19.52 1.54 255 255 255
-29.35 -20.71 1.29 255 255 255
-25.57 -18.79 -0.28 255 255 255
-24.86 -19.49 1.66 255 255 255
-24.50 -18.83 -0.13 255 255 255
-27.32 -19.69 1.42 255 255 255
-29.34 -20.67 -0.34 255 255 255
-25.96 -19.43 0.13 255 255 255
-27.23 -19.54 -0.05 255 255 255
-24.85 -19.45 0.28 255 255 255
8.72 34.42 2.15 255 255 255
-29.38 -20.72 0.20 255 255 255
3.47 33.62 2.55 255 255 255
-26.01 -19.49 0.60 255 255 255
11.72 34.82 1.92 255 255 255
5.98 33.97 2.35 255 255 255
-1.02 19.81 1.20 255 255 255
3.50 33.67 1.61 255 255 255
-3.83 13.84 1.11 255 255 255
0.04 24.01 1.36 255 255 255
-13.62 0.94 1.17 255 255 255
-13.80 0.96 1.23 255 255 255
-13.65 0.88 0.95 255 255 255
-24.90 -19.47 0.74 255 255 255
-13.87 0.86 1.10 255 255 255
-3.80 13.86 2.49 255 255 255
-27.37 -19.68 0.43 255 255 255
-13.76 0.72 0.50 255 255 255
-26.05 -19.49 1.07 255 255 255
-13.83 0.92 0.75 255 255 255
-24.92 -19.49 1.20 255 255 255
-27.49 -19.84 0.92 255 255 255
-26.08 -19.51 1.54 255 255 255
-29.49 -20.77 1.29 255 255 255
-26.00 -19.38 -0.35 255 255 255
-24.95 -19.51 1.66 255 255 255
-27.52 -19.87 1.42 255 255 255
-24.60 -18.86 -0.13 255 255 255
-29.48 -20.73 -0.35 255 255 255
-26.02 -19.40 0.12 255 255 255
-27.33 -19.56 -0.05 255 255 255
-24.93 -19.45 0.27 255 255 255
-0.98 19.73 1.81 255 255 255
-29.49 -20.72 0.20 255 255 255
3.63 33.68 2.55 255 255 255
-26.08 -19.48 0.59 255 255 255
6.16 34.00 2.36 255 255 255
-0.98 19.69 1.20 255 255 255
3.69 33.70 1.61 255 255 255
-3.80 13.77 1.11 255 255 255
0.15 24.01 1.36 255 255 255
-13.60 0.94 1.17 255 255 255
-13.79 0.96 1.23 255 255 255
-24.98 -19.47 0.73 255 255 255
-13.85 0.86 1.10 255 255 255
-3.78 13.78 2.49 255 255 255
-27.57 -19.85 0.42 255 255 255
-13.75 0.72 0.50 255 255 255
-26.13 -19.50 1.07 255 255 255
-0.95 19.68 2.42 255 255 255
-13.83 0.89 0.76 255 255 255
-29.57 -20.75 0.74 255 255 255
-25.01 -19.50 1.20 255 255 255
-27.61 -19.88 0.92 255 255 255
-26.17 -19.53 1.55 255 255 255
-26.08 -19.38 -0.35 255 255 255
-29.59 -20.78 1.28 255 255 255
-25.04 -19.53 1.66 255 255 255
-27.63 -19.89 1.42 255 255 255
-24.99 -19.46 -0.19 255 255 255
-29.58 -20.74 -0.35 255 255 255
-26.11 -19.41 0.12 255 255 255
-3.76 13.75 2.03 255 255 255
-27.44 -19.60 -0.06 255 255 255
-25.01 -19.47 0.27 255 255 255
-0.93 19.62 1.81 255 255 255
-29.61 -20.75 0.19 255 255 255
3.81 33.67 2.55 255 255 255
-26.18 -19.50 0.59 255 255 255
-3.75 13.74 1.57 255 255 255
6.36 34.03 2.36 255 255 255
-0.91 19.63 1.20 255 255 255
3.86 33.72 1.61 255 255 255
-3.76 13.70 1.11 255 255 255
0.28 24.00 1.36 255 255 255
-13.58 0.95 1.17 255 255 255
-13.77 0.96 1.23 255 255 255
-13.64 0.85 0.95 255 255 255
-25.07 -19.50 0.73 255 255 255
-13.84 0.85 1.10 255 255 255
-3.74 13.71 2.49 255 255 255
-27.67 -19.86 0.42 255 255 255
-13.73 0.72 0.50 255 255 255
-26.25 -19.54 1.07 255 255 255
-13.81 0.90 0.76 255 255 255
-0.89 19.59 2.42 255 255 255
-29.70 -20.79 0.74 255 255 255
-25.09 -19.51 1.20 255 255 255
-27.69 -19.88 0.92 255 255 255
-26.32 -19.65 1.55 255 255 255
-26.17 -19.39 -0.36 255 255 255
-29.73 -20.82 1.28 255 255 255
-25.12 -19.54 1.66 255 255 255
-27.71 -19.87 1.42 255 255 255
-25.08 -19.46 -0.20 255 255 255
-29.70 -20.76 -0.36 255 255 255
-26.20 -19.41 0.12 255 255 255
-3.71 13.71 2.03 255 255 255
-27.69 -19.83 -0.08 255 255 255
-25.11 -19.48 0.27 255 255 255
-0.85 19.60 1.81 255 255 255
-29.74 -20.79 0.19 255 255 255
3.97 33.73 2.56 255 255 255
-26.33 -19.61 0.58 255 255 255
-3.70 13.71 1.57 255 255 255
6.53 34.05 2.36 255 255 255
-0.82 19.63 1.20 255 255 255
4.03 33.75 1.61 255 255 255
-3.71 13.68 1.11 255 255 255
0.36 23.97 1.36 255 255 255
-13.57 0.95 1.17 255 255 255
-13.76 0.96 1.23 255 255 255
-13.63 0.86 0.95 255 255 255
-25.16 -19.51 0.73 255 255 255
-13.82 0.86 1.10 255 255 255
-3.67 13.69 2.49 255 255 255
-27.73 -19.82 0.42 255 255 255
-13.72 0.72 0.49 255 255 255
-26.39 -19.64 1.06 255 255 255
-13.78 0.92 0.75 255 255 255
-0.81 19.57 2.42 255 255 255
-29.82 -20.81 0.73 255 255 255
-25.18 -19.52 1.19 255 255 255
-27.76 -19.83 0.92 255 255 255
-26.44 -19.68 1.55 255 255 255
-29.85 -20.84 1.28 255 255 255
-26.26 -19.40 -0.36 255 255 255
-25.21 -19.55 1.66 255 255 255
-25.16 -19.47 -0.20 255 255 255
-27.77 -19.83 1.42 255 255 255
-29.81 -20.76 -0.36 255 255 255
-26.29 -19.43 0.11 255 255 255
-3.63 13.69 2.03 255 255 255
-27.77 -19.81 -0.09 255 255 255
-25.20 -19.50 0.26 255 255 255
-0.74 19.60 1.81 255 255 255
4.15 33.72 2.56 255 255 255
-26.44 -19.65 0.58 255 255 255
-3.62 13.70 1.57 255 255 255
6.74 34.12 2.37 255 255 255
-10.87 4.85 1.27 255 255 255
4.20 33.77 1.61 255 255 255
-3.63 13.66 1.11 255 255 255
0.53 24.02 1.36 255 255 255
-13.55 0.95 1.17 255 255 255
-13.75 0.96 1.23 255 255 255
-25.24 -19.52 0.73 255 255 255
-13.80 0.87 1.10 255 255 255
-3.58 13.70 2.49 255 255 255
-27.79 -19.78 0.42 255 255 255
-13.70 0.73 0.49 255 255 255
-26.51 -19.69 1.06 255 255 255
-0.68 19.60 2.42 255 255 255
-13.77 0.91 0.75 255 255 255
-29.91 -20.81 0.73 255 255 255
-25.27 -19.54 1.19 255 255 255
-27.84 -19.82 0.92 255 255 255
-26.51 -19.69 1.54 255 255 255
-29.94 -20.82 1.28 255 255 255
-26.34 -19.40 -0.37 255 255 255
-25.29 -19.56 1.66 255 255 255
-27.87 -19.83 1.42 255 255 255
-25.26 -19.50 -0.21 255 255 255
-29.93 -20.79 -0.37 255 255 255
-26.39 -19.46 0.11 255 255 255
-3.53 13.71 2.03 255 255 255
-27.83 -19.78 -0.09 255 255 255
-25.28 -19.51 0.26 255 255 255
9.76 34.58 2.16 255 255 255
-29.97 -20.82 0.18 255 255 255
4.33 33.75 2.57 255 255 255
-26.53 -19.65 0.58 255 255 255
6.93 34.12 2.37 255 255 255
-10.84 4.84 1.27 255 255 255
4.38 33.80 1.61 255 255 255
-3.53 13.68 1.11 255 255 255
0.64 23.99 1.36 255 255 255
-13.53 0.95 1.17 255 255 255
-13.73 0.97 1.23 255 255 255
-13.61 0.84 0.95 255 255 255
-25.33 -19.54 0.73 255 255 255
-13.79 0.86 1.10 255 255 255
-27.90 -19.81 0.41 255 255 255
-13.69 0.72 0.49 255 255 255
-26.54 -19.62 1.06 255 255 255
-13.77 0.90 0.75 255 255 255
-30.06 -20.86 0.73 255 255 255
-25.35 -19.55 1.19 255 255 255
-27.95 -19.84 0.92 255 255 255
-26.57 -19.63 1.55 255 255 255
-30.06 -20.85 1.28 255 255 255
-26.43 -19.42 -0.37 255 255 255
-25.38 -19.57 1.66 255 255 255
-25.34 -19.50 -0.21 255 255 255
-27.97 -19.86 1.42 255 255 255
-30.06 -20.83 -0.38 255 255 255
-26.48 -19.46 0.11 255 255 255
-27.94 -19.79 -0.09 255 255 255
-25.36 -19.51 0.26 255 255 255
10.00 34.68 2.17 255 255 255
-30.14 -20.90 0.17 255 255 255
4.50 33.78 2.57 255 255 255
-26.58 -19.60 0.58 255 255 255
13.05 35.02 1.93 255 255 255
7.10 34.14 2.37 255 255 255
-10.81 4.83 1.27 255 255 255
4.55 33.83 1.61 255 255 255
0.71 23.92 1.36 255 255 255
-13.51 0.96 1.17 255 255 255
-13.71 0.96 1.23 255 255 255
-13.59 0.84 0.95 255 255 255
-25.41 -19.54 0.72 255 255 255
-13.77 0.87 1.10 255 255 255
-28.04 -19.87 0.41 255 255 255
-13.66 0.74 0.48 255 255 255
-26.60 -19.58 1.06 255 255 255
-13.75 0.91 0.75 255 255 255
-30.18 -20.88 0.73 255 255 255
-25.43 -19.56 1.19 255 255 255
-28.08 -19.92 0.91 255 255 255
-26.63 -19.60 1.54 255 255 255
-26.53 -19.44 -0.38 255 255 255
-30.19 -20.89 1.28 255 255 255
-25.46 -19.58 1.66 255 255 255
-28.10 -19.92 1.42 255 255 255
-25.27 -19.24 -0.19 255 255 255
-30.17 -20.83 -0.38 255 255 255
-26.56 -19.47 0.10 255 255 255
-28.05 -19.83 -0.10 255 255 255
-25.45 -19.53 0.26 255 255 255
4.67 33.80 2.57 255 255 255
-26.64 -19.57 0.58 255 255 255
13.26 35.05 1.93 255 255 255
7.30 34.17 2.38 255 255 255
10.23 34.70 1.13 255 255 255
4.74 33.86 1.62 255 255 255
5.38 24.87 0.97 255 255 255
0.83 23.91 1.36 255 255 255
-13.50 0.95 1.17 255 255 255
-13.69 0.99 1.23 255 255 255
-13.57 0.85 0.95 255 255 255
-25.50 -19.56 0.72 255 255 255
-13.75 0.88 1.10 255 255 255
-28.66 -20.63 0.36 255 255 255
-13.65 0.73 0.48 255 255 255
-26.68 -19.58 1.06 255 255 255
-13.72 0.92 0.75 255 255 255
-30.31 -20.91 0.72 255 255 255
-25.52 -19.56 1.19 255 255 255
-28.71 -20.66 0.89 255 255 255
-26.72 -19.61 1.55 255 255 255
-30.30 -20.89 1.28 255 255 255
-26.63 -19.46 -0.38 255 255 255
-25.54 -19.59 1.66 255 255 255
-28.73 -20.68 1.42 255 255 255
-25.29 -19.14 -0.18 255 255 255
-30.31 -20.88 -0.39 255 255 255
-26.65 -19.47 0.10 255 255 255
-28.71 -20.63 -0.17 255 255 255
-25.53 -19.54 0.25 255 255 255
10.40 34.71 2.17 255 255 255
-30.32 -20.88 0.17 255 255 255
4.87 33.83 2.58 255 255 255
-26.72 -19.55 0.58 255 255 255
13.51 35.09 1.94 255 255 255
7.49 34.20 2.38 255 255 255
10.45 34.70 1.12 255 255 255
4.92 33.88 1.62 255 255 255
5.47 24.81 0.97 255 255 255
-13.48 0.96 1.17 255 255 255
-13.68 0.98 1.23 255 255 255
-13.55 0.86 0.95 255 255 255
-25.59 -19.57 0.72 255 255 255
-13.75 0.87 1.10 255 255 255
-28.78 -20.65 0.36 255 255 255
-13.63 0.74 0.48 255 255 255
-26.83 -19.67 1.06 255 255 255
-13.76 0.84 0.76 255 255 255
-30.40 -20.90 0.72 255 255 255
-25.61 -19.58 1.19 255 255 255
-28.83 -20.71 0.89 255 255 255
-26.90 -19.75 1.55 255 255 255
-30.41 -20.91 1.28 255 255 255
-26.71 -19.46 -0.39 255 255 255
-25.63 -19.61 1.66 255 255 255
-25.35 -19.10 -0.18 255 255 255
-28.84 -20.70 1.42 255 255 255
-30.41 -20.88 -0.40 255 255 255
-26.74 -19.48 0.10 255 255 255
-28.83 -20.66 -0.18 255 255 255
-25.63 -19.57 0.25 255 255 255
10.62 34.71 2.17 255 255 255
-30.45 -20.90 0.16 255 255 255
-26.91 -19.73 0.57 255 255 255
13.73 35.09 1.94 255 255 255
10.67 34.73 1.12 255 255 255
5.09 33.91 1.62 255 255 255
5.52 24.67 0.97 255 255 255
-13.46 0.96 1.17 255 255 255
-13.65 0.99 1.23 255 255 255
-13.53 0.86 0.94 255 255 255
-25.68 -19.57 0.72 255 255 255
-13.72 0.88 1.09 255 255 255
-28.89 -20.68 0.35 255 255 255
-13.61 0.75 0.47 255 255 255
-26.95 -19.71 1.06 255 255 255
-13.78 0.79 0.77 255 255 255
-30.48 -20.86 0.72 255 255 255
-25.71 -19.61 1.19 255 255 255
-28.95 -20.73 0.89 255 255 255
-26.98 -19.74 1.55 255 255 255
-30.50 -20.86 1.28 255 255 255
-26.81 -19.48 -0.39 255 255 255
-25.73 -19.62 1.66 255 255 255
-25.42 -19.09 -0.18 255 255 255
-28.95 -20.70 1.42 255 255 255
-30.49 -20.83 -0.40 255 255 255
-26.84 -19.50 0.09 255 255 255
-28.92 -20.64 -0.18 255 255 255
-25.71 -19.56 0.24 255 255 255
10.83 34.77 2.18 255 255 255
-30.51 -20.84 0.16 255 255 255
5.23 33.89 2.58 255 255 255
-26.99 -19.71 0.57 255 255 255
7.01 26.37 1.79 255 255 255
7.89 34.26 2.39 255 255 255
10.88 34.79 1.12 255 255 255
5.28 33.94 1.62 255 255 255
-13.44 0.96 1.17 255 255 255
-13.63 1.00 1.23 255 255 255
-13.52 0.86 0.94 255 255 255
-25.76 -19.58 0.72 255 255 255
-13.70 0.89 1.09 255 255 255
-29.00 -20.70 0.35 255 255 255
-13.60 0.75 0.47 255 255 255
-27.07 -19.77 1.05 255 255 255
-13.76 0.80 0.76 255 255 255
-30.50 -20.77 0.72 255 255 255
-25.79 -19.61 1.19 255 255 255
-29.04 -20.72 0.88 255 255 255
-27.09 -19.78 1.55 255 255 255
-30.52 -20.76 1.28 255 255 255
-26.91 -19.49 -0.40 255 255 255
-25.81 -19.63 1.66 255 255 255
-29.05 -20.72 1.42 255 255 255
-25.46 -19.02 -0.18 255 255 255
-30.51 -20.74 -0.39 255 255 255
-26.93 -19.51 0.09 255 255 255
-29.03 -20.68 -0.19 255 255 255
-25.79 -19.58 0.24 255 255 255
11.05 34.81 2.18 255 255 255
-30.51 -20.72 0.17 255 255 255
5.40 33.91 2.59 255 255 255
-27.10 -19.75 0.56 255 255 255
6.99 26.17 1.79 255 255 255
8.09 34.29 2.39 255 255 255
11.12 34.83 1.12 255 255 255
5.46 33.97 1.62 255 255 255
8.15 34.31 1.38 255 255 255
-13.42 0.97 1.17 255 255 255
-13.63 0.99 1.23 255 255 255
-13.49 0.88 0.94 255 255 255
-25.86 -19.62 0.71 255 255 255
-13.69 0.89 1.09 255 255 255
-29.12 -20.71 0.35 255 255 255
-13.59 0.74 0.47 255 255 255
-27.10 -19.68 1.06 255 255 255
-13.74 0.81 0.76 255 255 255
-30.53 -20.65 0.73 255 255 255
-25.88 -19.62 1.19 255 255 255
-29.16 -20.74 0.88 255 255 255
-27.14 -19.71 1.55 255 255 255
-27.00 -19.50 -0.40 255 255 255
-30.54 -20.64 1.28 255 255 255
-25.90 -19.63 1.66 255 255 255
-29.18 -20.74 1.42 255 255 255
-25.52 -18.99 -0.18 255 255 255
-30.52 -20.60 -0.39 255 255 255
-27.03 -19.51 0.08 255 255 255
-29.15 -20.69 -0.19 255 255 255
-25.88 -19.58 0.24 255 255 255
11.27 34.81 2.18 255 255 255
-30.53 -20.59 0.17 255 255 255
5.60 33.94 2.59 255 255 255
-27.14 -19.66 0.56 255 255 255
6.98 25.94 1.79 255 255 255
8.30 34.29 2.39 255 255 255
5.65 33.96 1.62 255 255 255
-13.40 0.97 1.16 255 255 255
-13.60 1.00 1.23 255 255 255
-13.48 0.88 0.94 255 255 255
-25.92 -19.59 0.71 255 255 255
-29.21 -20.69 0.34 255 255 255
-13.57 0.75 0.47 255 255 255
-27.16 -19.64 1.06 255 255 255
-13.73 0.79 0.76 255 255 255
-30.54 -20.55 0.73 255 255 255
-25.93 -19.58 1.19 255 255 255
-29.24 -20.72 0.88 255 255 255
-27.19 -19.66 1.55 255 255 255
-27.10 -19.53 -0.41 255 255 255
-30.55 -20.53 1.28 255 255 255
-25.94 -19.56 1.66 255 255 255
-29.26 -20.73 1.42 255 255 255
-25.87 -19.45 -0.23 255 255 255
-30.54 -20.51 -0.38 255 255 255
-27.12 -19.55 0.08 255 255 255
-29.23 -20.68 -0.20 255 255 255
-25.92 -19.51 0.24 255 255 255
11.52 34.84 2.18 255 255 255
-30.55 -20.50 0.17 255 255 255
5.77 33.94 2.59 255 255 255
-27.20 -19.63 0.56 255 255 255
7.03 25.81 1.79 255 255 255
8.51 34.35 2.40 255 255 255
-3.89 13.89 1.23 255 255 255
5.84 33.99 1.62 255 255 255
6.07 24.60 0.97 255 255 255
-13.38 0.98 1.16 255 255 255
-13.60 0.99 1.23 255 255 255
-13.45 0.88 0.94 255 255 255
-25.97 -19.52 0.71 255 255 255
-13.66 0.88 1.09 255 255 255
-29.29 -20.69 0.34 255 255 255
-13.55 0.75 0.46 255 255 255
-27.25 -19.64 1.05 255 255 255
-13.68 0.85 0.75 255 255 255
-30.56 -20.43 0.73 255 255 255
-25.97 -19.50 1.19 255 255 255
-27.28 -19.67 1.55 255 255 255
-27.19 -19.53 -0.42 255 255 255
-30.56 -20.42 1.28 255 255 255
-26.00 -19.52 1.66 255 255 255
-25.93 -19.40 -0.23 255 255 255
-29.38 -20.77 1.42 255 255 255
-30.55 -20.39 -0.38 255 255 255
-27.21 -19.54 0.07 255 255 255
-29.34 -20.68 -0.20 255 255 255
-25.97 -19.44 0.24 255 255 255
-30.56 -20.38 0.18 255 255 255
5.97 33.97 2.60 255 255 255
-27.29 -19.64 0.56 255 255 255
7.07 25.64 1.78 255 255 255
8.70 34.35 2.40 255 255 255
6.03 34.02 1.62 255 255 255
6.28 24.66 0.96 255 255 255
8.75 34.40 1.38 255 255 255
-13.37 0.97 1.16 255 255 255
-13.58 0.99 1.23 255 255 255
-13.43 0.89 0.94 255 255 255
-26.04 -19.49 0.71 255 255 255
-13.65 0.89 1.09 255 255 255
-13.54 0.75 0.46 255 255 255
-27.36 -19.67 1.05 255 255 255
-13.66 0.86 0.75 255 255 255
-30.61 -20.36 0.73 255 255 255
-26.05 -19.49 1.19 255 255 255
-29.49 -20.79 0.88 255 255 255
-27.44 -19.77 1.55 255 255 255
-30.62 -20.36 1.28 255 255 255
-27.29 -19.54 -0.42 255 255 255
-26.08 -19.51 1.66 255 255 255
-29.50 -20.79 1.42 255 255 255
-26.00 -19.39 -0.23 255 255 255
-30.61 -20.33 -0.37 255 255 255
-27.31 -19.56 0.07 255 255 255
-29.47 -20.73 -0.21 255 255 255
-26.04 -19.42 0.24 255 255 255
-3.82 13.78 1.69 255 255 255
-30.63 -20.32 0.18 255 255 255
6.15 34.03 2.60 255 255 255
-27.45 -19.74 0.55 255 255 255
7.13 25.54 1.78 255 255 255
-3.81 13.76 1.23 255 255 255
6.21 34.05 1.62 255 255 255
6.45 24.69 0.96 255 255 255
-0.96 19.72 1.35 255 255 255
-13.35 0.98 1.16 255 255 255
-3.79 13.77 2.60 255 255 255
-13.56 0.99 1.23 255 255 255
-13.41 0.91 0.93 255 255 255
-26.11 -19.49 0.71 255 255 255
-13.64 0.87 1.09 255 255 255
-29.55 -20.76 0.33 255 255 255
-13.51 0.76 0.46 255 255 255
-27.56 -19.84 1.05 255 255 255
-3.77 13.77 2.14 255 255 255
-13.67 0.83 0.75 255 255 255
-30.64 -20.27 0.73 255 255 255
-26.14 -19.51 1.19 255 255 255
-29.59 -20.79 0.88 255 255 255
-27.60 -19.88 1.55 255 255 255
-30.66 -20.27 1.28 255 255 255
-27.39 -19.55 -0.43 255 255 255
-26.17 -19.54 1.66 255 255 255
-29.62 -20.82 1.42 255 255 255
-26.09 -19.39 -0.23 255 255 255
-30.64 -20.24 -0.37 255 255 255
-27.43 -19.59 0.06 255 255 255
-29.59 -20.74 -0.22 255 255 255
-0.93 19.64 2.57 255 255 255
-26.13 -19.44 0.24 255 255 255
-3.75 13.74 1.69 255 255 255
-30.67 -20.25 0.18 255 255 255
6.33 34.02 2.61 255 255 255
-27.60 -19.84 0.55 255 255 255
7.21 25.43 1.78 255 255 255
-0.91 19.66 1.96 255 255 255
-3.75 13.74 1.23 255 255 255
6.40 34.08 1.63 255 255 255
6.64 24.70 0.96 255 255 255
-10.88 4.92 1.32 255 255 255
-13.33 0.99 1.16 255 255 255
-13.54 1.00 1.23 255 255 255
-3.74 13.72 2.60 255 255 255
-13.39 0.91 0.93 255 255 255
-26.22 -19.53 0.71 255 255 255
-13.62 0.88 1.09 255 255 255
-29.67 -20.78 0.33 255 255 255
-13.50 0.76 0.45 255 255 255
-27.67 -19.86 1.05 255 255 255
-13.67 0.80 0.76 255 255 255
-3.71 13.74 2.15 255 255 255
-30.72 -20.24 0.73 255 255 255
-26.28 -19.60 1.19 255 255 255
-29.74 -20.85 0.87 255 255 255
-27.69 -19.89 1.55 255 255 255
-30.73 -20.23 1.28 255 255 255
-27.63 -19.78 -0.46 255 255 255
-26.32 -19.65 1.67 255 255 255
-29.73 -20.82 1.42 255 255 255
-26.18 -19.41 -0.24 255 255 255
-30.70 -20.18 -0.37 255 255 255
-27.67 -19.83 0.04 255 255 255
-29.72 -20.78 -0.22 255 255 255
-0.87 19.56 2.57 255 255 255
-26.22 -19.47 0.23 255 255 255
-3.69 13.71 1.69 255 255 255
-30.73 -20.20 0.18 255 255 255
6.53 34.05 2.61 255 255 255
-27.70 -19.84 0.54 255 255 255
7.26 25.31 1.78 255 255 255
-0.85 19.57 1.96 255 255 255
-3.69 13.70 1.23 255 255 255
6.58 34.10 1.63 255 255 255
6.88 24.80 0.96 255 255 255
-10.86 4.90 1.32 255 255 255
-13.32 0.98 1.16 255 255 255
-3.67 13.71 2.60 255 255 255
-13.52 1.01 1.23 255 255 255
-13.36 0.92 0.93 255 255 255
-26.36 -19.62 0.70 255 255 255
-13.60 0.89 1.09 255 255 255
-29.78 -20.80 0.32 255 255 255
-13.49 0.75 0.45 255 255 255
-27.74 -19.85 1.05 255 255 255
-3.64 13.72 2.15 255 255 255
-13.65 0.81 0.75 255 255 255
-30.81 -20.22 0.73 255 255 255
-26.39 -19.65 1.18 255 255 255
-29.82 -20.84 0.87 255 255 255
-27.75 -19.85 1.55 255 255 255
-30.83 -20.23 1.28 255 255 255
-27.71 -19.79 -0.46 255 255 255
-26.44 -19.71 1.67 255 255 255
-29.85 -20.84 1.42 255 255 255
-26.26 -19.42 -0.24 255 255 255
-30.79 -20.16 -0.37 255 255 255
-27.76 -19.81 0.04 255 255 255
-29.84 -20.81 -0.23 255 255 255
-0.80 19.52 2.57 255 255 255
-26.37 -19.57 0.22 255 255 255
-3.61 13.72 1.69 255 255 255
-30.85 -20.21 0.18 255 255 255
6.70 34.08 2.61 255 255 255
-27.76 -19.81 0.54 255 255 255
7.38 25.26 1.78 255 255 255
-0.77 19.55 1.96 255 255 255
-3.60 13.71 1.23 255 255 255
6.77 34.13 1.63 255 255 255
7.02 24.81 0.96 255 255 255
-10.84 4.89 1.32 255 255 255
-13.29 0.99 1.16 255 255 255
-13.51 1.00 1.23 255 255 255
-3.57 13.72 2.61 255 255 255
-13.36 0.91 0.93 255 255 255
-26.49 -19.70 0.70 255 255 255
-13.59 0.89 1.09 255 255 255
-29.89 -20.80 0.32 255 255 255
-13.47 0.76 0.45 255 255 255
-27.80 -19.80 1.05 255 255 255
-13.65 0.79 0.76 255 255 255
-3.54 13.75 2.15 255 255 255
-30.93 -20.23 0.73 255 255 255
-26.50 -19.68 1.18 255 255 255
-29.94 -20.84 0.87 255 255 255
-27.84 -19.82 1.55 255 255 255
-27.46 -19.27 -0.41 255 255 255
-30.94 -20.24 1.28 255 255 255
-26.50 -19.67 1.67 255 255 255
-29.96 -20.86 1.42 255 255 255
-26.36 -19.42 -0.25 255 255 255
-30.91 -20.18 -0.38 255 255 255
-27.82 -19.78 0.04 255 255 255
-29.93 -20.80 -0.23 255 255 255
-0.67 19.53 2.57 255 255 255
-26.47 -19.59 0.22 255 255 255
-30.99 -20.24 0.17 255 255 255
-27.84 -19.78 0.54 255 255 255
7.43 25.13 1.78 255 255 255
6.95 34.16 1.63 255 255 255
7.19 24.82 0.96 255 255 255
-10.80 4.88 1.32 255 255 255
-13.27 1.00 1.16 255 255 255
-13.49 1.01 1.23 255 255 255
-13.33 0.93 0.93 255 255 255
-26.54 -19.63 0.70 255 255 255
-13.57 0.89 1.09 255 255 255
-30.01 -20.83 0.32 255 255 255
-13.46 0.75 0.45 255 255 255
-27.90 -19.81 1.05 255 255 255
-31.12 -20.34 0.72 255 255 255
-26.54 -19.62 1.18 255 255 255
-30.06 -20.88 0.87 255 255 255
-27.94 -19.85 1.55 255 255 255
-31.13 -20.34 1.28 255 255 255
-27.51 -19.22 -0.41 255 255 255
-26.56 -19.62 1.67 255 255 255
-30.09 -20.89 1.42 255 255 255
-26.45 -19.45 -0.25 255 255 255
-31.12 -20.29 -0.40 255 255 255
-27.92 -19.79 0.03 255 255 255
-30.04 -20.80 -0.24 255 255 255
-26.53 -19.55 0.22 255 255 255
13.06 35.08 2.21 255 255 255
-31.18 -20.34 0.16 255 255 255
7.10 34.14 2.62 255 255 255
-27.94 -19.81 0.54 255 255 255
7.65 25.18 1.78 255 255 255
9.95 34.57 2.42 255 255 255
5.35 25.06 1.17 255 255 255
7.15 34.19 1.63 255 255 255
7.39 24.86 0.95 255 255 255
-13.26 0.99 1.16 255 255 255
-13.46 1.02 1.23 255 255 255
-13.31 0.92 0.93 255 255 255
-26.60 -19.59 0.70 255 255 255
-13.55 0.90 1.09 255 255 255
-30.12 -20.83 0.31 255 255 255
-13.43 0.76 0.44 255 255 255
-28.00 -19.83 1.04 255 255 255
-31.25 -20.36 0.72 255 255 255
-26.61 -19.59 1.18 255 255 255
-30.19 -20.90 0.87 255 255 255
-28.07 -19.91 1.55 255 255 255
-27.56 -19.17 -0.41 255 255 255
-31.27 -20.36 1.28 255 255 255
-26.63 -19.60 1.67 255 255 255
-26.54 -19.46 -0.26 255 255 255
-30.20 -20.91 1.42 255 255 255
-31.25 -20.31 -0.40 255 255 255
-28.05 -19.84 0.03 255 255 255
-30.18 -20.85 -0.25 255 255 255
-26.59 -19.51 0.22 255 255 255
13.31 35.12 2.21 255 255 255
-31.30 -20.35 0.16 255 255 255
7.29 34.13 2.63 255 255 255
-28.09 -19.88 0.53 255 255 255
7.82 25.17 1.78 255 255 255
5.39 24.90 1.17 255 255 255
7.35 34.22 1.63 255 255 255
7.58 24.86 0.95 255 255 255
10.21 34.59 1.39 255 255 255
-13.23 1.00 1.16 255 255 255
-13.45 1.02 1.23 255 255 255
-13.29 0.93 0.92 255 255 255
-26.67 -19.57 0.70 255 255 255
-13.54 0.89 1.09 255 255 255
-30.25 -20.87 0.31 255 255 255
-13.41 0.77 0.44 255 255 255
-28.15 -19.91 1.04 255 255 255
-13.61 0.79 0.75 255 255 255
-31.34 -20.34 0.72 255 255 255
-26.69 -19.57 1.18 255 255 255
-30.29 -20.90 0.86 255 255 255
-28.71 -20.67 1.55 255 255 255
-31.35 -20.33 1.28 255 255 255
-27.64 -19.15 -0.41 255 255 255
-26.74 -19.65 1.67 255 255 255
-26.63 -19.47 -0.26 255 255 255
-30.33 -20.93 1.42 255 255 255
-31.32 -20.28 -0.41 255 255 255
-30.29 -20.85 -0.25 255 255 255
-26.67 -19.50 0.22 255 255 255
13.53 35.12 2.21 255 255 255
-31.34 -20.28 0.16 255 255 255
7.47 34.19 2.63 255 255 255
-28.71 -20.64 0.49 255 255 255
7.98 25.18 1.79 255 255 255
10.38 34.64 2.43 255 255 255
5.56 24.93 1.17 255 255 255
7.54 34.25 1.63 255 255 255
7.79 24.94 0.95 255 255 255
10.42 34.66 1.39 255 255 255
-13.21 1.01 1.16 255 255 255
-13.43 1.03 1.23 255 255 255
-13.28 0.92 0.92 255 255 255
-26.81 -19.67 0.69 255 255 255
-13.52 0.90 1.09 255 255 255
-30.37 -20.89 0.30 255 255 255
-13.40 0.77 0.44 255 255 255
-28.78 -20.65 1.02 255 255 255
-13.59 0.79 0.75 255 255 255
-31.36 -20.24 0.72 255 255 255
-26.87 -19.73 1.18 255 255 255
-30.41 -20.91 0.86 255 255 255
-28.81 -20.68 1.56 255 255 255
-27.76 -19.19 -0.42 255 255 255
-31.38 -20.24 1.28 255 255 255
-26.90 -19.75 1.67 255 255 255
-30.43 -20.93 1.42 255 255 255
-26.73 -19.48 -0.27 255 255 255
-31.35 -20.17 -0.40 255 255 255
-28.80 -20.64 -0.04 255 255 255
-30.41 -20.88 -0.26 255 255 255
-26.77 -19.52 0.21 255 255 255
13.78 35.16 2.22 255 255 255
-31.39 -20.20 0.16 255 255 255
-28.82 -20.65 0.49 255 255 255
8.15 25.17 1.79 255 255 255
10.60 34.64 2.43 255 255 255
5.67 24.85 1.17 255 255 255
7.74 34.25 1.63 255 255 255
7.98 24.95 0.95 255 255 255
10.67 34.69 1.39 255 255 255
-13.19 1.01 1.16 255 255 255
-13.41 1.03 1.23 255 255 255
-13.26 0.93 0.92 255 255 255
-26.94 -19.73 0.69 255 255 255
-13.50 0.90 1.09 255 255 255
-30.45 -20.85 0.30 255 255 255
-13.38 0.77 0.43 255 255 255
-28.88 -20.67 1.02 255 255 255
-31.47 -20.23 0.72 255 255 255
-26.95 -19.72 1.18 255 255 255
-30.47 -20.86 0.86 255 255 255
-28.92 -20.70 1.56 255 255 255
-31.49 -20.24 1.28 255 255 255
-26.99 -19.77 1.67 255 255 255
-30.48 -20.85 1.42 255 255 255
-26.83 -19.50 -0.27 255 255 255
-31.46 -20.18 -0.41 255 255 255
-28.90 -20.64 -0.05 255 255 255
-30.50 -20.85 -0.26 255 255 255
-26.92 -19.63 0.20 255 255 255
14.00 35.19 2.22 255 255 255
-31.53 -20.23 0.15 255 255 255
7.87 34.25 2.64 255 255 255
-28.95 -20.69 0.48 255 255 255
8.36 25.25 1.79 255 255 255
10.81 34.70 2.44 255 255 255
5.75 24.80 1.17 255 255 255
7.94 34.31 1.63 255 255 255
8.15 24.98 0.95 255 255 255
10.85 34.72 1.39 255 255 255
-13.18 1.00 1.16 255 255 255
-13.41 1.01 1.23 255 255 255
-13.23 0.94 0.92 255 255 255
-27.06 -19.77 0.68 255 255 255
-13.47 0.92 1.08 255 255 255
-30.48 -20.76 0.30 255 255 255
-13.36 0.78 0.43 255 255 255
-28.99 -20.69 1.02 255 255 255
-13.57 0.78 0.75 255 255 255
-31.59 -20.25 0.72 255 255 255
-27.07 -19.77 1.18 255 255 255
-30.49 -20.75 0.86 255 255 255
-29.04 -20.73 1.56 255 255 255
-31.63 -20.27 1.28 255 255 255
-27.07 -19.76 1.67 255 255 255
-30.50 -20.75 1.42 255 255 255
-26.91 -19.51 -0.28 255 255 255
-31.59 -20.19 -0.41 255 255 255
-29.03 -20.69 -0.05 255 255 255
-30.53 -20.74 -0.26 255 255 255
-27.00 -19.62 0.20 255 255 255
14.24 35.23 2.22 255 255 255
-31.65 -20.24 0.15 255 255 255
8.07 34.28 2.64 255 255 255
-29.04 -20.67 0.48 255 255 255
8.60 25.34 1.79 255 255 255
11.03 34.74 2.44 255 255 255
5.88 24.77 1.17 255 255 255
8.13 34.31 1.63 255 255 255
8.29 24.95 0.95 255 255 255
11.07 34.76 1.39 255 255 255
-13.15 1.02 1.16 255 255 255
-13.38 1.03 1.23 255 255 255
-13.22 0.93 0.92 255 255 255
-27.09 -19.70 0.69 255 255 255
-13.46 0.91 1.08 255 255 255
-30.50 -20.65 0.31 255 255 255
-13.34 0.78 0.42 255 255 255
-29.10 -20.70 1.02 255 255 255
-13.54 0.79 0.75 255 255 255
-31.72 -20.26 0.71 255 255 255
-27.10 -19.69 1.18 255 255 255
-30.51 -20.65 0.87 255 255 255
-29.15 -20.75 1.56 255 255 255
-31.78 -20.31 1.28 255 255 255
-27.12 -19.69 1.67 255 255 255
-30.51 -20.62 1.42 255 255 255
-27.01 -19.52 -0.28 255 255 255
-31.73 -20.21 -0.42 255 255 255
-29.12 -20.68 -0.06 255 255 255
-30.54 -20.63 -0.25 255 255 255
-27.07 -19.59 0.20 255 255 255
14.49 35.29 2.23 255 255 255
-31.77 -20.27 0.14 255 255 255
8.27 34.31 2.65 255 255 255
-29.15 -20.69 0.48 255 255 255
8.84 25.40 1.79 255 255 255
11.25 34.74 2.44 255 255 255
6.03 24.76 1.17 255 255 255
8.34 34.37 1.64 255 255 255
8.56 25.06 0.94 255 255 255
11.29 34.79 1.39 255 255 255
-13.13 1.03 1.16 255 255 255
-13.36 1.02 1.23 255 255 255
-13.20 0.94 0.92 255 255 255
-27.14 -19.64 0.69 255 255 255
-13.43 0.93 1.08 255 255 255
-30.52 -20.55 0.31 255 255 255
-13.32 0.79 0.42 255 255 255
-29.21 -20.72 1.02 255 255 255
4.77 23.11 2.68 255 255 255
-13.53 0.80 0.75 255 255 255
-31.86 -20.29 0.71 255 255 255
-27.16 -19.65 1.18 255 255 255
-30.52 -20.52 0.87 255 255 255
-29.23 -20.73 1.56 255 255 255
-31.91 -20.33 1.28 255 255 255
-27.20 -19.68 1.67 255 255 255
-27.10 -19.55 -0.29 255 255 255
-30.52 -20.50 1.42 255 255 255
-31.83 -20.23 -0.43 255 255 255
-29.23 -20.69 -0.06 255 255 255
-30.54 -20.53 -0.24 255 255 255
-27.13 -19.56 0.20 255 255 255
14.74 35.30 2.23 255 255 255
-31.90 -20.28 0.14 255 255 255
8.48 34.31 2.65 255 255 255
-29.25 -20.70 0.48 255 255 255
9.01 25.38 1.80 255 255 255
6.24 24.81 1.17 255 255 255
8.75 25.07 0.94 255 255 255
11.53 34.83 1.39 255 255 255
-13.10 1.04 1.16 255 255 255
-13.34 1.03 1.23 255 255 255
-13.19 0.93 0.92 255 255 255
-27.23 -19.65 0.68 255 255 255
-13.42 0.93 1.08 255 255 255
-30.53 -20.43 0.32 255 255 255
-13.31 0.78 0.42 255 255 255
-29.29 -20.70 1.02 255 255 255
-13.51 0.80 0.74 255 255 255
-31.98 -20.30 0.71 255 255 255
-27.25 -19.66 1.18 255 255 255
-30.54 -20.41 0.87 255 255 255
-29.34 -20.75 1.56 255 255 255
-32.02 -20.32 1.28 255 255 255
-27.28 -19.68 1.67 255 255 255
-27.20 -19.55 -0.30 255 255 255
-30.56 -20.42 1.42 255 255 255
-31.97 -20.26 -0.44 255 255 255
-29.33 -20.69 -0.07 255 255 255
-30.56 -20.41 -0.24 255 255 255
-27.21 -19.54 0.20 255 255 255
14.96 35.30 2.23 255 255 255
-32.04 -20.30 0.13 255 255 255
8.68 34.38 2.66 255 255 255
-29.34 -20.70 0.48 255 255 255
9.26 25.48 1.80 255 255 255
11.68 34.80 2.45 255 255 255
6.38 24.80 1.16 255 255 255
-10.90 4.99 1.37 255 255 255
8.95 25.10 0.94 255 255 255
-3.83 13.85 1.34 255 255 255
-13.08 1.04 1.15 255 255 255
-13.33 1.03 1.23 255 255 255
-13.16 0.94 0.91 255 255 255
-27.32 -19.65 0.68 255 255 255
-13.39 0.94 1.08 255 255 255
-30.57 -20.35 0.32 255 255 255
-13.29 0.79 0.42 255 255 255
-13.50 0.80 0.74 255 255 255
-32.12 -20.33 0.70 255 255 255
-27.39 -19.73 1.18 255 255 255
-30.60 -20.36 0.87 255 255 255
-29.47 -20.78 1.56 255 255 255
-32.18 -20.38 1.28 255 255 255
-27.48 -19.85 1.67 255 255 255
-27.29 -19.56 -0.30 255 255 255
-30.61 -20.35 1.42 255 255 255
-32.11 -20.27 -0.44 255 255 255
-29.44 -20.71 -0.07 255 255 255
-30.61 -20.33 -0.24 255 255 255
-27.31 -19.56 0.19 255 255 255
15.20 35.37 2.23 255 255 255
-32.16 -20.31 0.13 255 255 255
8.88 34.41 2.66 255 255 255
9.41 25.46 1.80 255 255 255
6.54 24.81 1.16 255 255 255
-10.88 4.97 1.37 255 255 255
-6.57 7.89 1.17 255 255 255
-3.80 13.77 1.34 255 255 255
-13.30 1.04 1.23 255 255 255
-13.15 0.94 0.91 255 255 255
-27.53 -19.84 0.67 255 255 255
-13.38 0.93 1.08 255 255 255
-30.62 -20.28 0.32 255 255 255
-0.94 19.70 2.72 255 255 255
-13.27 0.79 0.41 255 255 255
-29.55 -20.77 1.01 255 255 255
-13.48 0.80 0.74 255 255 255
-32.24 -20.34 0.70 255 255 255
-27.57 -19.86 1.17 255 255 255
-30.66 -20.30 0.87 255 255 255
-29.59 -20.80 1.56 255 255 255
-32.27 -20.34 1.28 255 255 255
-27.60 -19.89 1.67 255 255 255
-27.47 -19.70 -0.32 255 255 255
-30.67 -20.31 1.42 255 255 255
-32.22 -20.28 -0.45 255 255 255
-29.57 -20.74 -0.08 255 255 255
8.32 24.10 2.60 255 255 255
-30.65 -20.26 -0.23 255 255 255
-3.78 13.73 2.26 255 255 255
-27.43 -19.61 0.19 255 255 255
15.45 35.38 2.24 255 255 255
-32.29 -20.33 0.12 255 255 255
-0.91 19.67 2.11 255 255 255
-29.60 -20.77 0.47 255 255 255
-6.55 7.85 1.48 255 255 255
-3.75 13.73 1.80 255 255 255
6.73 24.84 1.16 255 255 255
-10.86 4.95 1.37 255 255 255
-3.75 13.73 1.34 255 255 255
-13.29 1.03 1.23 255 255 255
-13.12 0.95 0.91 255 255 255
-27.64 -19.86 0.67 255 255 255
-13.36 0.93 1.08 255 255 255
-30.70 -20.24 0.32 255 255 255
-13.25 0.79 0.41 255 255 255
-0.90 19.62 2.72 255 255 255
-29.66 -20.79 1.01 255 255 255
-13.46 0.80 0.74 255 255 255
-32.38 -20.37 0.70 255 255 255
-27.66 -19.87 1.17 255 255 255
-30.71 -20.24 0.87 255 255 255
-25.44 -12.78 -0.19 255 255 255
-29.70 -20.82 1.56 255 255 255
-32.41 -20.37 1.28 255 255 255
-27.69 -19.88 1.68 255 255 255
-30.74 -20.26 1.42 255 255 255
-27.65 -19.82 -0.33 255 255 255
-25.42 -12.74 0.33 255 255 255
-29.67 -20.76 -0.08 255 255 255
-6.54 7.80 1.79 255 255 255
-30.72 -20.22 -0.24 255 255 255
-3.72 13.69 2.26 255 255 255
-27.67 -19.84 0.17 255 255 255
15.73 35.45 2.24 255 255 255
-25.50 -12.82 0.66 255 255 255
-0.85 19.58 2.11 255 255 255
-6.54 7.79 1.48 255 255 255
-3.69 13.71 1.80 255 255 255
6.92 24.90 1.16 255 255 255
-10.83 4.95 1.37 255 255 255
-6.54 7.77 1.17 255 255 255
-3.68 13.70 1.34 255 255 255
-13.26 1.05 1.23 255 255 255
-13.09 0.96 0.91 255 255 255
-27.72 -19.84 0.67 255 255 255
-13.33 0.95 1.08 255 255 255
-30.77 -20.20 0.32 255 255 255
-0.85 19.51 2.72 255 255 255
-13.23 0.80 0.41 255 255 255
-29.77 -20.79 1.01 255 255 255
-13.43 0.82 0.73 255 255 255
-32.63 -20.50 0.69 255 255 255
-27.74 -19.83 1.17 255 255 255
-30.82 -20.25 0.87 255 255 255
-25.47 -12.72 -0.19 255 255 255
-29.83 -20.84 1.56 255 255 255
-32.67 -20.51 1.28 255 255 255
-27.75 -19.84 1.68 255 255 255
-30.84 -20.25 1.42 255 255 255
-27.71 -19.79 -0.34 255 255 255
-29.80 -20.78 -0.09 255 255 255
-6.54 7.74 1.79 255 255 255
-30.81 -20.19 -0.24 255 255 255
-3.64 13.69 2.26 255 255 255
-27.75 -19.81 0.17 255 255 255
15.97 35.49 2.24 255 255 255
-25.52 -12.76 0.66 255 255 255
-0.78 19.55 2.11 255 255 255
-29.84 -20.82 0.46 255 255 255
-6.53 7.74 1.48 255 255 255
-3.62 13.69 1.80 255 255 255
7.01 24.82 1.16 255 255 255
-10.79 4.96 1.37 255 255 255
-6.53 7.73 1.17 255 255 255
-6.50 7.75 2.42 255 255 255
-3.61 13.68 1.34 255 255 255
-13.24 1.05 1.23 255 255 255
-13.07 0.96 0.91 255 255 255
-27.78 -19.81 0.67 255 255 255
-13.32 0.95 1.08 255 255 255
-6.52 7.72 2.10 255 255 255
-30.90 -20.24 0.31 255 255 255
-0.75 19.50 2.72 255 255 255
-13.22 0.79 0.40 255 255 255
-29.88 -20.81 1.01 255 255 255
-13.42 0.82 0.73 255 255 255
-32.74 -20.50 0.69 255 255 255
-27.79 -19.80 1.17 255 255 255
-30.98 -20.32 0.87 255 255 255
-29.92 -20.85 1.56 255 255 255
-25.47 -12.65 -0.18 255 255 255
-32.75 -20.49 1.28 255 255 255
