ply
format ascii 1.0
element vertex 1579
property float x
property float y
property float z
property uchar red
property uchar green
property uchar blue
end_header
-25.68 29.54 1.23 255 255 255
-15.35 0.67 0.28 255 255 255
-11.82 -17.49 1.76 255 255 255
-10.27 -17.19 -0.17 255 255 255
-22.44 30.00 0.90 255 255 255
-6.55 -25.65 1.92 255 255 255
-24.05 29.75 1.83 255 255 255
-11.05 -17.40 1.49 255 255 255
-13.39 -6.53 0.38 255 255 255
-20.85 30.20 1.49 255 255 255
-25.67 29.53 2.00 255 255 255
-22.43 29.96 1.66 255 255 255
-15.33 1.17 1.21 255 255 255
-24.04 29.77 2.60 255 255 255
-20.83 30.16 2.25 255 255 255
-22.42 29.95 2.42 255 255 255
-11.85 -17.49 1.39 255 255 255
-20.22 20.98 0.51 255 255 255
-10.31 -17.26 1.60 255 255 255
-11.08 -17.37 1.12 255 255 255
-19.37 22.67 0.90 255 255 255
-8.84 -19.12 1.33 255 255 255
-23.99 29.83 1.06 255 255 255
-11.86 -17.47 1.02 255 255 255
-10.31 -17.28 1.22 255 255 255
-11.09 -17.37 0.75 255 255 255
-6.53 -25.90 0.74 255 255 255
-11.86 -17.48 0.65 255 255 255
-10.32 -17.26 0.85 255 255 255
-11.09 -17.36 0.19 255 255 255
-10.32 -17.25 0.48 255 255 255
-11.11 -17.40 1.86 255 255 255
-10.34 -17.25 1.97 255 255 255
-15.34 0.66 0.28 255 255 255
-25.57 29.56 1.23 255 255 255
-10.33 -17.20 -0.17 255 255 255
-11.88 -17.50 1.76 255 255 255
-22.32 29.99 0.90 255 255 255
-6.52 -26.07 1.93 255 255 255
-23.93 29.76 1.83 255 255 255
-11.11 -17.40 1.49 255 255 255
-20.74 30.22 1.49 255 255 255
-25.55 29.52 2.00 255 255 255
-22.32 30.01 1.66 255 255 255
-15.31 1.10 1.21 255 255 255
-23.92 29.75 2.60 255 255 255
-20.72 30.18 2.25 255 255 255
-22.30 29.97 2.42 255 255 255
-11.90 -17.50 1.39 255 255 255
-20.14 21.00 0.51 255 255 255
-10.36 -17.27 1.60 255 255 255
-11.13 -17.38 1.12 255 255 255
-19.32 22.89 0.90 255 255 255
-8.90 -19.13 1.33 255 255 255
-23.87 29.81 1.07 255 255 255
-11.91 -17.49 1.02 255 255 255
-10.36 -17.28 1.22 255 255 255
-11.14 -17.38 0.75 255 255 255
-11.91 -17.48 0.65 255 255 255
-10.36 -17.28 0.85 255 255 255
-11.14 -17.36 0.19 255 255 255
-11.16 -17.40 1.86 255 255 255
-10.37 -17.27 0.48 255 255 255
-10.39 -17.26 1.97 255 255 255
-13.29 -8.16 0.45 255 255 255
-15.33 0.66 0.28 255 255 255
-25.45 29.57 1.23 255 255 255
-10.38 -17.21 -0.17 255 255 255
-11.93 -17.51 1.76 255 255 255
-22.21 30.00 0.90 255 255 255
-6.43 -26.58 1.94 255 255 255
-23.82 29.78 1.83 255 255 255
-15.42 1.01 0.90 255 255 255
-11.16 -17.41 1.49 255 255 255
-20.63 30.23 1.49 255 255 255
-25.43 29.57 2.01 255 255 255
-22.20 30.00 1.66 255 255 255
-15.28 1.03 1.22 255 255 255
-23.81 29.77 2.60 255 255 255
-20.61 30.20 2.25 255 255 255
-22.19 29.99 2.42 255 255 255
-11.96 -17.51 1.39 255 255 255
-20.06 21.01 0.51 255 255 255
-10.42 -17.27 1.59 255 255 255
-11.19 -17.39 1.12 255 255 255
-19.22 22.79 0.90 255 255 255
-8.96 -19.14 1.33 255 255 255
-23.77 29.86 1.07 255 255 255
-11.96 -17.50 1.02 255 255 255
-10.41 -17.31 1.22 255 255 255
-11.19 -17.38 0.75 255 255 255
-8.25 -21.29 0.85 255 255 255
-11.97 -17.49 0.65 255 255 255
-10.42 -17.28 0.85 255 255 255
-11.20 -17.37 0.19 255 255 255
-10.43 -17.27 0.48 255 255 255
-10.45 -17.28 1.97 255 255 255
-13.33 -8.10 0.45 255 255 255
-25.33 29.59 1.24 255 255 255
-15.32 0.63 0.30 255 255 255
-10.43 -17.22 -0.17 255 255 255
-11.99 -17.51 1.76 255 255 255
-22.10 30.02 0.90 255 255 255
-6.36 -27.07 1.95 255 255 255
-15.38 0.86 0.93 255 255 255
-23.70 29.80 1.83 255 255 255
-11.21 -17.45 1.49 255 255 255
-20.51 30.22 1.49 255 255 255
-25.31 29.55 2.01 255 255 255
-22.09 30.01 1.66 255 255 255
-15.26 0.99 1.22 255 255 255
-23.69 29.79 2.60 255 255 255
-20.50 30.21 2.25 255 255 255
-22.25 20.46 2.40 255 255 255
-22.07 30.00 2.42 255 255 255
-18.56 11.70 0.96 255 255 255
-12.01 -17.52 1.39 255 255 255
-19.98 21.04 0.51 255 255 255
-10.47 -17.28 1.59 255 255 255
-11.23 -17.42 1.12 255 255 255
-19.12 22.76 0.90 255 255 255
-9.03 -19.15 1.33 255 255 255
-23.64 29.85 1.07 255 255 255
-12.01 -17.51 1.02 255 255 255
-10.47 -17.30 1.22 255 255 255
-11.25 -17.39 0.75 255 255 255
-8.32 -21.28 0.85 255 255 255
-12.02 -17.49 0.65 255 255 255
-10.48 -17.29 0.85 255 255 255
-11.25 -17.39 0.19 255 255 255
-10.48 -17.27 0.48 255 255 255
-10.51 -17.27 1.97 255 255 255
-13.35 -8.09 0.46 255 255 255
-25.22 29.61 1.24 255 255 255
-15.30 0.59 0.32 255 255 255
-12.04 -17.55 1.76 255 255 255
-10.49 -17.23 -0.17 255 255 255
-21.98 30.04 0.90 255 255 255
-6.28 -27.58 1.96 255 255 255
-15.32 0.65 0.97 255 255 255
-18.54 11.69 1.62 255 255 255
-11.26 -17.47 1.49 255 255 255
-20.40 30.27 1.49 255 255 255
-25.19 29.57 2.01 255 255 255
-21.98 30.06 1.67 255 255 255
-15.25 0.96 1.23 255 255 255
-18.54 11.71 1.95 255 255 255
-20.38 30.23 2.25 255 255 255
-22.17 20.48 2.40 255 255 255
-21.96 30.02 2.43 255 255 255
-18.50 11.66 0.97 255 255 255
-12.05 -17.59 1.39 255 255 255
-19.90 21.03 0.51 255 255 255
-10.52 -17.30 1.59 255 255 255
-11.29 -17.44 1.12 255 255 255
-18.77 21.26 0.94 255 255 255
-9.09 -19.15 1.33 255 255 255
-12.06 -17.58 1.01 255 255 255
-10.52 -17.31 1.22 255 255 255
-11.30 -17.40 0.75 255 255 255
-12.07 -17.56 0.64 255 255 255
-10.53 -17.30 0.85 255 255 255
-11.30 -17.40 0.19 255 255 255
-10.53 -17.30 0.48 255 255 255
-11.32 -17.44 1.86 255 255 255
-13.37 -8.09 0.45 255 255 255
-10.55 -17.33 1.97 255 255 255
-15.29 0.58 0.32 255 255 255
-25.10 29.63 1.24 255 255 255
-12.07 -17.69 1.76 255 255 255
-10.54 -17.25 -0.18 255 255 255
-21.87 30.05 0.90 255 255 255
-6.19 -28.18 1.97 255 255 255
-15.31 0.64 0.97 255 255 255
-18.48 11.67 1.62 255 255 255
-11.32 -17.48 1.49 255 255 255
-20.29 30.29 1.50 255 255 255
-25.08 29.59 2.01 255 255 255
-21.86 30.05 1.67 255 255 255
-18.48 11.68 1.95 255 255 255
-15.23 0.92 1.23 255 255 255
-20.27 30.25 2.25 255 255 255
-22.09 20.50 2.40 255 255 255
-21.85 30.04 2.43 255 255 255
-18.47 11.67 2.44 255 255 255
-18.45 11.67 0.97 255 255 255
-12.09 -17.69 1.39 255 255 255
-19.82 21.05 0.51 255 255 255
-10.58 -17.31 1.59 255 255 255
-11.34 -17.45 1.12 255 255 255
-18.69 21.27 0.94 255 255 255
-9.16 -19.17 1.32 255 255 255
-18.45 11.67 1.29 255 255 255
-12.10 -17.67 1.01 255 255 255
-10.58 -17.32 1.22 255 255 255
-11.36 -17.42 0.75 255 255 255
-6.09 -28.66 0.67 255 255 255
-12.11 -17.66 0.64 255 255 255
-10.59 -17.30 0.85 255 255 255
-11.36 -17.40 0.19 255 255 255
-10.58 -17.35 0.47 255 255 255
-11.38 -17.45 1.86 255 255 255
-10.60 -17.34 1.96 255 255 255
-13.40 -8.07 0.46 255 255 255
-15.27 0.57 0.33 255 255 255
-24.98 29.64 1.24 255 255 255
-10.60 -17.26 -0.17 255 255 255
-12.13 -17.70 1.76 255 255 255
-21.76 30.07 0.91 255 255 255
-18.43 11.66 1.62 255 255 255
-15.30 0.65 0.97 255 255 255
-11.37 -17.49 1.49 255 255 255
-20.17 30.30 1.50 255 255 255
-24.97 29.64 2.01 255 255 255
-21.75 30.06 1.67 255 255 255
-15.21 0.89 1.23 255 255 255
-18.43 11.68 1.95 255 255 255
-20.16 30.26 2.26 255 255 255
-21.73 30.06 2.43 255 255 255
-18.41 11.63 2.44 255 255 255
-18.40 11.67 0.97 255 255 255
-12.15 -17.70 1.38 255 255 255
-19.73 21.06 0.52 255 255 255
-10.64 -17.31 1.59 255 255 255
-11.40 -17.45 1.12 255 255 255
-18.61 21.30 0.94 255 255 255
-9.22 -19.18 1.32 255 255 255
-18.39 11.67 1.29 255 255 255
-12.16 -17.68 1.01 255 255 255
-10.64 -17.32 1.22 255 255 255
-11.41 -17.43 0.75 255 255 255
-9.23 -19.18 0.90 255 255 255
-12.16 -17.67 0.64 255 255 255
-10.64 -17.31 0.85 255 255 255
-11.42 -17.40 0.19 255 255 255
-10.63 -17.37 0.47 255 255 255
-11.43 -17.47 1.86 255 255 255
-13.43 -8.04 0.46 255 255 255
-10.66 -17.35 1.96 255 255 255
-15.27 0.57 0.33 255 255 255
-24.86 29.66 1.24 255 255 255
-10.65 -17.27 -0.18 255 255 255
-12.18 -17.71 1.76 255 255 255
-21.64 30.09 0.91 255 255 255
-6.27 -28.56 1.98 255 255 255
-15.29 0.64 0.98 255 255 255
-18.38 11.66 1.62 255 255 255
-11.43 -17.49 1.49 255 255 255
-20.06 30.32 1.50 255 255 255
-24.85 29.62 2.01 255 255 255
-21.63 30.08 1.67 255 255 255
-15.20 0.86 1.23 255 255 255
-18.38 11.68 1.95 255 255 255
-20.04 30.28 2.26 255 255 255
-21.62 30.07 2.43 255 255 255
-18.36 11.62 2.43 255 255 255
-18.36 11.70 0.97 255 255 255
-12.20 -17.70 1.38 255 255 255
-19.65 21.07 0.52 255 255 255
-10.69 -17.32 1.59 255 255 255
-11.45 -17.47 1.12 255 255 255
-18.53 21.30 0.94 255 255 255
-9.29 -19.18 1.32 255 255 255
-18.35 11.69 1.29 255 255 255
-12.21 -17.68 1.01 255 255 255
-10.69 -17.33 1.22 255 255 255
-11.47 -17.42 0.75 255 255 255
-5.93 -29.82 0.64 255 255 255
-12.22 -17.68 0.64 255 255 255
-10.70 -17.31 0.85 255 255 255
-11.47 -17.41 0.19 255 255 255
-10.69 -17.35 0.47 255 255 255
-11.49 -17.45 1.86 255 255 255
-10.71 -17.35 1.96 255 255 255
-13.46 -8.00 0.47 255 255 255
-15.26 0.56 0.34 255 255 255
-24.76 29.68 1.24 255 255 255
-10.71 -17.28 -0.18 255 255 255
-12.24 -17.71 1.76 255 255 255
-19.76 21.71 1.05 255 255 255
-6.38 -28.56 1.97 255 255 255
-15.28 0.64 0.98 255 255 255
-18.34 11.71 1.62 255 255 255
-11.48 -17.50 1.49 255 255 255
-19.96 30.34 1.50 255 255 255
-24.74 29.64 2.01 255 255 255
-21.53 30.10 1.67 255 255 255
-18.34 11.74 1.95 255 255 255
-15.19 0.85 1.24 255 255 255
-19.94 30.30 2.26 255 255 255
-21.52 30.09 2.43 255 255 255
-18.34 11.72 2.44 255 255 255
-18.32 11.74 0.97 255 255 255
-12.26 -17.71 1.38 255 255 255
-19.58 21.07 0.52 255 255 255
-10.74 -17.33 1.59 255 255 255
-11.51 -17.47 1.11 255 255 255
-18.45 21.31 0.94 255 255 255
-9.34 -19.20 1.32 255 255 255
-18.32 11.75 1.29 255 255 255
-12.26 -17.69 1.01 255 255 255
-10.75 -17.34 1.22 255 255 255
-11.52 -17.43 0.75 255 255 255
-12.27 -17.69 0.64 255 255 255
-10.75 -17.33 0.85 255 255 255
-11.52 -17.41 0.19 255 255 255
-10.75 -17.33 0.47 255 255 255
-11.54 -17.47 1.86 255 255 255
-10.77 -17.35 1.96 255 255 255
-13.48 -8.00 0.47 255 255 255
-24.63 29.70 1.25 255 255 255
-15.25 0.58 0.33 255 255 255
-10.76 -17.28 -0.18 255 255 255
-12.29 -17.72 1.76 255 255 255
-19.57 21.25 1.06 255 255 255
-6.46 -28.59 1.97 255 255 255
-15.27 0.65 0.98 255 255 255
-11.53 -17.51 1.49 255 255 255
-19.83 30.32 1.50 255 255 255
-15.38 1.15 1.10 255 255 255
-24.62 29.69 2.02 255 255 255
-21.41 30.11 1.67 255 255 255
-15.18 0.83 1.24 255 255 255
-19.82 30.31 2.26 255 255 255
-21.39 30.08 2.43 255 255 255
-20.64 20.94 0.64 255 255 255
-12.31 -17.72 1.38 255 255 255
-19.49 21.08 0.52 255 255 255
-10.80 -17.34 1.59 255 255 255
-11.57 -17.48 1.11 255 255 255
-18.36 21.31 0.94 255 255 255
-9.41 -19.19 1.32 255 255 255
-12.32 -17.70 1.01 255 255 255
-10.80 -17.35 1.22 255 255 255
-11.58 -17.44 0.74 255 255 255
-9.42 -19.18 0.90 255 255 255
-12.33 -17.68 0.64 255 255 255
-10.81 -17.34 0.85 255 255 255
-11.58 -17.43 0.19 255 255 255
-10.03 -17.29 2.07 255 255 255
-11.60 -17.48 1.86 255 255 255
-10.81 -17.33 0.47 255 255 255
-13.50 -8.00 0.47 255 255 255
-10.82 -17.39 1.96 255 255 255
-15.24 0.56 0.34 255 255 255
-24.52 29.71 1.25 255 255 255
-10.82 -17.29 -0.18 255 255 255
-12.35 -17.72 1.75 255 255 255
-15.49 1.05 0.65 255 255 255
-10.04 -17.26 1.69 255 255 255
-15.26 0.64 0.98 255 255 255
-22.90 29.92 1.84 255 255 255
-11.59 -17.52 1.48 255 255 255
-19.72 30.37 1.50 255 255 255
-15.33 0.96 1.13 255 255 255
-24.50 29.71 2.02 255 255 255
-21.29 30.13 1.67 255 255 255
-15.18 0.92 1.23 255 255 255
-22.89 29.91 2.61 255 255 255
-19.71 30.33 2.26 255 255 255
-21.28 30.09 2.43 255 255 255
-20.55 20.93 0.64 255 255 255
-12.36 -17.71 1.38 255 255 255
-19.41 21.09 0.52 255 255 255
-10.84 -17.38 1.59 255 255 255
-11.61 -17.49 1.11 255 255 255
-18.28 21.32 0.94 255 255 255
-9.47 -19.20 1.32 255 255 255
-22.83 29.94 1.08 255 255 255
-12.37 -17.69 1.01 255 255 255
-10.84 -17.39 1.22 255 255 255
-11.63 -17.45 0.74 255 255 255
-10.07 -17.24 0.95 255 255 255
-12.38 -17.70 0.64 255 255 255
-10.83 -17.44 0.84 255 255 255
-11.63 -17.44 0.19 255 255 255
-10.10 -17.24 2.07 255 255 255
-10.84 -17.42 0.47 255 255 255
-10.85 -17.48 1.96 255 255 255
-13.53 -7.98 0.47 255 255 255
-15.23 0.56 0.34 255 255 255
-24.40 29.73 1.25 255 255 255
-10.86 -17.31 -0.18 255 255 255
-12.41 -17.65 1.75 255 255 255
-15.46 0.99 0.67 255 255 255
-10.09 -17.26 1.69 255 255 255
-22.79 29.94 1.85 255 255 255
-15.25 0.64 0.98 255 255 255
-11.64 -17.53 1.48 255 255 255
-13.12 -8.34 0.02 255 255 255
-19.61 30.39 1.50 255 255 255
-15.28 0.77 1.15 255 255 255
-24.38 29.69 2.02 255 255 255
-21.18 30.15 1.67 255 255 255
-15.20 1.11 1.22 255 255 255
-22.78 29.93 2.61 255 255 255
-19.59 30.35 2.26 255 255 255
-21.16 30.11 2.43 255 255 255
-20.47 20.93 0.64 255 255 255
-12.43 -17.66 1.38 255 255 255
-19.33 21.10 0.52 255 255 255
-10.88 -17.45 1.59 255 255 255
-11.67 -17.50 1.11 255 255 255
-18.20 21.32 0.95 255 255 255
-10.12 -17.26 1.32 255 255 255
-22.72 29.96 1.08 255 255 255
-12.44 -17.65 1.01 255 255 255
-10.88 -17.46 1.22 255 255 255
-11.68 -17.46 0.74 255 255 255
-10.13 -17.24 0.95 255 255 255
-12.44 -17.64 0.64 255 255 255
-10.89 -17.46 0.84 255 255 255
-11.69 -17.44 0.19 255 255 255
-10.16 -17.24 2.07 255 255 255
-10.89 -17.46 0.47 255 255 255
-11.70 -17.50 1.85 255 255 255
-10.91 -17.46 1.96 255 255 255
-13.55 -7.96 0.48 255 255 255
-15.22 0.57 0.34 255 255 255
-24.29 29.75 1.25 255 255 255
-10.90 -17.42 -0.19 255 255 255
-12.47 -17.65 1.75 255 255 255
-10.16 -17.23 1.69 255 255 255
-15.24 0.64 0.98 255 255 255
-22.67 29.95 1.85 255 255 255
-13.17 -8.25 0.04 255 255 255
-11.70 -17.53 1.48 255 255 255
-19.49 30.40 1.51 255 255 255
-15.26 0.71 1.15 255 255 255
-24.27 29.71 2.02 255 255 255
-21.07 30.17 1.68 255 255 255
-15.15 0.84 1.24 255 255 255
-22.66 29.94 2.61 255 255 255
-19.48 30.37 2.26 255 255 255
-21.05 30.13 2.43 255 255 255
-20.38 20.94 0.64 255 255 255
-12.49 -17.65 1.38 255 255 255
-19.24 21.12 0.52 255 255 255
-10.96 -17.38 1.59 255 255 255
-11.73 -17.49 1.11 255 255 255
-18.12 21.34 0.95 255 255 255
-10.18 -17.28 1.32 255 255 255
-22.60 29.97 1.08 255 255 255
-12.50 -17.64 1.01 255 255 255
-10.96 -17.39 1.21 255 255 255
-11.74 -17.47 0.74 255 255 255
-10.19 -17.24 0.94 255 255 255
-12.50 -17.64 0.64 255 255 255
-10.96 -17.41 0.84 255 255 255
-10.22 -17.24 2.06 255 255 255
-11.74 -17.45 0.19 255 255 255
-10.96 -17.43 0.47 255 255 255
-11.76 -17.51 1.85 255 255 255
-10.99 -17.39 1.96 255 255 255
-13.58 -7.94 0.48 255 255 255
-15.21 0.57 0.33 255 255 255
-24.18 29.76 1.25 255 255 255
-12.52 -17.65 1.75 255 255 255
-10.98 -17.32 -0.18 255 255 255
-15.36 0.63 0.77 255 255 255
-10.22 -17.24 1.69 255 255 255
-15.23 0.63 0.98 255 255 255
-22.56 29.94 1.85 255 255 255
-11.77 -17.47 1.48 255 255 255
-13.19 -8.25 0.04 255 255 255
-19.39 30.42 1.51 255 255 255
-24.16 29.73 2.02 255 255 255
-15.25 0.71 1.16 255 255 255
-20.96 30.18 1.68 255 255 255
-15.13 0.82 1.24 255 255 255
-22.55 29.93 2.61 255 255 255
-19.38 30.38 2.27 255 255 255
-20.95 30.14 2.44 255 255 255
-15.29 1.93 1.28 255 255 255
-20.31 20.97 0.64 255 255 255
-12.54 -17.66 1.38 255 255 255
-19.17 21.13 0.53 255 255 255
-11.02 -17.37 1.59 255 255 255
-11.79 -17.46 1.11 255 255 255
-18.05 21.37 0.95 255 255 255
-10.24 -17.26 1.32 255 255 255
-22.50 29.99 1.09 255 255 255
-12.55 -17.66 1.01 255 255 255
-11.02 -17.38 1.21 255 255 255
-11.79 -17.48 0.74 255 255 255
-10.25 -17.25 0.95 255 255 255
-12.55 -17.65 0.64 255 255 255
-11.02 -17.39 0.84 255 255 255
-11.79 -17.46 0.19 255 255 255
-10.27 -17.24 2.06 255 255 255
-11.02 -17.39 0.47 255 255 255
-13.60 -7.92 0.48 255 255 255
-11.04 -17.40 1.96 255 255 255
-15.20 0.56 0.34 255 255 255
-24.07 29.78 1.25 255 255 255
-11.03 -17.33 -0.18 255 255 255
-12.58 -17.66 1.75 255 255 255
-15.34 0.61 0.78 255 255 255
-10.27 -17.26 1.69 255 255 255
-15.22 0.63 0.98 255 255 255
-22.45 29.95 1.85 255 255 255
-11.82 -17.49 1.48 255 255 255
-19.28 30.44 1.51 255 255 255
-15.24 0.70 1.16 255 255 255
-24.05 29.74 2.02 255 255 255
-20.85 30.20 1.68 255 255 255
-15.12 0.80 1.24 255 255 255
-22.44 29.95 2.61 255 255 255
-19.27 30.43 2.27 255 255 255
-20.83 30.16 2.44 255 255 255
-20.23 20.98 0.64 255 255 255
-12.60 -17.67 1.38 255 255 255
-19.09 21.12 0.53 255 255 255
-11.07 -17.39 1.58 255 255 255
-11.84 -17.48 1.11 255 255 255
-17.97 21.38 0.95 255 255 255
-10.29 -17.27 1.32 255 255 255
-22.39 30.01 1.09 255 255 255
-12.60 -17.66 1.01 255 255 255
-11.07 -17.38 1.21 255 255 255
-11.84 -17.48 0.74 255 255 255
-10.30 -17.25 0.94 255 255 255
-12.61 -17.65 0.64 255 255 255
-11.07 -17.40 0.84 255 255 255
-10.32 -17.26 2.06 255 255 255
-11.85 -17.47 0.19 255 255 255
-11.08 -17.39 0.47 255 255 255
-11.87 -17.51 1.85 255 255 255
-13.62 -7.93 0.48 255 255 255
-11.09 -17.41 1.96 255 255 255
-23.95 29.77 1.26 255 255 255
-15.19 0.56 0.34 255 255 255
-12.63 -17.67 1.75 255 255 255
-11.08 -17.34 -0.18 255 255 255
-15.33 0.61 0.78 255 255 255
-10.33 -17.26 1.69 255 255 255
-15.21 0.63 0.98 255 255 255
-22.34 29.97 1.85 255 255 255
-11.87 -17.51 1.48 255 255 255
-13.28 -8.05 0.08 255 255 255
-15.49 3.51 1.47 255 255 255
-15.23 0.69 1.16 255 255 255
-23.93 29.76 2.02 255 255 255
-20.74 30.22 1.68 255 255 255
-22.32 29.96 2.61 255 255 255
-15.11 0.81 1.24 255 255 255
-15.48 3.51 1.59 255 255 255
-15.34 1.32 1.23 255 255 255
-20.72 30.18 2.44 255 255 255
-15.27 1.97 1.28 255 255 255
-20.15 20.99 0.65 255 255 255
-12.65 -17.69 1.38 255 255 255
-19.01 21.15 0.53 255 255 255
-11.13 -17.38 1.58 255 255 255
-11.89 -17.50 1.11 255 255 255
-10.35 -17.27 1.32 255 255 255
-22.27 30.02 1.09 255 255 255
-12.66 -17.67 1.01 255 255 255
-11.13 -17.38 1.21 255 255 255
-11.90 -17.50 0.74 255 255 255
-10.36 -17.26 0.94 255 255 255
-12.66 -17.66 0.64 255 255 255
-11.13 -17.40 0.84 255 255 255
-11.90 -17.48 0.19 255 255 255
-10.38 -17.26 2.06 255 255 255
-11.13 -17.40 0.47 255 255 255
-11.92 -17.53 1.85 255 255 255
-11.15 -17.41 1.95 255 255 255
-13.65 -7.92 0.48 255 255 255
-23.84 29.82 1.26 255 255 255
-15.18 0.56 0.34 255 255 255
-11.14 -17.35 -0.18 255 255 255
-12.68 -17.71 1.75 255 255 255
-15.32 0.60 0.78 255 255 255
-10.38 -17.26 1.69 255 255 255
-15.20 0.63 0.98 255 255 255
-22.22 29.99 1.85 255 255 255
-13.31 -8.04 0.08 255 255 255
-11.92 -17.52 1.48 255 255 255
-15.22 0.70 1.16 255 255 255
-23.82 29.78 2.02 255 255 255
-20.62 30.23 1.68 255 255 255
-22.21 29.98 2.61 255 255 255
-15.10 0.80 1.24 255 255 255
-15.31 1.23 1.24 255 255 255
-20.61 30.22 2.44 255 255 255
-15.25 1.94 1.28 255 255 255
-20.07 21.02 0.65 255 255 255
-12.70 -17.76 1.38 255 255 255
-18.93 21.16 0.53 255 255 255
-11.19 -17.39 1.58 255 255 255
-11.95 -17.50 1.11 255 255 255
-15.45 3.49 1.34 255 255 255
-10.40 -17.30 1.32 255 255 255
-22.16 30.04 1.09 255 255 255
-12.70 -17.74 1.01 255 255 255
-11.19 -17.39 1.21 255 255 255
-11.96 -17.50 0.74 255 255 255
-10.42 -17.27 0.94 255 255 255
-12.71 -17.75 0.63 255 255 255
-11.19 -17.42 0.84 255 255 255
-10.44 -17.26 2.06 255 255 255
-11.96 -17.49 0.19 255 255 255
-11.98 -17.53 1.85 255 255 255
-11.19 -17.41 0.47 255 255 255
-13.67 -7.92 0.48 255 255 255
-23.71 29.80 1.26 255 255 255
-15.17 0.56 0.34 255 255 255
-11.20 -17.35 -0.18 255 255 255
-12.73 -17.79 1.75 255 255 255
-15.31 0.59 0.78 255 255 255
-10.44 -17.27 1.69 255 255 255
-22.11 30.01 1.85 255 255 255
-15.19 0.63 0.98 255 255 255
-11.98 -17.52 1.48 255 255 255
-15.45 3.50 1.47 255 255 255
-23.70 29.80 2.03 255 255 255
-15.21 0.70 1.16 255 255 255
-20.51 30.25 1.68 255 255 255
-22.10 30.00 2.62 255 255 255
-15.09 0.80 1.24 255 255 255
-15.44 3.48 1.59 255 255 255
-15.29 1.16 1.25 255 255 255
-20.49 30.21 2.44 255 255 255
-15.24 1.94 1.29 255 255 255
-19.99 21.02 0.65 255 255 255
-12.75 -17.80 1.38 255 255 255
-18.85 21.18 0.53 255 255 255
-11.23 -17.42 1.58 255 255 255
-18.55 11.68 1.05 255 255 255
-12.00 -17.52 1.11 255 255 255
-15.44 3.50 1.34 255 255 255
-10.46 -17.30 1.31 255 255 255
-22.05 30.06 1.09 255 255 255
-12.76 -17.77 1.00 255 255 255
-11.24 -17.42 1.21 255 255 255
-12.00 -17.52 0.74 255 255 255
-10.47 -17.28 0.94 255 255 255
-12.76 -17.76 0.63 255 255 255
-11.24 -17.42 0.84 255 255 255
-10.49 -17.27 2.06 255 255 255
-12.01 -17.50 0.18 255 255 255
-11.24 -17.41 0.47 255 255 255
-12.02 -17.56 1.85 255 255 255
-13.69 -7.92 0.48 255 255 255
-15.16 0.55 0.35 255 255 255
-18.53 11.67 1.37 255 255 255
-11.25 -17.37 -0.18 255 255 255
-12.77 -17.89 1.75 255 255 255
-15.31 0.61 0.78 255 255 255
-10.49 -17.28 1.69 255 255 255
-15.18 0.63 0.98 255 255 255
-21.99 30.02 1.85 255 255 255
-13.36 -8.01 0.09 255 255 255
-12.02 -17.61 1.48 255 255 255
-18.53 11.69 1.70 255 255 255
-15.20 0.72 1.16 255 255 255
-20.40 30.27 1.68 255 255 255
-21.98 30.01 2.62 255 255 255
-15.09 0.82 1.24 255 255 255
-15.43 3.50 1.59 255 255 255
-15.27 1.13 1.25 255 255 255
-20.38 30.23 2.44 255 255 255
-15.22 1.93 1.29 255 255 255
-19.91 21.03 0.65 255 255 255
-12.74 -18.29 1.38 255 255 255
-18.76 21.17 0.53 255 255 255
-11.28 -17.46 1.58 255 255 255
-18.50 11.66 1.05 255 255 255
-12.03 -17.67 1.11 255 255 255
-10.51 -17.31 1.31 255 255 255
-21.93 30.07 1.09 255 255 255
-12.74 -18.38 0.99 255 255 255
-11.29 -17.45 1.21 255 255 255
-12.04 -17.66 0.73 255 255 255
-10.52 -17.28 0.94 255 255 255
-12.74 -18.36 0.60 255 255 255
-11.30 -17.43 0.84 255 255 255
-10.54 -17.31 2.06 255 255 255
-12.04 -17.65 0.17 255 255 255
-11.30 -17.41 0.47 255 255 255
-12.06 -17.70 1.85 255 255 255
-13.71 -7.90 0.49 255 255 255
-11.32 -17.43 1.95 255 255 255
-15.16 0.57 0.34 255 255 255
-18.48 11.66 1.37 255 255 255
-11.30 -17.37 -0.18 255 255 255
-12.76 -18.41 1.77 255 255 255
-15.29 0.59 0.78 255 255 255
-18.76 21.37 1.07 255 255 255
-10.54 -17.32 1.69 255 255 255
-15.18 0.63 0.98 255 255 255
-21.88 30.04 1.86 255 255 255
-12.06 -17.68 1.48 255 255 255
-15.19 0.71 1.16 255 255 255
-18.47 11.66 1.70 255 255 255
-20.29 30.28 1.69 255 255 255
-15.07 0.80 1.24 255 255 255
-21.88 30.06 2.62 255 255 255
-18.47 11.66 2.03 255 255 255
-15.25 1.08 1.25 255 255 255
-20.27 30.24 2.44 255 255 255
-15.20 1.89 1.29 255 255 255
-19.82 21.04 0.65 255 255 255
-12.78 -18.42 1.38 255 255 255
-18.68 21.20 0.53 255 255 255
-11.33 -17.47 1.58 255 255 255
-18.44 11.65 1.05 255 255 255
-12.08 -17.67 1.11 255 255 255
-17.38 19.92 0.99 255 255 255
-10.57 -17.31 1.31 255 255 255
-21.82 30.09 1.10 255 255 255
-12.79 -18.40 0.99 255 255 255
-11.34 -17.46 1.21 255 255 255
-12.09 -17.68 0.73 255 255 255
-10.58 -17.30 0.94 255 255 255
-12.79 -18.42 0.60 255 255 255
-11.35 -17.43 0.84 255 255 255
-12.09 -17.66 0.17 255 255 255
-10.59 -17.34 2.06 255 255 255
-12.11 -17.70 1.85 255 255 255
-11.35 -17.43 0.47 255 255 255
-13.74 -7.90 0.49 255 255 255
-11.37 -17.45 1.95 255 255 255
-18.42 11.65 1.38 255 255 255
-15.15 0.56 0.34 255 255 255
-12.82 -18.40 1.76 255 255 255
-11.36 -17.37 -0.18 255 255 255
-15.28 0.60 0.78 255 255 255
-18.68 21.40 1.07 255 255 255
-10.59 -17.32 1.69 255 255 255
-21.77 30.06 1.86 255 255 255
-15.17 0.63 0.98 255 255 255
-12.11 -17.71 1.48 255 255 255
-17.34 19.91 1.50 255 255 255
-15.18 0.70 1.16 255 255 255
-18.42 11.65 1.70 255 255 255
-20.17 30.30 1.69 255 255 255
-21.76 30.08 2.62 255 255 255
-15.06 0.78 1.24 255 255 255
-18.59 30.53 2.28 255 255 255
-15.24 1.04 1.25 255 255 255
-18.42 11.65 2.03 255 255 255
-20.16 30.26 2.45 255 255 255
-15.17 1.70 1.30 255 255 255
-19.74 21.06 0.65 255 255 255
-12.84 -18.45 1.38 255 255 255
-18.60 21.21 0.53 255 255 255
-11.39 -17.49 1.58 255 255 255
-18.39 11.65 1.05 255 255 255
-12.14 -17.68 1.11 255 255 255
-10.62 -17.32 1.31 255 255 255
-21.70 30.11 1.10 255 255 255
-12.85 -18.41 0.99 255 255 255
-11.39 -17.47 1.21 255 255 255
-12.15 -17.67 0.73 255 255 255
-10.63 -17.30 0.94 255 255 255
-12.85 -18.41 0.60 255 255 255
-11.41 -17.44 0.84 255 255 255
-10.65 -17.34 2.06 255 255 255
-12.15 -17.66 0.17 255 255 255
-12.17 -17.72 1.85 255 255 255
-11.41 -17.44 0.47 255 255 255
-13.76 -7.88 0.49 255 255 255
-11.43 -17.45 1.95 255 255 255
-15.14 0.56 0.35 255 255 255
-18.38 11.67 1.38 255 255 255
-12.88 -18.41 1.76 255 255 255
-11.41 -17.40 -0.18 255 255 255
-15.27 0.59 0.79 255 255 255
-18.77 22.43 1.06 255 255 255
-10.66 -17.32 1.68 255 255 255
-15.16 0.64 0.98 255 255 255
-21.65 30.07 1.86 255 255 255
-12.17 -17.70 1.48 255 255 255
-17.27 20.03 1.50 255 255 255
-15.32 0.79 1.07 255 255 255
-15.17 0.71 1.16 255 255 255
-18.37 11.65 1.70 255 255 255
-20.06 30.32 1.69 255 255 255
-21.64 30.07 2.62 255 255 255
-15.05 0.78 1.24 255 255 255
-18.48 30.55 2.28 255 255 255
-15.23 1.04 1.25 255 255 255
-18.37 11.67 2.03 255 255 255
-20.04 30.28 2.45 255 255 255
-15.13 1.50 1.31 255 255 255
-19.66 21.05 0.65 255 255 255
-12.89 -18.47 1.38 255 255 255
-18.52 21.23 0.53 255 255 255
-11.44 -17.49 1.58 255 255 255
-18.35 11.68 1.05 255 255 255
-12.19 -17.70 1.10 255 255 255
-17.40 21.47 0.95 255 255 255
-10.68 -17.33 1.31 255 255 255
-21.59 30.13 1.10 255 255 255
-12.91 -18.42 0.99 255 255 255
-11.45 -17.48 1.21 255 255 255
-12.20 -17.68 0.73 255 255 255
-10.69 -17.32 0.94 255 255 255
-12.91 -18.43 0.60 255 255 255
-11.46 -17.45 0.84 255 255 255
-10.70 -17.36 2.06 255 255 255
-12.21 -17.67 0.17 255 255 255
-11.46 -17.45 0.47 255 255 255
-12.22 -17.73 1.85 255 255 255
-13.78 -7.89 0.49 255 255 255
-11.48 -17.46 1.95 255 255 255
-15.13 0.57 0.34 255 255 255
-18.33 11.70 1.38 255 255 255
-11.47 -17.40 -0.18 255 255 255
-12.93 -18.44 1.76 255 255 255
-15.26 0.58 0.79 255 255 255
-10.71 -17.34 1.68 255 255 255
-15.15 0.64 0.98 255 255 255
-21.54 30.09 1.86 255 255 255
-13.49 -7.82 0.13 255 255 255
-12.23 -17.71 1.48 255 255 255
-18.38 30.57 1.52 255 255 255
-15.29 0.69 1.08 255 255 255
-15.16 0.70 1.16 255 255 255
-18.33 11.70 1.70 255 255 255
-19.95 30.33 1.69 255 255 255
-15.04 0.78 1.24 255 255 255
-21.53 30.08 2.62 255 255 255
-18.36 30.57 2.28 255 255 255
-18.33 11.72 2.03 255 255 255
-15.21 1.02 1.26 255 255 255
-19.93 30.30 2.45 255 255 255
-15.12 1.51 1.31 255 255 255
-19.58 21.08 0.66 255 255 255
-12.96 -18.45 1.38 255 255 255
-18.44 21.24 0.54 255 255 255
-11.50 -17.49 1.58 255 255 255
-18.31 11.72 1.05 255 255 255
-12.25 -17.69 1.10 255 255 255
-17.32 21.50 0.96 255 255 255
-10.73 -17.35 1.31 255 255 255
-21.48 30.14 1.10 255 255 255
-12.96 -18.43 0.99 255 255 255
-11.50 -17.49 1.21 255 255 255
-12.26 -17.69 0.73 255 255 255
-10.74 -17.33 0.94 255 255 255
-12.97 -18.44 0.60 255 255 255
-11.52 -17.45 0.84 255 255 255
-10.75 -17.37 2.05 255 255 255
-12.26 -17.68 0.17 255 255 255
-12.28 -17.72 1.85 255 255 255
-11.52 -17.45 0.47 255 255 255
-11.53 -17.48 1.95 255 255 255
-13.80 -7.89 0.49 255 255 255
-15.12 0.57 0.35 255 255 255
-18.30 11.75 1.38 255 255 255
-12.99 -18.44 1.76 255 255 255
-11.52 -17.41 -0.18 255 255 255
-15.25 0.59 0.79 255 255 255
-10.77 -17.34 1.68 255 255 255
-15.14 0.63 0.98 255 255 255
-21.43 30.11 1.86 255 255 255
-13.52 -7.80 0.14 255 255 255
-12.28 -17.73 1.48 255 255 255
-15.10 1.39 1.46 255 255 255
-15.28 0.69 1.08 255 255 255
-15.15 0.70 1.16 255 255 255
-19.83 30.35 1.69 255 255 255
-15.03 0.78 1.25 255 255 255
-21.42 30.13 2.62 255 255 255
-18.25 30.58 2.28 255 255 255
-15.20 0.99 1.26 255 255 255
-19.82 30.31 2.45 255 255 255
-15.11 1.49 1.31 255 255 255
-19.50 21.09 0.66 255 255 255
-13.01 -18.46 1.38 255 255 255
-18.36 21.23 0.54 255 255 255
-11.55 -17.51 1.58 255 255 255
-20.65 21.00 0.77 255 255 255
-12.30 -17.70 1.10 255 255 255
-17.23 21.51 0.96 255 255 255
-10.79 -17.35 1.31 255 255 255
-21.36 30.16 1.10 255 255 255
-13.02 -18.45 0.99 255 255 255
-11.56 -17.49 1.21 255 255 255
-12.31 -17.70 0.73 255 255 255
-10.80 -17.33 0.94 255 255 255
-13.02 -18.43 0.60 255 255 255
-11.57 -17.47 0.84 255 255 255
-10.81 -17.37 2.05 255 255 255
-12.31 -17.69 0.17 255 255 255
-11.57 -17.46 0.47 255 255 255
-12.33 -17.71 1.85 255 255 255
-11.58 -17.48 1.95 255 255 255
-13.82 -7.87 0.49 255 255 255
-15.11 0.56 0.35 255 255 255
-22.91 29.92 1.27 255 255 255
-13.05 -18.44 1.76 255 255 255
-11.57 -17.41 -0.18 255 255 255
-15.25 0.59 0.79 255 255 255
-10.81 -17.38 1.68 255 255 255
-21.31 30.13 1.86 255 255 255
-15.13 0.64 0.98 255 255 255
-13.54 -7.77 0.14 255 255 255
-12.34 -17.73 1.47 255 255 255
-15.27 0.68 1.08 255 255 255
-18.15 30.61 1.52 255 255 255
-15.14 0.71 1.16 255 255 255
-22.89 29.89 2.03 255 255 255
-19.72 30.37 1.69 255 255 255
-21.30 30.12 2.62 255 255 255
-15.02 0.80 1.24 255 255 255
-18.14 30.60 2.28 255 255 255
-15.19 0.99 1.26 255 255 255
-19.71 30.36 2.45 255 255 255
-15.09 1.49 1.31 255 255 255
-19.42 21.10 0.66 255 255 255
-13.07 -18.48 1.37 255 255 255
-18.28 21.26 0.54 255 255 255
-11.61 -17.51 1.58 255 255 255
-20.57 21.01 0.77 255 255 255
-12.37 -17.65 1.10 255 255 255
-17.04 20.40 0.98 255 255 255
-10.84 -17.37 1.31 255 255 255
-19.47 21.37 1.20 255 255 255
-13.07 -18.46 0.99 255 255 255
-11.61 -17.50 1.21 255 255 255
-12.37 -17.64 0.73 255 255 255
-10.83 -17.43 0.94 255 255 255
-13.08 -18.46 0.60 255 255 255
-11.62 -17.48 0.84 255 255 255
-12.38 -17.62 0.18 255 255 255
-10.84 -17.49 2.06 255 255 255
-11.62 -17.46 0.47 255 255 255
-12.40 -17.64 1.84 255 255 255
-11.64 -17.48 1.95 255 255 255
-13.84 -7.89 0.49 255 255 255
-22.79 29.91 1.27 255 255 255
-15.10 0.57 0.35 255 255 255
-11.63 -17.42 -0.18 255 255 255
-13.11 -18.45 1.76 255 255 255
-15.24 0.60 0.79 255 255 255
-10.85 -17.46 1.68 255 255 255
-21.20 30.14 1.86 255 255 255
-15.12 0.64 0.98 255 255 255
-13.56 -7.79 0.14 255 255 255
-12.40 -17.66 1.47 255 255 255
-15.26 0.69 1.08 255 255 255
-22.78 29.90 2.04 255 255 255
-15.13 0.71 1.16 255 255 255
-19.61 30.39 1.69 255 255 255
-21.19 30.13 2.62 255 255 255
-15.01 0.80 1.24 255 255 255
-16.99 20.36 2.02 255 255 255
-15.28 1.71 1.21 255 255 255
-19.59 30.35 2.45 255 255 255
-15.08 1.50 1.31 255 255 255
-19.33 21.10 0.66 255 255 255
-13.13 -18.48 1.37 255 255 255
-18.20 21.27 0.54 255 255 255
-11.66 -17.52 1.58 255 255 255
-20.48 21.01 0.78 255 255 255
-12.42 -17.65 1.10 255 255 255
-16.96 20.41 0.98 255 255 255
-10.87 -17.47 1.31 255 255 255
-13.13 -18.46 0.99 255 255 255
-11.67 -17.51 1.21 255 255 255
-12.43 -17.64 0.73 255 255 255
-10.88 -17.44 0.94 255 255 255
-13.14 -18.47 0.60 255 255 255
-11.68 -17.48 0.84 255 255 255
-12.44 -17.62 0.17 255 255 255
-10.90 -17.48 2.06 255 255 255
-12.45 -17.66 1.85 255 255 255
-11.67 -17.49 0.46 255 255 255
-13.87 -7.88 0.49 255 255 255
-11.70 -17.49 1.95 255 255 255
-22.68 29.93 1.27 255 255 255
-15.09 0.55 0.35 255 255 255
-13.16 -18.45 1.76 255 255 255
-11.69 -17.42 -0.18 255 255 255
-15.23 0.60 0.79 255 255 255
-18.18 21.40 1.08 255 255 255
-10.91 -17.43 1.68 255 255 255
-15.11 0.63 0.99 255 255 255
-21.09 30.16 1.87 255 255 255
-13.58 -7.77 0.14 255 255 255
-12.46 -17.67 1.47 255 255 255
-15.25 0.68 1.09 255 255 255
-15.12 0.71 1.16 255 255 255
-22.67 29.92 2.04 255 255 255
-19.50 30.40 1.70 255 255 255
-15.29 0.88 1.19 255 255 255
-15.01 0.80 1.24 255 255 255
-21.08 30.15 2.63 255 255 255
-15.16 0.95 1.26 255 255 255
-19.48 30.36 2.45 255 255 255
-15.07 1.48 1.31 255 255 255
-19.26 21.11 0.66 255 255 255
-13.18 -18.48 1.37 255 255 255
-18.12 21.29 0.54 255 255 255
-11.71 -17.53 1.58 255 255 255
-20.40 21.00 0.78 255 255 255
-12.48 -17.65 1.10 255 255 255
-15.06 1.40 1.39 255 255 255
-10.93 -17.45 1.31 255 255 255
-13.19 -18.50 0.99 255 255 255
-11.72 -17.52 1.20 255 255 255
-12.49 -17.64 0.73 255 255 255
-10.96 -17.36 0.94 255 255 255
-13.19 -18.48 0.60 255 255 255
-11.73 -17.49 0.83 255 255 255
-10.97 -17.39 2.05 255 255 255
-12.49 -17.62 0.17 255 255 255
-11.73 -17.49 0.46 255 255 255
-12.51 -17.65 1.84 255 255 255
-11.75 -17.50 1.95 255 255 255
-13.89 -7.88 0.49 255 255 255
-22.57 29.94 1.28 255 255 255
-15.09 0.56 0.35 255 255 255
-11.74 -17.43 -0.18 255 255 255
-13.22 -18.46 1.76 255 255 255
-15.22 0.59 0.79 255 255 255
-10.98 -17.37 1.68 255 255 255
-20.98 30.18 1.87 255 255 255
-15.10 0.64 0.99 255 255 255
-12.51 -17.67 1.47 255 255 255
-13.60 -7.77 0.14 255 255 255
-17.82 30.66 1.52 255 255 255
-15.24 0.69 1.09 255 255 255
-15.11 0.71 1.16 255 255 255
-22.56 29.94 2.04 255 255 255
-19.39 30.42 1.70 255 255 255
-15.27 0.82 1.20 255 255 255
-14.99 0.80 1.24 255 255 255
-20.97 30.17 2.63 255 255 255
-17.80 30.65 2.29 255 255 255
-15.13 0.83 1.27 255 255 255
-19.37 30.38 2.46 255 255 255
-15.06 1.48 1.31 255 255 255
-19.17 21.12 0.66 255 255 255
-13.24 -18.49 1.37 255 255 255
-18.04 21.30 0.54 255 255 255
-11.78 -17.47 1.57 255 255 255
-20.32 21.00 0.78 255 255 255
-12.54 -17.65 1.10 255 255 255
-16.92 21.60 0.96 255 255 255
-11.00 -17.40 1.31 255 255 255
-13.25 -18.47 0.98 255 255 255
-11.78 -17.49 1.20 255 255 255
-12.54 -17.65 0.73 255 255 255
-11.02 -17.36 0.94 255 255 255
-13.25 -18.47 0.60 255 255 255
-11.78 -17.51 0.83 255 255 255
-12.55 -17.63 0.17 255 255 255
-11.03 -17.39 2.05 255 255 255
-11.79 -17.50 0.46 255 255 255
-12.56 -17.66 1.84 255 255 255
-13.91 -7.88 0.49 255 255 255
-15.08 0.56 0.35 255 255 255
-22.45 29.96 1.28 255 255 255
-11.79 -17.44 -0.18 255 255 255
-13.28 -18.47 1.76 255 255 255
-18.02 21.45 1.08 255 255 255
-15.21 0.59 0.79 255 255 255
-11.04 -17.38 1.68 255 255 255
-15.09 0.63 0.99 255 255 255
-20.87 30.19 1.87 255 255 255
-12.57 -17.67 1.47 255 255 255
-13.63 -7.76 0.14 255 255 255
-17.70 30.67 1.53 255 255 255
-15.23 0.68 1.09 255 255 255
-15.11 0.71 1.16 255 255 255
-22.44 29.95 2.04 255 255 255
-15.25 0.77 1.20 255 255 255
-19.27 30.44 1.70 255 255 255
-20.86 30.18 2.63 255 255 255
-14.99 0.81 1.24 255 255 255
-17.69 30.67 2.29 255 255 255
-15.12 0.81 1.27 255 255 255
-15.05 1.49 1.31 255 255 255
-15.49 3.48 1.75 255 255 255
-19.09 21.14 0.66 255 255 255
-13.30 -18.50 1.37 255 255 255
-17.96 21.29 0.54 255 255 255
-11.84 -17.47 1.57 255 255 255
-15.50 3.50 1.97 255 255 255
-20.23 21.01 0.78 255 255 255
-12.59 -17.65 1.10 255 255 255
-16.84 21.71 0.96 255 255 255
-11.06 -17.40 1.31 255 255 255
-13.30 -18.50 0.98 255 255 255
-11.84 -17.48 1.20 255 255 255
-12.60 -17.66 0.73 255 255 255
-11.07 -17.38 0.94 255 255 255
-13.31 -18.49 0.60 255 255 255
-11.84 -17.51 0.83 255 255 255
-11.09 -17.40 2.05 255 255 255
-12.60 -17.64 0.17 255 255 255
-11.84 -17.50 0.46 255 255 255
-12.62 -17.69 1.84 255 255 255
-11.86 -17.52 1.94 255 255 255
-13.93 -7.88 0.49 255 255 255
-15.07 0.56 0.35 255 255 255
-22.33 29.98 1.28 255 255 255
-11.85 -17.41 -0.18 255 255 255
-13.33 -18.48 1.76 255 255 255
-15.20 0.60 0.79 255 255 255
-11.09 -17.39 1.68 255 255 255
-15.08 0.63 0.99 255 255 255
-20.74 30.21 1.87 255 255 255
-13.65 -7.76 0.15 255 255 255
-12.62 -17.69 1.47 255 255 255
-17.58 30.69 1.53 255 255 255
-15.22 0.67 1.09 255 255 255
-22.32 29.97 2.04 255 255 255
-15.09 0.70 1.16 255 255 255
-15.22 0.71 1.21 255 255 255
-14.97 0.79 1.24 255 255 255
-17.57 30.69 2.29 255 255 255
-15.11 0.81 1.27 255 255 255
-15.02 1.36 1.31 255 255 255
-19.00 21.15 0.66 255 255 255
-13.35 -18.51 1.37 255 255 255
-15.47 3.48 1.25 255 255 255
-11.89 -17.49 1.57 255 255 255
-20.14 21.01 0.78 255 255 255
-12.64 -17.70 1.10 255 255 255
-16.76 21.80 0.96 255 255 255
-11.11 -17.40 1.31 255 255 255
-13.36 -18.51 0.98 255 255 255
-11.89 -17.51 1.20 255 255 255
-12.65 -17.70 0.73 255 255 255
-11.13 -17.36 0.94 255 255 255
-13.37 -18.49 0.59 255 255 255
-11.89 -17.53 0.83 255 255 255
-12.65 -17.69 0.17 255 255 255
-11.14 -17.41 2.05 255 255 255
-12.67 -17.73 1.84 255 255 255
-11.90 -17.51 0.46 255 255 255
-13.95 -7.87 0.49 255 255 255
-11.92 -17.52 1.94 255 255 255
-15.06 0.57 0.35 255 255 255
-22.23 30.03 1.28 255 255 255
-11.92 -17.35 -0.17 255 255 255
-13.39 -18.49 1.76 255 255 255
-15.19 0.59 0.79 255 255 255
-11.15 -17.40 1.68 255 255 255
-20.64 30.20 1.87 255 255 255
-15.07 0.64 0.99 255 255 255
-12.67 -17.78 1.47 255 255 255
-13.67 -7.76 0.15 255 255 255
-15.21 0.67 1.09 255 255 255
-22.21 29.99 2.04 255 255 255
-15.09 0.71 1.16 255 255 255
-15.46 3.52 1.50 255 255 255
-15.22 0.75 1.20 255 255 255
-14.97 0.80 1.25 255 255 255
-17.46 30.70 2.29 255 255 255
-15.10 0.80 1.27 255 255 255
-15.46 3.48 1.62 255 255 255
-15.01 1.38 1.31 255 255 255
-15.46 3.49 1.75 255 255 255
-18.93 21.16 0.66 255 255 255
-13.41 -18.52 1.37 255 255 255
-15.45 3.49 1.25 255 255 255
-11.95 -17.49 1.57 255 255 255
-15.46 3.49 1.97 255 255 255
-20.07 21.02 0.78 255 255 255
-12.69 -17.76 1.10 255 255 255
-11.17 -17.40 1.30 255 255 255
-13.42 -18.51 0.98 255 255 255
-11.95 -17.51 1.20 255 255 255
-12.69 -17.75 0.73 255 255 255
-11.18 -17.38 0.93 255 255 255
-13.42 -18.51 0.59 255 255 255
-11.95 -17.52 0.83 255 255 255
-11.19 -17.43 2.05 255 255 255
-12.70 -17.75 0.17 255 255 255
-11.95 -17.51 0.46 255 255 255
-12.71 -17.80 1.85 255 255 255
-11.97 -17.53 1.94 255 255 255
-13.97 -7.88 0.49 255 255 255
-22.11 30.01 1.28 255 255 255
-15.05 0.56 0.35 255 255 255
-13.45 -18.48 1.76 255 255 255
-12.02 -17.12 -0.15 255 255 255
-15.18 0.60 0.79 255 255 255
-15.44 3.49 1.37 255 255 255
-11.20 -17.41 1.67 255 255 255
-20.53 30.24 1.87 255 255 255
-13.69 -7.76 0.15 255 255 255
-12.72 -17.80 1.47 255 255 255
-17.36 30.73 1.53 255 255 255
-15.20 0.68 1.09 255 255 255
-15.08 0.71 1.16 255 255 255
-22.10 30.00 2.04 255 255 255
-15.44 3.50 1.50 255 255 255
-14.96 0.79 1.25 255 255 255
-20.52 30.24 2.63 255 255 255
-17.35 30.72 2.29 255 255 255
-15.09 0.81 1.27 255 255 255
-15.44 3.49 1.62 255 255 255
-15.00 1.34 1.31 255 255 255
-15.44 3.48 1.75 255 255 255
-18.85 21.17 0.67 255 255 255
-13.47 -18.53 1.37 255 255 255
-15.43 3.50 1.25 255 255 255
-12.00 -17.50 1.57 255 255 255
-19.98 21.03 0.79 255 255 255
-12.73 -17.86 1.10 255 255 255
-11.22 -17.42 1.30 255 255 255
-13.47 -18.54 0.98 255 255 255
-12.00 -17.51 1.20 255 255 255
-12.74 -17.87 0.72 255 255 255
-11.23 -17.42 0.93 255 255 255
-13.48 -18.52 0.59 255 255 255
-12.00 -17.52 0.83 255 255 255
-12.74 -17.85 0.16 255 255 255
-12.00 -17.53 0.46 255 255 255
-12.76 -17.92 1.85 255 255 255
-13.99 -7.88 0.49 255 255 255
-12.02 -17.55 1.94 255 255 255
-15.04 0.56 0.35 255 255 255
-22.00 30.03 1.28 255 255 255
-12.05 -17.23 -0.16 255 255 255
-13.51 -18.51 1.76 255 255 255
-17.49 19.89 1.11 255 255 255
-15.17 0.59 0.79 255 255 255
-11.24 -17.48 1.68 255 255 255
-20.41 30.26 1.87 255 255 255
-12.70 -18.38 1.48 255 255 255
-13.71 -7.77 0.15 255 255 255
-15.19 0.68 1.09 255 255 255
-17.25 30.74 1.53 255 255 255
-21.99 30.02 2.04 255 255 255
-15.07 0.71 1.16 255 255 255
-14.95 0.80 1.25 255 255 255
-20.40 30.22 2.63 255 255 255
-17.24 30.73 2.29 255 255 255
-15.08 0.83 1.27 255 255 255
-14.99 1.34 1.32 255 255 255
-18.77 21.17 0.67 255 255 255
-13.52 -18.54 1.37 255 255 255
-12.05 -17.53 1.57 255 255 255
-19.90 21.03 0.79 255 255 255
-12.72 -18.39 1.09 255 255 255
-11.27 -17.47 1.30 255 255 255
-13.53 -18.53 0.98 255 255 255
-12.05 -17.53 1.20 255 255 255
-11.28 -17.44 0.93 255 255 255
-13.53 -18.53 0.59 255 255 255
-12.02 -17.70 0.83 255 255 255
-11.30 -17.44 2.05 255 255 255
-12.73 -18.37 0.12 255 255 255
-12.74 -18.42 1.86 255 255 255
-12.03 -17.68 0.45 255 255 255
-14.01 -7.88 0.49 255 255 255
-12.05 -17.70 1.95 255 255 255
-15.03 0.57 0.35 255 255 255
-21.89 30.05 1.29 255 255 255
-12.12 -17.13 -0.15 255 255 255
-13.56 -18.51 1.76 255 255 255
-17.42 19.90 1.11 255 255 255
-15.16 0.60 0.79 255 255 255
-11.29 -17.48 1.67 255 255 255
-15.04 0.59 1.00 255 255 255
-20.30 30.28 1.88 255 255 255
-13.73 -7.76 0.15 255 255 255
-12.75 -18.40 1.48 255 255 255
-15.18 0.67 1.09 255 255 255
-17.14 30.76 1.53 255 255 255
-15.06 0.72 1.16 255 255 255
-21.87 30.04 2.05 255 255 255
-15.14 0.44 1.24 255 255 255
-18.71 30.52 1.71 255 255 255
-20.29 30.24 2.63 255 255 255
-14.94 0.81 1.24 255 255 255
-15.32 1.46 1.26 255 255 255
-17.13 30.78 2.30 255 255 255
-15.07 0.82 1.27 255 255 255
-18.70 30.51 2.46 255 255 255
-18.69 21.20 0.67 255 255 255
-13.58 -18.56 1.37 255 255 255
-17.38 19.91 0.60 255 255 255
-12.09 -17.66 1.57 255 255 255
-19.82 21.04 0.79 255 255 255
-12.78 -18.40 1.09 255 255 255
-11.32 -17.48 1.30 255 255 255
-18.71 21.38 1.21 255 255 255
-13.59 -18.54 0.98 255 255 255
-12.09 -17.68 1.20 255 255 255
-12.78 -18.42 0.70 255 255 255
-11.34 -17.44 0.93 255 255 255
-13.59 -18.54 0.59 255 255 255
-12.08 -17.71 0.83 255 255 255
-11.36 -17.46 2.05 255 255 255
-12.79 -18.41 0.12 255 255 255
-12.81 -18.43 1.86 255 255 255
-12.09 -17.69 0.45 255 255 255
-12.11 -17.70 1.95 255 255 255
-14.03 -7.88 0.49 255 255 255
-21.76 30.07 1.29 255 255 255
-15.02 0.57 0.35 255 255 255
-12.18 -17.13 -0.15 255 255 255
-13.62 -18.51 1.76 255 255 255
-15.15 0.60 0.79 255 255 255
-11.35 -17.49 1.67 255 255 255
-20.17 30.27 1.88 255 255 255
-15.04 0.66 0.98 255 255 255
-13.75 -7.75 0.15 255 255 255
-12.81 -18.43 1.47 255 255 255
-15.17 0.68 1.09 255 255 255
-17.01 30.78 1.53 255 255 255
-15.05 0.71 1.16 255 255 255
-21.75 30.06 2.05 255 255 255
-15.14 0.51 1.23 255 255 255
-18.58 30.54 1.71 255 255 255
-20.16 30.26 2.64 255 255 255
-14.93 0.81 1.24 255 255 255
-15.30 1.46 1.27 255 255 255
-17.00 30.77 2.30 255 255 255
-15.06 0.83 1.27 255 255 255
-18.57 30.53 2.47 255 255 255
-14.97 1.46 1.31 255 255 255
-18.60 21.20 0.67 255 255 255
-13.64 -18.54 1.37 255 255 255
-12.13 -17.66 1.57 255 255 255
-19.73 21.06 0.79 255 255 255
-12.83 -18.43 1.09 255 255 255
-16.96 30.95 0.77 255 255 255
-11.38 -17.48 1.30 255 255 255
-18.63 21.45 1.21 255 255 255
-13.64 -18.55 0.98 255 255 255
-12.13 -17.69 1.20 255 255 255
-12.84 -18.42 0.70 255 255 255
-11.38 -17.46 0.93 255 255 255
-13.65 -18.53 0.59 255 255 255
-12.14 -17.70 0.82 255 255 255
-12.84 -18.42 0.12 255 255 255
-11.41 -17.45 2.04 255 255 255
-12.14 -17.70 0.45 255 255 255
-12.86 -18.43 1.86 255 255 255
-12.16 -17.71 1.95 255 255 255
-14.05 -7.87 0.49 255 255 255
-21.66 30.08 1.29 255 255 255
-15.01 0.56 0.36 255 255 255
-13.67 -18.53 1.76 255 255 255
-12.23 -17.14 -0.15 255 255 255
-15.15 0.59 0.79 255 255 255
-11.40 -17.50 1.67 255 255 255
-15.03 0.67 0.98 255 255 255
-20.07 30.28 1.88 255 255 255
-12.86 -18.44 1.47 255 255 255
-13.77 -7.76 0.15 255 255 255
-16.91 30.79 1.54 255 255 255
-15.16 0.67 1.09 255 255 255
-15.04 0.71 1.16 255 255 255
-21.65 30.07 2.05 255 255 255
-15.12 1.40 1.48 255 255 255
-15.13 0.49 1.23 255 255 255
-20.06 30.27 2.64 255 255 255
-14.92 0.82 1.24 255 255 255
-15.28 1.42 1.27 255 255 255
-16.90 30.79 2.30 255 255 255
-15.05 0.82 1.27 255 255 255
-18.47 30.58 2.47 255 255 255
-14.96 1.45 1.31 255 255 255
-18.53 21.22 0.67 255 255 255
-13.70 -18.55 1.37 255 255 255
-17.39 21.40 0.55 255 255 255
-12.19 -17.69 1.57 255 255 255
-19.66 21.07 0.79 255 255 255
-12.89 -18.45 1.09 255 255 255
-16.86 30.94 0.77 255 255 255
-11.43 -17.49 1.30 255 255 255
-18.56 21.46 1.21 255 255 255
-13.70 -18.56 0.98 255 255 255
-12.19 -17.70 1.20 255 255 255
-12.90 -18.43 0.70 255 255 255
-11.45 -17.45 0.93 255 255 255
-13.71 -18.54 0.59 255 255 255
-12.20 -17.71 0.82 255 255 255
-11.47 -17.46 2.04 255 255 255
-12.90 -18.42 0.11 255 255 255
-12.92 -18.45 1.86 255 255 255
-12.20 -17.71 0.45 255 255 255
-14.07 -7.88 0.49 255 255 255
-12.22 -17.71 1.95 255 255 255
-21.54 30.10 1.29 255 255 255
-15.00 0.56 0.35 255 255 255
-12.28 -17.14 -0.15 255 255 255
-13.73 -18.54 1.76 255 255 255
-15.13 0.59 0.79 255 255 255
-17.42 22.05 1.08 255 255 255
-11.46 -17.50 1.67 255 255 255
-15.02 0.67 0.98 255 255 255
-19.96 30.33 1.88 255 255 255
-12.92 -18.45 1.47 255 255 255
-13.79 -7.76 0.15 255 255 255
-16.79 30.81 1.54 255 255 255
-15.15 0.68 1.09 255 255 255
-15.03 0.71 1.16 255 255 255
-21.53 30.09 2.05 255 255 255
-15.12 0.49 1.23 255 255 255
-18.37 30.60 1.71 255 255 255
-14.91 0.83 1.24 255 255 255
-19.95 30.32 2.64 255 255 255
-16.78 30.80 2.30 255 255 255
-15.27 1.38 1.27 255 255 255
-15.04 0.82 1.27 255 255 255
-18.36 30.56 2.47 255 255 255
-14.95 1.45 1.31 255 255 255
-18.44 21.22 0.67 255 255 255
-13.75 -18.55 1.37 255 255 255
-17.31 21.41 0.55 255 255 255
-12.24 -17.68 1.57 255 255 255
-19.57 21.08 0.79 255 255 255
-12.94 -18.44 1.09 255 255 255
-16.74 30.96 0.77 255 255 255
-11.49 -17.50 1.30 255 255 255
-18.52 21.77 1.21 255 255 255
-13.76 -18.55 0.98 255 255 255
-12.24 -17.71 1.20 255 255 255
-11.49 -17.47 0.93 255 255 255
-13.76 -18.55 0.59 255 255 255
-12.25 -17.73 0.82 255 255 255
-11.52 -17.47 2.04 255 255 255
-12.95 -18.42 0.12 255 255 255
-12.25 -17.70 0.45 255 255 255
-12.98 -18.44 1.86 255 255 255
-12.27 -17.72 1.94 255 255 255
-14.09 -7.88 0.49 255 255 255
-21.43 30.12 1.29 255 255 255
-15.00 0.57 0.35 255 255 255
-12.33 -17.20 -0.16 255 255 255
-13.79 -18.53 1.76 255 255 255
-15.12 0.59 0.79 255 255 255
-18.26 30.60 0.95 255 255 255
-11.51 -17.51 1.67 255 255 255
-19.84 30.35 1.88 255 255 255
-15.01 0.66 0.98 255 255 255
-12.98 -18.45 1.47 255 255 255
-13.81 -7.76 0.15 255 255 255
-15.14 0.68 1.09 255 255 255
-16.67 30.83 1.54 255 255 255
-21.41 30.11 2.05 255 255 255
-15.02 0.71 1.16 255 255 255
-18.25 30.59 1.71 255 255 255
-15.12 0.52 1.23 255 255 255
-19.83 30.34 2.64 255 255 255
-14.90 0.82 1.24 255 255 255
-16.66 30.82 2.30 255 255 255
-15.25 1.35 1.27 255 255 255
-15.03 0.82 1.27 255 255 255
-18.24 30.58 2.47 255 255 255
-14.93 1.44 1.31 255 255 255
-18.36 21.23 0.67 255 255 255
-13.81 -18.56 1.37 255 255 255
-17.23 21.45 0.55 255 255 255
-12.30 -17.69 1.57 255 255 255
-19.49 21.09 0.79 255 255 255
-13.00 -18.45 1.08 255 255 255
-16.62 30.97 0.77 255 255 255
-11.54 -17.51 1.30 255 255 255
-13.82 -18.56 0.98 255 255 255
-12.30 -17.72 1.20 255 255 255
-13.01 -18.45 0.70 255 255 255
-11.55 -17.47 0.93 255 255 255
-13.82 -18.55 0.59 255 255 255
-12.30 -17.74 0.82 255 255 255
-13.01 -18.44 0.11 255 255 255
-11.57 -17.47 2.04 255 255 255
-12.31 -17.71 0.45 255 255 255
-13.03 -18.47 1.86 255 255 255
-14.12 -7.88 0.49 255 255 255
-12.32 -17.73 1.94 255 255 255
-21.32 30.13 1.29 255 255 255
-14.99 0.57 0.35 255 255 255
-12.39 -17.13 -0.15 255 255 255
-13.85 -18.56 1.75 255 255 255
-15.12 0.59 0.79 255 255 255
-15.09 1.41 1.41 255 255 255
-11.57 -17.52 1.67 255 255 255
-19.73 30.33 1.88 255 255 255
-15.00 0.66 0.98 255 255 255
-13.83 -7.76 0.15 255 255 255
-13.04 -18.46 1.47 255 255 255
-15.13 0.68 1.09 255 255 255
-16.57 30.85 1.54 255 255 255
-15.01 0.71 1.16 255 255 255
-21.31 30.12 2.05 255 255 255
-17.08 20.40 1.63 255 255 255
-15.11 0.55 1.23 255 255 255
-14.89 0.81 1.24 255 255 255
-19.73 30.36 2.64 255 255 255
-16.55 30.84 2.30 255 255 255
-15.23 1.30 1.28 255 255 255
-15.02 0.81 1.27 255 255 255
-17.07 20.38 2.15 255 255 255
-14.92 1.45 1.31 255 255 255
-18.28 21.24 0.67 255 255 255
-13.87 -18.56 1.37 255 255 255
-17.04 20.40 0.59 255 255 255
-12.35 -17.70 1.57 255 255 255
-19.41 21.09 0.79 255 255 255
-13.06 -18.45 1.08 255 255 255
-16.52 30.99 0.77 255 255 255
-11.60 -17.52 1.30 255 255 255
-13.87 -18.55 0.98 255 255 255
-12.35 -17.72 1.20 255 255 255
-13.06 -18.47 0.69 255 255 255
-11.61 -17.48 0.93 255 255 255
-13.88 -18.55 0.59 255 255 255
-12.36 -17.72 0.82 255 255 255
-13.07 -18.47 0.11 255 255 255
-11.63 -17.48 2.04 255 255 255
-12.36 -17.72 0.45 255 255 255
-13.09 -18.48 1.86 255 255 255
-12.39 -17.65 1.94 255 255 255
-14.14 -7.88 0.49 255 255 255
-21.21 30.15 1.29 255 255 255
-14.98 0.57 0.35 255 255 255
-12.37 -17.65 -0.20 255 255 255
-13.90 -18.57 1.75 255 255 255
-15.11 0.60 0.79 255 255 255
-11.62 -17.53 1.67 255 255 255
-15.00 0.70 0.98 255 255 255
-19.62 30.38 1.88 255 255 255
-13.09 -18.47 1.47 255 255 255
-13.85 -7.81 0.14 255 255 255
-16.45 30.86 1.54 255 255 255
-15.12 0.68 1.09 255 255 255
-15.00 0.71 1.16 255 255 255
-21.19 30.11 2.05 255 255 255
-17.00 20.41 1.63 255 255 255
-15.11 0.58 1.22 255 255 255
-14.88 0.81 1.25 255 255 255
-19.61 30.37 2.64 255 255 255
-16.44 30.82 2.30 255 255 255
-15.21 1.27 1.28 255 255 255
-15.01 0.81 1.27 255 255 255
-16.99 20.38 2.15 255 255 255
-14.91 1.44 1.31 255 255 255
-18.20 21.27 0.67 255 255 255
-13.93 -18.55 1.36 255 255 255
-16.96 20.40 0.59 255 255 255
-12.42 -17.64 1.57 255 255 255
-19.33 21.10 0.80 255 255 255
-13.12 -18.47 1.08 255 255 255
-16.40 31.01 0.78 255 255 255
-11.65 -17.53 1.30 255 255 255
-13.93 -18.54 0.98 255 255 255
-12.42 -17.66 1.20 255 255 255
-13.12 -18.48 0.69 255 255 255
-11.66 -17.50 0.93 255 255 255
-13.94 -18.52 0.59 255 255 255
-12.43 -17.65 0.82 255 255 255
-13.12 -18.47 0.11 255 255 255
-11.68 -17.49 2.04 255 255 255
-12.43 -17.64 0.45 255 255 255
-13.15 -18.45 1.86 255 255 255
-12.45 -17.65 1.94 255 255 255
-14.16 -7.89 0.49 255 255 255
-21.09 30.17 1.30 255 255 255
-14.97 0.59 0.35 255 255 255
-12.43 -17.61 -0.20 255 255 255
-13.96 -18.56 1.75 255 255 255
-17.93 30.65 0.95 255 255 255
-15.10 0.59 0.80 255 255 255
-11.68 -17.53 1.67 255 255 255
-14.99 0.71 0.98 255 255 255
-19.51 30.40 1.88 255 255 255
-13.81 -8.16 0.07 255 255 255
-13.15 -18.50 1.47 255 255 255
-15.11 0.68 1.09 255 255 255
-16.34 30.85 1.54 255 255 255
-14.99 0.72 1.16 255 255 255
-21.08 30.13 2.06 255 255 255
-17.92 30.67 1.72 255 255 255
-15.10 0.60 1.22 255 255 255
-14.87 0.81 1.25 255 255 255
