ply
format ascii 1.0
element vertex 1645
property float x
property float y
property float z
property uchar red
property uchar green
property uchar blue
end_header
15.24 -3.87 0.56 255 255 255
-6.30 -3.09 1.29 255 255 255
15.50 -5.31 1.02 255 255 255
-46.29 4.49 0.33 255 255 255
-19.82 0.05 1.10 255 255 255
-26.89 0.27 1.00 255 255 255
-22.19 0.13 0.73 255 255 255
-27.87 0.41 0.62 255 255 255
-20.12 -0.24 0.38 255 255 255
16.19 -4.01 1.20 255 255 255
-21.47 -0.43 0.57 255 255 255
-35.69 3.73 2.17 255 255 255
-4.51 -3.10 1.29 255 255 255
-4.34 -2.71 1.54 255 255 255
-6.33 -3.10 1.44 255 255 255
-3.56 -2.80 0.10 255 255 255
-4.45 -3.10 0.46 255 255 255
-5.31 -2.96 1.49 255 255 255
-3.40 -2.83 0.53 255 255 255
-6.35 -3.09 0.90 255 255 255
-4.32 -2.72 1.74 255 255 255
-6.33 -3.11 1.60 255 255 255
-3.56 -2.82 0.90 255 255 255
-5.38 -2.94 0.92 255 255 255
-4.34 -2.73 2.04 255 255 255
-6.38 -3.09 1.14 255 255 255
9.68 -4.60 0.59 255 255 255
-36.85 4.06 1.64 255 255 255
-6.36 -3.10 1.29 255 255 255
15.35 -5.39 1.02 255 255 255
-36.87 4.08 1.06 255 255 255
-19.74 0.06 1.10 255 255 255
-26.90 0.32 1.00 255 255 255
-22.19 0.16 0.73 255 255 255
-26.16 0.23 0.70 255 255 255
-20.06 -0.22 0.39 255 255 255
15.80 -4.07 1.20 255 255 255
-35.96 3.88 2.18 255 255 255
-21.38 -0.41 0.58 255 255 255
-5.42 -2.96 1.31 255 255 255
-4.29 -2.75 1.54 255 255 255
-6.40 -3.11 1.44 255 255 255
-4.43 -3.14 0.46 255 255 255
-5.40 -2.97 1.49 255 255 255
-3.50 -2.85 0.54 255 255 255
-6.44 -3.09 0.91 255 255 255
-4.32 -2.75 1.74 255 255 255
-6.39 -3.12 1.60 255 255 255
-3.61 -2.84 0.90 255 255 255
-5.46 -2.95 0.92 255 255 255
-5.40 -2.98 1.66 255 255 255
-6.45 -3.10 1.14 255 255 255
-4.30 -2.77 2.04 255 255 255
9.58 -4.67 0.59 255 255 255
-5.42 -2.98 1.84 255 255 255
-5.42 -2.97 1.14 255 255 255
-6.44 -3.11 1.29 255 255 255
15.46 -5.50 1.02 255 255 255
-19.69 0.07 1.10 255 255 255
-26.91 0.37 1.00 255 255 255
-22.20 0.20 0.73 255 255 255
-26.13 0.28 0.70 255 255 255
15.54 -4.15 1.20 255 255 255
-21.28 -0.39 0.59 255 255 255
-35.88 3.95 2.18 255 255 255
-5.48 -2.98 1.31 255 255 255
-4.30 -2.78 1.54 255 255 255
-6.46 -3.12 1.44 255 255 255
-3.59 -2.86 0.10 255 255 255
-3.58 -2.87 0.55 255 255 255
-5.49 -2.98 1.49 255 255 255
-4.26 -2.79 1.74 255 255 255
-6.48 -3.11 0.91 255 255 255
-3.64 -2.87 0.90 255 255 255
-6.46 -3.12 1.59 255 255 255
-5.53 -2.97 0.93 255 255 255
-5.50 -2.99 1.66 255 255 255
-6.51 -3.11 1.14 255 255 255
-5.48 -3.00 1.83 255 255 255
-3.34 -2.92 1.11 255 255 255
-5.49 -2.98 1.14 255 255 255
14.90 -4.14 0.56 255 255 255
-5.47 -3.00 2.14 255 255 255
-6.49 -3.12 1.29 255 255 255
-42.93 2.68 1.31 255 255 255
-19.60 0.07 1.10 255 255 255
-26.93 0.43 1.00 255 255 255
-22.21 0.24 0.73 255 255 255
-26.12 0.32 0.70 255 255 255
-19.84 -0.21 0.42 255 255 255
15.45 -4.25 1.20 255 255 255
-21.19 -0.37 0.59 255 255 255
-5.56 -2.99 1.31 255 255 255
-38.03 3.29 1.78 255 255 255
-6.53 -3.12 1.44 255 255 255
-3.66 -2.88 0.11 255 255 255
-4.24 -3.23 0.43 255 255 255
-5.56 -3.00 1.49 255 255 255
-6.54 -3.12 0.92 255 255 255
-6.52 -3.13 1.59 255 255 255
-3.73 -2.89 0.91 255 255 255
-5.62 -2.98 0.93 255 255 255
-5.57 -3.00 1.66 255 255 255
-6.56 -3.12 1.14 255 255 255
-3.45 -2.94 1.11 255 255 255
-5.57 -3.01 1.83 255 255 255
-5.58 -2.99 1.14 255 255 255
-5.57 -3.01 2.13 255 255 255
-6.56 -3.13 1.29 255 255 255
-44.08 6.14 0.98 255 255 255
-46.40 5.01 0.34 255 255 255
-19.56 0.09 1.11 255 255 255
-26.97 0.48 1.00 255 255 255
-22.22 0.28 0.73 255 255 255
-26.14 0.37 0.70 255 255 255
-19.77 -0.20 0.43 255 255 255
15.43 -4.34 1.20 255 255 255
-21.08 -0.36 0.60 255 255 255
-5.62 -3.00 1.32 255 255 255
-6.59 -3.13 1.44 255 255 255
-4.03 -2.86 0.17 255 255 255
-4.23 -3.27 0.43 255 255 255
-5.64 -3.01 1.49 255 255 255
-3.98 -2.88 0.59 255 255 255
-6.60 -3.12 0.92 255 255 255
-6.59 -3.14 1.59 255 255 255
-3.78 -2.91 0.91 255 255 255
-5.68 -2.99 0.94 255 255 255
-5.65 -3.01 1.66 255 255 255
12.88 -4.11 0.02 255 255 255
-6.63 -3.12 1.15 255 255 255
-5.64 -3.02 1.83 255 255 255
-3.49 -2.96 1.11 255 255 255
-5.65 -3.01 1.15 255 255 255
14.85 -4.33 0.56 255 255 255
-5.64 -3.02 2.12 255 255 255
-6.63 -3.13 1.30 255 255 255
-43.94 6.21 0.99 255 255 255
-46.59 5.17 0.33 255 255 255
-19.50 0.10 1.11 255 255 255
-27.02 0.54 1.00 255 255 255
-22.22 0.31 0.73 255 255 255
-26.17 0.43 0.70 255 255 255
-19.70 -0.19 0.44 255 255 255
15.36 -4.43 1.20 255 255 255
-21.01 -0.34 0.61 255 255 255
-5.71 -3.01 1.32 255 255 255
-4.03 -2.89 0.17 255 255 255
-6.64 -3.14 1.44 255 255 255
-4.24 -3.30 0.43 255 255 255
-3.99 -2.90 0.59 255 255 255
-5.72 -3.01 1.49 255 255 255
-6.67 -3.13 0.93 255 255 255
-3.80 -2.94 0.91 255 255 255
-6.63 -3.15 1.59 255 255 255
-5.76 -3.00 0.94 255 255 255
-5.74 -3.02 1.65 255 255 255
12.14 -4.12 0.07 255 255 255
-6.68 -3.13 1.15 255 255 255
-5.72 -3.02 1.82 255 255 255
-3.55 -2.99 1.11 255 255 255
-5.73 -3.01 1.15 255 255 255
14.86 -4.42 0.56 255 255 255
-5.72 -3.03 2.12 255 255 255
-6.67 -3.14 1.30 255 255 255
-4.19 -2.90 1.34 255 255 255
-46.25 5.22 0.34 255 255 255
-19.45 0.11 1.11 255 255 255
-27.08 0.60 0.99 255 255 255
-20.01 -0.11 0.87 255 255 255
-26.16 0.47 0.70 255 255 255
-19.63 -0.18 0.45 255 255 255
15.38 -4.53 1.20 255 255 255
-20.92 -0.33 0.62 255 255 255
-5.79 -3.02 1.32 255 255 255
-38.53 3.66 1.80 255 255 255
-4.04 -2.92 0.17 255 255 255
-6.70 -3.15 1.44 255 255 255
-4.21 -3.33 0.42 255 255 255
-5.77 -3.03 1.49 255 255 255
-4.00 -2.94 0.59 255 255 255
-6.73 -3.14 0.93 255 255 255
-6.70 -3.16 1.59 255 255 255
-3.81 -2.97 0.91 255 255 255
-5.83 -3.01 0.95 255 255 255
-5.79 -3.03 1.65 255 255 255
11.56 -4.15 0.10 255 255 255
-6.74 -3.14 1.15 255 255 255
-5.78 -3.04 1.82 255 255 255
-3.58 -3.02 1.11 255 255 255
-43.26 6.24 1.73 255 255 255
-5.81 -3.02 1.15 255 255 255
-5.78 -3.04 2.11 255 255 255
14.86 -4.52 0.56 255 255 255
-6.72 -3.15 1.30 255 255 255
-4.18 -2.93 1.34 255 255 255
-19.84 0.23 1.27 255 255 255
-46.37 5.36 0.34 255 255 255
-19.38 0.12 1.11 255 255 255
-27.15 0.67 0.99 255 255 255
-19.96 -0.09 0.88 255 255 255
-26.17 0.52 0.70 255 255 255
-19.56 -0.17 0.46 255 255 255
15.35 -4.63 1.20 255 255 255
-20.84 -0.31 0.63 255 255 255
-5.84 -3.03 1.32 255 255 255
-6.77 -3.15 1.44 255 255 255
-4.20 -3.36 0.42 255 255 255
-5.85 -3.04 1.48 255 255 255
-3.99 -2.97 0.58 255 255 255
-6.78 -3.14 0.94 255 255 255
-6.76 -3.16 1.59 255 255 255
-3.74 -3.02 0.90 255 255 255
-5.89 -3.02 0.95 255 255 255
-5.85 -3.04 1.65 255 255 255
11.22 -4.19 0.11 255 255 255
-6.81 -3.15 1.15 255 255 255
-5.84 -3.05 1.82 255 255 255
-3.75 -3.02 1.12 255 255 255
-5.85 -3.04 1.15 255 255 255
-5.84 -3.06 2.11 255 255 255
14.88 -4.62 0.55 255 255 255
-6.79 -3.16 1.30 255 255 255
-19.81 0.25 1.27 255 255 255
-46.16 5.44 0.35 255 255 255
-19.29 0.12 1.12 255 255 255
-27.15 0.72 0.99 255 255 255
-19.90 -0.08 0.88 255 255 255
-26.19 0.57 0.70 255 255 255
-19.48 -0.16 0.47 255 255 255
15.38 -4.73 1.20 255 255 255
-20.76 -0.29 0.63 255 255 255
-5.91 -3.04 1.32 255 255 255
-5.33 -3.15 0.00 255 255 255
-38.43 3.83 1.80 255 255 255
-6.83 -3.16 1.44 255 255 255
-4.27 -3.38 0.43 255 255 255
-3.99 -3.00 0.58 255 255 255
-5.90 -3.05 1.48 255 255 255
-6.85 -3.15 0.94 255 255 255
-3.78 -3.04 0.91 255 255 255
-6.81 -3.17 1.59 255 255 255
-5.97 -3.03 0.96 255 255 255
-5.92 -3.05 1.65 255 255 255
10.78 -4.23 0.14 255 255 255
-6.86 -3.15 1.16 255 255 255
-3.85 -3.04 1.12 255 255 255
-5.91 -3.06 1.81 255 255 255
-43.36 6.48 1.73 255 255 255
-5.93 -3.05 1.16 255 255 255
14.88 -4.72 0.55 255 255 255
-5.92 -3.07 2.10 255 255 255
-6.86 -3.16 1.30 255 255 255
-19.75 0.26 1.27 255 255 255
-19.23 0.13 1.12 255 255 255
-26.97 0.73 1.00 255 255 255
-26.20 0.62 0.70 255 255 255
-19.43 -0.15 0.47 255 255 255
15.42 -4.83 1.19 255 255 255
-20.67 -0.28 0.64 255 255 255
-5.99 -3.05 1.32 255 255 255
-5.33 -3.17 0.00 255 255 255
-4.43 -2.95 0.22 255 255 255
-6.88 -3.17 1.44 255 255 255
-6.06 -3.03 0.65 255 255 255
-5.97 -3.06 1.48 255 255 255
-3.99 -3.03 0.58 255 255 255
-6.90 -3.16 0.95 255 255 255
-6.87 -3.18 1.59 255 255 255
-3.97 -3.04 0.92 255 255 255
-6.05 -3.04 0.96 255 255 255
10.41 -4.27 0.16 255 255 255
-5.99 -3.07 1.65 255 255 255
-6.92 -3.16 1.16 255 255 255
-5.97 -3.07 1.81 255 255 255
-4.00 -3.04 1.13 255 255 255
-43.35 6.59 1.74 255 255 255
-6.00 -3.06 1.16 255 255 255
-5.98 -3.08 2.09 255 255 255
-6.91 -3.17 1.30 255 255 255
-4.18 -3.02 1.34 255 255 255
-19.70 0.27 1.27 255 255 255
-46.16 5.68 0.35 255 255 255
-19.19 0.14 1.12 255 255 255
-26.88 0.77 1.00 255 255 255
-19.78 -0.05 0.89 255 255 255
-26.18 0.66 0.70 255 255 255
-19.36 -0.14 0.48 255 255 255
15.50 -4.94 1.19 255 255 255
-20.59 -0.27 0.65 255 255 255
-6.06 -3.06 1.32 255 255 255
-5.32 -3.20 0.00 255 255 255
-3.98 -3.07 1.54 255 255 255
-6.93 -3.18 1.44 255 255 255
-4.53 -2.96 0.24 255 255 255
-6.13 -3.04 0.66 255 255 255
-3.99 -3.06 0.58 255 255 255
-6.07 -3.07 1.48 255 255 255
-6.94 -3.17 0.95 255 255 255
-6.93 -3.18 1.58 255 255 255
-4.07 -3.06 0.92 255 255 255
-6.10 -3.05 0.96 255 255 255
-4.30 -2.61 1.79 255 255 255
10.10 -4.32 0.17 255 255 255
-6.08 -3.07 1.64 255 255 255
-6.97 -3.17 1.16 255 255 255
-6.05 -3.08 1.81 255 255 255
-4.14 -3.05 1.13 255 255 255
-43.33 6.71 1.74 255 255 255
-6.07 -3.07 1.16 255 255 255
-6.05 -3.09 2.09 255 255 255
11.12 -4.46 0.68 255 255 255
-6.95 -3.18 1.30 255 255 255
-4.19 -3.05 1.34 255 255 255
-19.66 0.29 1.27 255 255 255
-19.99 0.01 1.13 255 255 255
-19.17 0.16 1.12 255 255 255
-19.73 -0.04 0.89 255 255 255
-26.21 0.72 0.70 255 255 255
-19.29 -0.13 0.49 255 255 255
-4.17 -2.64 1.40 255 255 255
-20.51 -0.25 0.66 255 255 255
-6.14 -3.07 1.32 255 255 255
-5.32 -3.23 0.00 255 255 255
-4.06 -3.09 1.54 255 255 255
-42.53 5.02 1.88 255 255 255
-4.63 -2.97 0.25 255 255 255
-6.98 -3.18 1.44 255 255 255
-4.26 -2.63 1.60 255 255 255
-6.19 -3.05 0.66 255 255 255
-6.14 -3.07 1.48 255 255 255
-3.99 -3.09 0.58 255 255 255
-7.00 -3.17 0.95 255 255 255
-6.99 -3.19 1.58 255 255 255
-4.20 -3.06 0.93 255 255 255
-6.18 -3.06 0.97 255 255 255
-6.14 -3.08 1.64 255 255 255
-3.22 -2.76 0.94 255 255 255
-7.01 -3.18 1.16 255 255 255
-4.25 -3.07 1.14 255 255 255
-6.13 -3.09 1.80 255 255 255
-43.23 6.80 1.74 255 255 255
-6.15 -3.07 1.17 255 255 255
-6.12 -3.09 2.08 255 255 255
10.73 -4.49 0.69 255 255 255
-7.01 -3.18 1.30 255 255 255
-4.25 -3.07 1.34 255 255 255
-19.63 0.30 1.27 255 255 255
-19.90 0.02 1.13 255 255 255
-19.11 0.17 1.12 255 255 255
-47.71 4.51 0.49 255 255 255
-19.68 -0.03 0.89 255 255 255
-26.23 0.77 0.70 255 255 255
-19.23 -0.12 0.50 255 255 255
-4.24 -2.66 1.40 255 255 255
-20.43 -0.24 0.66 255 255 255
-6.21 -3.07 1.33 255 255 255
-4.29 -3.08 1.54 255 255 255
-5.33 -3.25 -0.00 255 255 255
-4.72 -2.99 0.26 255 255 255
-7.04 -3.19 1.44 255 255 255
-4.36 -2.65 1.59 255 255 255
-6.24 -3.06 0.67 255 255 255
-6.20 -3.08 1.48 255 255 255
-3.99 -3.12 0.58 255 255 255
-7.05 -3.18 0.96 255 255 255
-4.13 -3.12 1.74 255 255 255
-7.04 -3.20 1.58 255 255 255
-4.31 -3.08 0.94 255 255 255
-6.25 -3.07 0.97 255 255 255
-6.20 -3.09 1.64 255 255 255
-3.40 -2.77 0.95 255 255 255
-7.07 -3.18 1.17 255 255 255
-6.20 -3.09 1.80 255 255 255
-4.35 -3.08 1.14 255 255 255
-6.23 -3.08 1.17 255 255 255
-6.20 -3.10 2.07 255 255 255
10.44 -4.54 0.70 255 255 255
-36.94 3.91 1.20 255 255 255
-7.07 -3.19 1.31 255 255 255
-4.33 -3.09 1.34 255 255 255
-19.60 0.32 1.27 255 255 255
-19.84 0.03 1.14 255 255 255
-19.09 0.19 1.12 255 255 255
-46.60 4.44 0.52 255 255 255
-19.63 -0.01 0.90 255 255 255
-26.24 0.82 0.70 255 255 255
-19.17 -0.11 0.51 255 255 255
15.82 -5.29 1.18 255 255 255
-20.36 -0.22 0.67 255 255 255
-6.27 -3.09 1.33 255 255 255
-5.33 -3.28 -0.00 255 255 255
-36.87 3.93 1.78 255 255 255
-7.09 -3.20 1.44 255 255 255
-4.80 -3.00 0.27 255 255 255
-6.32 -3.07 0.68 255 255 255
-4.35 -2.68 1.59 255 255 255
-3.99 -3.16 0.58 255 255 255
-6.26 -3.09 1.48 255 255 255
-7.09 -3.19 0.96 255 255 255
-7.08 -3.21 1.58 255 255 255
-4.41 -3.09 0.94 255 255 255
-4.33 -2.69 1.79 255 255 255
-6.31 -3.08 0.98 255 255 255
-3.54 -2.79 0.95 255 255 255
-6.28 -3.10 1.64 255 255 255
-7.12 -3.19 1.17 255 255 255
-6.27 -3.10 1.79 255 255 255
-4.43 -3.09 1.14 255 255 255
-6.27 -3.09 1.17 255 255 255
-6.27 -3.11 2.07 255 255 255
10.00 -4.57 0.71 255 255 255
-36.88 3.99 1.21 255 255 255
-7.11 -3.20 1.31 255 255 255
-4.42 -3.10 1.34 255 255 255
-19.58 0.34 1.27 255 255 255
-19.77 0.04 1.14 255 255 255
-19.01 0.19 1.13 255 255 255
-47.88 4.79 0.49 255 255 255
-19.52 -0.01 0.91 255 255 255
-26.27 0.87 0.70 255 255 255
-19.11 -0.10 0.51 255 255 255
-20.29 -0.21 0.68 255 255 255
-6.33 -3.10 1.33 255 255 255
-5.31 -3.31 -0.01 255 255 255
-36.80 4.01 1.78 255 255 255
-20.43 -0.17 -0.12 255 255 255
-7.14 -3.20 1.44 255 255 255
-4.89 -3.02 0.29 255 255 255
-4.33 -2.72 1.59 255 255 255
-6.39 -3.07 0.68 255 255 255
-3.98 -3.19 0.58 255 255 255
-6.34 -3.10 1.48 255 255 255
-7.14 -3.20 0.96 255 255 255
-4.29 -3.15 1.74 255 255 255
13.25 -9.08 1.92 255 255 255
-5.29 -2.96 1.00 255 255 255
-6.39 -3.08 0.98 255 255 255
-4.30 -2.73 1.79 255 255 255
-3.63 -2.81 0.96 255 255 255
-6.35 -3.10 1.64 255 255 255
-4.19 -3.18 2.05 255 255 255
-7.16 -3.20 1.17 255 255 255
-4.51 -3.11 1.14 255 255 255
-6.34 -3.11 1.79 255 255 255
-6.36 -3.10 1.17 255 255 255
-6.35 -3.11 2.06 255 255 255
-7.16 -3.21 1.31 255 255 255
-5.28 -2.98 1.35 255 255 255
-19.56 0.36 1.27 255 255 255
-19.73 0.05 1.14 255 255 255
-18.96 0.20 1.13 255 255 255
-19.49 0.00 0.91 255 255 255
-26.30 0.93 0.70 255 255 255
-19.07 -0.09 0.52 255 255 255
20.76 -6.16 1.13 255 255 255
-20.22 -0.20 0.68 255 255 255
-6.41 -3.10 1.33 255 255 255
-5.31 -3.34 -0.01 255 255 255
-41.83 5.29 1.87 255 255 255
-20.33 -0.16 -0.10 255 255 255
-4.97 -3.03 0.30 255 255 255
-7.20 -3.21 1.44 255 255 255
-6.43 -3.09 0.69 255 255 255
-4.31 -2.75 1.59 255 255 255
-6.40 -3.11 1.48 255 255 255
-7.19 -3.21 0.97 255 255 255
-5.36 -2.98 1.71 255 255 255
-5.41 -2.96 1.01 255 255 255
-7.18 -3.22 1.58 255 255 255
-6.46 -3.09 0.99 255 255 255
-4.24 -2.77 1.80 255 255 255
-6.40 -3.11 1.63 255 255 255
-3.69 -2.83 0.96 255 255 255
-7.21 -3.21 1.17 255 255 255
-6.41 -3.12 1.79 255 255 255
-5.43 -2.97 1.18 255 255 255
-6.42 -3.10 1.18 255 255 255
-6.40 -3.12 2.06 255 255 255
9.78 -4.70 0.71 255 255 255
-7.22 -3.21 1.31 255 255 255
-5.42 -2.97 1.36 255 255 255
-19.54 0.38 1.27 255 255 255
-19.66 0.06 1.14 255 255 255
-18.92 0.21 1.13 255 255 255
-47.12 4.90 0.51 255 255 255
-19.40 0.01 0.91 255 255 255
-26.31 0.98 0.70 255 255 255
-19.03 -0.07 0.52 255 255 255
20.65 -6.26 1.13 255 255 255
-20.15 -0.18 0.69 255 255 255
-6.47 -3.11 1.33 255 255 255
-5.46 -2.98 1.53 255 255 255
-20.25 -0.15 -0.09 255 255 255
-43.05 5.69 1.90 255 255 255
-5.05 -3.04 0.31 255 255 255
-7.25 -3.21 1.44 255 255 255
-4.27 -2.78 1.59 255 255 255
-6.50 -3.09 0.70 255 255 255
-5.58 -2.95 0.74 255 255 255
-6.46 -3.12 1.48 255 255 255
-7.24 -3.21 0.97 255 255 255
-5.44 -2.99 1.70 255 255 255
-5.47 -2.98 1.01 255 255 255
-7.24 -3.22 1.58 255 255 255
-6.50 -3.10 0.99 255 255 255
-6.48 -3.12 1.63 255 255 255
-3.69 -2.86 0.96 255 255 255
-7.27 -3.21 1.18 255 255 255
-5.44 -3.00 1.97 255 255 255
-5.47 -2.98 1.18 255 255 255
-6.46 -3.13 1.78 255 255 255
-41.57 6.88 1.73 255 255 255
-6.49 -3.11 1.18 255 255 255
-6.46 -3.13 2.05 255 255 255
-7.27 -3.22 1.31 255 255 255
-5.48 -2.99 1.36 255 255 255
-19.49 0.39 1.27 255 255 255
-19.58 0.07 1.15 255 255 255
-18.85 0.21 1.13 255 255 255
-46.79 4.96 0.52 255 255 255
-18.93 -0.07 0.54 255 255 255
-6.54 -3.12 1.33 255 255 255
-5.54 -2.99 1.53 255 255 255
-20.05 -0.16 -0.05 255 255 255
-7.29 -3.22 1.44 255 255 255
-5.10 -3.06 0.32 255 255 255
-6.55 -3.10 0.70 255 255 255
-5.59 -2.97 0.74 255 255 255
-6.53 -3.12 1.48 255 255 255
-7.30 -3.21 0.98 255 255 255
-5.53 -3.00 1.70 255 255 255
-7.29 -3.23 1.58 255 255 255
-5.57 -2.99 1.01 255 255 255
-6.56 -3.11 0.99 255 255 255
-3.71 -2.89 0.96 255 255 255
-6.54 -3.13 1.63 255 255 255
-7.32 -3.22 1.18 255 255 255
-5.53 -3.01 1.96 255 255 255
-6.53 -3.14 1.78 255 255 255
-5.56 -2.99 1.19 255 255 255
-41.52 6.98 1.73 255 255 255
-6.54 -3.12 1.18 255 255 255
9.92 -4.88 0.71 255 255 255
-6.53 -3.14 2.05 255 255 255
-44.07 6.11 1.17 255 255 255
-7.31 -3.22 1.31 255 255 255
-5.56 -3.00 1.36 255 255 255
-19.48 0.41 1.27 255 255 255
-19.53 0.08 1.15 255 255 255
-42.88 2.79 0.78 255 255 255
-18.80 0.22 1.14 255 255 255
-19.29 0.03 0.92 255 255 255
-18.90 -0.06 0.54 255 255 255
-20.02 -0.15 0.70 255 255 255
-6.60 -3.12 1.33 255 255 255
-5.61 -3.01 1.53 255 255 255
-19.89 -0.17 -0.02 255 255 255
-7.33 -3.23 1.44 255 255 255
-5.16 -3.07 0.32 255 255 255
-6.62 -3.11 0.71 255 255 255
-6.59 -3.13 1.48 255 255 255
-7.34 -3.22 0.98 255 255 255
-5.60 -3.01 1.70 255 255 255
-5.64 -3.00 1.02 255 255 255
-7.33 -3.24 1.58 255 255 255
-6.63 -3.12 1.00 255 255 255
-3.79 -2.91 0.96 255 255 255
-6.60 -3.14 1.63 255 255 255
-7.36 -3.22 1.18 255 255 255
-5.60 -3.02 1.96 255 255 255
-6.59 -3.14 1.78 255 255 255
-5.63 -3.00 1.19 255 255 255
-41.54 7.08 1.73 255 255 255
-6.60 -3.13 1.18 255 255 255
-37.86 3.37 1.93 255 255 255
-6.60 -3.15 2.04 255 255 255
9.95 -4.96 0.70 255 255 255
-43.86 6.17 1.17 255 255 255
-7.36 -3.23 1.31 255 255 255
-5.63 -3.01 1.36 255 255 255
-19.45 0.43 1.27 255 255 255
-19.48 0.09 1.15 255 255 255
-46.71 5.19 0.53 255 255 255
-19.24 0.04 0.92 255 255 255
-18.84 -0.05 0.55 255 255 255
-19.92 -0.15 0.71 255 255 255
-6.65 -3.13 1.33 255 255 255
-5.68 -3.02 1.53 255 255 255
-19.81 -0.16 -0.00 255 255 255
-7.38 -3.23 1.44 255 255 255
-5.24 -3.09 0.33 255 255 255
-6.69 -3.12 0.72 255 255 255
-6.64 -3.14 1.48 255 255 255
-7.38 -3.23 0.98 255 255 255
-5.68 -3.02 1.70 255 255 255
-7.38 -3.24 1.58 255 255 255
-5.71 -3.01 1.02 255 255 255
-6.68 -3.13 1.00 255 255 255
-3.78 -2.94 0.96 255 255 255
-6.64 -3.15 1.63 255 255 255
-7.40 -3.23 1.18 255 255 255
-5.68 -3.03 1.95 255 255 255
-6.65 -3.15 1.78 255 255 255
-5.72 -3.01 1.19 255 255 255
-42.91 7.61 1.75 255 255 255
-6.65 -3.14 1.18 255 255 255
-6.64 -3.16 2.03 255 255 255
-3.38 -3.02 1.16 255 255 255
-43.72 6.25 1.18 255 255 255
-7.40 -3.24 1.31 255 255 255
-5.72 -3.02 1.36 255 255 255
-19.42 0.45 1.28 255 255 255
-19.42 0.10 1.15 255 255 255
-18.69 0.23 1.14 255 255 255
-47.93 5.56 0.50 255 255 255
-19.16 0.05 0.93 255 255 255
-18.79 -0.04 0.55 255 255 255
-19.86 -0.14 0.71 255 255 255
-6.71 -3.14 1.33 255 255 255
-5.76 -3.03 1.53 255 255 255
-19.72 -0.15 0.01 255 255 255
-5.31 -3.10 0.34 255 255 255
-7.43 -3.24 1.44 255 255 255
-6.74 -3.12 0.72 255 255 255
-6.71 -3.15 1.48 255 255 255
-7.43 -3.24 0.99 255 255 255
-5.75 -3.03 1.69 255 255 255
-7.42 -3.25 1.57 255 255 255
-5.78 -3.02 1.03 255 255 255
-6.74 -3.13 1.01 255 255 255
-6.72 -3.15 1.63 255 255 255
-3.80 -2.97 0.96 255 255 255
-5.76 -3.04 1.94 255 255 255
-7.45 -3.24 1.18 255 255 255
-5.79 -3.02 1.19 255 255 255
-6.70 -3.16 1.77 255 255 255
-42.90 7.73 1.76 255 255 255
-6.71 -3.15 1.19 255 255 255
-6.69 -3.17 2.03 255 255 255
-43.75 6.38 1.18 255 255 255
-7.44 -3.24 1.31 255 255 255
-5.79 -3.03 1.36 255 255 255
-19.39 0.46 1.28 255 255 255
-18.66 0.24 1.14 255 255 255
-46.47 5.39 0.54 255 255 255
-19.17 0.07 0.93 255 255 255
-18.74 -0.03 0.56 255 255 255
-19.80 -0.12 0.72 255 255 255
-6.78 -3.15 1.33 255 255 255
-5.82 -3.04 1.53 255 255 255
-19.64 -0.14 0.03 255 255 255
-7.47 -3.25 1.44 255 255 255
-6.79 -3.13 0.73 255 255 255
-5.90 -3.01 0.77 255 255 255
-6.78 -3.15 1.48 255 255 255
-5.80 -3.05 1.69 255 255 255
-7.48 -3.24 0.99 255 255 255
-7.47 -3.26 1.57 255 255 255
-5.85 -3.03 1.03 255 255 255
-6.81 -3.14 1.01 255 255 255
-6.78 -3.16 1.62 255 255 255
-3.82 -3.00 0.96 255 255 255
-5.82 -3.05 1.94 255 255 255
-7.50 -3.24 1.19 255 255 255
-6.77 -3.16 1.77 255 255 255
-5.84 -3.04 1.20 255 255 255
-6.78 -3.15 1.19 255 255 255
-6.76 -3.17 2.03 255 255 255
-3.80 -3.02 1.17 255 255 255
-43.77 6.49 1.18 255 255 255
-7.50 -3.25 1.31 255 255 255
-5.85 -3.04 1.36 255 255 255
-19.37 0.48 1.28 255 255 255
-19.30 0.12 1.16 255 255 255
-18.63 0.25 1.14 255 255 255
-46.51 5.52 0.54 255 255 255
-19.13 0.08 0.93 255 255 255
-18.69 -0.02 0.57 255 255 255
-19.75 -0.11 0.72 255 255 255
-6.83 -3.15 1.34 255 255 255
-5.89 -3.05 1.53 255 255 255
-19.56 -0.13 0.04 255 255 255
-7.51 -3.26 1.44 255 255 255
-5.35 -3.15 0.35 255 255 255
-6.85 -3.14 0.73 255 255 255
-5.99 -3.02 0.78 255 255 255
-6.83 -3.16 1.48 255 255 255
-5.87 -3.06 1.69 255 255 255
-7.52 -3.25 0.99 255 255 255
-7.52 -3.26 1.57 255 255 255
-5.93 -3.04 1.03 255 255 255
-6.87 -3.14 1.02 255 255 255
-3.90 -3.02 0.97 255 255 255
-6.83 -3.16 1.62 255 255 255
-5.88 -3.06 1.94 255 255 255
-7.55 -3.25 1.19 255 255 255
-5.92 -3.05 1.20 255 255 255
-6.83 -3.17 1.77 255 255 255
-6.85 -3.16 1.19 255 255 255
-38.39 3.85 1.95 255 255 255
-6.81 -3.18 2.02 255 255 255
-3.95 -3.02 1.18 255 255 255
-43.78 6.62 1.18 255 255 255
-7.53 -3.26 1.31 255 255 255
-5.92 -3.05 1.36 255 255 255
-19.35 0.50 1.28 255 255 255
-19.24 0.13 1.16 255 255 255
-18.60 0.27 1.14 255 255 255
-19.07 0.09 0.94 255 255 255
-19.98 -0.04 1.00 255 255 255
-18.65 -0.01 0.57 255 255 255
-3.90 -3.05 1.39 255 255 255
-19.69 -0.09 0.73 255 255 255
-6.88 -3.16 1.34 255 255 255
-5.96 -3.06 1.52 255 255 255
-43.14 6.50 1.92 255 255 255
-19.49 -0.12 0.06 255 255 255
-7.57 -3.26 1.44 255 255 255
-5.35 -3.17 0.35 255 255 255
-6.90 -3.15 0.74 255 255 255
-6.87 -3.17 1.48 255 255 255
-6.03 -3.03 0.78 255 255 255
-5.95 -3.07 1.69 255 255 255
-7.56 -3.26 1.00 255 255 255
-7.55 -3.27 1.57 255 255 255
-5.99 -3.05 1.04 255 255 255
-6.91 -3.15 1.02 255 255 255
-6.88 -3.17 1.62 255 255 255
-4.03 -3.03 0.97 255 255 255
-7.59 -3.25 1.19 255 255 255
-5.95 -3.08 1.93 255 255 255
-5.99 -3.05 1.20 255 255 255
-6.88 -3.18 1.76 255 255 255
-6.89 -3.17 1.19 255 255 255
-38.47 3.96 1.95 255 255 255
-6.88 -3.18 2.01 255 255 255
-4.05 -3.04 1.18 255 255 255
-43.79 6.73 1.18 255 255 255
-7.58 -3.26 1.32 255 255 255
-5.99 -3.06 1.36 255 255 255
-19.33 0.52 1.28 255 255 255
-19.19 0.14 1.16 255 255 255
-18.59 0.29 1.14 255 255 255
-47.36 5.96 0.52 255 255 255
-19.05 0.11 0.94 255 255 255
-19.89 -0.03 1.01 255 255 255
-18.59 -0.01 0.58 255 255 255
-4.05 -3.05 1.39 255 255 255
-19.62 -0.08 0.73 255 255 255
-6.93 -3.17 1.34 255 255 255
-6.03 -3.07 1.52 255 255 255
-43.14 6.61 1.92 255 255 255
-19.41 -0.12 0.07 255 255 255
-5.35 -3.20 0.34 255 255 255
-7.62 -3.26 1.44 255 255 255
-3.98 -3.07 1.59 255 255 255
-6.97 -3.15 0.75 255 255 255
-6.94 -3.17 1.48 255 255 255
-6.11 -3.04 0.79 255 255 255
-7.60 -3.26 1.00 255 255 255
-6.01 -3.08 1.69 255 255 255
-7.61 -3.27 1.57 255 255 255
-6.06 -3.06 1.04 255 255 255
-6.96 -3.16 1.02 255 255 255
-4.17 -3.04 0.98 255 255 255
-6.95 -3.18 1.62 255 255 255
-7.63 -3.26 1.19 255 255 255
-6.02 -3.08 1.93 255 255 255
-6.92 -3.19 1.76 255 255 255
-6.06 -3.07 1.20 255 255 255
-58.94 13.38 1.99 255 255 255
-6.94 -3.17 1.20 255 255 255
-5.98 -3.10 2.38 255 255 255
-38.40 4.04 1.96 255 255 255
-6.93 -3.19 2.01 255 255 255
-7.62 -3.27 1.32 255 255 255
-6.06 -3.07 1.36 255 255 255
-19.33 0.54 1.28 255 255 255
-19.15 0.15 1.16 255 255 255
-18.61 0.31 1.14 255 255 255
-47.70 6.15 0.51 255 255 255
-18.98 0.11 0.94 255 255 255
-19.85 -0.02 1.01 255 255 255
-18.55 0.00 0.58 255 255 255
-4.16 -3.06 1.39 255 255 255
-19.57 -0.07 0.74 255 255 255
-6.99 -3.17 1.34 255 255 255
-35.97 2.37 2.01 255 255 255
-6.10 -3.08 1.52 255 255 255
-43.16 6.72 1.92 255 255 255
-19.32 -0.11 0.09 255 255 255
-7.67 -3.27 1.44 255 255 255
-5.34 -3.23 0.34 255 255 255
-7.02 -3.16 0.75 255 255 255
-4.06 -3.09 1.59 255 255 255
-7.00 -3.18 1.48 255 255 255
-6.18 -3.05 0.79 255 255 255
-7.66 -3.26 1.00 255 255 255
-6.11 -3.08 1.68 255 255 255
-7.65 -3.28 1.57 255 255 255
-6.13 -3.07 1.05 255 255 255
-7.00 -3.17 1.02 255 255 255
-7.00 -3.18 1.62 255 255 255
-4.28 -3.05 0.99 255 255 255
-7.68 -3.26 1.19 255 255 255
-6.10 -3.09 1.92 255 255 255
-7.00 -3.19 1.76 255 255 255
-6.15 -3.07 1.21 255 255 255
-6.05 -3.11 2.37 255 255 255
-6.99 -3.18 1.20 255 255 255
-37.27 3.88 1.93 255 255 255
-6.99 -3.20 2.01 255 255 255
-45.72 7.50 1.18 255 255 255
-7.68 -3.27 1.32 255 255 255
-6.15 -3.07 1.36 255 255 255
-19.32 0.57 1.28 255 255 255
-19.08 0.16 1.16 255 255 255
-18.61 0.34 1.14 255 255 255
-19.96 0.03 1.18 255 255 255
-19.01 0.15 0.94 255 255 255
-19.78 -0.00 1.01 255 255 255
-18.50 0.01 0.59 255 255 255
-4.29 -3.08 1.39 255 255 255
-19.52 -0.05 0.74 255 255 255
-7.05 -3.18 1.34 255 255 255
-6.18 -3.08 1.52 255 255 255
-19.25 -0.10 0.10 255 255 255
-7.69 -3.28 1.44 255 255 255
-5.33 -3.26 0.34 255 255 255
-7.05 -3.17 0.76 255 255 255
-7.04 -3.19 1.48 255 255 255
-6.23 -3.06 0.80 255 255 255
-7.71 -3.27 1.01 255 255 255
-6.17 -3.09 1.68 255 255 255
-6.21 -3.07 1.05 255 255 255
-7.69 -3.28 1.57 255 255 255
-7.06 -3.18 1.03 255 255 255
-4.18 -3.11 1.79 255 255 255
-7.04 -3.20 1.62 255 255 255
-4.39 -3.06 0.99 255 255 255
-6.18 -3.10 1.92 255 255 255
-7.73 -3.27 1.20 255 255 255
-6.22 -3.08 1.21 255 255 255
-7.05 -3.20 1.76 255 255 255
-7.06 -3.19 1.20 255 255 255
-6.12 -3.12 2.36 255 255 255
-42.32 5.12 2.05 255 255 255
-7.04 -3.21 2.00 255 255 255
-4.39 -3.07 1.19 255 255 255
-7.72 -3.28 1.32 255 255 255
-6.22 -3.09 1.37 255 255 255
-19.31 0.59 1.28 255 255 255
-19.00 0.16 1.17 255 255 255
-18.63 0.37 1.14 255 255 255
-19.90 0.04 1.18 255 255 255
-19.03 0.17 0.94 255 255 255
-19.72 0.01 1.02 255 255 255
-18.46 0.02 0.59 255 255 255
-4.40 -3.09 1.39 255 255 255
-19.47 -0.04 0.75 255 255 255
-7.09 -3.19 1.34 255 255 255
-6.25 -3.09 1.52 255 255 255
-19.20 -0.09 0.11 255 255 255
-5.33 -3.28 0.34 255 255 255
-7.73 -3.28 1.44 255 255 255
-7.12 -3.18 0.76 255 255 255
-4.28 -3.11 1.59 255 255 255
-6.32 -3.07 0.81 255 255 255
-7.09 -3.20 1.48 255 255 255
-6.23 -3.10 1.68 255 255 255
-7.74 -3.27 1.01 255 255 255
-6.26 -3.09 1.05 255 255 255
-7.73 -3.29 1.57 255 255 255
-7.11 -3.19 1.03 255 255 255
-7.09 -3.20 1.62 255 255 255
-4.48 -3.07 1.00 255 255 255
-6.24 -3.11 1.91 255 255 255
-7.77 -3.27 1.20 255 255 255
-6.27 -3.09 1.21 255 255 255
-7.09 -3.21 1.75 255 255 255
-7.09 -3.20 1.20 255 255 255
-6.20 -3.13 2.35 255 255 255
-4.49 -3.08 1.19 255 255 255
-7.09 -3.21 2.00 255 255 255
-45.74 7.75 1.18 255 255 255
-7.75 -3.28 1.32 255 255 255
-6.27 -3.10 1.37 255 255 255
-19.30 0.61 1.28 255 255 255
-18.99 0.18 1.17 255 255 255
-18.59 0.38 1.14 255 255 255
-19.85 0.06 1.18 255 255 255
-19.09 0.22 0.93 255 255 255
-19.68 0.02 1.02 255 255 255
-18.42 0.03 0.60 255 255 255
-4.50 -3.10 1.39 255 255 255
-19.44 -0.03 0.75 255 255 255
-7.14 -3.20 1.34 255 255 255
-6.31 -3.10 1.52 255 255 255
-19.14 -0.08 0.12 255 255 255
-42.09 6.77 1.91 255 255 255
-7.78 -3.29 1.44 255 255 255
-5.34 -3.31 0.34 255 255 255
-7.16 -3.18 0.77 255 255 255
-7.14 -3.20 1.48 255 255 255
-6.39 -3.07 0.81 255 255 255
-6.31 -3.11 1.68 255 255 255
-7.79 -3.28 1.01 255 255 255
-6.33 -3.09 1.06 255 255 255
-7.77 -3.29 1.57 255 255 255
-7.16 -3.19 1.03 255 255 255
-5.39 -2.94 1.05 255 255 255
-7.15 -3.20 1.61 255 255 255
-6.31 -3.11 1.91 255 255 255
-7.81 -3.28 1.20 255 255 255
-6.34 -3.10 1.21 255 255 255
-7.14 -3.21 1.75 255 255 255
-7.14 -3.21 1.20 255 255 255
-6.28 -3.13 2.34 255 255 255
-36.82 4.04 1.93 255 255 255
-7.15 -3.22 1.99 255 255 255
-5.34 -2.96 1.22 255 255 255
-7.79 -3.29 1.32 255 255 255
-6.34 -3.10 1.37 255 255 255
-19.29 0.63 1.28 255 255 255
-36.87 4.07 1.35 255 255 255
-18.92 0.18 1.17 255 255 255
-18.61 0.41 1.14 255 255 255
-19.79 0.07 1.18 255 255 255
-19.08 0.24 0.93 255 255 255
-19.61 0.03 1.02 255 255 255
-18.38 0.04 0.60 255 255 255
-5.40 -2.96 1.40 255 255 255
-19.36 -0.02 0.76 255 255 255
-7.20 -3.20 1.34 255 255 255
-6.38 -3.11 1.52 255 255 255
-19.06 -0.08 0.13 255 255 255
-7.82 -3.29 1.44 255 255 255
-5.32 -3.34 0.33 255 255 255
-7.22 -3.19 0.77 255 255 255
-5.42 -2.96 1.57 255 255 255
-6.42 -3.09 0.82 255 255 255
-7.20 -3.21 1.48 255 255 255
-6.38 -3.11 1.67 255 255 255
-7.82 -3.29 1.01 255 255 255
-6.41 -3.10 1.06 255 255 255
-7.81 -3.30 1.57 255 255 255
-5.41 -2.97 1.75 255 255 255
-7.21 -3.20 1.04 255 255 255
-7.21 -3.21 1.61 255 255 255
-5.45 -2.95 1.05 255 255 255
-6.38 -3.12 1.90 255 255 255
-7.84 -3.29 1.20 255 255 255
-7.20 -3.22 1.75 255 255 255
-6.41 -3.10 1.21 255 255 255
-7.19 -3.21 1.21 255 255 255
-6.34 -3.14 2.34 255 255 255
-36.57 4.07 1.92 255 255 255
-5.46 -2.96 1.23 255 255 255
-7.20 -3.22 1.99 255 255 255
-41.63 6.80 1.20 255 255 255
-7.82 -3.29 1.32 255 255 255
-6.41 -3.11 1.37 255 255 255
-19.28 0.66 1.28 255 255 255
-18.88 0.19 1.17 255 255 255
-18.60 0.42 1.14 255 255 255
-19.74 0.08 1.18 255 255 255
-19.09 0.26 0.93 255 255 255
-19.56 0.04 1.02 255 255 255
-18.34 0.05 0.61 255 255 255
-5.46 -2.97 1.40 255 255 255
-7.25 -3.21 1.34 255 255 255
-35.29 2.66 2.00 255 255 255
-6.44 -3.12 1.52 255 255 255
-19.01 -0.07 0.14 255 255 255
-7.86 -3.30 1.44 255 255 255
-5.32 -3.37 0.33 255 255 255
-5.49 -2.98 1.57 255 255 255
-7.26 -3.20 0.78 255 255 255
-7.25 -3.21 1.48 255 255 255
-6.49 -3.10 0.82 255 255 255
-7.86 -3.29 1.02 255 255 255
-6.44 -3.12 1.67 255 255 255
-7.86 -3.30 1.57 255 255 255
-6.47 -3.11 1.06 255 255 255
-7.27 -3.20 1.04 255 255 255
-5.50 -2.98 1.75 255 255 255
-7.25 -3.22 1.61 255 255 255
-5.53 -2.96 1.06 255 255 255
-7.87 -3.29 1.20 255 255 255
-6.44 -3.13 1.90 255 255 255
-7.25 -3.22 1.75 255 255 255
-6.48 -3.11 1.22 255 255 255
-6.40 -3.15 2.33 255 255 255
-7.25 -3.22 1.21 255 255 255
-42.62 5.62 2.07 255 255 255
-7.25 -3.23 1.98 255 255 255
-5.51 -2.98 1.23 255 255 255
-7.87 -3.30 1.32 255 255 255
-6.46 -3.12 1.37 255 255 255
-19.28 0.68 1.28 255 255 255
-18.82 0.20 1.17 255 255 255
-18.60 0.45 1.14 255 255 255
-19.68 0.09 1.18 255 255 255
-19.14 0.30 0.93 255 255 255
-19.47 0.05 1.03 255 255 255
-18.29 0.06 0.61 255 255 255
-5.54 -2.99 1.40 255 255 255
-19.25 0.00 0.77 255 255 255
-7.30 -3.21 1.34 255 255 255
-35.30 2.74 2.00 255 255 255
-6.50 -3.13 1.52 255 255 255
-41.53 6.93 1.90 255 255 255
-18.95 -0.06 0.15 255 255 255
-7.90 -3.30 1.44 255 255 255
-5.31 -3.40 0.33 255 255 255
-7.30 -3.21 0.78 255 255 255
-5.57 -2.99 1.57 255 255 255
-7.29 -3.22 1.48 255 255 255
-6.54 -3.11 0.83 255 255 255
-7.90 -3.30 1.02 255 255 255
-6.51 -3.13 1.67 255 255 255
-7.89 -3.31 1.56 255 255 255
-6.53 -3.11 1.07 255 255 255
-7.31 -3.21 1.04 255 255 255
-5.58 -2.99 1.74 255 255 255
-7.29 -3.23 1.61 255 255 255
-5.61 -2.98 1.06 255 255 255
-7.92 -3.30 1.20 255 255 255
-6.50 -3.14 1.90 255 255 255
-7.29 -3.23 1.74 255 255 255
-6.53 -3.12 1.22 255 255 255
-7.29 -3.22 1.21 255 255 255
-6.48 -3.15 2.32 255 255 255
-41.60 5.48 2.05 255 255 255
-7.29 -3.24 1.98 255 255 255
-5.60 -2.98 1.23 255 255 255
-41.53 6.99 1.21 255 255 255
-7.91 -3.30 1.32 255 255 255
-6.53 -3.13 1.37 255 255 255
-19.27 0.70 1.28 255 255 255
-18.77 0.21 1.17 255 255 255
-18.58 0.46 1.15 255 255 255
-19.61 0.10 1.19 255 255 255
-19.17 0.33 0.93 255 255 255
-19.41 0.06 1.03 255 255 255
-18.25 0.07 0.62 255 255 255
-5.62 -2.99 1.40 255 255 255
-7.34 -3.22 1.34 255 255 255
-37.35 3.23 2.06 255 255 255
-6.58 -3.13 1.52 255 255 255
-18.89 -0.05 0.17 255 255 255
-41.55 7.04 1.91 255 255 255
-5.31 -3.43 0.33 255 255 255
-7.93 -3.31 1.44 255 255 255
-5.65 -3.00 1.57 255 255 255
-7.35 -3.21 0.79 255 255 255
-6.61 -3.11 0.83 255 255 255
-7.33 -3.23 1.48 255 255 255
-6.56 -3.14 1.67 255 255 255
-7.94 -3.30 1.02 255 255 255
-6.60 -3.12 1.07 255 255 255
-7.93 -3.31 1.56 255 255 255
-5.66 -3.00 1.74 255 255 255
-7.35 -3.22 1.05 255 255 255
-7.33 -3.23 1.61 255 255 255
-5.69 -2.98 1.06 255 255 255
-7.96 -3.30 1.20 255 255 255
-6.58 -3.14 1.89 255 255 255
-7.33 -3.24 1.74 255 255 255
-6.60 -3.12 1.22 255 255 255
-6.53 -3.16 2.31 255 255 255
-7.34 -3.23 1.21 255 255 255
-7.33 -3.24 1.98 255 255 255
-5.68 -2.99 1.23 255 255 255
-7.94 -3.31 1.32 255 255 255
-6.60 -3.13 1.37 255 255 255
-19.27 0.73 1.28 255 255 255
-18.74 0.22 1.17 255 255 255
-23.88 2.37 2.06 255 255 255
-19.56 0.12 1.19 255 255 255
-19.02 0.31 0.94 255 255 255
-19.35 0.07 1.03 255 255 255
-18.22 0.08 0.62 255 255 255
-5.70 -3.00 1.40 255 255 255
-18.41 -0.16 0.84 255 255 255
-7.39 -3.23 1.34 255 255 255
-37.31 3.31 2.06 255 255 255
-6.63 -3.14 1.52 255 255 255
-42.87 7.55 1.93 255 255 255
-18.83 -0.04 0.18 255 255 255
-5.32 -3.45 0.33 255 255 255
-7.97 -3.31 1.44 255 255 255
-7.40 -3.22 0.79 255 255 255
-5.72 -3.01 1.57 255 255 255
-7.39 -3.23 1.48 255 255 255
-6.67 -3.12 0.84 255 255 255
-6.62 -3.15 1.67 255 255 255
-7.98 -3.30 1.03 255 255 255
-6.66 -3.13 1.08 255 255 255
-7.96 -3.32 1.56 255 255 255
-5.73 -3.01 1.74 255 255 255
-7.40 -3.23 1.05 255 255 255
-7.39 -3.24 1.61 255 255 255
-5.76 -3.00 1.07 255 255 255
-8.00 -3.31 1.21 255 255 255
-6.62 -3.15 1.89 255 255 255
-7.38 -3.24 1.74 255 255 255
-6.64 -3.14 1.22 255 255 255
-7.39 -3.23 1.21 255 255 255
-6.59 -3.17 2.30 255 255 255
-5.75 -3.01 1.23 255 255 255
-7.39 -3.25 1.97 255 255 255
-7.98 -3.32 1.32 255 255 255
-6.65 -3.14 1.37 255 255 255
-19.28 0.76 1.28 255 255 255
-43.70 6.26 1.36 255 255 255
-18.69 0.23 1.17 255 255 255
-18.60 0.52 1.14 255 255 255
-19.51 0.13 1.19 255 255 255
-18.94 0.31 0.94 255 255 255
-19.27 0.07 1.04 255 255 255
-18.19 0.09 0.63 255 255 255
-5.77 -3.02 1.40 255 255 255
-18.38 -0.15 0.84 255 255 255
-7.44 -3.23 1.35 255 255 255
-37.28 3.39 2.07 255 255 255
-6.69 -3.15 1.52 255 255 255
-18.79 -0.03 0.18 255 255 255
-8.01 -3.32 1.44 255 255 255
-5.30 -3.48 0.32 255 255 255
-5.79 -3.02 1.57 255 255 255
-7.45 -3.22 0.80 255 255 255
-7.43 -3.24 1.48 255 255 255
-6.74 -3.13 0.84 255 255 255
-6.67 -3.16 1.66 255 255 255
-8.01 -3.31 1.03 255 255 255
-6.70 -3.14 1.08 255 255 255
-8.01 -3.33 1.56 255 255 255
-7.45 -3.23 1.05 255 255 255
-5.79 -3.02 1.73 255 255 255
-7.44 -3.24 1.61 255 255 255
-5.83 -3.01 1.07 255 255 255
-6.67 -3.17 1.89 255 255 255
-8.03 -3.31 1.21 255 255 255
-6.71 -3.14 1.22 255 255 255
-7.43 -3.25 1.74 255 255 255
-6.66 -3.18 2.30 255 255 255
-7.44 -3.24 1.22 255 255 255
-5.82 -3.02 1.24 255 255 255
-7.43 -3.26 1.97 255 255 255
-8.02 -3.32 1.33 255 255 255
-6.71 -3.15 1.37 255 255 255
-19.26 0.77 1.28 255 255 255
-43.70 6.37 1.36 255 255 255
-18.67 0.24 1.18 255 255 255
-24.48 2.03 2.15 255 255 255
-18.58 0.53 1.15 255 255 255
-19.44 0.13 1.19 255 255 255
-19.22 0.08 1.04 255 255 255
-18.14 0.09 0.63 255 255 255
-5.85 -3.03 1.40 255 255 255
-18.38 -0.13 0.85 255 255 255
-7.49 -3.24 1.35 255 255 255
-37.67 3.56 2.08 255 255 255
-6.74 -3.16 1.52 255 255 255
-18.74 -0.02 0.19 255 255 255
-5.30 -3.51 0.32 255 255 255
-8.05 -3.32 1.44 255 255 255
-5.84 -3.03 1.57 255 255 255
-7.49 -3.23 0.80 255 255 255
-6.79 -3.13 0.85 255 255 255
-7.47 -3.25 1.48 255 255 255
-6.74 -3.16 1.66 255 255 255
-8.05 -3.32 1.03 255 255 255
-6.77 -3.15 1.08 255 255 255
-8.05 -3.33 1.56 255 255 255
-7.49 -3.24 1.06 255 255 255
-5.86 -3.04 1.73 255 255 255
-7.48 -3.25 1.61 255 255 255
-5.90 -3.02 1.07 255 255 255
-6.74 -3.17 1.88 255 255 255
-8.07 -3.32 1.21 255 255 255
-6.77 -3.15 1.23 255 255 255
-7.47 -3.26 1.74 255 255 255
-7.48 -3.25 1.22 255 255 255
-6.71 -3.19 2.29 255 255 255
-7.47 -3.26 1.96 255 255 255
-5.88 -3.03 1.24 255 255 255
-8.05 -3.33 1.33 255 255 255
-6.78 -3.16 1.37 255 255 255
-19.26 0.80 1.28 255 255 255
-43.74 6.49 1.37 255 255 255
-18.65 0.26 1.18 255 255 255
-18.60 0.56 1.14 255 255 255
-19.35 0.14 1.19 255 255 255
-18.42 0.20 0.98 255 255 255
-19.18 0.10 1.04 255 255 255
-18.10 0.10 0.64 255 255 255
-5.90 -3.04 1.40 255 255 255
-18.36 -0.11 0.85 255 255 255
-7.53 -3.24 1.35 255 255 255
-37.60 3.64 2.08 255 255 255
-6.81 -3.16 1.52 255 255 255
-18.68 -0.02 0.20 255 255 255
-5.29 -3.54 0.32 255 255 255
-8.09 -3.33 1.44 255 255 255
-5.92 -3.04 1.57 255 255 255
-7.53 -3.24 0.81 255 255 255
-7.52 -3.25 1.48 255 255 255
-6.83 -3.14 0.85 255 255 255
-8.09 -3.32 1.03 255 255 255
-6.80 -3.17 1.66 255 255 255
-6.83 -3.15 1.09 255 255 255
-8.09 -3.33 1.56 255 255 255
-5.93 -3.04 1.73 255 255 255
-7.53 -3.24 1.06 255 255 255
-5.97 -3.03 1.08 255 255 255
-7.53 -3.25 1.60 255 255 255
-8.11 -3.32 1.21 255 255 255
-6.81 -3.17 1.88 255 255 255
-7.52 -3.26 1.73 255 255 255
-6.84 -3.15 1.23 255 255 255
-7.52 -3.25 1.22 255 255 255
-6.76 -3.19 2.28 255 255 255
-7.51 -3.27 1.96 255 255 255
-5.96 -3.04 1.24 255 255 255
-8.09 -3.33 1.33 255 255 255
-6.84 -3.16 1.37 255 255 255
-19.26 0.83 1.28 255 255 255
-43.76 6.62 1.37 255 255 255
-18.65 0.28 1.18 255 255 255
-18.60 0.59 1.14 255 255 255
-19.29 0.15 1.19 255 255 255
-18.38 0.20 0.98 255 255 255
-19.17 0.12 1.04 255 255 255
-18.06 0.11 0.64 255 255 255
-5.97 -3.05 1.40 255 255 255
-18.35 -0.10 0.85 255 255 255
-7.57 -3.25 1.35 255 255 255
-36.86 3.57 2.06 255 255 255
-6.87 -3.17 1.51 255 255 255
-18.63 -0.01 0.21 255 255 255
-8.12 -3.33 1.44 255 255 255
-5.29 -3.57 0.32 255 255 255
-7.57 -3.24 0.81 255 255 255
-5.98 -3.06 1.57 255 255 255
-7.57 -3.26 1.48 255 255 255
-6.90 -3.15 0.86 255 255 255
-6.85 -3.18 1.66 255 255 255
-8.13 -3.32 1.04 255 255 255
-8.12 -3.34 1.56 255 255 255
-6.88 -3.16 1.09 255 255 255
-7.58 -3.25 1.06 255 255 255
-6.00 -3.06 1.73 255 255 255
-7.57 -3.26 1.60 255 255 255
-6.03 -3.04 1.08 255 255 255
-8.15 -3.33 1.21 255 255 255
-6.85 -3.19 1.87 255 255 255
-6.88 -3.17 1.23 255 255 255
-7.56 -3.27 1.73 255 255 255
-7.57 -3.26 1.22 255 255 255
-6.83 -3.20 2.27 255 255 255
-7.56 -3.28 1.96 255 255 255
-6.03 -3.05 1.24 255 255 255
-8.13 -3.34 1.33 255 255 255
-6.89 -3.17 1.37 255 255 255
-19.27 0.86 1.28 255 255 255
-43.77 6.73 1.37 255 255 255
-18.67 0.31 1.18 255 255 255
-18.60 0.61 1.15 255 255 255
-19.25 0.16 1.20 255 255 255
-18.36 0.22 0.98 255 255 255
-19.15 0.14 1.04 255 255 255
-18.03 0.12 0.65 255 255 255
-6.06 -3.06 1.40 255 255 255
-28.76 4.44 1.98 255 255 255
-18.35 -0.07 0.85 255 255 255
-7.62 -3.26 1.35 255 255 255
-36.86 3.66 2.06 255 255 255
-6.91 -3.18 1.51 255 255 255
-18.57 -0.00 0.22 255 255 255
-5.42 -3.56 0.34 255 255 255
-8.16 -3.34 1.44 255 255 255
-6.06 -3.06 1.56 255 255 255
-7.63 -3.25 0.82 255 255 255
-7.61 -3.26 1.48 255 255 255
-6.95 -3.16 0.86 255 255 255
-6.91 -3.18 1.66 255 255 255
-8.17 -3.33 1.04 255 255 255
-8.15 -3.35 1.56 255 255 255
-6.92 -3.17 1.09 255 255 255
-7.63 -3.25 1.06 255 255 255
-6.09 -3.06 1.72 255 255 255
-7.61 -3.27 1.60 255 255 255
-6.10 -3.05 1.09 255 255 255
-8.18 -3.33 1.21 255 255 255
-6.90 -3.19 1.87 255 255 255
-6.94 -3.17 1.23 255 255 255
-7.61 -3.27 1.73 255 255 255
-28.79 4.48 1.59 255 255 255
-6.88 -3.20 2.27 255 255 255
-7.61 -3.27 1.22 255 255 255
-43.00 6.60 2.10 255 255 255
-6.11 -3.06 1.24 255 255 255
-7.62 -3.28 1.95 255 255 255
-8.16 -3.34 1.33 255 255 255
-6.94 -3.18 1.37 255 255 255
-19.26 0.88 1.28 255 255 255
-43.77 6.84 1.37 255 255 255
-18.66 0.33 1.18 255 255 255
-18.59 0.63 1.15 255 255 255
-19.19 0.16 1.20 255 255 255
-18.35 0.24 0.98 255 255 255
-19.09 0.14 1.05 255 255 255
-18.00 0.13 0.65 255 255 255
-6.11 -3.07 1.40 255 255 255
-28.69 4.48 1.98 255 255 255
-18.34 -0.06 0.85 255 255 255
-7.67 -3.26 1.35 255 255 255
-36.79 3.73 2.06 255 255 255
-6.97 -3.18 1.51 255 255 255
-18.53 0.01 0.23 255 255 255
-5.48 -3.57 0.35 255 255 255
-8.19 -3.34 1.44 255 255 255
-7.68 -3.25 0.82 255 255 255
-6.15 -3.07 1.56 255 255 255
-7.66 -3.27 1.47 255 255 255
-7.00 -3.16 0.87 255 255 255
-8.20 -3.34 1.04 255 255 255
-6.96 -3.19 1.65 255 255 255
-8.19 -3.35 1.56 255 255 255
-6.98 -3.18 1.09 255 255 255
-7.67 -3.26 1.07 255 255 255
-6.15 -3.07 1.72 255 255 255
-7.66 -3.27 1.60 255 255 255
-6.19 -3.05 1.09 255 255 255
-8.22 -3.33 1.22 255 255 255
-6.96 -3.20 1.87 255 255 255
-6.99 -3.18 1.23 255 255 255
-7.66 -3.28 1.73 255 255 255
-28.75 4.53 1.59 255 255 255
-7.66 -3.27 1.22 255 255 255
-6.94 -3.21 2.26 255 255 255
-43.09 6.75 2.10 255 255 255
-7.66 -3.28 1.95 255 255 255
-6.18 -3.06 1.25 255 255 255
-8.20 -3.35 1.33 255 255 255
-7.00 -3.18 1.37 255 255 255
-19.25 0.90 1.28 255 255 255
-18.65 0.35 1.18 255 255 255
-18.60 0.66 1.14 255 255 255
-19.12 0.17 1.20 255 255 255
-18.35 0.26 0.98 255 255 255
-19.03 0.15 1.05 255 255 255
-17.96 0.14 0.66 255 255 255
-6.20 -3.07 1.40 255 255 255
-28.68 4.53 1.98 255 255 255
-18.33 -0.04 0.85 255 255 255
-7.71 -3.27 1.35 255 255 255
-17.77 0.09 -0.08 255 255 255
-7.02 -3.19 1.51 255 255 255
-18.47 0.01 0.24 255 255 255
-5.51 -3.59 0.35 255 255 255
-8.22 -3.35 1.44 255 255 255
-7.71 -3.26 0.83 255 255 255
-6.20 -3.08 1.56 255 255 255
-7.05 -3.17 0.87 255 255 255
-7.69 -3.28 1.48 255 255 255
-7.02 -3.20 1.65 255 255 255
-8.23 -3.34 1.04 255 255 255
-8.22 -3.36 1.56 255 255 255
-7.04 -3.18 1.10 255 255 255
-7.72 -3.26 1.07 255 255 255
-6.21 -3.08 1.72 255 255 255
-7.69 -3.28 1.60 255 255 255
-6.25 -3.06 1.09 255 255 255
-8.25 -3.34 1.22 255 255 255
-7.02 -3.20 1.86 255 255 255
-7.70 -3.28 1.72 255 255 255
-7.04 -3.19 1.24 255 255 255
-28.71 4.58 1.59 255 255 255
-7.70 -3.27 1.23 255 255 255
-6.98 -3.22 2.25 255 255 255
-6.24 -3.07 1.25 255 255 255
-7.69 -3.29 1.94 255 255 255
-8.23 -3.35 1.33 255 255 255
-7.05 -3.19 1.37 255 255 255
-19.25 0.93 1.28 255 255 255
-45.72 7.64 1.38 255 255 255
-18.64 0.37 1.18 255 255 255
-19.97 0.06 1.22 255 255 255
-18.59 0.68 1.15 255 255 255
-19.08 0.18 1.20 255 255 255
-18.37 0.29 0.98 255 255 255
-18.95 0.15 1.05 255 255 255
-17.93 0.15 0.66 255 255 255
-6.27 -3.08 1.40 255 255 255
-18.32 -0.02 0.85 255 255 255
-28.65 4.59 1.99 255 255 255
-7.74 -3.27 1.35 255 255 255
-17.74 0.10 -0.08 255 255 255
-37.02 3.95 2.07 255 255 255
-7.07 -3.19 1.51 255 255 255
-18.42 0.02 0.25 255 255 255
-5.50 -3.62 0.34 255 255 255
-8.26 -3.35 1.44 255 255 255
-6.27 -3.08 1.56 255 255 255
-7.75 -3.26 0.83 255 255 255
-7.10 -3.18 0.88 255 255 255
-7.72 -3.28 1.47 255 255 255
-7.06 -3.20 1.65 255 255 255
-8.27 -3.35 1.05 255 255 255
-7.08 -3.19 1.10 255 255 255
-8.25 -3.36 1.56 255 255 255
-7.75 -3.27 1.07 255 255 255
-6.28 -3.09 1.72 255 255 255
-7.73 -3.29 1.60 255 255 255
-6.32 -3.07 1.10 255 255 255
-7.06 -3.21 1.86 255 255 255
-8.28 -3.34 1.22 255 255 255
-7.09 -3.19 1.24 255 255 255
-7.73 -3.29 1.72 255 255 255
-28.70 4.65 1.59 255 255 255
-7.03 -3.23 2.25 255 255 255
-7.74 -3.28 1.23 255 255 255
-6.30 -3.08 1.25 255 255 255
-7.73 -3.30 1.94 255 255 255
-8.26 -3.36 1.33 255 255 255
-7.09 -3.20 1.37 255 255 255
-19.26 0.96 1.28 255 255 255
-45.73 7.75 1.38 255 255 255
-18.64 0.39 1.18 255 255 255
-19.89 0.07 1.22 255 255 255
-18.59 0.70 1.15 255 255 255
-19.03 0.20 1.20 255 255 255
-18.35 0.30 0.98 255 255 255
-18.90 0.16 1.06 255 255 255
-17.89 0.15 0.66 255 255 255
-6.33 -3.09 1.41 255 255 255
-28.68 4.67 1.99 255 255 255
-18.32 0.00 0.85 255 255 255
-7.78 -3.28 1.35 255 255 255
-17.72 0.11 -0.07 255 255 255
-36.88 4.01 2.07 255 255 255
-7.12 -3.20 1.51 255 255 255
-18.37 0.03 0.26 255 255 255
-8.30 -3.36 1.44 255 255 255
-7.79 -3.27 0.83 255 255 255
-6.35 -3.09 1.56 255 255 255
-7.78 -3.29 1.47 255 255 255
-7.16 -3.19 0.88 255 255 255
-8.30 -3.35 1.05 255 255 255
-7.10 -3.22 1.65 255 255 255
-8.29 -3.36 1.56 255 255 255
-7.12 -3.20 1.10 255 255 255
-7.80 -3.28 1.07 255 255 255
-6.37 -3.09 1.71 255 255 255
-7.77 -3.30 1.60 255 255 255
-6.39 -3.08 1.10 255 255 255
-7.12 -3.22 1.86 255 255 255
-8.32 -3.35 1.22 255 255 255
-7.14 -3.20 1.24 255 255 255
-7.78 -3.30 1.72 255 255 255
-28.73 4.71 1.59 255 255 255
-7.10 -3.23 2.24 255 255 255
-7.78 -3.29 1.23 255 255 255
-42.13 6.81 2.09 255 255 255
-6.37 -3.09 1.25 255 255 255
-7.78 -3.30 1.94 255 255 255
-8.30 -3.36 1.33 255 255 255
-36.87 4.06 1.49 255 255 255
-7.14 -3.21 1.38 255 255 255
-19.27 0.98 1.28 255 255 255
-18.63 0.41 1.18 255 255 255
-19.84 0.08 1.22 255 255 255
-18.58 0.72 1.15 255 255 255
-18.98 0.20 1.20 255 255 255
-18.36 0.33 0.98 255 255 255
-18.88 0.18 1.06 255 255 255
-17.84 0.16 0.67 255 255 255
-6.38 -3.10 1.41 255 255 255
-18.31 0.02 0.85 255 255 255
-7.82 -3.29 1.35 255 255 255
-17.70 0.13 -0.07 255 255 255
-36.42 3.99 2.06 255 255 255
-7.18 -3.21 1.51 255 255 255
-18.34 0.04 0.26 255 255 255
-5.36 -3.71 0.32 255 255 255
-8.33 -3.36 1.44 255 255 255
-6.41 -3.10 1.56 255 255 255
-7.83 -3.28 0.84 255 255 255
-7.20 -3.19 0.89 255 255 255
-7.82 -3.29 1.47 255 255 255
-7.17 -3.22 1.65 255 255 255
-8.34 -3.35 1.05 255 255 255
-8.32 -3.37 1.56 255 255 255
-7.18 -3.21 1.10 255 255 255
-6.41 -3.11 1.71 255 255 255
-7.82 -3.29 1.08 255 255 255
-6.45 -3.09 1.10 255 255 255
-7.82 -3.30 1.60 255 255 255
-7.16 -3.23 1.85 255 255 255
-8.34 -3.36 1.22 255 255 255
-7.19 -3.21 1.24 255 255 255
-7.82 -3.30 1.72 255 255 255
-36.24 7.79 1.71 255 255 255
-7.14 -3.24 2.23 255 255 255
-7.83 -3.29 1.23 255 255 255
-42.05 6.91 2.09 255 255 255
-7.82 -3.31 1.93 255 255 255
-6.45 -3.10 1.25 255 255 255
-8.34 -3.37 1.33 255 255 255
-7.19 -3.21 1.38 255 255 255
-19.30 1.02 1.28 255 255 255
-18.62 0.43 1.18 255 255 255
-19.78 0.09 1.22 255 255 255
-18.57 0.74 1.15 255 255 255
-18.92 0.21 1.20 255 255 255
-18.35 0.35 0.98 255 255 255
-18.84 0.19 1.06 255 255 255
-17.81 0.17 0.67 255 255 255
-6.47 -3.10 1.41 255 255 255
-18.30 0.04 0.85 255 255 255
-7.86 -3.29 1.35 255 255 255
-17.65 0.13 -0.06 255 255 255
-35.70 3.91 2.04 255 255 255
-7.24 -3.21 1.51 255 255 255
-18.28 0.05 0.27 255 255 255
-5.40 -3.73 0.32 255 255 255
-8.36 -3.37 1.44 255 255 255
-7.87 -3.28 0.84 255 255 255
-6.47 -3.11 1.56 255 255 255
-7.86 -3.30 1.47 255 255 255
-7.25 -3.20 0.89 255 255 255
-8.36 -3.36 1.05 255 255 255
-7.21 -3.22 1.65 255 255 255
-7.23 -3.21 1.11 255 255 255
-8.35 -3.37 1.55 255 255 255
-6.49 -3.11 1.71 255 255 255
-7.87 -3.29 1.08 255 255 255
-6.51 -3.09 1.11 255 255 255
-7.86 -3.30 1.60 255 255 255
-7.22 -3.23 1.85 255 255 255
-8.39 -3.35 1.22 255 255 255
-7.24 -3.21 1.24 255 255 255
-7.86 -3.31 1.72 255 255 255
-7.86 -3.30 1.23 255 255 255
-7.19 -3.25 2.23 255 255 255
-41.57 6.86 2.08 255 255 255
-6.51 -3.10 1.26 255 255 255
-7.86 -3.31 1.93 255 255 255
-8.37 -3.36 1.33 255 255 255
-7.24 -3.22 1.38 255 255 255
-19.29 1.05 1.29 255 255 255
-18.63 0.46 1.18 255 255 255
-19.71 0.10 1.22 255 255 255
-18.59 0.77 1.15 255 255 255
-18.86 0.21 1.21 255 255 255
-18.30 0.35 0.98 255 255 255
-18.82 0.21 1.06 255 255 255
-17.78 0.18 0.68 255 255 255
-6.53 -3.11 1.41 255 255 255
-18.30 0.06 0.85 255 255 255
-7.90 -3.29 1.35 255 255 255
-17.64 0.14 -0.05 255 255 255
-7.28 -3.22 1.51 255 255 255
-18.23 0.05 0.28 255 255 255
-5.41 -3.76 0.32 255 255 255
-8.39 -3.37 1.44 255 255 255
-6.54 -3.11 1.56 255 255 255
-7.92 -3.28 0.85 255 255 255
-7.89 -3.30 1.47 255 255 255
-7.30 -3.20 0.89 255 255 255
-8.41 -3.36 1.06 255 255 255
-7.26 -3.23 1.64 255 255 255
-8.37 -3.38 1.55 255 255 255
-7.28 -3.22 1.11 255 255 255
-7.91 -3.29 1.08 255 255 255
-6.55 -3.12 1.71 255 255 255
-7.89 -3.31 1.59 255 255 255
-6.58 -3.10 1.11 255 255 255
-8.42 -3.36 1.22 255 255 255
-7.27 -3.24 1.85 255 255 255
-7.29 -3.22 1.24 255 255 255
-7.90 -3.31 1.72 255 255 255
-7.24 -3.25 2.22 255 255 255
-7.89 -3.30 1.23 255 255 255
-41.51 6.97 2.08 255 255 255
-6.57 -3.11 1.26 255 255 255
-7.89 -3.32 1.93 255 255 255
-17.98 0.25 1.33 255 255 255
-8.41 -3.37 1.33 255 255 255
-7.29 -3.23 1.38 255 255 255
-19.27 1.06 1.29 255 255 255
-41.54 7.00 1.38 255 255 255
-18.01 0.26 1.20 255 255 255
-19.65 0.11 1.23 255 255 255
-18.60 0.80 1.14 255 255 255
-18.84 0.23 1.21 255 255 255
-18.02 0.27 1.00 255 255 255
-18.76 0.21 1.06 255 255 255
-17.76 0.19 0.68 255 255 255
-6.58 -3.12 1.41 255 255 255
-18.29 0.08 0.85 255 255 255
-7.94 -3.30 1.35 255 255 255
-17.61 0.15 -0.05 255 255 255
-7.32 -3.23 1.51 255 255 255
-18.18 0.06 0.29 255 255 255
-17.98 0.25 1.45 255 255 255
-5.41 -3.78 0.32 255 255 255
-8.42 -3.38 1.44 255 255 255
-6.60 -3.12 1.55 255 255 255
-7.95 -3.29 0.85 255 255 255
-7.35 -3.21 0.90 255 255 255
-7.93 -3.31 1.47 255 255 255
-7.31 -3.24 1.64 255 255 255
-8.43 -3.37 1.06 255 255 255
-8.41 -3.38 1.55 255 255 255
-7.33 -3.22 1.11 255 255 255
-6.60 -3.13 1.70 255 255 255
-7.95 -3.30 1.08 255 255 255
-7.93 -3.32 1.59 255 255 255
-6.63 -3.11 1.11 255 255 255
-8.45 -3.37 1.22 255 255 255
-7.31 -3.24 1.84 255 255 255
-7.34 -3.23 1.24 255 255 255
-7.94 -3.31 1.71 255 255 255
-7.94 -3.31 1.23 255 255 255
-7.29 -3.26 2.21 255 255 255
-41.51 7.07 2.08 255 255 255
-7.92 -3.33 1.92 255 255 255
-6.63 -3.12 1.26 255 255 255
-8.43 -3.38 1.33 255 255 255
-7.33 -3.23 1.38 255 255 255
-19.27 1.09 1.29 255 255 255
-41.55 7.11 1.38 255 255 255
-18.62 0.50 1.18 255 255 255
-19.59 0.12 1.23 255 255 255
-23.70 2.30 2.11 255 255 255
-18.59 0.82 1.15 255 255 255
-18.80 0.24 1.21 255 255 255
-18.36 0.42 0.98 255 255 255
-18.67 0.21 1.07 255 255 255
-17.73 0.20 0.68 255 255 255
