ply
format ascii 1.0
element vertex 1608
property float x
property float y
property float z
property uchar red
property uchar green
property uchar blue
end_header
-16.85 -8.35 0.85 255 255 255
-13.08 -3.99 1.63 255 255 255
-13.07 -3.98 1.31 255 255 255
-16.35 -8.39 0.92 255 255 255
-13.09 -4.00 1.83 255 255 255
-12.88 -3.94 1.34 255 255 255
7.63 25.93 1.92 255 255 255
-25.57 -19.56 0.33 255 255 255
-6.36 7.66 1.66 255 255 255
-13.08 -3.98 1.38 255 255 255
9.35 25.48 1.73 255 255 255
11.27 34.74 2.32 255 255 255
-6.41 7.58 2.50 255 255 255
6.91 24.87 1.15 255 255 255
-6.33 7.69 1.42 255 255 255
9.08 25.11 0.95 255 255 255
5.73 25.90 1.34 255 255 255
-6.37 7.62 2.14 255 255 255
5.18 25.02 0.61 255 255 255
-9.06 2.02 0.92 255 255 255
-12.89 -3.95 1.40 255 255 255
-8.76 2.88 1.04 255 255 255
-13.06 -3.94 0.60 255 255 255
-16.43 -8.47 1.11 255 255 255
-9.29 1.69 0.43 255 255 255
-6.35 7.65 1.90 255 255 255
-13.09 -3.99 1.45 255 255 255
-25.65 -19.59 0.86 255 255 255
-13.07 -3.96 0.98 255 255 255
-16.18 -8.11 0.32 255 255 255
-12.89 -3.95 1.47 255 255 255
-24.13 -19.37 1.02 255 255 255
-13.07 -3.96 1.12 255 255 255
-16.85 -8.31 0.54 255 255 255
-13.09 -3.99 1.52 255 255 255
-25.66 -19.59 1.40 255 255 255
-13.09 -3.98 1.24 255 255 255
-16.31 -8.28 0.68 255 255 255
-12.91 -3.97 1.54 255 255 255
-24.16 -19.40 1.54 255 255 255
-12.89 -3.94 1.27 255 255 255
-13.09 -3.99 1.63 255 255 255
-16.90 -8.36 0.84 255 255 255
-13.09 -3.98 1.31 255 255 255
-16.40 -8.40 0.91 255 255 255
-13.12 -4.02 1.84 255 255 255
-12.90 -3.94 1.33 255 255 255
7.69 25.81 1.92 255 255 255
-25.69 -19.59 0.33 255 255 255
-6.30 7.69 1.66 255 255 255
-13.09 -3.99 1.38 255 255 255
9.48 25.45 1.73 255 255 255
11.47 34.80 2.33 255 255 255
-6.35 7.59 2.50 255 255 255
7.05 24.88 1.15 255 255 255
9.23 25.10 0.95 255 255 255
5.74 25.72 1.34 255 255 255
-6.33 7.64 2.14 255 255 255
5.22 24.88 0.62 255 255 255
-9.05 2.00 0.93 255 255 255
-12.90 -3.95 1.40 255 255 255
-8.75 2.86 1.04 255 255 255
-16.48 -8.48 1.11 255 255 255
-13.07 -3.94 0.60 255 255 255
-6.29 7.68 1.90 255 255 255
-9.28 1.68 0.43 255 255 255
-13.09 -3.98 1.45 255 255 255
-9.39 1.85 0.73 255 255 255
-25.75 -19.59 0.86 255 255 255
-13.08 -3.96 0.98 255 255 255
-16.23 -8.12 0.32 255 255 255
-12.91 -3.96 1.47 255 255 255
-24.25 -19.42 1.02 255 255 255
-13.09 -3.97 1.12 255 255 255
-16.89 -8.31 0.54 255 255 255
-25.78 -19.60 1.40 255 255 255
-13.10 -3.98 1.24 255 255 255
-12.91 -3.96 1.54 255 255 255
-16.34 -8.28 0.68 255 255 255
-12.90 -3.94 1.27 255 255 255
-24.27 -19.42 1.53 255 255 255
-16.95 -8.38 0.84 255 255 255
-13.10 -3.98 1.31 255 255 255
-16.41 -8.37 0.91 255 255 255
-12.91 -3.94 1.33 255 255 255
7.77 25.73 1.92 255 255 255
-13.14 -4.05 2.29 255 255 255
-25.82 -19.61 0.32 255 255 255
-13.11 -3.99 1.38 255 255 255
9.70 25.56 1.73 255 255 255
11.67 34.83 2.33 255 255 255
7.23 24.93 1.15 255 255 255
-6.30 7.63 2.51 255 255 255
9.05 34.45 1.57 255 255 255
9.40 25.13 0.94 255 255 255
5.80 25.61 1.34 255 255 255
-6.26 7.67 2.15 255 255 255
5.33 24.85 0.62 255 255 255
-9.05 1.99 0.93 255 255 255
-12.92 -3.95 1.40 255 255 255
-8.75 2.83 1.04 255 255 255
-13.10 -3.97 0.59 255 255 255
-16.51 -8.48 1.11 255 255 255
-9.25 1.70 0.42 255 255 255
-9.38 1.84 0.73 255 255 255
-25.88 -19.61 0.86 255 255 255
-12.92 -3.95 1.47 255 255 255
-16.25 -8.12 0.31 255 255 255
-24.35 -19.43 1.02 255 255 255
-16.93 -8.31 0.54 255 255 255
-25.89 -19.63 1.40 255 255 255
-12.93 -3.97 1.54 255 255 255
-16.37 -8.27 0.67 255 255 255
-24.37 -19.43 1.53 255 255 255
-12.91 -3.94 1.27 255 255 255
-16.46 -8.39 0.91 255 255 255
-12.92 -3.95 1.33 255 255 255
7.88 25.70 1.92 255 255 255
-25.93 -19.61 0.32 255 255 255
-13.15 -4.03 2.29 255 255 255
9.18 34.46 2.54 255 255 255
-13.12 -3.99 1.38 255 255 255
17.89 35.72 1.87 255 255 255
11.87 34.86 2.33 255 255 255
7.33 24.89 1.15 255 255 255
9.23 34.48 1.57 255 255 255
9.59 25.19 0.94 255 255 255
5.86 25.50 1.34 255 255 255
5.36 24.70 0.62 255 255 255
-9.02 1.99 0.92 255 255 255
-12.93 -3.96 1.40 255 255 255
-8.74 2.81 1.04 255 255 255
-16.57 -8.51 1.11 255 255 255
-9.24 1.69 0.42 255 255 255
-13.13 -3.99 1.45 255 255 255
-9.35 1.87 0.73 255 255 255
-25.94 -19.57 0.86 255 255 255
-16.30 -8.13 0.31 255 255 255
-12.93 -3.95 1.47 255 255 255
-24.46 -19.44 1.02 255 255 255
-13.14 -4.01 1.52 255 255 255
-16.96 -8.30 0.53 255 255 255
-13.13 -3.99 1.23 255 255 255
-25.95 -19.57 1.40 255 255 255
-12.94 -3.96 1.54 255 255 255
-16.41 -8.28 0.67 255 255 255
-12.92 -3.94 1.27 255 255 255
-24.48 -19.45 1.54 255 255 255
-13.15 -4.02 1.64 255 255 255
-25.49 -18.97 -0.17 255 255 255
-13.13 -3.99 1.31 255 255 255
-13.14 -4.01 1.84 255 255 255
-16.49 -8.37 0.91 255 255 255
4.43 23.13 2.70 255 255 255
-12.93 -3.95 1.33 255 255 255
7.76 25.32 1.91 255 255 255
-13.15 -4.02 2.29 255 255 255
-25.95 -19.51 0.32 255 255 255
9.37 34.46 2.54 255 255 255
-13.14 -4.00 1.38 255 255 255
12.07 34.89 2.34 255 255 255
7.50 24.93 1.15 255 255 255
9.42 34.51 1.57 255 255 255
9.84 25.32 0.94 255 255 255
5.94 25.41 1.34 255 255 255
5.42 24.60 0.62 255 255 255
-9.01 1.99 0.92 255 255 255
-12.95 -3.96 1.40 255 255 255
-8.73 2.79 1.04 255 255 255
-16.60 -8.50 1.11 255 255 255
-13.12 -3.96 0.59 255 255 255
-9.23 1.69 0.42 255 255 255
-13.14 -4.00 1.45 255 255 255
-9.33 1.87 0.72 255 255 255
-25.99 -19.50 0.86 255 255 255
-13.13 -3.97 0.97 255 255 255
-12.94 -3.95 1.47 255 255 255
-16.34 -8.14 0.30 255 255 255
-24.57 -19.46 1.02 255 255 255
-13.13 -3.97 1.12 255 255 255
-17.10 -8.43 0.51 255 255 255
-13.15 -4.00 1.53 255 255 255
-26.00 -19.50 1.40 255 255 255
-13.14 -3.98 1.24 255 255 255
-16.48 -8.32 0.66 255 255 255
-12.95 -3.96 1.54 255 255 255
-24.59 -19.48 1.53 255 255 255
-12.94 -3.95 1.26 255 255 255
-25.94 -19.39 -0.21 255 255 255
-13.15 -4.00 1.63 255 255 255
-13.14 -3.98 1.31 255 255 255
-16.55 -8.41 0.91 255 255 255
-13.16 -4.01 1.84 255 255 255
4.50 23.06 2.70 255 255 255
-12.95 -3.96 1.33 255 255 255
8.10 25.59 1.92 255 255 255
-26.02 -19.48 0.32 255 255 255
-13.18 -4.04 2.30 255 255 255
9.55 34.51 2.54 255 255 255
-13.15 -4.00 1.38 255 255 255
18.33 35.72 1.88 255 255 255
12.27 34.92 2.34 255 255 255
7.65 24.93 1.15 255 255 255
9.60 34.53 1.57 255 255 255
10.09 25.44 0.93 255 255 255
6.04 25.36 1.34 255 255 255
5.57 24.62 0.62 255 255 255
-12.96 -3.96 1.40 255 255 255
-8.99 1.99 0.92 255 255 255
-13.12 -3.95 0.59 255 255 255
-16.64 -8.51 1.10 255 255 255
-8.72 2.78 1.04 255 255 255
-13.15 -3.99 1.45 255 255 255
-9.21 1.69 0.41 255 255 255
-13.15 -3.99 0.97 255 255 255
-26.09 -19.50 0.86 255 255 255
-9.30 1.89 0.72 255 255 255
-16.39 -8.15 0.30 255 255 255
-12.95 -3.96 1.47 255 255 255
-24.67 -19.47 1.01 255 255 255
-13.13 -3.96 1.12 255 255 255
-17.06 -8.32 0.52 255 255 255
-13.16 -4.01 1.52 255 255 255
-13.16 -3.99 1.23 255 255 255
-26.11 -19.50 1.40 255 255 255
-16.51 -8.32 0.66 255 255 255
-12.96 -3.96 1.54 255 255 255
-12.95 -3.95 1.26 255 255 255
-24.69 -19.48 1.54 255 255 255
-13.17 -4.01 1.64 255 255 255
-26.03 -19.38 -0.22 255 255 255
-13.16 -3.99 1.31 255 255 255
-13.18 -4.02 1.84 255 255 255
-16.60 -8.42 0.90 255 255 255
-12.96 -3.96 1.33 255 255 255
-26.13 -19.48 0.32 255 255 255
-13.19 -4.04 2.30 255 255 255
8.34 25.72 1.92 255 255 255
-13.17 -4.00 1.38 255 255 255
9.74 34.51 2.55 255 255 255
18.58 35.76 1.88 255 255 255
12.46 34.94 2.34 255 255 255
7.82 24.97 1.15 255 255 255
9.79 34.56 1.57 255 255 255
10.88 26.22 0.92 255 255 255
6.11 25.24 1.34 255 255 255
5.73 24.66 0.61 255 255 255
-12.97 -3.96 1.40 255 255 255
-8.98 1.99 0.92 255 255 255
-16.69 -8.52 1.10 255 255 255
-13.14 -3.95 0.59 255 255 255
-8.71 2.76 1.04 255 255 255
-13.16 -3.99 1.45 255 255 255
-9.19 1.69 0.41 255 255 255
-26.23 -19.54 0.86 255 255 255
-13.16 -3.99 0.96 255 255 255
-9.26 1.92 0.71 255 255 255
-12.97 -3.96 1.47 255 255 255
-16.44 -8.17 0.29 255 255 255
-24.77 -19.48 1.01 255 255 255
-13.15 -3.97 1.12 255 255 255
-13.18 -4.01 1.53 255 255 255
-17.12 -8.35 0.52 255 255 255
-13.16 -3.99 1.23 255 255 255
-26.28 -19.58 1.40 255 255 255
-12.98 -3.97 1.54 255 255 255
-16.56 -8.33 0.66 255 255 255
-12.98 -3.96 1.26 255 255 255
-24.80 -19.50 1.54 255 255 255
-13.17 -3.99 1.63 255 255 255
-26.13 -19.38 -0.22 255 255 255
-13.17 -3.99 1.31 255 255 255
-16.63 -8.42 0.90 255 255 255
-13.18 -4.01 1.84 255 255 255
-12.97 -3.96 1.33 255 255 255
4.73 23.03 2.71 255 255 255
-26.31 -19.57 0.31 255 255 255
-13.21 -4.05 2.31 255 255 255
8.48 25.72 1.92 255 255 255
-13.18 -4.00 1.38 255 255 255
9.92 34.57 2.55 255 255 255
18.80 35.79 1.88 255 255 255
12.66 34.97 2.35 255 255 255
7.97 25.01 1.15 255 255 255
9.97 34.59 1.58 255 255 255
6.63 20.82 1.01 255 255 255
6.21 25.21 1.34 255 255 255
5.84 24.64 0.61 255 255 255
-12.98 -3.97 1.40 255 255 255
-8.96 1.99 0.92 255 255 255
-13.16 -3.96 0.58 255 255 255
-16.71 -8.50 1.10 255 255 255
-8.70 2.75 1.04 255 255 255
-13.18 -3.99 1.45 255 255 255
-9.17 1.69 0.41 255 255 255
-26.45 -19.68 0.85 255 255 255
-13.18 -4.00 0.96 255 255 255
-9.28 1.86 0.72 255 255 255
-16.47 -8.16 0.29 255 255 255
-12.98 -3.96 1.47 255 255 255
-13.17 -3.98 1.12 255 255 255
-24.89 -19.51 1.01 255 255 255
-13.20 -4.02 1.53 255 255 255
-17.17 -8.36 0.51 255 255 255
-26.48 -19.69 1.40 255 255 255
-13.18 -3.99 1.23 255 255 255
-16.60 -8.33 0.66 255 255 255
-12.99 -3.96 1.54 255 255 255
-12.98 -3.96 1.26 255 255 255
-24.91 -19.51 1.54 255 255 255
-26.26 -19.41 -0.23 255 255 255
-13.19 -4.00 1.63 255 255 255
-13.18 -3.99 1.31 255 255 255
6.66 20.73 2.34 255 255 255
-16.66 -8.40 0.90 255 255 255
-13.20 -4.02 1.84 255 255 255
4.85 23.05 2.71 255 255 255
-12.98 -3.96 1.33 255 255 255
8.63 25.75 1.93 255 255 255
-26.49 -19.66 0.30 255 255 255
10.11 34.63 2.55 255 255 255
-13.20 -4.01 1.38 255 255 255
6.67 20.72 1.67 255 255 255
12.84 35.00 2.35 255 255 255
8.18 25.09 1.15 255 255 255
10.15 34.65 1.58 255 255 255
6.24 25.07 1.34 255 255 255
6.02 24.72 0.61 255 255 255
-8.94 1.99 0.92 255 255 255
-13.00 -3.97 1.40 255 255 255
-8.69 2.72 1.04 255 255 255
-16.76 -8.52 1.10 255 255 255
-13.17 -3.96 0.58 255 255 255
-9.16 1.69 0.41 255 255 255
-13.20 -4.00 1.45 255 255 255
-9.28 1.85 0.72 255 255 255
-26.53 -19.64 0.85 255 255 255
-13.19 -4.00 0.96 255 255 255
-16.52 -8.19 0.28 255 255 255
-13.00 -3.96 1.47 255 255 255
-13.18 -3.98 1.11 255 255 255
-24.99 -19.52 1.01 255 255 255
-17.21 -8.37 0.51 255 255 255
-13.21 -4.02 1.53 255 255 255
-26.53 -19.64 1.40 255 255 255
-13.20 -3.99 1.23 255 255 255
-16.63 -8.33 0.65 255 255 255
-13.00 -3.97 1.54 255 255 255
-25.01 -19.52 1.54 255 255 255
-12.99 -3.96 1.26 255 255 255
-26.37 -19.42 -0.23 255 255 255
-13.21 -4.01 1.64 255 255 255
-13.20 -3.99 1.30 255 255 255
-16.71 -8.42 0.90 255 255 255
-13.22 -4.02 1.84 255 255 255
-13.00 -3.96 1.33 255 255 255
8.83 25.79 1.93 255 255 255
-26.54 -19.60 0.30 255 255 255
10.30 34.62 2.56 255 255 255
-13.21 -4.01 1.38 255 255 255
6.72 20.62 1.67 255 255 255
13.06 35.03 2.35 255 255 255
8.33 25.08 1.15 255 255 255
10.35 34.68 1.58 255 255 255
6.74 20.63 1.01 255 255 255
6.37 25.04 1.34 255 255 255
6.14 24.67 0.61 255 255 255
-8.92 1.98 0.92 255 255 255
-13.01 -3.97 1.40 255 255 255
-8.69 2.70 1.05 255 255 255
-16.80 -8.51 1.10 255 255 255
-13.18 -3.96 0.58 255 255 255
-9.14 1.70 0.40 255 255 255
-13.21 -4.00 1.45 255 255 255
-9.24 1.88 0.72 255 255 255
-13.21 -4.00 0.96 255 255 255
-26.59 -19.60 0.85 255 255 255
-13.01 -3.96 1.47 255 255 255
-16.55 -8.18 0.28 255 255 255
-13.19 -3.97 1.11 255 255 255
-25.11 -19.54 1.01 255 255 255
-13.22 -4.02 1.53 255 255 255
-17.27 -8.39 0.51 255 255 255
-13.21 -4.00 1.23 255 255 255
-26.60 -19.60 1.40 255 255 255
-16.67 -8.34 0.65 255 255 255
-13.01 -3.97 1.54 255 255 255
-13.01 -3.97 1.26 255 255 255
-25.13 -19.55 1.54 255 255 255
-26.50 -19.44 -0.24 255 255 255
-13.22 -4.01 1.64 255 255 255
-13.21 -3.99 1.30 255 255 255
6.81 20.59 2.34 255 255 255
-16.73 -8.40 0.90 255 255 255
-13.23 -4.02 1.84 255 255 255
-13.01 -3.97 1.33 255 255 255
8.84 25.60 1.93 255 255 255
-26.61 -19.56 0.30 255 255 255
10.49 34.65 2.56 255 255 255
-13.21 -3.99 1.38 255 255 255
6.82 20.59 1.67 255 255 255
13.26 35.03 2.35 255 255 255
8.50 25.11 1.14 255 255 255
10.54 34.67 1.58 255 255 255
6.84 20.58 1.01 255 255 255
6.42 24.92 1.34 255 255 255
6.26 24.67 0.61 255 255 255
-8.90 1.98 0.92 255 255 255
-13.02 -3.97 1.40 255 255 255
-8.67 2.69 1.04 255 255 255
-13.19 -3.96 0.58 255 255 255
-16.87 -8.55 1.10 255 255 255
-9.12 1.69 0.40 255 255 255
-13.25 -4.03 1.45 255 255 255
-9.26 1.83 0.72 255 255 255
-26.68 -19.57 0.85 255 255 255
-13.22 -3.99 0.96 255 255 255
-16.61 -8.20 0.27 255 255 255
-13.03 -3.97 1.47 255 255 255
-25.22 -19.55 1.01 255 255 255
-13.21 -3.98 1.11 255 255 255
-17.35 -8.43 0.50 255 255 255
-13.23 -4.00 1.23 255 255 255
-26.71 -19.58 1.40 255 255 255
-13.03 -3.98 1.54 255 255 255
-16.70 -8.32 0.65 255 255 255
-25.24 -19.56 1.54 255 255 255
-13.03 -3.97 1.26 255 255 255
-26.61 -19.45 -0.25 255 255 255
-13.23 -4.00 1.30 255 255 255
6.98 20.65 2.34 255 255 255
-16.78 -8.42 0.90 255 255 255
-13.03 -3.97 1.33 255 255 255
8.89 25.50 1.93 255 255 255
-26.74 -19.59 0.29 255 255 255
10.68 34.68 2.56 255 255 255
19.81 35.97 1.89 255 255 255
13.46 35.09 2.36 255 255 255
8.66 25.16 1.14 255 255 255
10.73 34.73 1.58 255 255 255
6.51 24.86 1.34 255 255 255
6.41 24.71 0.60 255 255 255
-8.88 1.99 0.92 255 255 255
-13.03 -3.97 1.40 255 255 255
-8.67 2.67 1.05 255 255 255
-13.21 -3.96 0.57 255 255 255
-25.28 -19.54 0.47 255 255 255
-9.10 1.70 0.40 255 255 255
-13.27 -4.05 1.45 255 255 255
-9.23 1.85 0.72 255 255 255
-13.26 -4.03 0.95 255 255 255
-26.90 -19.72 0.84 255 255 255
-13.04 -3.98 1.47 255 255 255
-16.63 -8.19 0.27 255 255 255
-16.06 -8.10 0.49 255 255 255
-25.32 -19.56 1.00 255 255 255
-13.30 -4.09 1.53 255 255 255
-17.39 -8.43 0.49 255 255 255
-26.92 -19.72 1.40 255 255 255
-16.18 -8.26 0.78 255 255 255
-13.05 -3.98 1.54 255 255 255
-16.74 -8.33 0.65 255 255 255
-13.04 -3.98 1.26 255 255 255
-25.36 -19.58 1.54 255 255 255
-26.74 -19.48 -0.26 255 255 255
-16.24 -8.35 0.97 255 255 255
-16.80 -8.40 0.90 255 255 255
-13.04 -3.98 1.33 255 255 255
9.14 25.63 1.93 255 255 255
-26.95 -19.70 0.28 255 255 255
10.86 34.71 2.57 255 255 255
20.03 35.97 1.89 255 255 255
13.66 35.12 2.36 255 255 255
8.83 25.19 1.14 255 255 255
10.91 34.76 1.58 255 255 255
6.64 24.86 1.34 255 255 255
6.57 24.75 0.60 255 255 255
-8.87 1.98 0.92 255 255 255
-13.05 -3.98 1.40 255 255 255
-8.66 2.65 1.05 255 255 255
-25.39 -19.55 0.47 255 255 255
-13.23 -3.97 0.57 255 255 255
-9.09 1.70 0.39 255 255 255
-23.80 -19.21 1.16 255 255 255
-9.21 1.85 0.72 255 255 255
-16.08 -8.08 0.10 255 255 255
-27.05 -19.76 0.84 255 255 255
-13.05 -3.98 1.47 255 255 255
-16.68 -8.21 0.27 255 255 255
-16.10 -8.11 0.49 255 255 255
-25.44 -19.59 1.00 255 255 255
-23.84 -19.25 1.66 255 255 255
-17.40 -8.40 0.49 255 255 255
-16.19 -8.23 0.78 255 255 255
-27.07 -19.77 1.40 255 255 255
-13.06 -3.98 1.54 255 255 255
-16.76 -8.30 0.65 255 255 255
-13.05 -3.98 1.26 255 255 255
-25.46 -19.60 1.54 255 255 255
-26.86 -19.50 -0.26 255 255 255
-16.29 -8.37 0.97 255 255 255
-16.86 -8.43 0.89 255 255 255
-13.06 -3.98 1.33 255 255 255
16.96 35.61 2.14 255 255 255
-27.06 -19.70 0.28 255 255 255
11.06 34.74 2.57 255 255 255
-16.40 -8.51 1.16 255 255 255
20.28 36.01 1.89 255 255 255
13.87 35.12 2.36 255 255 255
8.98 25.18 1.14 255 255 255
11.12 34.76 1.58 255 255 255
6.74 24.80 1.34 255 255 255
6.76 24.82 0.60 255 255 255
-8.84 2.00 0.91 255 255 255
-13.06 -3.97 1.40 255 255 255
-8.65 2.63 1.05 255 255 255
-25.50 -19.56 0.47 255 255 255
-13.24 -3.97 0.56 255 255 255
-9.07 1.70 0.39 255 255 255
-23.91 -19.22 1.15 255 255 255
-9.16 1.90 0.70 255 255 255
8.75 24.81 2.68 255 255 255
-16.13 -8.09 0.09 255 255 255
-27.10 -19.68 0.84 255 255 255
-13.07 -3.98 1.47 255 255 255
-16.74 -8.23 0.26 255 255 255
-25.55 -19.60 1.00 255 255 255
-16.14 -8.10 0.49 255 255 255
-17.48 -8.44 0.49 255 255 255
-23.95 -19.26 1.66 255 255 255
-27.12 -19.68 1.40 255 255 255
-16.25 -8.26 0.78 255 255 255
-16.80 -8.29 0.65 255 255 255
-13.07 -3.99 1.54 255 255 255
-13.07 -3.98 1.26 255 255 255
-25.58 -19.61 1.54 255 255 255
-26.99 -19.50 -0.27 255 255 255
-16.32 -8.36 0.97 255 255 255
9.97 23.68 2.48 255 255 255
-13.07 -3.98 1.33 255 255 255
9.44 25.63 1.93 255 255 255
-27.11 -19.64 0.28 255 255 255
11.25 34.76 2.57 255 255 255
-16.43 -8.51 1.16 255 255 255
20.53 36.01 1.89 255 255 255
14.08 35.15 2.37 255 255 255
9.16 25.22 1.14 255 255 255
6.80 24.70 1.34 255 255 255
-13.07 -3.97 1.40 255 255 255
-8.64 2.62 1.05 255 255 255
-25.62 -19.59 0.46 255 255 255
-13.24 -3.95 0.57 255 255 255
-9.05 1.70 0.39 255 255 255
3.63 22.54 2.82 255 255 255
-24.02 -19.26 1.15 255 255 255
8.81 24.71 2.68 255 255 255
-9.11 1.93 0.70 255 255 255
-27.17 -19.64 0.84 255 255 255
-16.17 -8.11 0.09 255 255 255
-16.76 -8.21 0.26 255 255 255
-13.08 -3.98 1.47 255 255 255
-16.17 -8.11 0.48 255 255 255
-25.66 -19.62 1.00 255 255 255
-24.08 -19.33 1.66 255 255 255
-17.51 -8.43 0.48 255 255 255
-27.20 -19.66 1.40 255 255 255
-16.32 -8.31 0.77 255 255 255
-13.08 -3.98 1.54 255 255 255
-16.84 -8.31 0.64 255 255 255
-13.08 -3.98 1.26 255 255 255
-25.69 -19.63 1.54 255 255 255
-27.11 -19.53 -0.27 255 255 255
-16.38 -8.40 0.96 255 255 255
-13.09 -3.99 1.33 255 255 255
17.47 35.75 2.15 255 255 255
-27.20 -19.62 0.28 255 255 255
-16.48 -8.52 1.16 255 255 255
20.81 36.05 1.89 255 255 255
14.30 35.18 2.37 255 255 255
9.32 25.24 1.14 255 255 255
11.51 34.85 1.58 255 255 255
7.06 24.84 0.59 255 255 255
-8.80 2.00 0.91 255 255 255
-13.09 -3.98 1.40 255 255 255
-8.62 2.61 1.05 255 255 255
-25.73 -19.59 0.46 255 255 255
-13.25 -3.95 0.57 255 255 255
-9.03 1.71 0.38 255 255 255
-24.20 -19.38 1.15 255 255 255
8.59 24.23 2.66 255 255 255
-9.14 1.87 0.71 255 255 255
-16.21 -8.11 0.08 255 255 255
-27.31 -19.66 0.84 255 255 255
-16.82 -8.23 0.25 255 255 255
-25.79 -19.64 1.00 255 255 255
-16.21 -8.11 0.48 255 255 255
-24.23 -19.40 1.66 255 255 255
-17.56 -8.43 0.48 255 255 255
-16.37 -8.33 0.77 255 255 255
-27.33 -19.67 1.40 255 255 255
-16.89 -8.32 0.64 255 255 255
-25.81 -19.64 1.54 255 255 255
-27.23 -19.54 -0.28 255 255 255
-16.39 -8.35 0.97 255 255 255
-25.75 -19.56 -0.08 255 255 255
-13.11 -4.00 1.33 255 255 255
17.64 35.71 2.15 255 255 255
-27.36 -19.67 0.27 255 255 255
11.65 34.82 2.58 255 255 255
-16.52 -8.53 1.16 255 255 255
21.05 36.12 1.90 255 255 255
14.52 35.22 2.37 255 255 255
9.43 25.20 1.14 255 255 255
11.68 34.87 1.58 255 255 255
7.20 24.87 0.59 255 255 255
-8.78 2.00 0.91 255 255 255
-13.11 -3.99 1.40 255 255 255
-8.61 2.60 1.05 255 255 255
-13.27 -3.95 0.56 255 255 255
-25.85 -19.62 0.45 255 255 255
-9.01 1.71 0.38 255 255 255
3.71 22.31 2.82 255 255 255
-24.30 -19.39 1.15 255 255 255
-9.13 1.87 0.71 255 255 255
9.12 24.72 2.69 255 255 255
-16.26 -8.13 0.08 255 255 255
-27.58 -19.85 0.83 255 255 255
-16.86 -8.24 0.25 255 255 255
-16.25 -8.12 0.48 255 255 255
-25.90 -19.66 1.00 255 255 255
-17.61 -8.44 0.48 255 255 255
-24.33 -19.42 1.66 255 255 255
-27.61 -19.87 1.40 255 255 255
-16.38 -8.29 0.77 255 255 255
-25.91 -19.65 1.54 255 255 255
-27.37 -19.57 -0.29 255 255 255
-16.44 -8.37 0.96 255 255 255
-25.43 -19.01 -0.04 255 255 255
17.89 35.71 2.15 255 255 255
-27.63 -19.86 0.26 255 255 255
11.85 34.85 2.59 255 255 255
-16.56 -8.53 1.16 255 255 255
21.30 36.13 1.90 255 255 255
14.73 35.25 2.38 255 255 255
9.78 25.44 1.14 255 255 255
6.45 26.43 1.53 255 255 255
7.71 25.40 1.34 255 255 255
-8.75 2.01 0.91 255 255 255
-13.13 -4.01 1.40 255 255 255
-8.60 2.58 1.05 255 255 255
-25.91 -19.56 0.46 255 255 255
-13.29 -3.97 0.56 255 255 255
-8.99 1.71 0.38 255 255 255
-24.41 -19.42 1.15 255 255 255
-9.11 1.86 0.70 255 255 255
9.25 24.71 2.69 255 255 255
-16.29 -8.13 0.07 255 255 255
-27.70 -19.86 0.83 255 255 255
-13.12 -4.00 1.47 255 255 255
-16.90 -8.24 0.24 255 255 255
-16.28 -8.11 0.47 255 255 255
-25.94 -19.58 1.00 255 255 255
-24.44 -19.44 1.66 255 255 255
-17.67 -8.46 0.47 255 255 255
-16.43 -8.32 0.77 255 255 255
-27.71 -19.86 1.40 255 255 255
-13.13 -4.00 1.54 255 255 255
-25.94 -19.56 1.54 255 255 255
-13.12 -3.99 1.25 255 255 255
-27.68 -19.82 -0.32 255 255 255
-16.49 -8.40 0.96 255 255 255
-25.79 -19.36 -0.07 255 255 255
-13.12 -3.99 1.33 255 255 255
18.13 35.78 2.15 255 255 255
-27.73 -19.85 0.25 255 255 255
12.04 34.88 2.59 255 255 255
-16.61 -8.55 1.15 255 255 255
21.58 36.17 1.90 255 255 255
14.95 35.28 2.38 255 255 255
6.45 26.20 1.53 255 255 255
7.72 25.21 1.34 255 255 255
-8.75 1.99 0.91 255 255 255
-13.13 -3.98 1.40 255 255 255
-8.59 2.56 1.05 255 255 255
-13.30 -3.96 0.55 255 255 255
-25.96 -19.49 0.46 255 255 255
-8.96 1.71 0.37 255 255 255
-24.52 -19.42 1.15 255 255 255
9.45 24.75 2.70 255 255 255
-9.11 1.85 0.71 255 255 255
-27.76 -19.80 0.83 255 255 255
-16.32 -8.12 0.07 255 255 255
-13.13 -3.99 1.47 255 255 255
-26.00 -19.51 1.00 255 255 255
-16.31 -8.11 0.47 255 255 255
-17.73 -8.47 0.47 255 255 255
-24.56 -19.46 1.67 255 255 255
-27.78 -19.80 1.40 255 255 255
-16.45 -8.30 0.77 255 255 255
-17.08 -8.41 0.62 255 255 255
-13.14 -4.00 1.54 255 255 255
-26.02 -19.51 1.54 255 255 255
-13.13 -3.98 1.25 255 255 255
-27.75 -19.76 -0.32 255 255 255
-16.54 -8.41 0.96 255 255 255
-25.95 -19.41 -0.08 255 255 255
-13.14 -3.99 1.32 255 255 255
18.35 35.81 2.16 255 255 255
-27.82 -19.80 0.25 255 255 255
12.24 34.91 2.59 255 255 255
-16.65 -8.55 1.15 255 255 255
21.83 36.20 1.90 255 255 255
15.14 35.28 2.38 255 255 255
6.44 25.98 1.53 255 255 255
12.84 26.00 0.90 255 255 255
7.71 25.00 1.34 255 255 255
7.67 24.94 0.58 255 255 255
-8.72 2.00 0.90 255 255 255
-13.15 -3.99 1.40 255 255 255
-8.58 2.55 1.05 255 255 255
-13.32 -3.96 0.55 255 255 255
-8.95 1.72 0.37 255 255 255
-24.62 -19.44 1.14 255 255 255
-9.09 1.85 0.70 255 255 255
-27.90 -19.81 0.82 255 255 255
-16.36 -8.12 0.07 255 255 255
-13.15 -4.00 1.47 255 255 255
-26.12 -19.53 1.00 255 255 255
-16.38 -8.15 0.46 255 255 255
-17.78 -8.48 0.46 255 255 255
-24.65 -19.46 1.66 255 255 255
-16.50 -8.32 0.76 255 255 255
-27.92 -19.83 1.40 255 255 255
-13.16 -4.00 1.54 255 255 255
-17.08 -8.36 0.63 255 255 255
-13.14 -3.98 1.25 255 255 255
-26.13 -19.53 1.54 255 255 255
-27.44 -19.28 -0.28 255 255 255
-16.55 -8.37 0.96 255 255 255
-26.02 -19.37 -0.08 255 255 255
-13.15 -3.99 1.32 255 255 255
18.59 35.85 2.16 255 255 255
-27.94 -19.81 0.25 255 255 255
12.42 34.94 2.60 255 255 255
-16.68 -8.54 1.15 255 255 255
22.11 36.24 1.90 255 255 255
15.35 35.34 2.39 255 255 255
11.00 26.37 1.13 255 255 255
6.51 25.90 1.53 255 255 255
13.00 25.99 0.90 255 255 255
7.82 24.97 1.34 255 255 255
-8.69 2.01 0.90 255 255 255
-13.16 -4.00 1.40 255 255 255
-8.57 2.53 1.05 255 255 255
-13.45 -4.13 0.49 255 255 255
-26.20 -19.54 0.45 255 255 255
-8.93 1.72 0.37 255 255 255
-24.73 -19.46 1.14 255 255 255
-9.07 1.86 0.70 255 255 255
-28.05 -19.88 0.82 255 255 255
-16.40 -8.13 0.06 255 255 255
-17.03 -8.27 0.23 255 255 255
-13.16 -4.00 1.47 255 255 255
-16.41 -8.15 0.46 255 255 255
-26.31 -19.65 0.99 255 255 255
-17.81 -8.47 0.46 255 255 255
-24.77 -19.49 1.67 255 255 255
-28.06 -19.87 1.40 255 255 255
-16.55 -8.33 0.76 255 255 255
-17.12 -8.36 0.62 255 255 255
-13.17 -4.00 1.54 255 255 255
-13.15 -3.98 1.25 255 255 255
-26.34 -19.67 1.54 255 255 255
-27.51 -19.24 -0.28 255 255 255
-16.60 -8.39 0.96 255 255 255
-26.14 -19.40 -0.09 255 255 255
-13.17 -3.99 1.32 255 255 255
18.85 35.86 2.16 255 255 255
-28.84 -20.69 0.18 255 255 255
12.64 34.97 2.60 255 255 255
-16.74 -8.56 1.15 255 255 255
22.36 36.25 1.90 255 255 255
15.57 35.34 2.39 255 255 255
6.50 25.67 1.53 255 255 255
8.42 25.60 1.34 255 255 255
-8.66 2.02 0.90 255 255 255
-13.17 -4.00 1.40 255 255 255
-8.56 2.52 1.05 255 255 255
-13.49 -4.15 0.48 255 255 255
-26.42 -19.68 0.44 255 255 255
-8.91 1.72 0.36 255 255 255
-24.83 -19.47 1.14 255 255 255
-9.04 1.86 0.70 255 255 255
6.67 20.81 2.50 255 255 255
-16.45 -8.14 0.05 255 255 255
-28.91 -20.69 0.79 255 255 255
-17.08 -8.27 0.22 255 255 255
-13.18 -4.00 1.47 255 255 255
-26.47 -19.72 0.99 255 255 255
-16.46 -8.16 0.46 255 255 255
-24.87 -19.50 1.67 255 255 255
-17.87 -8.49 0.45 255 255 255
-28.94 -20.70 1.39 255 255 255
-16.60 -8.34 0.76 255 255 255
-13.19 -4.01 1.54 255 255 255
-17.17 -8.37 0.62 255 255 255
-26.48 -19.71 1.54 255 255 255
-13.18 -3.99 1.25 255 255 255
-27.57 -19.18 -0.28 255 255 255
-16.63 -8.38 0.96 255 255 255
-26.25 -19.41 -0.09 255 255 255
-13.18 -4.00 1.32 255 255 255
6.66 20.72 1.84 255 255 255
12.84 35.00 2.60 255 255 255
-16.78 -8.57 1.15 255 255 255
22.66 36.33 1.91 255 255 255
15.81 35.41 2.39 255 255 255
6.67 20.70 1.17 255 255 255
6.54 25.52 1.53 255 255 255
8.44 25.41 1.34 255 255 255
-8.64 2.02 0.90 255 255 255
-13.19 -4.01 1.40 255 255 255
-8.54 2.51 1.05 255 255 255
-26.49 -19.63 0.44 255 255 255
-13.50 -4.15 0.47 255 255 255
-8.89 1.72 0.36 255 255 255
-24.95 -19.49 1.14 255 255 255
-9.02 1.87 0.69 255 255 255
6.69 20.67 2.50 255 255 255
-29.03 -20.71 0.79 255 255 255
-16.48 -8.14 0.05 255 255 255
-17.13 -8.29 0.22 255 255 255
-13.19 -4.00 1.47 255 255 255
-16.51 -8.18 0.45 255 255 255
-26.52 -19.65 0.99 255 255 255
-24.98 -19.51 1.67 255 255 255
-17.91 -8.48 0.45 255 255 255
-16.63 -8.33 0.76 255 255 255
-29.05 -20.70 1.39 255 255 255
-13.20 -4.01 1.54 255 255 255
-17.21 -8.37 0.62 255 255 255
-13.19 -3.99 1.25 255 255 255
-26.55 -19.66 1.54 255 255 255
-29.09 -20.72 -0.44 255 255 255
-16.70 -8.43 0.95 255 255 255
-26.37 -19.44 -0.10 255 255 255
-13.19 -3.99 1.32 255 255 255
6.72 20.63 1.84 255 255 255
-29.10 -20.71 0.17 255 255 255
13.02 35.02 2.61 255 255 255
-16.82 -8.57 1.15 255 255 255
22.91 36.36 1.91 255 255 255
16.03 35.41 2.40 255 255 255
6.75 20.65 1.17 255 255 255
6.52 25.30 1.53 255 255 255
8.43 25.20 1.34 255 255 255
-8.61 2.03 0.90 255 255 255
-13.21 -4.01 1.40 255 255 255
-8.53 2.50 1.05 255 255 255
-26.57 -19.59 0.44 255 255 255
-13.52 -4.16 0.47 255 255 255
-8.87 1.72 0.36 255 255 255
-25.06 -19.50 1.14 255 255 255
-9.02 1.85 0.70 255 255 255
6.79 20.63 2.50 255 255 255
-29.17 -20.71 0.78 255 255 255
-16.52 -8.15 0.05 255 255 255
-13.20 -4.00 1.47 255 255 255
-17.17 -8.28 0.21 255 255 255
-16.53 -8.15 0.45 255 255 255
-26.60 -19.61 0.99 255 255 255
-17.96 -8.48 0.45 255 255 255
-25.10 -19.54 1.67 255 255 255
-29.22 -20.74 1.39 255 255 255
-16.71 -8.40 0.75 255 255 255
-17.26 -8.37 0.61 255 255 255
-26.62 -19.61 1.54 255 255 255
-13.20 -3.99 1.25 255 255 255
-16.74 -8.42 0.95 255 255 255
-26.50 -19.45 -0.11 255 255 255
-13.21 -4.00 1.32 255 255 255
6.84 20.62 1.84 255 255 255
-29.22 -20.70 0.17 255 255 255
13.24 35.06 2.61 255 255 255
-16.86 -8.57 1.15 255 255 255
23.19 36.37 1.91 255 255 255
16.25 35.44 2.40 255 255 255
6.87 20.63 1.17 255 255 255
6.61 25.23 1.53 255 255 255
13.86 26.17 0.89 255 255 255
8.57 25.22 1.34 255 255 255
-8.58 2.04 0.89 255 255 255
-13.22 -4.01 1.40 255 255 255
-8.52 2.48 1.05 255 255 255
-26.66 -19.57 0.43 255 255 255
-13.52 -4.15 0.47 255 255 255
-8.86 1.72 0.36 255 255 255
-25.17 -19.52 1.14 255 255 255
-9.01 1.84 0.70 255 255 255
-29.28 -20.70 0.78 255 255 255
-16.58 -8.18 0.04 255 255 255
-17.23 -8.31 0.21 255 255 255
-16.58 -8.17 0.45 255 255 255
-26.73 -19.65 0.99 255 255 255
-18.01 -8.50 0.44 255 255 255
-25.19 -19.54 1.67 255 255 255
-29.33 -20.73 1.39 255 255 255
-16.73 -8.37 0.75 255 255 255
-17.29 -8.37 0.61 255 255 255
-26.80 -19.71 1.54 255 255 255
-13.22 -4.00 1.25 255 255 255
-16.76 -8.40 0.95 255 255 255
-26.62 -19.46 -0.11 255 255 255
-13.21 -3.99 1.32 255 255 255
19.84 36.00 2.17 255 255 255
-29.35 -20.72 0.17 255 255 255
13.45 35.06 2.61 255 255 255
23.47 36.41 1.91 255 255 255
16.47 35.47 2.40 255 255 255
11.52 26.04 1.12 255 255 255
7.61 26.49 1.53 255 255 255
14.02 26.16 0.89 255 255 255
8.68 25.16 1.34 255 255 255
-8.55 2.05 0.89 255 255 255
-23.70 -19.22 0.78 255 255 255
-8.51 2.48 1.05 255 255 255
-13.54 -4.14 0.47 255 255 255
-26.90 -19.72 0.42 255 255 255
-8.83 1.72 0.35 255 255 255
-25.28 -19.54 1.14 255 255 255
-8.97 1.87 0.69 255 255 255
-29.48 -20.77 0.78 255 255 255
-16.60 -8.16 0.04 255 255 255
-17.28 -8.31 0.20 255 255 255
-23.73 -19.23 1.28 255 255 255
-26.93 -19.75 0.98 255 255 255
-16.62 -8.18 0.44 255 255 255
-18.04 -8.48 0.44 255 255 255
-25.32 -19.56 1.67 255 255 255
-29.52 -20.79 1.39 255 255 255
-16.75 -8.34 0.75 255 255 255
-17.33 -8.36 0.61 255 255 255
-26.95 -19.76 1.54 255 255 255
-16.19 -8.29 0.83 255 255 255
-29.50 -20.75 -0.46 255 255 255
-16.80 -8.41 0.95 255 255 255
-26.74 -19.47 -0.12 255 255 255
8.07 24.23 2.84 255 255 255
-16.27 -8.40 1.02 255 255 255
20.08 36.04 2.17 255 255 255
-29.51 -20.74 0.16 255 255 255
13.66 35.12 2.62 255 255 255
-25.33 -19.53 0.61 255 255 255
23.75 36.45 1.91 255 255 255
16.71 35.51 2.41 255 255 255
11.64 25.99 1.12 255 255 255
7.61 26.28 1.53 255 255 255
3.73 14.91 1.08 255 255 255
8.85 25.19 1.34 255 255 255
-8.52 2.07 0.89 255 255 255
-23.80 -19.23 0.78 255 255 255
-8.49 2.47 1.05 255 255 255
-13.55 -4.14 0.47 255 255 255
-27.03 -19.76 0.42 255 255 255
-8.81 1.73 0.35 255 255 255
-25.39 -19.54 1.14 255 255 255
-8.94 1.88 0.69 255 255 255
-29.59 -20.76 0.78 255 255 255
-16.64 -8.16 0.03 255 255 255
-17.33 -8.32 0.20 255 255 255
-23.83 -19.24 1.28 255 255 255
-27.07 -19.77 0.98 255 255 255
-16.67 -8.19 0.44 255 255 255
-18.11 -8.50 0.44 255 255 255
-25.43 -19.58 1.67 255 255 255
-29.64 -20.79 1.39 255 255 255
-16.78 -8.33 0.75 255 255 255
-17.39 -8.39 0.60 255 255 255
-23.87 -19.28 1.79 255 255 255
-27.08 -19.77 1.54 255 255 255
-16.26 -8.34 0.82 255 255 255
-29.64 -20.75 -0.47 255 255 255
-16.85 -8.42 0.95 255 255 255
3.67 14.77 2.11 255 255 255
-26.86 -19.49 -0.12 255 255 255
-16.31 -8.39 1.02 255 255 255
20.33 36.07 2.18 255 255 255
-29.70 -20.81 0.15 255 255 255
13.86 35.12 2.62 255 255 255
-25.44 -19.53 0.60 255 255 255
24.03 36.50 1.91 255 255 255
16.93 35.54 2.41 255 255 255
11.80 25.99 1.12 255 255 255
6.83 24.95 1.53 255 255 255
9.00 25.19 1.34 255 255 255
-8.50 2.06 0.88 255 255 255
-23.89 -19.23 0.77 255 255 255
3.66 14.69 2.63 255 255 255
-8.48 2.46 1.05 255 255 255
-13.57 -4.15 0.46 255 255 255
-27.08 -19.67 0.42 255 255 255
-8.79 1.73 0.34 255 255 255
-25.51 -19.56 1.14 255 255 255
-8.53 2.39 0.58 255 255 255
-29.76 -20.80 0.77 255 255 255
-16.70 -8.18 0.02 255 255 255
-23.92 -19.25 1.28 255 255 255
-17.37 -8.32 0.19 255 255 255
-16.71 -8.20 0.44 255 255 255
-27.11 -19.70 0.98 255 255 255
-18.15 -8.50 0.43 255 255 255
-25.53 -19.59 1.67 255 255 255
-16.82 -8.34 0.75 255 255 255
-29.81 -20.83 1.39 255 255 255
-23.95 -19.27 1.79 255 255 255
-17.44 -8.40 0.60 255 255 255
-27.13 -19.70 1.54 255 255 255
-16.26 -8.29 0.83 255 255 255
-29.79 -20.79 -0.48 255 255 255
-16.91 -8.44 0.94 255 255 255
-26.99 -19.51 -0.13 255 255 255
8.33 24.19 2.84 255 255 255
-16.36 -8.41 1.02 255 255 255
20.58 36.11 2.18 255 255 255
-29.83 -20.80 0.15 255 255 255
14.05 35.14 2.63 255 255 255
-25.56 -19.55 0.60 255 255 255
17.15 35.57 2.41 255 255 255
12.02 26.05 1.12 255 255 255
6.93 24.90 1.53 255 255 255
3.74 14.69 1.08 255 255 255
9.19 25.24 1.34 255 255 255
-8.51 2.03 0.89 255 255 255
-23.99 -19.25 0.77 255 255 255
-8.47 2.44 1.05 255 255 255
-27.16 -19.65 0.42 255 255 255
-8.77 1.73 0.34 255 255 255
-25.62 -19.59 1.13 255 255 255
-8.54 2.34 0.59 255 255 255
-29.91 -20.82 0.77 255 255 255
-16.73 -8.18 0.02 255 255 255
-17.41 -8.32 0.19 255 255 255
-24.07 -19.32 1.28 255 255 255
-27.21 -19.68 0.98 255 255 255
-16.77 -8.22 0.43 255 255 255
-18.23 -8.53 0.42 255 255 255
-25.66 -19.61 1.67 255 255 255
-29.95 -20.83 1.39 255 255 255
-16.85 -8.32 0.75 255 255 255
-24.13 -19.40 1.79 255 255 255
-17.49 -8.40 0.60 255 255 255
-16.34 -8.34 0.82 255 255 255
-27.23 -19.69 1.54 255 255 255
-29.95 -20.81 -0.48 255 255 255
-16.96 -8.45 0.94 255 255 255
3.74 14.62 2.11 255 255 255
-27.11 -19.53 -0.14 255 255 255
8.74 24.53 2.87 255 255 255
-16.40 -8.42 1.01 255 255 255
20.86 36.15 2.18 255 255 255
-29.96 -20.80 0.14 255 255 255
14.27 35.18 2.63 255 255 255
-25.67 -19.57 0.60 255 255 255
3.78 14.64 1.60 255 255 255
17.40 35.61 2.42 255 255 255
12.10 25.95 1.12 255 255 255
3.80 14.64 1.08 255 255 255
9.38 25.30 1.34 255 255 255
-24.17 -19.37 0.76 255 255 255
-8.47 2.06 0.88 255 255 255
-27.27 -19.65 0.42 255 255 255
-8.45 2.43 1.05 255 255 255
3.75 14.56 2.62 255 255 255
-25.73 -19.60 1.13 255 255 255
-8.75 1.73 0.33 255 255 255
-16.80 -8.22 0.01 255 255 255
-30.07 -20.86 0.77 255 255 255
-8.54 2.32 0.59 255 255 255
9.98 23.41 2.67 255 255 255
-17.48 -8.35 0.18 255 255 255
-24.21 -19.40 1.28 255 255 255
-27.37 -19.75 0.98 255 255 255
-16.80 -8.22 0.43 255 255 255
-18.29 -8.54 0.42 255 255 255
-25.76 -19.63 1.67 255 255 255
-30.10 -20.87 1.39 255 255 255
-16.90 -8.34 0.74 255 255 255
-24.25 -19.44 1.79 255 255 255
-17.54 -8.42 0.59 255 255 255
-27.42 -19.79 1.54 255 255 255
-16.40 -8.38 0.81 255 255 255
-25.74 -19.57 0.05 255 255 255
-27.23 -19.55 -0.14 255 255 255
3.81 14.58 2.11 255 255 255
-16.44 -8.44 1.01 255 255 255
8.64 24.22 2.85 255 255 255
-30.18 -20.92 0.13 255 255 255
21.11 36.16 2.18 255 255 255
-25.77 -19.58 0.59 255 255 255
14.48 35.21 2.63 255 255 255
3.86 14.62 1.60 255 255 255
17.61 35.64 2.42 255 255 255
12.15 25.82 1.12 255 255 255
8.61 26.89 1.54 255 255 255
3.90 14.63 1.08 255 255 255
9.55 25.32 1.34 255 255 255
-24.29 -19.40 0.76 255 255 255
-8.47 2.03 0.89 255 255 255
-27.54 -19.84 0.40 255 255 255
3.82 14.52 2.62 255 255 255
-8.44 2.43 1.05 255 255 255
-25.85 -19.62 1.13 255 255 255
-8.72 1.74 0.33 255 255 255
-16.82 -8.20 0.01 255 255 255
-30.23 -20.90 0.76 255 255 255
-8.55 2.29 0.59 255 255 255
-17.52 -8.34 0.18 255 255 255
-24.31 -19.41 1.28 255 255 255
-27.60 -19.89 0.97 255 255 255
-16.83 -8.21 0.42 255 255 255
-18.35 -8.56 0.41 255 255 255
-25.89 -19.65 1.67 255 255 255
-30.24 -20.88 1.39 255 255 255
-16.95 -8.35 0.74 255 255 255
-17.57 -8.41 0.59 255 255 255
-24.35 -19.44 1.79 255 255 255
-27.64 -19.90 1.54 255 255 255
-16.42 -8.36 0.81 255 255 255
-25.85 -19.57 0.05 255 255 255
-27.36 -19.56 -0.15 255 255 255
-16.48 -8.43 1.01 255 255 255
9.09 24.60 2.88 255 255 255
-30.28 -20.87 0.13 255 255 255
21.35 36.22 2.19 255 255 255
-25.90 -19.61 0.59 255 255 255
25.20 36.67 1.92 255 255 255
17.86 35.68 2.42 255 255 255
12.31 25.79 1.12 255 255 255
7.72 25.43 1.53 255 255 255
15.60 26.66 0.87 255 255 255
9.79 25.44 1.34 255 255 255
-24.39 -19.42 0.76 255 255 255
-8.40 2.09 0.88 255 255 255
-13.60 -4.11 0.47 255 255 255
-27.68 -19.86 0.40 255 255 255
3.89 14.47 2.62 255 255 255
-8.42 2.42 1.05 255 255 255
-25.93 -19.60 1.13 255 255 255
-8.70 1.74 0.33 255 255 255
-30.39 -20.92 0.76 255 255 255
-16.87 -8.22 -0.00 255 255 255
-8.55 2.26 0.60 255 255 255
-17.57 -8.35 0.17 255 255 255
-24.42 -19.44 1.28 255 255 255
-27.70 -19.88 0.97 255 255 255
-16.88 -8.22 0.42 255 255 255
-18.41 -8.57 0.41 255 255 255
-25.94 -19.59 1.67 255 255 255
-17.00 -8.37 0.73 255 255 255
-30.40 -20.92 1.39 255 255 255
-24.46 -19.46 1.80 255 255 255
-17.63 -8.42 0.59 255 255 255
-27.71 -19.87 1.54 255 255 255
-16.45 -8.34 0.81 255 255 255
-25.85 -19.44 0.06 255 255 255
-27.70 -19.82 -0.18 255 255 255
8.95 24.25 2.86 255 255 255
-16.52 -8.44 1.01 255 255 255
21.63 36.26 2.19 255 255 255
-30.43 -20.91 0.12 255 255 255
14.88 35.27 2.64 255 255 255
-25.95 -19.56 0.59 255 255 255
25.48 36.71 1.92 255 255 255
18.08 35.71 2.43 255 255 255
12.80 26.16 1.12 255 255 255
7.78 25.33 1.53 255 255 255
9.93 25.44 1.33 255 255 255
-8.35 2.12 0.87 255 255 255
-24.49 -19.41 0.76 255 255 255
3.95 14.44 2.62 255 255 255
-8.41 2.41 1.05 255 255 255
-13.61 -4.10 0.47 255 255 255
-27.74 -19.79 0.40 255 255 255
-8.68 1.75 0.32 255 255 255
-25.98 -19.52 1.13 255 255 255
-8.54 2.25 0.60 255 255 255
-30.47 -20.87 0.76 255 255 255
-16.91 -8.21 -0.00 255 255 255
-17.60 -8.34 0.17 255 255 255
-24.54 -19.46 1.28 255 255 255
-16.94 -8.25 0.41 255 255 255
-27.79 -19.83 0.97 255 255 255
-25.99 -19.52 1.67 255 255 255
-18.50 -8.61 0.40 255 255 255
-30.49 -20.85 1.39 255 255 255
-17.68 -8.43 0.58 255 255 255
-24.57 -19.48 1.80 255 255 255
-16.52 -8.40 0.81 255 255 255
-27.81 -19.84 1.54 255 255 255
-25.94 -19.42 0.05 255 255 255
-27.78 -19.79 -0.18 255 255 255
9.41 24.65 2.89 255 255 255
-16.57 -8.46 1.01 255 255 255
21.88 36.27 2.19 255 255 255
-30.49 -20.82 0.12 255 255 255
15.13 35.30 2.65 255 255 255
-26.00 -19.48 0.59 255 255 255
25.77 36.72 1.92 255 255 255
18.33 35.71 2.43 255 255 255
7.68 24.98 1.53 255 255 255
15.84 26.52 0.87 255 255 255
18.36 35.76 1.32 255 255 255
-8.36 2.09 0.87 255 255 255
-24.60 -19.45 0.76 255 255 255
-8.40 2.39 1.05 255 255 255
-13.62 -4.10 0.46 255 255 255
-27.86 -19.81 0.39 255 255 255
-8.66 1.74 0.32 255 255 255
-26.05 -19.50 1.13 255 255 255
-8.55 2.20 0.60 255 255 255
-30.49 -20.76 0.76 255 255 255
-17.02 -8.29 -0.03 255 255 255
-17.65 -8.35 0.16 255 255 255
-24.62 -19.46 1.28 255 255 255
-27.92 -19.87 0.97 255 255 255
-18.48 -8.54 0.40 255 255 255
-26.10 -19.53 1.67 255 255 255
-17.76 -9.22 0.64 255 255 255
-30.51 -20.76 1.39 255 255 255
-17.73 -8.43 0.58 255 255 255
-24.66 -19.48 1.80 255 255 255
-16.58 -8.42 0.80 255 255 255
-27.94 -19.88 1.54 255 255 255
-30.50 -20.72 -0.51 255 255 255
-26.02 -19.39 0.05 255 255 255
-27.91 -19.80 -0.18 255 255 255
-16.62 -8.47 1.00 255 255 255
22.13 36.31 2.20 255 255 255
-30.49 -20.69 0.13 255 255 255
15.35 35.33 2.65 255 255 255
26.07 36.76 1.93 255 255 255
18.54 35.74 2.43 255 255 255
11.77 27.32 1.33 255 255 255
-8.36 2.06 0.88 255 255 255
-24.71 -19.45 0.75 255 255 255
-8.38 2.39 1.05 255 255 255
-28.01 -19.87 0.39 255 255 255
-13.56 -4.01 0.50 255 255 255
-8.64 1.75 0.31 255 255 255
-26.18 -19.53 1.13 255 255 255
-8.55 2.18 0.61 255 255 255
-30.51 -20.64 0.76 255 255 255
-17.05 -8.29 -0.03 255 255 255
-17.69 -8.34 0.16 255 255 255
-24.75 -19.49 1.27 255 255 255
-28.08 -19.91 0.96 255 255 255
-17.04 -8.27 0.40 255 255 255
-18.55 -8.56 0.40 255 255 255
-26.27 -19.61 1.68 255 255 255
-17.77 -9.17 0.64 255 255 255
-30.52 -20.63 1.39 255 255 255
-24.77 -19.50 1.80 255 255 255
-17.79 -8.46 0.57 255 255 255
-16.62 -8.43 0.80 255 255 255
-28.85 -20.74 1.55 255 255 255
-30.50 -20.59 -0.50 255 255 255
-26.12 -19.40 0.05 255 255 255
-28.04 -19.83 -0.19 255 255 255
-16.65 -8.47 1.00 255 255 255
22.44 36.35 2.20 255 255 255
-30.53 -20.59 0.13 255 255 255
15.57 35.34 2.65 255 255 255
-26.28 -19.57 0.58 255 255 255
26.38 36.81 1.93 255 255 255
18.82 35.79 2.44 255 255 255
13.29 26.13 1.11 255 255 255
9.39 26.94 1.54 255 255 255
16.11 26.40 0.86 255 255 255
6.70 20.87 1.34 255 255 255
-8.35 2.04 0.88 255 255 255
-24.81 -19.46 0.75 255 255 255
-8.36 2.38 1.05 255 255 255
-28.87 -20.68 0.33 255 255 255
-13.57 -4.00 0.50 255 255 255
-8.62 1.75 0.31 255 255 255
-26.39 -19.65 1.13 255 255 255
-8.54 2.16 0.61 255 255 255
-30.53 -20.52 0.76 255 255 255
-17.05 -8.25 -0.02 255 255 255
-17.74 -8.35 0.15 255 255 255
-24.85 -19.50 1.27 255 255 255
-28.95 -20.73 0.94 255 255 255
-17.09 -8.29 0.40 255 255 255
-18.61 -8.57 0.39 255 255 255
-26.47 -19.72 1.68 255 255 255
-17.79 -9.13 0.64 255 255 255
-30.55 -20.51 1.39 255 255 255
-17.84 -8.46 0.57 255 255 255
-24.90 -19.53 1.80 255 255 255
-16.66 -8.43 0.80 255 255 255
-28.97 -20.74 1.55 255 255 255
-30.52 -20.47 -0.49 255 255 255
-26.24 -19.41 0.04 255 255 255
-28.93 -20.68 -0.28 255 255 255
6.67 20.74 2.67 255 255 255
-16.69 -8.46 1.00 255 255 255
22.68 36.39 2.20 255 255 255
-30.54 -20.48 0.14 255 255 255
15.79 35.37 2.66 255 255 255
-26.48 -19.67 0.57 255 255 255
26.72 36.89 1.93 255 255 255
6.67 20.72 2.00 255 255 255
13.55 26.23 1.11 255 255 255
16.27 26.38 0.86 255 255 255
-8.33 2.05 0.87 255 255 255
-24.93 -19.49 0.75 255 255 255
-8.35 2.38 1.05 255 255 255
-13.59 -4.00 0.49 255 255 255
-29.00 -20.68 0.33 255 255 255
-8.59 1.76 0.30 255 255 255
-26.50 -19.66 1.13 255 255 255
-8.53 2.15 0.61 255 255 255
-30.54 -20.41 0.77 255 255 255
-17.10 -8.26 -0.03 255 255 255
-17.76 -8.33 0.15 255 255 255
-24.96 -19.51 1.27 255 255 255
-29.09 -20.75 0.94 255 255 255
-17.12 -8.27 0.40 255 255 255
-18.69 -8.60 0.39 255 255 255
-26.52 -19.66 1.68 255 255 255
-30.55 -20.40 1.40 255 255 255
-17.79 -9.09 0.64 255 255 255
-25.00 -19.54 1.80 255 255 255
-17.89 -8.47 0.57 255 255 255
-16.68 -8.41 0.80 255 255 255
-30.55 -20.36 -0.49 255 255 255
-26.37 -19.44 0.04 255 255 255
-29.06 -20.67 -0.28 255 255 255
6.72 20.64 2.67 255 255 255
-16.71 -8.44 1.00 255 255 255
22.96 36.43 2.20 255 255 255
-30.56 -20.37 0.14 255 255 255
16.00 35.40 2.66 255 255 255
-26.54 -19.63 0.57 255 255 255
18.27 28.19 1.80 255 255 255
6.73 20.63 2.00 255 255 255
13.68 26.18 1.11 255 255 255
8.52 25.36 1.53 255 255 255
16.49 26.41 0.86 255 255 255
6.74 20.63 1.34 255 255 255
-8.31 2.04 0.87 255 255 255
-25.03 -19.50 0.74 255 255 255
-8.33 2.37 1.05 255 255 255
-13.61 -4.01 0.49 255 255 255
-29.15 -20.70 0.33 255 255 255
-8.57 1.76 0.30 255 255 255
-26.57 -19.61 1.13 255 255 255
-8.54 2.12 0.61 255 255 255
-17.14 -8.26 -0.04 255 255 255
-30.62 -20.34 0.77 255 255 255
-25.07 -19.53 1.27 255 255 255
-29.20 -20.75 0.94 255 255 255
-17.19 -8.31 0.39 255 255 255
-18.75 -8.61 0.38 255 255 255
-26.60 -19.63 1.68 255 255 255
-30.62 -20.33 1.40 255 255 255
-17.81 -9.05 0.65 255 255 255
-25.10 -19.56 1.80 255 255 255
-17.94 -8.47 0.56 255 255 255
-29.22 -20.75 1.55 255 255 255
-16.71 -8.39 0.80 255 255 255
-30.61 -20.29 -0.49 255 255 255
-26.48 -19.45 0.03 255 255 255
-4.03 5.95 1.72 255 255 255
-29.21 -20.70 -0.29 255 255 255
6.81 20.59 2.67 255 255 255
-16.75 -8.44 1.00 255 255 255
23.25 36.44 2.21 255 255 255
-30.62 -20.29 0.14 255 255 255
16.21 35.46 2.67 255 255 255
-26.60 -19.58 0.57 255 255 255
-4.03 5.94 1.47 255 255 255
6.83 20.60 2.00 255 255 255
14.02 26.36 1.11 255 255 255
8.53 25.18 1.53 255 255 255
16.74 26.45 0.86 255 255 255
6.85 20.61 1.34 255 255 255
-25.15 -19.52 0.74 255 255 255
-8.32 2.36 1.05 255 255 255
-13.63 -4.01 0.48 255 255 255
-29.26 -20.70 0.32 255 255 255
-8.55 1.75 0.30 255 255 255
-26.65 -19.58 1.13 255 255 255
-8.62 2.00 0.64 255 255 255
-30.67 -20.27 0.77 255 255 255
-17.20 -8.28 -0.04 255 255 255
-18.28 -8.80 0.05 255 255 255
-25.17 -19.54 1.27 255 255 255
-29.34 -20.77 0.93 255 255 255
-17.21 -8.29 0.39 255 255 255
-26.70 -19.61 1.68 255 255 255
-18.86 -8.67 0.37 255 255 255
-17.82 -9.01 0.65 255 255 255
-30.70 -20.27 1.40 255 255 255
-18.01 -8.50 0.56 255 255 255
-25.22 -19.57 1.80 255 255 255
-29.36 -20.77 1.55 255 255 255
-16.73 -8.37 0.80 255 255 255
-30.64 -20.20 -0.49 255 255 255
-26.61 -19.47 0.03 255 255 255
-29.29 -20.67 -0.29 255 255 255
9.30 23.42 2.84 255 255 255
-16.79 -8.45 1.00 255 255 255
23.55 36.52 2.21 255 255 255
-30.70 -20.24 0.14 255 255 255
16.43 35.46 2.67 255 255 255
-26.69 -19.56 0.57 255 255 255
19.81 35.93 2.45 255 255 255
14.17 26.35 1.11 255 255 255
8.74 25.25 1.53 255 255 255
-4.01 5.90 1.23 255 255 255
-25.25 -19.53 0.74 255 255 255
-8.29 2.36 1.05 255 255 255
-29.45 -20.75 0.32 255 255 255
-8.53 1.76 0.29 255 255 255
-26.87 -19.71 1.12 255 255 255
-8.59 2.01 0.63 255 255 255
-30.75 -20.22 0.77 255 255 255
-17.24 -8.28 -0.05 255 255 255
-18.32 -8.78 0.05 255 255 255
-25.30 -19.56 1.27 255 255 255
-29.52 -20.83 0.93 255 255 255
-17.27 -8.31 0.38 255 255 255
-26.92 -19.74 1.68 255 255 255
-18.94 -8.69 0.36 255 255 255
-30.77 -20.22 1.40 255 255 255
-17.83 -8.96 0.65 255 255 255
-18.06 -8.51 0.55 255 255 255
-25.33 -19.59 1.80 255 255 255
-29.53 -20.81 1.55 255 255 255
-16.76 -8.37 0.80 255 255 255
-30.73 -20.14 -0.49 255 255 255
-26.72 -19.48 0.02 255 255 255
-4.04 5.83 1.71 255 255 255
-29.49 -20.75 -0.30 255 255 255
-16.84 -8.46 1.00 255 255 255
23.80 36.55 2.21 255 255 255
-30.82 -20.22 0.14 255 255 255
16.68 35.53 2.68 255 255 255
-26.93 -19.71 0.56 255 255 255
-4.01 5.86 1.47 255 255 255
20.03 35.96 2.46 255 255 255
3.66 14.84 1.21 255 255 255
8.91 25.29 1.53 255 255 255
-4.03 5.83 1.23 255 255 255
-3.97 5.88 2.20 255 255 255
11.93 26.32 1.33 255 255 255
-8.23 2.05 0.87 255 255 255
-25.37 -19.54 0.74 255 255 255
-8.27 2.36 1.05 255 255 255
-29.57 -20.76 0.31 255 255 255
-8.50 1.76 0.29 255 255 255
-27.01 -19.75 1.12 255 255 255
3.63 14.76 2.24 255 255 255
-8.68 1.88 0.66 255 255 255
-30.91 -20.25 0.76 255 255 255
-17.30 -8.30 -0.06 255 255 255
-18.35 -8.77 0.05 255 255 255
-25.40 -19.58 1.27 255 255 255
-29.66 -20.83 0.93 255 255 255
-17.30 -8.30 0.38 255 255 255
-27.07 -19.80 1.68 255 255 255
-30.95 -20.26 1.40 255 255 255
-17.84 -8.92 0.65 255 255 255
-18.11 -8.51 0.55 255 255 255
-25.44 -19.60 1.80 255 255 255
-29.67 -20.83 1.55 255 255 255
-16.79 -8.35 0.80 255 255 255
-30.88 -20.17 -0.49 255 255 255
-26.85 -19.50 0.02 255 255 255
-4.03 5.80 1.71 255 255 255
-29.61 -20.75 -0.31 255 255 255
-16.89 -8.47 0.99 255 255 255
-31.01 -20.27 0.13 255 255 255
16.90 35.53 2.68 255 255 255
-27.07 -19.74 0.56 255 255 255
-4.00 5.82 1.47 255 255 255
20.27 36.00 2.46 255 255 255
-4.01 5.79 1.23 255 255 255
12.93 27.29 1.33 255 255 255
-3.97 5.83 2.20 255 255 255
-8.22 2.05 0.87 255 255 255
-25.48 -19.57 0.73 255 255 255
-3.98 5.82 1.96 255 255 255
-8.25 2.36 1.05 255 255 255
-29.74 -20.81 0.31 255 255 255
-8.48 1.77 0.28 255 255 255
-27.08 -19.71 1.12 255 255 255
-8.66 1.88 0.66 255 255 255
-31.18 -20.38 0.76 255 255 255
-17.35 -8.31 -0.06 255 255 255
-25.51 -19.60 1.27 255 255 255
-18.37 -8.74 0.05 255 255 255
-29.82 -20.86 0.93 255 255 255
-17.36 -8.32 0.37 255 255 255
-18.97 -8.63 0.36 255 255 255
-27.10 -19.72 1.68 255 255 255
-31.19 -20.37 1.40 255 255 255
-17.84 -8.88 0.65 255 255 255
-18.15 -8.50 0.55 255 255 255
-25.55 -19.62 1.81 255 255 255
-29.82 -20.85 1.55 255 255 255
-16.85 -8.38 0.79 255 255 255
-31.16 -20.31 -0.52 255 255 255
-26.96 -19.51 0.01 255 255 255
-4.01 5.76 1.71 255 255 255
-29.78 -20.79 -0.32 255 255 255
-16.94 -8.49 0.99 255 255 255
3.71 14.69 1.73 255 255 255
-31.22 -20.36 0.12 255 255 255
17.15 35.57 2.68 255 255 255
-27.13 -19.68 0.56 255 255 255
-3.98 5.78 1.47 255 255 255
20.55 36.04 2.46 255 255 255
3.74 14.71 1.21 255 255 255
-4.00 5.76 1.23 255 255 255
12.16 26.19 1.33 255 255 255
-3.96 5.79 2.20 255 255 255
-8.20 2.03 0.87 255 255 255
-25.59 -19.58 0.73 255 255 255
-8.24 2.35 1.05 255 255 255
-3.96 5.78 1.95 255 255 255
-29.89 -20.83 0.30 255 255 255
-8.45 1.77 0.28 255 255 255
-27.14 -19.64 1.12 255 255 255
3.72 14.64 2.24 255 255 255
-8.64 1.88 0.66 255 255 255
-31.32 -20.37 0.75 255 255 255
-17.39 -8.31 -0.07 255 255 255
-18.38 -8.70 0.06 255 255 255
-25.64 -19.61 1.27 255 255 255
-29.93 -20.86 0.92 255 255 255
-17.40 -8.32 0.37 255 255 255
-27.19 -19.67 1.68 255 255 255
-17.86 -8.85 0.66 255 255 255
-31.33 -20.37 1.40 255 255 255
-18.19 -8.49 0.55 255 255 255
-25.67 -19.64 1.81 255 255 255
-29.96 -20.87 1.55 255 255 255
-16.89 -8.39 0.79 255 255 255
-31.29 -20.30 -0.52 255 255 255
-27.09 -19.54 0.00 255 255 255
-3.99 5.73 1.71 255 255 255
-29.92 -20.79 -0.33 255 255 255
9.91 23.43 2.86 255 255 255
3.77 14.65 1.73 255 255 255
-31.32 -20.32 0.12 255 255 255
17.36 35.60 2.69 255 255 255
-27.20 -19.64 0.56 255 255 255
-3.96 5.75 1.47 255 255 255
20.80 36.08 2.47 255 255 255
3.82 14.68 1.21 255 255 255
-3.98 5.73 1.23 255 255 255
-3.94 5.76 2.20 255 255 255
12.22 26.06 1.33 255 255 255
-8.18 2.04 0.86 255 255 255
-25.71 -19.60 0.73 255 255 255
-3.94 5.75 1.95 255 255 255
-8.22 2.35 1.04 255 255 255
-30.06 -20.88 0.29 255 255 255
-8.43 1.77 0.27 255 255 255
-27.28 -19.67 1.12 255 255 255
3.79 14.60 2.24 255 255 255
-8.60 1.90 0.65 255 255 255
-17.42 -8.29 -0.07 255 255 255
-31.35 -20.28 0.76 255 255 255
-25.74 -19.62 1.27 255 255 255
-18.41 -8.68 0.06 255 255 255
-17.45 -8.33 0.36 255 255 255
-30.11 -20.90 0.92 255 255 255
-27.31 -19.69 1.68 255 255 255
-17.88 -8.82 0.66 255 255 255
-31.35 -20.26 1.40 255 255 255
-18.27 -8.53 0.54 255 255 255
-25.78 -19.65 1.81 255 255 255
-30.12 -20.89 1.55 255 255 255
-16.92 -8.37 0.79 255 255 255
-31.32 -20.20 -0.52 255 255 255
-27.22 -19.55 -0.00 255 255 255
-3.97 5.70 1.71 255 255 255
-30.12 -20.87 -0.34 255 255 255
9.96 23.32 2.86 255 255 255
-25.76 -19.59 0.19 255 255 255
-31.37 -20.23 0.12 255 255 255
17.61 35.64 2.69 255 255 255
-27.32 -19.65 0.56 255 255 255
-3.94 5.72 1.47 255 255 255
21.05 36.11 2.47 255 255 255
15.51 26.80 1.09 255 255 255
-3.96 5.70 1.23 255 255 255
13.69 27.57 1.33 255 255 255
-3.93 5.72 2.19 255 255 255
-8.14 2.06 0.86 255 255 255
-25.82 -19.61 0.73 255 255 255
-8.19 2.35 1.04 255 255 255
-3.92 5.73 1.95 255 255 255
-30.21 -20.89 0.29 255 255 255
-8.40 1.78 0.27 255 255 255
