ply
format ascii 1.0
element vertex 1627
property float x
property float y
property float z
property uchar red
property uchar green
property uchar blue
end_header
-12.08 -3.86 1.35 255 255 255
-12.22 -3.86 1.27 255 255 255
-11.94 -3.85 1.58 255 255 255
-12.23 -3.89 1.52 255 255 255
-11.94 -3.83 1.30 255 255 255
-12.38 -3.89 1.25 255 255 255
-12.08 -3.86 1.55 255 255 255
-12.39 -3.91 1.51 255 255 255
-12.09 -3.88 1.29 255 255 255
-12.22 -3.86 1.17 255 255 255
-11.94 -3.86 1.49 255 255 255
-12.23 -3.88 1.46 255 255 255
-12.08 -3.86 1.22 255 255 255
-12.22 -3.87 1.00 255 255 255
-12.08 -3.87 1.47 255 255 255
-9.93 1.63 0.07 255 255 255
-0.60 33.11 1.44 255 255 255
-12.39 -3.90 1.44 255 255 255
-12.08 -3.85 1.11 255 255 255
-0.56 24.06 1.15 255 255 255
-10.06 1.74 0.65 255 255 255
-12.22 -3.86 0.60 255 255 255
-11.94 -3.84 1.42 255 255 255
-9.67 2.27 0.80 255 255 255
1.38 33.36 2.09 255 255 255
-12.07 -3.83 0.85 255 255 255
-12.23 -3.88 1.39 255 255 255
5.68 34.00 1.68 255 255 255
-9.63 2.92 0.88 255 255 255
-0.57 33.11 2.28 255 255 255
3.50 33.71 1.89 255 255 255
5.69 33.99 2.59 255 255 255
3.52 33.70 2.78 255 255 255
-1.93 24.12 0.68 255 255 255
-12.39 -3.90 1.38 255 255 255
-12.25 -3.92 2.11 255 255 255
-12.08 -3.83 1.41 255 255 255
-12.10 -3.89 1.87 255 255 255
-12.23 -3.87 1.33 255 255 255
0.81 23.66 0.99 255 255 255
-12.25 -3.90 1.76 255 255 255
-11.95 -3.85 1.36 255 255 255
1.48 33.42 1.23 255 255 255
-12.09 -3.87 1.67 255 255 255
-12.39 -3.89 1.31 255 255 255
-12.09 -3.86 1.35 255 255 255
-12.25 -3.90 1.63 255 255 255
-11.95 -3.85 1.58 255 255 255
-12.23 -3.87 1.27 255 255 255
-11.94 -3.83 1.30 255 255 255
-12.24 -3.88 1.52 255 255 255
-12.09 -3.86 1.55 255 255 255
-12.39 -3.89 1.25 255 255 255
-12.10 -3.88 1.29 255 255 255
-12.40 -3.91 1.51 255 255 255
-12.23 -3.86 1.17 255 255 255
-11.95 -3.85 1.49 255 255 255
-12.24 -3.87 1.46 255 255 255
-12.09 -3.87 1.22 255 255 255
-12.23 -3.86 1.00 255 255 255
-12.09 -3.87 1.47 255 255 255
-9.92 1.64 0.07 255 255 255
-0.46 33.13 1.44 255 255 255
-12.40 -3.91 1.44 255 255 255
-12.09 -3.85 1.11 255 255 255
-10.05 1.74 0.65 255 255 255
-11.95 -3.84 1.42 255 255 255
-12.23 -3.86 0.60 255 255 255
-9.66 2.24 0.80 255 255 255
1.52 33.38 2.09 255 255 255
-12.24 -3.88 1.39 255 255 255
-12.08 -3.83 0.85 255 255 255
-9.63 2.87 0.89 255 255 255
5.84 34.02 1.68 255 255 255
-0.45 33.12 2.28 255 255 255
-9.28 3.13 0.97 255 255 255
3.66 33.76 1.89 255 255 255
5.85 33.98 2.60 255 255 255
3.68 33.75 2.78 255 255 255
-1.84 24.07 0.68 255 255 255
-12.41 -3.91 1.38 255 255 255
-12.26 -3.92 2.11 255 255 255
-12.09 -3.84 1.41 255 255 255
-12.11 -3.89 1.87 255 255 255
-12.24 -3.87 1.33 255 255 255
-11.96 -3.85 1.36 255 255 255
-12.26 -3.90 1.76 255 255 255
1.62 33.44 1.23 255 255 255
-12.10 -3.88 1.67 255 255 255
-12.40 -3.89 1.31 255 255 255
-12.10 -3.86 1.35 255 255 255
-12.26 -3.91 1.63 255 255 255
-11.96 -3.85 1.58 255 255 255
-12.24 -3.87 1.27 255 255 255
-12.25 -3.89 1.52 255 255 255
-11.95 -3.83 1.30 255 255 255
-12.40 -3.89 1.25 255 255 255
-12.10 -3.86 1.55 255 255 255
-12.11 -3.88 1.28 255 255 255
-12.41 -3.91 1.51 255 255 255
-11.96 -3.86 1.49 255 255 255
-12.24 -3.86 1.17 255 255 255
-12.10 -3.87 1.22 255 255 255
-12.25 -3.88 1.46 255 255 255
-12.10 -3.87 1.47 255 255 255
-12.24 -3.87 0.99 255 255 255
-9.91 1.62 0.07 255 255 255
-0.31 33.19 1.44 255 255 255
-12.09 -3.85 1.11 255 255 255
-12.41 -3.90 1.44 255 255 255
-10.03 1.74 0.65 255 255 255
-11.96 -3.84 1.42 255 255 255
-12.24 -3.86 0.60 255 255 255
-9.67 2.18 0.81 255 255 255
1.67 33.44 2.09 255 255 255
-12.09 -3.83 0.85 255 255 255
-12.25 -3.88 1.39 255 255 255
-9.62 2.85 0.89 255 255 255
-9.26 3.16 0.97 255 255 255
-0.30 33.15 2.28 255 255 255
3.81 33.75 1.90 255 255 255
-3.81 13.80 1.98 255 255 255
3.84 33.78 2.78 255 255 255
-1.74 24.05 0.68 255 255 255
-12.42 -3.91 1.38 255 255 255
-12.10 -3.85 1.41 255 255 255
-12.28 -3.93 2.11 255 255 255
-12.25 -3.87 1.33 255 255 255
-12.12 -3.89 1.87 255 255 255
-3.81 13.76 1.19 255 255 255
-12.27 -3.90 1.76 255 255 255
-11.97 -3.85 1.36 255 255 255
1.76 33.46 1.23 255 255 255
-12.11 -3.88 1.67 255 255 255
-12.41 -3.89 1.31 255 255 255
-12.10 -3.85 1.35 255 255 255
-12.27 -3.90 1.63 255 255 255
-11.97 -3.85 1.58 255 255 255
-12.25 -3.87 1.27 255 255 255
-11.96 -3.83 1.30 255 255 255
-12.26 -3.89 1.52 255 255 255
-12.41 -3.89 1.25 255 255 255
-12.11 -3.86 1.55 255 255 255
-12.12 -3.88 1.28 255 255 255
-12.42 -3.91 1.51 255 255 255
-11.97 -3.86 1.49 255 255 255
-12.25 -3.87 1.17 255 255 255
-12.26 -3.89 1.46 255 255 255
-12.11 -3.87 1.22 255 255 255
-12.25 -3.87 0.99 255 255 255
-12.11 -3.87 1.47 255 255 255
-9.90 1.61 0.07 255 255 255
-0.19 33.17 1.44 255 255 255
-12.11 -3.85 1.11 255 255 255
-12.42 -3.91 1.44 255 255 255
-10.02 1.74 0.65 255 255 255
-11.97 -3.84 1.42 255 255 255
-12.25 -3.86 0.59 255 255 255
-9.64 2.22 0.80 255 255 255
1.81 33.46 2.09 255 255 255
-12.10 -3.83 0.85 255 255 255
-12.26 -3.88 1.39 255 255 255
-9.60 2.86 0.89 255 255 255
-3.79 13.76 1.59 255 255 255
-9.25 3.13 0.97 255 255 255
-0.17 33.17 2.28 255 255 255
3.94 33.77 1.90 255 255 255
-3.78 13.75 1.98 255 255 255
-12.43 -3.90 1.38 255 255 255
-12.28 -3.91 2.11 255 255 255
-12.11 -3.84 1.41 255 255 255
-12.26 -3.87 1.33 255 255 255
-12.13 -3.89 1.87 255 255 255
-3.77 13.73 1.20 255 255 255
-12.28 -3.91 1.76 255 255 255
-11.98 -3.85 1.36 255 255 255
1.89 33.48 1.23 255 255 255
-12.42 -3.90 1.31 255 255 255
-12.12 -3.88 1.67 255 255 255
-12.11 -3.86 1.35 255 255 255
-12.28 -3.90 1.63 255 255 255
-12.26 -3.87 1.27 255 255 255
-11.98 -3.86 1.58 255 255 255
-11.97 -3.83 1.30 255 255 255
-12.28 -3.90 1.52 255 255 255
-12.12 -3.87 1.55 255 255 255
-12.42 -3.89 1.25 255 255 255
-12.13 -3.88 1.28 255 255 255
-12.43 -3.91 1.51 255 255 255
-11.98 -3.86 1.49 255 255 255
-12.26 -3.86 1.17 255 255 255
-12.12 -3.87 1.22 255 255 255
-12.27 -3.89 1.46 255 255 255
-12.13 -3.87 1.47 255 255 255
-12.27 -3.87 0.99 255 255 255
-9.89 1.61 0.07 255 255 255
-0.04 33.19 1.44 255 255 255
-12.12 -3.86 1.11 255 255 255
-12.43 -3.91 1.44 255 255 255
0.37 25.24 1.13 255 255 255
-10.01 1.73 0.65 255 255 255
-11.98 -3.85 1.43 255 255 255
-12.26 -3.86 0.59 255 255 255
1.95 33.45 2.10 255 255 255
-9.64 2.19 0.81 255 255 255
-12.27 -3.88 1.39 255 255 255
-12.11 -3.83 0.85 255 255 255
-9.61 2.79 0.90 255 255 255
-3.74 13.73 1.59 255 255 255
-0.03 33.19 2.29 255 255 255
-9.26 3.07 0.98 255 255 255
4.11 33.83 1.90 255 255 255
-3.72 13.72 1.98 255 255 255
-3.61 22.06 2.61 255 255 255
-1.54 24.08 0.67 255 255 255
-12.44 -3.90 1.38 255 255 255
-12.30 -3.92 2.11 255 255 255
-12.12 -3.84 1.41 255 255 255
-12.28 -3.88 1.33 255 255 255
-12.14 -3.89 1.87 255 255 255
-3.71 13.70 1.20 255 255 255
-12.29 -3.91 1.76 255 255 255
-11.99 -3.87 1.36 255 255 255
2.05 33.50 1.23 255 255 255
-12.13 -3.88 1.67 255 255 255
-12.44 -3.90 1.31 255 255 255
-12.29 -3.90 1.63 255 255 255
-12.13 -3.86 1.35 255 255 255
-12.27 -3.87 1.27 255 255 255
-11.99 -3.86 1.58 255 255 255
-11.98 -3.84 1.30 255 255 255
-12.28 -3.89 1.52 255 255 255
-12.13 -3.87 1.55 255 255 255
-12.44 -3.90 1.25 255 255 255
-12.14 -3.88 1.28 255 255 255
-12.45 -3.91 1.51 255 255 255
-12.27 -3.86 1.17 255 255 255
-11.99 -3.86 1.49 255 255 255
-12.28 -3.89 1.46 255 255 255
-12.13 -3.87 1.22 255 255 255
-12.28 -3.87 0.99 255 255 255
-12.13 -3.87 1.47 255 255 255
-9.88 1.61 0.07 255 255 255
0.10 33.22 1.44 255 255 255
-12.45 -3.91 1.44 255 255 255
-12.13 -3.86 1.11 255 255 255
0.36 24.97 1.13 255 255 255
-10.00 1.73 0.65 255 255 255
-11.99 -3.85 1.43 255 255 255
-12.27 -3.87 0.59 255 255 255
2.11 33.47 2.10 255 255 255
-9.64 2.16 0.81 255 255 255
-12.12 -3.83 0.85 255 255 255
-12.28 -3.88 1.39 255 255 255
-9.60 2.78 0.90 255 255 255
-3.68 13.70 1.59 255 255 255
0.11 33.21 2.29 255 255 255
-9.26 3.02 0.98 255 255 255
4.27 33.85 1.90 255 255 255
-6.61 7.80 0.72 255 255 255
-3.67 13.70 1.98 255 255 255
-3.54 22.01 2.61 255 255 255
-6.59 7.83 1.08 255 255 255
-1.45 24.04 0.67 255 255 255
-12.45 -3.91 1.38 255 255 255
-12.31 -3.93 2.11 255 255 255
-12.13 -3.84 1.41 255 255 255
-12.28 -3.87 1.33 255 255 255
-12.15 -3.89 1.87 255 255 255
-3.65 13.69 1.20 255 255 255
-12.30 -3.91 1.76 255 255 255
-12.00 -3.86 1.36 255 255 255
2.20 33.53 1.23 255 255 255
-12.15 -3.88 1.68 255 255 255
-12.45 -3.90 1.31 255 255 255
-12.14 -3.86 1.35 255 255 255
-12.30 -3.91 1.63 255 255 255
-12.28 -3.87 1.27 255 255 255
-12.00 -3.86 1.58 255 255 255
-11.99 -3.84 1.30 255 255 255
-12.30 -3.90 1.52 255 255 255
-12.14 -3.87 1.55 255 255 255
-12.45 -3.90 1.25 255 255 255
-12.15 -3.88 1.28 255 255 255
-12.46 -3.92 1.51 255 255 255
-12.00 -3.86 1.49 255 255 255
-12.28 -3.87 1.17 255 255 255
-12.29 -3.89 1.46 255 255 255
-12.14 -3.87 1.22 255 255 255
-12.14 -3.87 1.47 255 255 255
-12.29 -3.87 0.99 255 255 255
-9.86 1.61 0.07 255 255 255
0.25 33.24 1.44 255 255 255
-12.14 -3.86 1.11 255 255 255
-12.46 -3.91 1.44 255 255 255
-9.99 1.74 0.64 255 255 255
0.42 24.85 1.13 255 255 255
-12.00 -3.86 1.43 255 255 255
-12.28 -3.87 0.59 255 255 255
-9.62 2.15 0.81 255 255 255
2.26 33.49 2.10 255 255 255
-12.13 -3.83 0.85 255 255 255
-12.29 -3.88 1.39 255 255 255
-3.61 13.70 1.59 255 255 255
-9.60 2.75 0.90 255 255 255
0.26 33.23 2.29 255 255 255
-9.27 2.96 0.99 255 255 255
4.44 33.84 1.90 255 255 255
-6.58 7.78 0.72 255 255 255
-3.60 13.71 1.98 255 255 255
-3.45 21.99 2.61 255 255 255
-6.58 7.78 1.08 255 255 255
-1.38 23.98 0.68 255 255 255
-12.46 -3.91 1.38 255 255 255
-12.14 -3.85 1.41 255 255 255
-12.32 -3.93 2.12 255 255 255
-12.16 -3.90 1.88 255 255 255
-12.30 -3.88 1.33 255 255 255
-6.56 7.80 1.32 255 255 255
-12.31 -3.90 1.76 255 255 255
-12.00 -3.85 1.36 255 255 255
2.35 33.51 1.23 255 255 255
-12.16 -3.88 1.68 255 255 255
-12.46 -3.91 1.31 255 255 255
-12.14 -3.86 1.35 255 255 255
-12.31 -3.90 1.63 255 255 255
-12.30 -3.88 1.27 255 255 255
-12.01 -3.86 1.58 255 255 255
-12.31 -3.90 1.52 255 255 255
-12.00 -3.84 1.30 255 255 255
-12.46 -3.89 1.25 255 255 255
-12.15 -3.87 1.55 255 255 255
-12.47 -3.92 1.51 255 255 255
-12.16 -3.88 1.28 255 255 255
-12.01 -3.87 1.49 255 255 255
-12.30 -3.88 1.17 255 255 255
-12.31 -3.89 1.46 255 255 255
-12.15 -3.87 1.22 255 255 255
-12.15 -3.87 1.47 255 255 255
-12.30 -3.88 0.99 255 255 255
-9.85 1.61 0.07 255 255 255
0.37 33.29 1.44 255 255 255
-12.47 -3.91 1.44 255 255 255
-12.15 -3.86 1.11 255 255 255
0.04 23.78 1.15 255 255 255
-9.98 1.74 0.64 255 255 255
-12.29 -3.87 0.59 255 255 255
-12.01 -3.85 1.43 255 255 255
-9.61 2.16 0.81 255 255 255
2.40 33.54 2.10 255 255 255
-12.31 -3.89 1.39 255 255 255
-12.14 -3.83 0.84 255 255 255
-6.54 7.80 1.56 255 255 255
-9.58 2.74 0.90 255 255 255
-9.26 2.94 0.99 255 255 255
0.39 33.25 2.29 255 255 255
4.57 33.90 1.90 255 255 255
-6.57 7.74 0.73 255 255 255
-6.55 7.79 1.80 255 255 255
-3.05 22.95 2.66 255 255 255
-6.56 7.74 1.08 255 255 255
-1.26 24.01 0.67 255 255 255
-12.47 -3.91 1.38 255 255 255
-12.34 -3.94 2.12 255 255 255
-12.15 -3.85 1.41 255 255 255
-12.31 -3.88 1.33 255 255 255
-12.17 -3.90 1.88 255 255 255
-6.54 7.76 1.32 255 255 255
-12.02 -3.86 1.36 255 255 255
-12.32 -3.91 1.76 255 255 255
2.48 33.57 1.23 255 255 255
-12.17 -3.88 1.68 255 255 255
-12.47 -3.90 1.31 255 255 255
-12.16 -3.86 1.35 255 255 255
-12.32 -3.90 1.63 255 255 255
-12.02 -3.86 1.58 255 255 255
-12.31 -3.88 1.27 255 255 255
-12.01 -3.84 1.30 255 255 255
-12.32 -3.90 1.53 255 255 255
-12.16 -3.86 1.55 255 255 255
-12.47 -3.90 1.24 255 255 255
-12.48 -3.92 1.51 255 255 255
-12.17 -3.88 1.28 255 255 255
-12.02 -3.87 1.49 255 255 255
-12.31 -3.88 1.17 255 255 255
-12.32 -3.89 1.46 255 255 255
-12.16 -3.87 1.22 255 255 255
-12.16 -3.87 1.47 255 255 255
-12.31 -3.88 0.99 255 255 255
0.52 33.28 1.44 255 255 255
-9.84 1.61 0.06 255 255 255
-12.48 -3.91 1.44 255 255 255
-12.16 -3.86 1.11 255 255 255
0.19 23.88 1.15 255 255 255
-9.96 1.73 0.64 255 255 255
-12.31 -3.87 0.59 255 255 255
-12.02 -3.85 1.43 255 255 255
-9.60 2.14 0.81 255 255 255
2.55 33.57 2.10 255 255 255
-12.15 -3.83 0.84 255 255 255
-12.32 -3.90 1.39 255 255 255
-9.57 2.73 0.90 255 255 255
-6.53 7.74 1.56 255 255 255
-9.26 2.91 0.99 255 255 255
0.52 33.27 2.29 255 255 255
4.73 33.92 1.90 255 255 255
-6.53 7.74 0.73 255 255 255
-6.53 7.73 1.80 255 255 255
-3.19 22.22 2.62 255 255 255
-6.54 7.72 1.08 255 255 255
-1.10 24.17 0.67 255 255 255
-12.48 -3.90 1.38 255 255 255
-12.34 -3.94 2.12 255 255 255
-12.16 -3.85 1.41 255 255 255
-12.18 -3.90 1.88 255 255 255
-12.32 -3.89 1.33 255 255 255
-6.52 7.72 1.32 255 255 255
-12.03 -3.86 1.36 255 255 255
-12.33 -3.91 1.76 255 255 255
2.64 33.59 1.23 255 255 255
-12.18 -3.89 1.68 255 255 255
-12.48 -3.90 1.31 255 255 255
-12.16 -3.86 1.35 255 255 255
-12.33 -3.90 1.63 255 255 255
-12.32 -3.89 1.26 255 255 255
-12.03 -3.86 1.58 255 255 255
-12.33 -3.91 1.52 255 255 255
-12.02 -3.85 1.30 255 255 255
-12.48 -3.90 1.24 255 255 255
-12.17 -3.87 1.55 255 255 255
-12.17 -3.88 1.28 255 255 255
-12.49 -3.92 1.51 255 255 255
-12.31 -3.87 1.17 255 255 255
-12.03 -3.86 1.49 255 255 255
-12.17 -3.88 1.22 255 255 255
-12.33 -3.90 1.46 255 255 255
-12.18 -3.88 1.47 255 255 255
-12.32 -3.88 0.99 255 255 255
0.66 33.30 1.44 255 255 255
-9.83 1.61 0.06 255 255 255
-12.17 -3.87 1.11 255 255 255
-12.49 -3.91 1.44 255 255 255
0.32 23.93 1.15 255 255 255
-9.95 1.73 0.64 255 255 255
-12.02 -3.85 1.42 255 255 255
-12.32 -3.88 0.58 255 255 255
-9.59 2.15 0.81 255 255 255
2.69 33.59 2.10 255 255 255
-12.33 -3.89 1.39 255 255 255
-12.15 -3.83 0.84 255 255 255
-6.51 7.71 1.56 255 255 255
-9.57 2.68 0.91 255 255 255
-9.25 2.88 1.00 255 255 255
0.66 33.29 2.30 255 255 255
4.89 33.91 1.90 255 255 255
-6.49 7.73 0.73 255 255 255
-6.52 7.69 1.79 255 255 255
-2.81 23.09 2.67 255 255 255
-6.50 7.69 1.08 255 255 255
-1.02 24.09 0.67 255 255 255
-12.49 -3.91 1.38 255 255 255
-12.17 -3.85 1.41 255 255 255
-12.35 -3.94 2.12 255 255 255
-2.20 24.79 0.82 255 255 255
-12.33 -3.89 1.33 255 255 255
-12.19 -3.90 1.88 255 255 255
-6.49 7.70 1.32 255 255 255
-12.04 -3.87 1.36 255 255 255
-12.34 -3.91 1.77 255 255 255
2.78 33.58 1.23 255 255 255
-12.19 -3.89 1.68 255 255 255
-12.49 -3.91 1.31 255 255 255
-12.17 -3.86 1.35 255 255 255
-12.34 -3.90 1.63 255 255 255
-12.33 -3.89 1.26 255 255 255
-12.04 -3.86 1.58 255 255 255
-12.03 -3.85 1.30 255 255 255
-12.35 -3.91 1.53 255 255 255
-12.18 -3.88 1.55 255 255 255
-12.50 -3.91 1.24 255 255 255
-12.18 -3.88 1.28 255 255 255
-12.50 -3.92 1.51 255 255 255
-12.33 -3.87 1.17 255 255 255
-12.04 -3.87 1.49 255 255 255
-12.34 -3.90 1.46 255 255 255
-12.18 -3.87 1.22 255 255 255
-12.19 -3.88 1.47 255 255 255
-12.33 -3.89 0.99 255 255 255
0.79 33.32 1.44 255 255 255
-9.81 1.61 0.06 255 255 255
-12.50 -3.91 1.45 255 255 255
-12.18 -3.87 1.11 255 255 255
-9.94 1.73 0.64 255 255 255
-12.04 -3.85 1.42 255 255 255
-12.33 -3.88 0.58 255 255 255
-9.60 2.07 0.82 255 255 255
2.85 33.61 2.11 255 255 255
-12.34 -3.90 1.39 255 255 255
-12.17 -3.83 0.84 255 255 255
-9.56 2.67 0.91 255 255 255
-6.48 7.68 1.56 255 255 255
0.82 33.31 2.30 255 255 255
-9.24 2.86 1.00 255 255 255
5.05 33.97 1.91 255 255 255
-6.47 7.70 0.73 255 255 255
-6.48 7.67 1.80 255 255 255
-6.47 7.67 1.08 255 255 255
-12.50 -3.91 1.38 255 255 255
-12.37 -3.94 2.12 255 255 255
-12.18 -3.86 1.41 255 255 255
-2.15 24.64 0.82 255 255 255
-12.20 -3.90 1.88 255 255 255
-12.34 -3.89 1.33 255 255 255
-6.46 7.69 1.32 255 255 255
-12.05 -3.87 1.36 255 255 255
-12.36 -3.92 1.77 255 255 255
-0.65 24.74 1.30 255 255 255
-12.51 -3.91 1.31 255 255 255
-12.20 -3.89 1.68 255 255 255
-12.35 -3.91 1.63 255 255 255
-12.19 -3.86 1.35 255 255 255
-12.05 -3.86 1.58 255 255 255
-12.34 -3.88 1.26 255 255 255
-12.04 -3.85 1.30 255 255 255
-12.35 -3.91 1.53 255 255 255
-12.19 -3.88 1.55 255 255 255
-12.51 -3.91 1.24 255 255 255
-12.20 -3.88 1.28 255 255 255
-12.52 -3.92 1.51 255 255 255
-12.05 -3.87 1.49 255 255 255
-12.34 -3.87 1.17 255 255 255
-12.19 -3.87 1.22 255 255 255
-12.35 -3.90 1.46 255 255 255
-12.19 -3.88 1.47 255 255 255
-12.34 -3.88 0.99 255 255 255
-9.80 1.61 0.06 255 255 255
0.94 33.37 1.44 255 255 255
-12.19 -3.87 1.11 255 255 255
-12.51 -3.91 1.45 255 255 255
-9.93 1.72 0.64 255 255 255
-12.05 -3.85 1.43 255 255 255
-12.34 -3.88 0.58 255 255 255
2.99 33.60 2.11 255 255 255
-9.58 2.10 0.82 255 255 255
-12.36 -3.90 1.39 255 255 255
-12.18 -3.84 0.84 255 255 255
-6.45 7.67 1.56 255 255 255
-9.56 2.63 0.91 255 255 255
-9.24 2.83 1.00 255 255 255
0.96 33.33 2.30 255 255 255
5.22 33.99 1.91 255 255 255
-6.44 7.68 0.73 255 255 255
-6.45 7.65 1.80 255 255 255
-6.43 7.67 1.08 255 255 255
-0.90 23.90 0.67 255 255 255
-12.52 -3.91 1.38 255 255 255
-12.19 -3.86 1.41 255 255 255
-12.38 -3.94 2.12 255 255 255
-2.11 24.45 0.83 255 255 255
-12.21 -3.90 1.88 255 255 255
-12.36 -3.90 1.33 255 255 255
-6.42 7.68 1.32 255 255 255
-12.06 -3.87 1.36 255 255 255
-12.36 -3.91 1.77 255 255 255
-0.63 24.54 1.30 255 255 255
-12.21 -3.90 1.68 255 255 255
-12.52 -3.92 1.31 255 255 255
-12.20 -3.87 1.35 255 255 255
-12.37 -3.91 1.63 255 255 255
-12.35 -3.89 1.26 255 255 255
-12.06 -3.86 1.58 255 255 255
-12.05 -3.85 1.30 255 255 255
-12.36 -3.91 1.53 255 255 255
-12.20 -3.87 1.55 255 255 255
-12.52 -3.90 1.24 255 255 255
-12.20 -3.88 1.28 255 255 255
-12.53 -3.92 1.51 255 255 255
-12.06 -3.87 1.49 255 255 255
-12.35 -3.88 1.17 255 255 255
-12.36 -3.90 1.46 255 255 255
-12.20 -3.87 1.22 255 255 255
-12.21 -3.88 1.47 255 255 255
-12.35 -3.89 0.98 255 255 255
1.08 33.39 1.44 255 255 255
-9.79 1.61 0.05 255 255 255
-12.20 -3.87 1.11 255 255 255
-12.52 -3.91 1.45 255 255 255
-9.92 1.73 0.64 255 255 255
-12.06 -3.86 1.43 255 255 255
-12.35 -3.88 0.58 255 255 255
-9.55 2.12 0.81 255 255 255
3.14 33.62 2.11 255 255 255
-12.19 -3.84 0.84 255 255 255
-12.37 -3.91 1.39 255 255 255
-6.41 7.67 1.56 255 255 255
-9.55 2.62 0.92 255 255 255
-9.23 2.81 1.00 255 255 255
1.10 33.35 2.30 255 255 255
5.38 33.98 1.91 255 255 255
-6.39 7.70 0.72 255 255 255
-6.42 7.64 1.80 255 255 255
-6.39 7.67 1.08 255 255 255
-0.80 23.89 0.67 255 255 255
-12.53 -3.91 1.38 255 255 255
-12.39 -3.94 2.13 255 255 255
-12.20 -3.86 1.41 255 255 255
-2.06 24.32 0.83 255 255 255
-12.37 -3.90 1.33 255 255 255
-12.22 -3.91 1.88 255 255 255
-6.38 7.69 1.32 255 255 255
-12.07 -3.87 1.36 255 255 255
-12.38 -3.91 1.77 255 255 255
-0.61 24.32 1.31 255 255 255
-12.53 -3.91 1.31 255 255 255
-12.22 -3.90 1.68 255 255 255
-12.38 -3.91 1.63 255 255 255
-12.21 -3.87 1.35 255 255 255
-12.37 -3.89 1.26 255 255 255
-12.07 -3.87 1.58 255 255 255
-12.06 -3.86 1.30 255 255 255
-12.38 -3.92 1.53 255 255 255
-12.21 -3.88 1.55 255 255 255
-12.53 -3.91 1.24 255 255 255
-12.21 -3.87 1.28 255 255 255
-12.54 -3.92 1.51 255 255 255
-12.36 -3.88 1.17 255 255 255
-12.07 -3.87 1.49 255 255 255
-12.38 -3.91 1.46 255 255 255
-12.21 -3.87 1.22 255 255 255
-12.37 -3.90 0.98 255 255 255
-12.22 -3.88 1.47 255 255 255
1.23 33.38 1.45 255 255 255
-9.78 1.61 0.05 255 255 255
-12.53 -3.91 1.45 255 255 255
-12.21 -3.87 1.11 255 255 255
-9.91 1.72 0.64 255 255 255
1.35 25.19 1.13 255 255 255
-12.36 -3.88 0.58 255 255 255
-12.06 -3.85 1.43 255 255 255
3.31 33.65 2.11 255 255 255
-9.55 2.09 0.82 255 255 255
-12.20 -3.84 0.84 255 255 255
-12.38 -3.91 1.39 255 255 255
-6.36 7.67 1.56 255 255 255
-9.53 2.63 0.91 255 255 255
-9.22 2.79 1.01 255 255 255
1.25 33.37 2.30 255 255 255
5.55 34.04 1.91 255 255 255
-6.32 7.73 0.72 255 255 255
-6.37 7.64 1.80 255 255 255
-6.33 7.71 1.08 255 255 255
-0.71 23.85 0.67 255 255 255
-12.54 -3.91 1.38 255 255 255
-12.40 -3.94 2.13 255 255 255
-12.21 -3.86 1.41 255 255 255
-1.98 24.22 0.83 255 255 255
-12.38 -3.90 1.33 255 255 255
-12.23 -3.91 1.88 255 255 255
-6.31 7.72 1.32 255 255 255
-12.39 -3.92 1.77 255 255 255
-12.08 -3.87 1.36 255 255 255
-0.53 24.25 1.31 255 255 255
-12.23 -3.90 1.68 255 255 255
-12.54 -3.91 1.31 255 255 255
-12.22 -3.87 1.35 255 255 255
-12.39 -3.91 1.63 255 255 255
-12.08 -3.86 1.58 255 255 255
-12.38 -3.90 1.26 255 255 255
-12.39 -3.91 1.53 255 255 255
-12.07 -3.85 1.30 255 255 255
-12.54 -3.91 1.24 255 255 255
-12.23 -3.88 1.55 255 255 255
-12.22 -3.88 1.28 255 255 255
-12.55 -3.92 1.51 255 255 255
-12.08 -3.87 1.49 255 255 255
-12.37 -3.88 1.17 255 255 255
-12.22 -3.88 1.22 255 255 255
-12.38 -3.90 1.46 255 255 255
-12.23 -3.88 1.47 255 255 255
-12.38 -3.89 0.98 255 255 255
1.37 33.40 1.45 255 255 255
-9.76 1.61 0.05 255 255 255
-12.22 -3.87 1.11 255 255 255
-12.55 -3.91 1.45 255 255 255
-9.89 1.72 0.64 255 255 255
1.53 25.31 1.13 255 255 255
-12.08 -3.85 1.43 255 255 255
-12.37 -3.88 0.58 255 255 255
3.45 33.67 2.11 255 255 255
-9.54 2.08 0.82 255 255 255
-12.20 -3.83 0.84 255 255 255
-12.38 -3.90 1.39 255 255 255
-9.54 2.58 0.92 255 255 255
-6.30 7.72 1.56 255 255 255
-9.21 2.77 1.01 255 255 255
1.37 33.39 2.30 255 255 255
5.70 34.06 1.91 255 255 255
-6.33 7.66 1.80 255 255 255
-0.61 23.83 0.67 255 255 255
-12.55 -3.91 1.38 255 255 255
-12.22 -3.86 1.41 255 255 255
-12.41 -3.95 2.13 255 255 255
-1.91 24.15 0.83 255 255 255
-12.39 -3.91 1.33 255 255 255
-12.24 -3.91 1.88 255 255 255
-12.40 -3.93 1.77 255 255 255
-12.09 -3.88 1.36 255 255 255
-0.51 24.05 1.31 255 255 255
-12.56 -3.92 1.31 255 255 255
-12.24 -3.90 1.68 255 255 255
-12.23 -3.87 1.35 255 255 255
-12.40 -3.91 1.63 255 255 255
-12.39 -3.89 1.26 255 255 255
-12.08 -3.86 1.58 255 255 255
-12.08 -3.86 1.30 255 255 255
-12.40 -3.91 1.53 255 255 255
-12.56 -3.92 1.24 255 255 255
-12.24 -3.88 1.55 255 255 255
-12.56 -3.92 1.51 255 255 255
-12.23 -3.88 1.28 255 255 255
-12.39 -3.89 1.16 255 255 255
-12.09 -3.88 1.49 255 255 255
-12.40 -3.91 1.46 255 255 255
-12.23 -3.87 1.22 255 255 255
-12.24 -3.89 1.47 255 255 255
-12.39 -3.90 0.98 255 255 255
1.52 33.42 1.45 255 255 255
-9.75 1.61 0.05 255 255 255
-12.23 -3.87 1.11 255 255 255
-12.56 -3.92 1.45 255 255 255
-9.88 1.72 0.64 255 255 255
-12.38 -3.88 0.57 255 255 255
-12.09 -3.86 1.43 255 255 255
-9.53 2.07 0.82 255 255 255
3.61 33.69 2.11 255 255 255
-12.22 -3.84 0.84 255 255 255
-12.40 -3.90 1.39 255 255 255
-9.53 2.56 0.92 255 255 255
1.54 33.42 2.31 255 255 255
-9.20 2.76 1.01 255 255 255
-3.85 13.87 1.68 255 255 255
-3.85 13.87 2.08 255 255 255
-0.52 23.82 0.67 255 255 255
-12.56 -3.91 1.38 255 255 255
-12.23 -3.86 1.41 255 255 255
-12.42 -3.94 2.13 255 255 255
-1.83 24.11 0.83 255 255 255
-12.26 -3.91 1.89 255 255 255
-12.40 -3.90 1.33 255 255 255
-12.41 -3.93 1.77 255 255 255
-12.10 -3.88 1.36 255 255 255
-0.40 24.05 1.31 255 255 255
-12.57 -3.91 1.31 255 255 255
-12.25 -3.90 1.68 255 255 255
-12.41 -3.93 1.64 255 255 255
-12.24 -3.88 1.35 255 255 255
-12.40 -3.89 1.26 255 255 255
-12.10 -3.86 1.58 255 255 255
-12.41 -3.91 1.53 255 255 255
-12.09 -3.86 1.30 255 255 255
-12.25 -3.88 1.56 255 255 255
-12.57 -3.92 1.24 255 255 255
-12.58 -3.93 1.51 255 255 255
-12.25 -3.89 1.28 255 255 255
-12.40 -3.89 1.16 255 255 255
-12.10 -3.88 1.49 255 255 255
-12.41 -3.91 1.46 255 255 255
-12.24 -3.87 1.22 255 255 255
-12.25 -3.89 1.48 255 255 255
-12.41 -3.90 0.98 255 255 255
1.66 33.44 1.45 255 255 255
-9.74 1.62 0.04 255 255 255
-12.57 -3.92 1.45 255 255 255
-12.24 -3.87 1.11 255 255 255
-3.84 13.78 1.29 255 255 255
-9.87 1.72 0.64 255 255 255
-12.39 -3.88 0.57 255 255 255
-12.10 -3.86 1.43 255 255 255
-9.51 2.08 0.82 255 255 255
3.75 33.71 2.12 255 255 255
-12.41 -3.91 1.39 255 255 255
-12.23 -3.85 0.83 255 255 255
8.38 34.42 1.69 255 255 255
-9.51 2.55 0.92 255 255 255
1.68 33.44 2.31 255 255 255
-9.19 2.74 1.01 255 255 255
-3.81 13.82 1.69 255 255 255
8.38 34.38 2.64 255 255 255
-3.80 13.82 2.08 255 255 255
-0.42 23.80 0.67 255 255 255
-12.58 -3.92 1.38 255 255 255
-12.43 -3.95 2.13 255 255 255
-12.25 -3.87 1.41 255 255 255
-1.75 24.05 0.83 255 255 255
-12.27 -3.92 1.89 255 255 255
-12.41 -3.90 1.33 255 255 255
-12.42 -3.92 1.77 255 255 255
-12.11 -3.87 1.36 255 255 255
-12.27 -3.91 1.68 255 255 255
-12.58 -3.92 1.31 255 255 255
-12.42 -3.92 1.64 255 255 255
-12.25 -3.88 1.35 255 255 255
-12.11 -3.87 1.58 255 255 255
-12.41 -3.91 1.26 255 255 255
-12.42 -3.92 1.53 255 255 255
-12.10 -3.86 1.30 255 255 255
-12.26 -3.88 1.56 255 255 255
-12.58 -3.92 1.24 255 255 255
-12.26 -3.89 1.28 255 255 255
-12.59 -3.93 1.52 255 255 255
-12.11 -3.88 1.49 255 255 255
-12.41 -3.90 1.16 255 255 255
-12.25 -3.87 1.22 255 255 255
-12.42 -3.91 1.46 255 255 255
-12.26 -3.90 1.47 255 255 255
-12.42 -3.91 0.98 255 255 255
1.82 33.47 1.45 255 255 255
-9.73 1.61 0.04 255 255 255
-12.25 -3.87 1.11 255 255 255
-12.58 -3.91 1.45 255 255 255
-9.85 1.72 0.64 255 255 255
-3.80 13.74 1.29 255 255 255
-12.10 -3.86 1.43 255 255 255
-12.40 -3.88 0.57 255 255 255
3.92 33.73 2.12 255 255 255
-9.53 2.01 0.83 255 255 255
-12.42 -3.91 1.40 255 255 255
-12.24 -3.85 0.83 255 255 255
8.56 34.42 1.69 255 255 255
-9.50 2.53 0.93 255 255 255
1.82 33.46 2.31 255 255 255
-9.18 2.72 1.01 255 255 255
-3.78 13.75 1.68 255 255 255
8.57 34.38 2.64 255 255 255
-3.77 13.75 2.08 255 255 255
-0.32 23.78 0.67 255 255 255
-3.76 13.74 2.47 255 255 255
-12.59 -3.92 1.38 255 255 255
-12.44 -3.95 2.13 255 255 255
-12.26 -3.87 1.41 255 255 255
-1.65 24.01 0.83 255 255 255
-12.42 -3.91 1.33 255 255 255
-12.28 -3.92 1.89 255 255 255
-12.12 -3.88 1.36 255 255 255
-12.43 -3.92 1.77 255 255 255
-12.27 -3.90 1.68 255 255 255
-12.59 -3.91 1.31 255 255 255
-12.26 -3.88 1.35 255 255 255
-12.43 -3.93 1.64 255 255 255
-12.12 -3.87 1.58 255 255 255
-12.43 -3.91 1.26 255 255 255
-12.43 -3.92 1.53 255 255 255
-12.11 -3.87 1.30 255 255 255
-12.27 -3.89 1.56 255 255 255
-12.59 -3.92 1.24 255 255 255
-12.27 -3.88 1.28 255 255 255
-12.59 -3.92 1.51 255 255 255
-12.12 -3.88 1.49 255 255 255
-12.42 -3.90 1.16 255 255 255
-12.27 -3.88 1.22 255 255 255
-12.43 -3.91 1.46 255 255 255
-12.43 -3.91 0.98 255 255 255
-12.28 -3.90 1.48 255 255 255
-9.72 1.60 0.04 255 255 255
1.94 33.48 1.45 255 255 255
-12.60 -3.92 1.45 255 255 255
-12.26 -3.87 1.11 255 255 255
-3.75 13.71 1.29 255 255 255
-9.84 1.71 0.64 255 255 255
-12.11 -3.85 1.43 255 255 255
-12.41 -3.88 0.57 255 255 255
-9.51 2.02 0.82 255 255 255
4.07 33.76 2.12 255 255 255
-12.25 -3.85 0.83 255 255 255
-12.43 -3.92 1.39 255 255 255
8.73 34.44 1.69 255 255 255
-9.49 2.53 0.93 255 255 255
-9.17 2.70 1.01 255 255 255
1.96 33.48 2.31 255 255 255
-3.73 13.73 1.68 255 255 255
8.74 34.43 2.65 255 255 255
-6.61 7.88 0.84 255 255 255
-3.72 13.72 2.08 255 255 255
-3.73 13.71 2.47 255 255 255
-0.23 23.76 0.67 255 255 255
-12.60 -3.91 1.38 255 255 255
-12.46 -3.95 2.14 255 255 255
-12.27 -3.87 1.41 255 255 255
-1.56 23.99 0.83 255 255 255
-12.43 -3.91 1.33 255 255 255
-12.29 -3.92 1.89 255 255 255
-12.45 -3.93 1.77 255 255 255
-12.13 -3.88 1.36 255 255 255
-12.29 -3.91 1.68 255 255 255
-12.60 -3.91 1.31 255 255 255
-12.27 -3.88 1.35 255 255 255
-12.44 -3.92 1.64 255 255 255
-12.44 -3.91 1.26 255 255 255
-12.13 -3.87 1.58 255 255 255
-12.12 -3.86 1.30 255 255 255
-12.45 -3.93 1.53 255 255 255
-12.28 -3.90 1.56 255 255 255
-12.60 -3.92 1.24 255 255 255
-12.28 -3.88 1.28 255 255 255
-12.61 -3.93 1.52 255 255 255
-12.13 -3.87 1.49 255 255 255
-12.43 -3.89 1.16 255 255 255
-12.27 -3.88 1.22 255 255 255
-12.44 -3.91 1.46 255 255 255
-12.29 -3.90 1.48 255 255 255
-12.44 -3.91 0.98 255 255 255
-9.70 1.60 0.04 255 255 255
2.11 33.51 1.45 255 255 255
-12.61 -3.92 1.45 255 255 255
-12.27 -3.87 1.11 255 255 255
-3.69 13.68 1.29 255 255 255
-9.83 1.71 0.64 255 255 255
-12.43 -3.88 0.57 255 255 255
-12.12 -3.85 1.43 255 255 255
-9.49 2.02 0.82 255 255 255
4.23 33.78 2.12 255 255 255
-12.44 -3.91 1.39 255 255 255
-12.26 -3.84 0.83 255 255 255
-9.48 2.50 0.93 255 255 255
8.91 34.47 1.69 255 255 255
2.12 33.50 2.31 255 255 255
-9.17 2.68 1.01 255 255 255
-3.66 13.72 1.69 255 255 255
8.95 34.49 2.65 255 255 255
-6.60 7.81 0.84 255 255 255
-3.66 13.71 2.08 255 255 255
-0.12 23.76 0.67 255 255 255
-3.66 13.71 2.47 255 255 255
-12.61 -3.91 1.38 255 255 255
-6.58 7.85 1.14 255 255 255
-12.28 -3.87 1.41 255 255 255
-12.47 -3.95 2.14 255 255 255
-1.47 23.98 0.83 255 255 255
-12.30 -3.92 1.89 255 255 255
-12.44 -3.91 1.33 255 255 255
-12.14 -3.88 1.36 255 255 255
-12.46 -3.93 1.78 255 255 255
-12.61 -3.92 1.31 255 255 255
-12.29 -3.90 1.68 255 255 255
-12.46 -3.92 1.64 255 255 255
-12.28 -3.88 1.35 255 255 255
-12.45 -3.90 1.26 255 255 255
-12.14 -3.86 1.58 255 255 255
-12.46 -3.92 1.53 255 255 255
-12.13 -3.87 1.30 255 255 255
-12.62 -3.92 1.24 255 255 255
-12.29 -3.89 1.56 255 255 255
-12.62 -3.93 1.52 255 255 255
-12.29 -3.89 1.28 255 255 255
-12.45 -3.90 1.16 255 255 255
-12.14 -3.88 1.49 255 255 255
-12.28 -3.87 1.22 255 255 255
-12.45 -3.91 1.46 255 255 255
-12.30 -3.91 1.48 255 255 255
-12.45 -3.91 0.98 255 255 255
-9.69 1.61 0.04 255 255 255
2.25 33.53 1.45 255 255 255
-12.28 -3.87 1.10 255 255 255
-12.62 -3.92 1.45 255 255 255
-9.82 1.71 0.64 255 255 255
-6.57 7.82 1.38 255 255 255
-12.14 -3.86 1.43 255 255 255
-12.44 -3.89 0.56 255 255 255
4.38 33.80 2.12 255 255 255
-9.50 1.99 0.83 255 255 255
-12.46 -3.91 1.39 255 255 255
-12.27 -3.85 0.83 255 255 255
9.08 34.49 1.70 255 255 255
-9.47 2.50 0.93 255 255 255
-9.15 2.67 1.01 255 255 255
2.27 33.52 2.32 255 255 255
-6.56 7.83 1.62 255 255 255
9.12 34.52 2.65 255 255 255
-6.58 7.78 0.84 255 255 255
-6.54 7.85 1.86 255 255 255
-0.03 23.75 0.67 255 255 255
-3.58 13.73 2.47 255 255 255
-12.62 -3.92 1.38 255 255 255
-6.57 7.78 1.14 255 255 255
-12.48 -3.95 2.14 255 255 255
-12.29 -3.87 1.41 255 255 255
-1.38 23.96 0.83 255 255 255
-12.46 -3.91 1.33 255 255 255
-12.31 -3.92 1.89 255 255 255
-12.15 -3.88 1.36 255 255 255
-12.47 -3.93 1.78 255 255 255
-12.62 -3.92 1.31 255 255 255
-12.31 -3.92 1.69 255 255 255
-12.30 -3.89 1.35 255 255 255
-12.47 -3.93 1.64 255 255 255
-12.46 -3.91 1.26 255 255 255
-12.15 -3.87 1.58 255 255 255
-12.14 -3.86 1.30 255 255 255
-12.47 -3.92 1.53 255 255 255
-12.63 -3.92 1.24 255 255 255
-12.30 -3.89 1.56 255 255 255
-12.63 -3.93 1.52 255 255 255
-12.30 -3.90 1.28 255 255 255
-12.46 -3.90 1.16 255 255 255
-12.15 -3.88 1.49 255 255 255
-12.46 -3.91 1.46 255 255 255
-12.29 -3.88 1.22 255 255 255
-12.30 -3.90 1.48 255 255 255
-12.46 -3.91 0.98 255 255 255
-9.67 1.61 0.03 255 255 255
2.40 33.55 1.45 255 255 255
-12.29 -3.87 1.10 255 255 255
-12.63 -3.93 1.45 255 255 255
-9.81 1.71 0.63 255 255 255
-6.56 7.76 1.38 255 255 255
-12.14 -3.86 1.43 255 255 255
-12.45 -3.88 0.56 255 255 255
-9.52 1.92 0.84 255 255 255
4.53 33.82 2.12 255 255 255
-12.29 -3.86 0.83 255 255 255
-12.47 -3.92 1.39 255 255 255
9.27 34.52 1.70 255 255 255
-9.47 2.47 0.93 255 255 255
-9.15 2.64 1.02 255 255 255
2.43 33.54 2.32 255 255 255
-6.55 7.78 1.62 255 255 255
9.30 34.55 2.66 255 255 255
-6.57 7.72 0.85 255 255 255
-6.54 7.78 1.86 255 255 255
0.07 23.73 0.67 255 255 255
-6.53 7.79 2.10 255 255 255
-12.64 -3.93 1.38 255 255 255
-6.54 7.76 1.14 255 255 255
-12.30 -3.88 1.41 255 255 255
-12.49 -3.95 2.14 255 255 255
-1.29 23.94 0.83 255 255 255
-12.32 -3.93 1.89 255 255 255
-12.47 -3.91 1.33 255 255 255
-12.16 -3.89 1.36 255 255 255
-12.48 -3.93 1.78 255 255 255
-12.32 -3.91 1.69 255 255 255
-12.63 -3.92 1.31 255 255 255
-12.48 -3.94 1.64 255 255 255
-12.31 -3.90 1.35 255 255 255
-12.16 -3.87 1.58 255 255 255
-12.47 -3.91 1.26 255 255 255
-12.48 -3.93 1.53 255 255 255
-12.16 -3.87 1.30 255 255 255
-12.64 -3.92 1.24 255 255 255
-12.31 -3.89 1.56 255 255 255
-12.31 -3.89 1.28 255 255 255
-12.65 -3.94 1.52 255 255 255
-12.47 -3.91 1.16 255 255 255
-12.16 -3.89 1.49 255 255 255
-12.48 -3.92 1.46 255 255 255
-12.30 -3.88 1.22 255 255 255
-12.47 -3.91 0.97 255 255 255
-12.32 -3.90 1.48 255 255 255
-9.65 1.63 0.02 255 255 255
2.54 33.57 1.45 255 255 255
-12.30 -3.87 1.10 255 255 255
-12.65 -3.93 1.45 255 255 255
-6.54 7.73 1.38 255 255 255
-9.80 1.71 0.63 255 255 255
-12.46 -3.89 0.56 255 255 255
-12.15 -3.86 1.43 255 255 255
4.70 33.85 2.13 255 255 255
-12.48 -3.92 1.39 255 255 255
-12.30 -3.87 0.82 255 255 255
9.46 34.55 1.70 255 255 255
-9.45 2.46 0.93 255 255 255
-9.18 2.54 1.03 255 255 255
2.56 33.57 2.32 255 255 255
-6.53 7.73 1.62 255 255 255
9.48 34.54 2.66 255 255 255
-6.53 7.73 0.85 255 255 255
-6.53 7.71 1.85 255 255 255
-6.52 7.74 2.09 255 255 255
0.17 23.71 0.67 255 255 255
-12.65 -3.93 1.38 255 255 255
-6.52 7.72 1.14 255 255 255
-12.50 -3.95 2.14 255 255 255
-12.31 -3.87 1.41 255 255 255
-1.19 23.92 0.83 255 255 255
-6.51 7.74 2.51 255 255 255
-12.48 -3.91 1.33 255 255 255
-12.34 -3.93 1.89 255 255 255
-12.50 -3.94 1.78 255 255 255
-12.17 -3.89 1.36 255 255 255
0.27 23.92 1.31 255 255 255
-12.33 -3.91 1.69 255 255 255
-12.65 -3.92 1.31 255 255 255
-12.32 -3.90 1.35 255 255 255
-12.49 -3.93 1.64 255 255 255
-12.17 -3.88 1.59 255 255 255
-12.48 -3.91 1.26 255 255 255
-12.16 -3.87 1.30 255 255 255
-12.49 -3.92 1.53 255 255 255
-12.32 -3.89 1.56 255 255 255
-12.65 -3.92 1.24 255 255 255
-12.32 -3.89 1.28 255 255 255
-12.66 -3.93 1.52 255 255 255
-12.48 -3.90 1.16 255 255 255
-12.17 -3.88 1.49 255 255 255
-12.32 -3.88 1.22 255 255 255
-12.49 -3.91 1.46 255 255 255
-12.33 -3.91 1.48 255 255 255
-12.48 -3.91 0.97 255 255 255
2.70 33.59 1.45 255 255 255
-12.31 -3.88 1.10 255 255 255
-12.66 -3.93 1.45 255 255 255
-9.78 1.71 0.63 255 255 255
-6.51 7.70 1.38 255 255 255
-12.47 -3.88 0.56 255 255 255
-12.16 -3.85 1.43 255 255 255
4.86 33.87 2.13 255 255 255
-9.50 1.90 0.84 255 255 255
-12.49 -3.92 1.39 255 255 255
-12.31 -3.87 0.82 255 255 255
-9.44 2.45 0.93 255 255 255
9.64 34.58 1.70 255 255 255
2.70 33.59 2.32 255 255 255
-6.50 7.70 1.62 255 255 255
9.65 34.56 2.66 255 255 255
-6.50 7.70 0.85 255 255 255
-6.51 7.68 1.85 255 255 255
0.26 23.71 0.67 255 255 255
-6.51 7.68 2.09 255 255 255
-12.66 -3.93 1.38 255 255 255
-6.49 7.71 1.14 255 255 255
-12.51 -3.95 2.14 255 255 255
-12.32 -3.87 1.41 255 255 255
-1.08 23.91 0.83 255 255 255
-6.51 7.67 2.51 255 255 255
-12.49 -3.91 1.33 255 255 255
-12.35 -3.93 1.89 255 255 255
-12.18 -3.89 1.36 255 255 255
-12.51 -3.94 1.78 255 255 255
0.46 24.08 1.31 255 255 255
-12.66 -3.92 1.31 255 255 255
-12.34 -3.92 1.69 255 255 255
-12.33 -3.90 1.35 255 255 255
-12.51 -3.94 1.64 255 255 255
-12.18 -3.88 1.59 255 255 255
-12.49 -3.91 1.26 255 255 255
-12.17 -3.87 1.30 255 255 255
-12.50 -3.93 1.53 255 255 255
-12.34 -3.90 1.56 255 255 255
-12.66 -3.92 1.24 255 255 255
-12.34 -3.90 1.28 255 255 255
-12.67 -3.94 1.52 255 255 255
-12.49 -3.91 1.16 255 255 255
-12.18 -3.88 1.49 255 255 255
-12.50 -3.92 1.46 255 255 255
-12.33 -3.88 1.22 255 255 255
-12.50 -3.92 0.97 255 255 255
-12.34 -3.91 1.48 255 255 255
2.84 33.62 1.45 255 255 255
-12.68 -3.94 1.45 255 255 255
-12.32 -3.88 1.10 255 255 255
-9.77 1.70 0.63 255 255 255
-6.48 7.67 1.38 255 255 255
-12.18 -3.87 1.43 255 255 255
-12.49 -3.89 0.56 255 255 255
-9.49 1.88 0.85 255 255 255
5.01 33.89 2.13 255 255 255
-12.32 -3.86 0.82 255 255 255
-12.50 -3.92 1.39 255 255 255
9.82 34.63 1.70 255 255 255
-9.44 2.43 0.93 255 255 255
2.87 33.61 2.33 255 255 255
-6.48 7.67 1.62 255 255 255
9.86 34.63 2.67 255 255 255
-6.46 7.69 0.85 255 255 255
-6.48 7.66 1.85 255 255 255
0.36 23.68 0.67 255 255 255
-6.49 7.65 2.09 255 255 255
-12.68 -3.93 1.38 255 255 255
-6.46 7.69 1.14 255 255 255
-12.53 -3.95 2.14 255 255 255
-12.33 -3.87 1.41 255 255 255
-6.48 7.64 2.51 255 255 255
-0.99 23.89 0.83 255 255 255
-12.50 -3.91 1.33 255 255 255
-12.36 -3.94 1.90 255 255 255
-12.52 -3.95 1.78 255 255 255
-12.19 -3.89 1.36 255 255 255
-12.35 -3.92 1.69 255 255 255
-12.67 -3.92 1.31 255 255 255
-12.34 -3.90 1.35 255 255 255
-12.52 -3.94 1.64 255 255 255
-12.19 -3.87 1.58 255 255 255
-12.50 -3.91 1.26 255 255 255
-12.19 -3.87 1.30 255 255 255
-12.51 -3.92 1.53 255 255 255
-12.35 -3.90 1.56 255 255 255
-12.68 -3.93 1.24 255 255 255
-12.35 -3.90 1.28 255 255 255
-12.69 -3.94 1.52 255 255 255
-12.50 -3.91 1.16 255 255 255
-12.19 -3.88 1.49 255 255 255
-12.34 -3.89 1.22 255 255 255
-12.51 -3.91 1.46 255 255 255
-12.35 -3.91 1.48 255 255 255
-12.51 -3.91 0.97 255 255 255
2.99 33.64 1.45 255 255 255
-12.34 -3.88 1.10 255 255 255
-12.69 -3.94 1.45 255 255 255
-9.76 1.71 0.63 255 255 255
-6.45 7.66 1.38 255 255 255
-12.18 -3.86 1.43 255 255 255
-12.49 -3.89 0.56 255 255 255
-9.47 1.89 0.84 255 255 255
5.17 33.92 2.13 255 255 255
-12.33 -3.87 0.82 255 255 255
-12.51 -3.92 1.40 255 255 255
10.01 34.66 1.70 255 255 255
-9.43 2.42 0.94 255 255 255
3.01 33.63 2.33 255 255 255
-9.12 2.56 1.02 255 255 255
-6.44 7.68 1.62 255 255 255
10.04 34.69 2.67 255 255 255
-6.43 7.69 0.84 255 255 255
-6.44 7.65 1.85 255 255 255
-6.45 7.64 2.09 255 255 255
0.46 23.68 0.67 255 255 255
-12.70 -3.95 1.38 255 255 255
-6.43 7.68 1.14 255 255 255
-12.34 -3.87 1.41 255 255 255
-12.54 -3.95 2.15 255 255 255
-0.91 23.87 0.83 255 255 255
-6.46 7.62 2.50 255 255 255
-12.37 -3.93 1.90 255 255 255
-12.51 -3.91 1.33 255 255 255
4.93 25.92 0.92 255 255 255
-12.53 -3.95 1.78 255 255 255
-12.20 -3.89 1.36 255 255 255
-12.36 -3.92 1.69 255 255 255
-12.69 -3.93 1.31 255 255 255
-12.35 -3.90 1.35 255 255 255
-12.53 -3.94 1.64 255 255 255
-12.20 -3.88 1.59 255 255 255
-12.51 -3.91 1.26 255 255 255
-12.52 -3.93 1.53 255 255 255
-12.19 -3.87 1.30 255 255 255
-12.36 -3.90 1.56 255 255 255
-12.69 -3.93 1.24 255 255 255
-12.70 -3.95 1.52 255 255 255
-12.36 -3.91 1.28 255 255 255
-12.51 -3.91 1.16 255 255 255
-12.20 -3.89 1.49 255 255 255
-12.52 -3.92 1.46 255 255 255
-12.35 -3.89 1.22 255 255 255
-12.52 -3.91 0.97 255 255 255
-12.36 -3.91 1.48 255 255 255
3.14 33.66 1.45 255 255 255
-12.70 -3.95 1.45 255 255 255
-12.34 -3.87 1.10 255 255 255
-6.41 7.68 1.38 255 255 255
-9.74 1.70 0.63 255 255 255
-12.20 -3.87 1.43 255 255 255
-12.51 -3.90 0.55 255 255 255
-9.46 1.89 0.84 255 255 255
5.32 33.94 2.13 255 255 255
-12.34 -3.87 0.82 255 255 255
-12.52 -3.92 1.40 255 255 255
10.19 34.69 1.70 255 255 255
-9.42 2.39 0.94 255 255 255
-9.11 2.56 1.02 255 255 255
3.17 33.65 2.33 255 255 255
-6.40 7.67 1.62 255 255 255
-6.37 7.71 0.84 255 255 255
-6.41 7.64 1.85 255 255 255
-6.42 7.62 2.09 255 255 255
0.57 23.68 0.67 255 255 255
-12.71 -3.95 1.38 255 255 255
-6.38 7.69 1.14 255 255 255
-12.55 -3.95 2.15 255 255 255
-12.35 -3.88 1.41 255 255 255
-6.43 7.60 2.50 255 255 255
-0.81 23.85 0.83 255 255 255
-12.52 -3.91 1.33 255 255 255
-12.38 -3.93 1.90 255 255 255
4.94 25.73 0.92 255 255 255
-12.54 -3.95 1.78 255 255 255
-12.21 -3.89 1.36 255 255 255
-12.38 -3.92 1.69 255 255 255
-12.70 -3.93 1.31 255 255 255
-12.37 -3.91 1.34 255 255 255
-12.55 -3.95 1.64 255 255 255
-12.21 -3.88 1.59 255 255 255
-12.53 -3.91 1.26 255 255 255
-12.21 -3.88 1.30 255 255 255
-12.54 -3.93 1.53 255 255 255
-12.37 -3.90 1.56 255 255 255
-12.70 -3.93 1.24 255 255 255
-12.37 -3.91 1.28 255 255 255
-12.72 -3.95 1.52 255 255 255
-12.21 -3.89 1.49 255 255 255
-12.53 -3.91 1.16 255 255 255
-12.37 -3.90 1.21 255 255 255
-12.53 -3.92 1.46 255 255 255
-12.37 -3.91 1.48 255 255 255
-12.53 -3.91 0.97 255 255 255
3.30 33.68 1.45 255 255 255
-12.36 -3.88 1.10 255 255 255
-12.71 -3.94 1.45 255 255 255
-9.74 1.69 0.63 255 255 255
-6.35 7.70 1.38 255 255 255
-12.21 -3.87 1.43 255 255 255
-12.52 -3.90 0.55 255 255 255
-9.45 1.88 0.84 255 255 255
5.49 33.96 2.13 255 255 255
-12.54 -3.93 1.39 255 255 255
-12.35 -3.87 0.82 255 255 255
-9.41 2.38 0.94 255 255 255
10.38 34.72 1.70 255 255 255
3.32 33.68 2.33 255 255 255
-9.10 2.54 1.02 255 255 255
-6.35 7.69 1.62 255 255 255
10.39 34.67 2.68 255 255 255
-6.31 7.75 0.84 255 255 255
-6.36 7.65 1.86 255 255 255
-6.37 7.63 2.09 255 255 255
0.67 23.66 0.67 255 255 255
-12.72 -3.95 1.38 255 255 255
-6.31 7.73 1.14 255 255 255
-12.36 -3.88 1.41 255 255 255
-12.56 -3.96 2.15 255 255 255
-0.71 23.83 0.83 255 255 255
-6.39 7.59 2.51 255 255 255
-12.39 -3.93 1.90 255 255 255
-12.54 -3.91 1.33 255 255 255
5.02 25.63 0.92 255 255 255
-12.22 -3.88 1.36 255 255 255
-12.56 -3.94 1.78 255 255 255
-12.71 -3.93 1.31 255 255 255
-12.38 -3.92 1.69 255 255 255
-12.56 -3.94 1.64 255 255 255
-12.38 -3.90 1.34 255 255 255
-12.22 -3.89 1.59 255 255 255
-12.54 -3.91 1.26 255 255 255
-12.22 -3.88 1.30 255 255 255
-12.55 -3.93 1.53 255 255 255
-12.38 -3.90 1.56 255 255 255
-12.71 -3.93 1.24 255 255 255
-12.38 -3.91 1.28 255 255 255
-12.73 -3.95 1.52 255 255 255
-12.22 -3.89 1.49 255 255 255
-12.54 -3.91 1.16 255 255 255
-12.38 -3.90 1.21 255 255 255
-12.54 -3.92 1.46 255 255 255
-12.54 -3.92 0.97 255 255 255
-12.39 -3.92 1.48 255 255 255
-0.31 24.67 1.47 255 255 255
-12.37 -3.88 1.10 255 255 255
-12.73 -3.95 1.45 255 255 255
-9.72 1.70 0.63 255 255 255
-12.22 -3.87 1.43 255 255 255
-12.53 -3.89 0.55 255 255 255
5.65 33.99 2.14 255 255 255
-9.43 1.88 0.84 255 255 255
-12.36 -3.87 0.82 255 255 255
-12.55 -3.93 1.39 255 255 255
10.56 34.74 1.70 255 255 255
-9.41 2.35 0.94 255 255 255
-9.09 2.53 1.03 255 255 255
3.46 33.70 2.33 255 255 255
10.59 34.73 2.68 255 255 255
-6.31 7.68 1.86 255 255 255
-6.31 7.67 2.10 255 255 255
-12.73 -3.94 1.38 255 255 255
-12.38 -3.88 1.41 255 255 255
-12.58 -3.96 2.15 255 255 255
-6.34 7.60 2.51 255 255 255
-0.61 23.83 0.83 255 255 255
-12.40 -3.94 1.90 255 255 255
-12.54 -3.91 1.33 255 255 255
5.06 25.48 0.92 255 255 255
-12.23 -3.89 1.36 255 255 255
-12.57 -3.95 1.78 255 255 255
-12.73 -3.93 1.31 255 255 255
-12.39 -3.92 1.69 255 255 255
-12.39 -3.90 1.34 255 255 255
-12.56 -3.94 1.64 255 255 255
-12.23 -3.89 1.59 255 255 255
-12.55 -3.91 1.26 255 255 255
-12.23 -3.88 1.30 255 255 255
-12.56 -3.94 1.53 255 255 255
-12.39 -3.91 1.56 255 255 255
-12.73 -3.93 1.24 255 255 255
-12.40 -3.92 1.28 255 255 255
-12.74 -3.96 1.52 255 255 255
-12.23 -3.89 1.49 255 255 255
-12.55 -3.91 1.16 255 255 255
-12.55 -3.92 1.46 255 255 255
-12.39 -3.90 1.21 255 255 255
-12.55 -3.91 0.97 255 255 255
-12.40 -3.92 1.48 255 255 255
-0.30 24.46 1.47 255 255 255
-12.38 -3.88 1.10 255 255 255
-12.74 -3.95 1.45 255 255 255
-9.71 1.70 0.63 255 255 255
-12.23 -3.87 1.43 255 255 255
-12.54 -3.89 0.55 255 255 255
-9.41 1.91 0.84 255 255 255
5.82 34.01 2.14 255 255 255
-12.37 -3.87 0.82 255 255 255
-12.56 -3.92 1.39 255 255 255
-9.39 2.35 0.94 255 255 255
10.77 34.77 1.70 255 255 255
3.62 33.72 2.34 255 255 255
-9.08 2.52 1.03 255 255 255
10.78 34.73 2.69 255 255 255
-12.74 -3.94 1.38 255 255 255
-12.59 -3.96 2.15 255 255 255
-12.38 -3.88 1.41 255 255 255
-6.28 7.64 2.52 255 255 255
-0.51 23.82 0.83 255 255 255
-12.56 -3.91 1.33 255 255 255
-12.41 -3.94 1.90 255 255 255
5.11 25.36 0.93 255 255 255
-12.58 -3.95 1.79 255 255 255
-12.24 -3.89 1.36 255 255 255
-12.74 -3.94 1.31 255 255 255
-12.40 -3.92 1.69 255 255 255
-12.40 -3.90 1.34 255 255 255
-12.58 -3.95 1.64 255 255 255
-12.24 -3.89 1.59 255 255 255
-12.56 -3.91 1.26 255 255 255
-12.24 -3.88 1.30 255 255 255
-12.57 -3.93 1.53 255 255 255
-12.74 -3.93 1.24 255 255 255
-12.40 -3.91 1.56 255 255 255
-12.76 -3.96 1.52 255 255 255
-12.41 -3.92 1.28 255 255 255
-12.24 -3.89 1.49 255 255 255
-12.56 -3.91 1.16 255 255 255
-12.57 -3.93 1.46 255 255 255
-12.40 -3.90 1.21 255 255 255
-12.56 -3.91 0.97 255 255 255
-12.41 -3.92 1.48 255 255 255
-0.28 24.27 1.47 255 255 255
-12.39 -3.89 1.10 255 255 255
-12.75 -3.95 1.45 255 255 255
-9.70 1.70 0.63 255 255 255
8.39 34.43 0.98 255 255 255
-12.56 -3.90 0.54 255 255 255
-12.24 -3.88 1.43 255 255 255
-9.40 1.89 0.84 255 255 255
-3.82 13.81 1.78 255 255 255
-12.57 -3.92 1.39 255 255 255
-12.39 -3.87 0.82 255 255 255
10.95 34.80 1.70 255 255 255
-9.38 2.35 0.94 255 255 255
-9.07 2.50 1.03 255 255 255
3.77 33.74 2.34 255 255 255
8.41 34.42 1.93 255 255 255
10.96 34.76 2.69 255 255 255
-12.75 -3.94 1.38 255 255 255
-12.60 -3.97 2.16 255 255 255
-12.40 -3.88 1.41 255 255 255
-0.42 23.81 0.83 255 255 255
-12.42 -3.93 1.90 255 255 255
-12.57 -3.91 1.33 255 255 255
5.18 25.28 0.93 255 255 255
-12.59 -3.95 1.79 255 255 255
-12.25 -3.89 1.36 255 255 255
-3.82 13.76 1.39 255 255 255
-12.42 -3.92 1.69 255 255 255
-12.75 -3.94 1.31 255 255 255
-12.59 -3.95 1.65 255 255 255
-12.41 -3.91 1.34 255 255 255
-12.57 -3.91 1.26 255 255 255
-12.25 -3.89 1.59 255 255 255
-12.58 -3.93 1.53 255 255 255
-12.25 -3.88 1.30 255 255 255
-12.75 -3.93 1.24 255 255 255
-12.41 -3.90 1.56 255 255 255
-12.42 -3.92 1.28 255 255 255
-12.77 -3.97 1.52 255 255 255
-12.25 -3.89 1.49 255 255 255
-12.57 -3.91 1.16 255 255 255
-12.41 -3.90 1.21 255 255 255
-12.58 -3.92 1.46 255 255 255
-12.41 -3.91 1.48 255 255 255
-12.57 -3.91 0.97 255 255 255
-0.21 24.17 1.47 255 255 255
-12.77 -3.95 1.45 255 255 255
-12.41 -3.90 1.10 255 255 255
8.55 34.42 0.98 255 255 255
-9.68 1.70 0.62 255 255 255
-12.57 -3.90 0.54 255 255 255
-12.25 -3.88 1.43 255 255 255
-9.39 1.88 0.84 255 255 255
-3.78 13.77 1.78 255 255 255
-12.40 -3.88 0.81 255 255 255
-12.58 -3.93 1.40 255 255 255
11.14 34.83 1.70 255 255 255
-9.38 2.32 0.95 255 255 255
3.93 33.76 2.34 255 255 255
-9.06 2.49 1.03 255 255 255
8.59 34.48 1.93 255 255 255
-3.77 13.77 2.17 255 255 255
11.16 34.82 2.69 255 255 255
-12.77 -3.94 1.38 255 255 255
-12.41 -3.89 1.41 255 255 255
-12.61 -3.97 2.16 255 255 255
-0.32 23.78 0.83 255 255 255
-12.43 -3.93 1.90 255 255 255
-12.58 -3.91 1.33 255 255 255
5.26 25.18 0.93 255 255 255
-12.60 -3.95 1.79 255 255 255
-12.26 -3.89 1.36 255 255 255
-3.77 13.73 1.39 255 255 255
-12.43 -3.92 1.69 255 255 255
-12.77 -3.94 1.31 255 255 255
-12.42 -3.91 1.35 255 255 255
-12.61 -3.95 1.65 255 255 255
-12.27 -3.90 1.59 255 255 255
-12.58 -3.91 1.26 255 255 255
-12.60 -3.94 1.53 255 255 255
-12.26 -3.88 1.30 255 255 255
-12.42 -3.90 1.56 255 255 255
-12.76 -3.93 1.24 255 255 255
-12.43 -3.93 1.28 255 255 255
-12.79 -3.97 1.52 255 255 255
-12.27 -3.89 1.49 255 255 255
-12.58 -3.91 1.16 255 255 255
-12.43 -3.91 1.21 255 255 255
-12.59 -3.92 1.46 255 255 255
-12.58 -3.91 0.97 255 255 255
-12.43 -3.91 1.48 255 255 255
-0.12 24.12 1.47 255 255 255
-12.42 -3.90 1.10 255 255 255
-12.78 -3.95 1.45 255 255 255
8.72 34.45 0.98 255 255 255
-9.67 1.70 0.62 255 255 255
-12.26 -3.88 1.43 255 255 255
-12.59 -3.91 0.54 255 255 255
-9.38 1.88 0.84 255 255 255
-3.74 13.72 1.78 255 255 255
-12.41 -3.88 0.81 255 255 255
-12.60 -3.93 1.40 255 255 255
11.35 34.86 1.70 255 255 255
-9.36 2.31 0.95 255 255 255
-9.05 2.47 1.03 255 255 255
4.08 33.79 2.34 255 255 255
-8.94 3.18 1.05 255 255 255
8.77 34.48 1.93 255 255 255
-3.72 13.74 2.17 255 255 255
11.39 34.88 2.70 255 255 255
-12.78 -3.94 1.38 255 255 255
-12.42 -3.88 1.41 255 255 255
-12.63 -3.98 2.16 255 255 255
-0.21 23.78 0.83 255 255 255
-12.45 -3.93 1.90 255 255 255
-12.59 -3.92 1.33 255 255 255
5.27 25.01 0.93 255 255 255
-12.27 -3.89 1.36 255 255 255
-12.62 -3.95 1.79 255 255 255
-3.71 13.70 1.39 255 255 255
-12.44 -3.92 1.69 255 255 255
-12.78 -3.94 1.31 255 255 255
-12.43 -3.91 1.35 255 255 255
-12.62 -3.95 1.65 255 255 255
-12.28 -3.90 1.59 255 255 255
-12.60 -3.91 1.26 255 255 255
-12.27 -3.88 1.30 255 255 255
-12.61 -3.94 1.53 255 255 255
-12.78 -3.93 1.24 255 255 255
-12.43 -3.91 1.56 255 255 255
-12.80 -3.96 1.52 255 255 255
-12.44 -3.92 1.28 255 255 255
-12.28 -3.89 1.49 255 255 255
-12.60 -3.91 1.16 255 255 255
-12.44 -3.92 1.21 255 255 255
-12.61 -3.93 1.46 255 255 255
-12.44 -3.92 1.48 255 255 255
-12.60 -3.92 0.96 255 255 255
-0.04 24.08 1.47 255 255 255
-12.43 -3.90 1.10 255 255 255
-12.79 -3.95 1.45 255 255 255
8.90 34.51 0.98 255 255 255
-9.66 1.69 0.62 255 255 255
-12.60 -3.91 0.54 255 255 255
-12.27 -3.88 1.43 255 255 255
-9.36 1.89 0.84 255 255 255
-3.67 13.72 1.78 255 255 255
-12.42 -3.88 0.81 255 255 255
-12.60 -3.92 1.40 255 255 255
-9.35 2.30 0.95 255 255 255
11.52 34.88 1.70 255 255 255
-9.04 2.45 1.03 255 255 255
4.23 33.81 2.35 255 255 255
-9.22 2.56 1.11 255 255 255
8.94 34.50 1.93 255 255 255
-3.67 13.71 2.17 255 255 255
11.56 34.88 2.70 255 255 255
-6.59 7.84 0.96 255 255 255
-6.58 7.85 1.20 255 255 255
-12.79 -3.94 1.38 255 255 255
-12.64 -3.98 2.17 255 255 255
-12.43 -3.89 1.41 255 255 255
-0.12 23.76 0.83 255 255 255
-12.61 -3.92 1.33 255 255 255
-12.46 -3.94 1.90 255 255 255
5.33 24.89 0.93 255 255 255
-12.28 -3.90 1.36 255 255 255
-12.63 -3.96 1.79 255 255 255
-3.66 13.68 1.39 255 255 255
-12.45 -3.92 1.69 255 255 255
-12.80 -3.95 1.31 255 255 255
-12.62 -3.95 1.65 255 255 255
-12.44 -3.90 1.35 255 255 255
-12.29 -3.90 1.59 255 255 255
-12.61 -3.91 1.26 255 255 255
-12.62 -3.94 1.53 255 255 255
-12.28 -3.88 1.30 255 255 255
-12.44 -3.91 1.56 255 255 255
-12.79 -3.93 1.24 255 255 255
-12.81 -3.97 1.52 255 255 255
-12.45 -3.93 1.28 255 255 255
-12.60 -3.90 1.16 255 255 255
-12.29 -3.90 1.49 255 255 255
-12.62 -3.93 1.46 255 255 255
-12.45 -3.92 1.21 255 255 255
