ply
format ascii 1.0
element vertex 1620
property float x
property float y
property float z
property uchar red
property uchar green
property uchar blue
end_header
-10.17 -3.58 1.32 255 255 255
-10.68 -3.64 1.31 255 255 255
-10.34 -3.63 1.66 255 255 255
-10.51 -3.65 1.61 255 255 255
-10.34 -3.62 1.36 255 255 255
18.94 46.81 3.23 255 255 255
-10.50 -3.64 1.34 255 255 255
-10.34 -3.63 1.84 255 255 255
-10.52 -3.65 1.73 255 255 255
-10.17 -3.58 1.38 255 255 255
9.47 34.55 2.02 255 255 255
-10.68 -3.65 1.38 255 255 255
-10.36 -3.65 2.26 255 255 255
-0.80 19.58 1.99 255 255 255
-10.52 -3.66 2.03 255 255 255
-10.34 -3.61 1.43 255 255 255
6.73 25.96 1.70 255 255 255
7.17 34.18 2.22 255 255 255
-0.77 19.60 1.47 255 255 255
7.20 34.23 1.31 255 255 255
2.29 23.59 0.71 255 255 255
-10.18 -3.59 1.45 255 255 255
-10.50 -3.62 1.41 255 255 255
-10.32 -3.58 0.71 255 255 255
-7.56 1.96 0.54 255 255 255
-0.78 19.54 2.51 255 255 255
-10.35 -3.62 1.49 255 255 255
-10.50 -3.61 0.91 255 255 255
-7.67 2.10 0.82 255 255 255
-10.69 -3.66 1.45 255 255 255
-10.33 -3.58 1.06 255 255 255
-10.50 -3.61 1.12 255 255 255
-10.18 -3.59 1.51 255 255 255
-10.52 -3.64 1.47 255 255 255
-10.33 -3.59 1.19 255 255 255
-10.35 -3.62 1.56 255 255 255
-10.69 -3.66 1.20 255 255 255
-10.69 -3.66 1.52 255 255 255
-10.35 -3.62 1.29 255 255 255
-10.51 -3.63 1.25 255 255 255
-10.19 -3.60 1.57 255 255 255
-10.52 -3.65 1.54 255 255 255
-10.18 -3.58 1.32 255 255 255
-10.69 -3.65 1.31 255 255 255
-10.35 -3.63 1.66 255 255 255
-10.52 -3.65 1.61 255 255 255
-10.35 -3.62 1.36 255 255 255
19.21 46.92 3.24 255 255 255
-10.51 -3.63 1.34 255 255 255
-10.36 -3.63 1.84 255 255 255
-10.52 -3.65 1.73 255 255 255
-10.18 -3.58 1.38 255 255 255
-10.37 -3.66 2.26 255 255 255
-10.70 -3.66 1.38 255 255 255
-0.71 19.59 1.99 255 255 255
-10.53 -3.66 2.03 255 255 255
-10.35 -3.61 1.43 255 255 255
6.76 25.81 1.70 255 255 255
7.31 34.17 2.22 255 255 255
5.10 25.89 1.16 255 255 255
-0.67 19.65 1.47 255 255 255
6.05 24.56 1.00 255 255 255
7.38 34.22 1.31 255 255 255
2.42 23.62 0.71 255 255 255
-10.19 -3.59 1.45 255 255 255
-10.51 -3.62 1.41 255 255 255
-10.33 -3.57 0.71 255 255 255
-0.69 19.57 2.51 255 255 255
-7.54 1.96 0.54 255 255 255
-10.51 -3.61 0.91 255 255 255
-10.35 -3.61 1.49 255 255 255
-7.67 2.07 0.82 255 255 255
-10.71 -3.67 1.45 255 255 255
-10.34 -3.58 1.05 255 255 255
-10.51 -3.62 1.12 255 255 255
-10.19 -3.59 1.51 255 255 255
-10.52 -3.64 1.47 255 255 255
-10.34 -3.59 1.19 255 255 255
-10.70 -3.65 1.20 255 255 255
-10.36 -3.62 1.56 255 255 255
-10.36 -3.62 1.29 255 255 255
-10.70 -3.65 1.52 255 255 255
-10.20 -3.60 1.57 255 255 255
-10.52 -3.63 1.25 255 255 255
-10.53 -3.65 1.54 255 255 255
-10.19 -3.58 1.32 255 255 255
-10.70 -3.64 1.31 255 255 255
-10.36 -3.63 1.66 255 255 255
-10.53 -3.65 1.61 255 255 255
-10.36 -3.62 1.36 255 255 255
19.43 46.88 3.24 255 255 255
-10.53 -3.64 1.34 255 255 255
-10.37 -3.63 1.84 255 255 255
-10.19 -3.59 1.38 255 255 255
-10.54 -3.65 1.73 255 255 255
9.81 34.59 2.02 255 255 255
-10.39 -3.67 2.27 255 255 255
-10.71 -3.66 1.38 255 255 255
-0.62 19.62 2.00 255 255 255
-10.54 -3.66 2.03 255 255 255
-10.36 -3.62 1.43 255 255 255
6.81 25.68 1.70 255 255 255
7.48 34.23 2.22 255 255 255
5.14 25.74 1.16 255 255 255
5.31 33.95 1.53 255 255 255
6.22 24.67 0.99 255 255 255
7.53 34.24 1.31 255 255 255
-10.20 -3.59 1.44 255 255 255
-10.53 -3.63 1.40 255 255 255
-10.34 -3.58 0.70 255 255 255
-7.53 1.95 0.54 255 255 255
-10.52 -3.61 0.91 255 255 255
-10.37 -3.62 1.49 255 255 255
-7.66 2.07 0.82 255 255 255
-10.72 -3.66 1.45 255 255 255
-10.34 -3.58 1.06 255 255 255
-10.20 -3.59 1.51 255 255 255
-10.53 -3.62 1.12 255 255 255
-10.54 -3.65 1.47 255 255 255
-10.35 -3.59 1.19 255 255 255
-10.72 -3.66 1.20 255 255 255
-10.37 -3.63 1.56 255 255 255
-10.37 -3.61 1.29 255 255 255
-10.72 -3.66 1.52 255 255 255
-10.53 -3.63 1.25 255 255 255
-10.21 -3.59 1.57 255 255 255
-10.55 -3.65 1.54 255 255 255
-10.20 -3.59 1.32 255 255 255
-10.72 -3.65 1.31 255 255 255
-10.38 -3.63 1.66 255 255 255
-10.37 -3.62 1.36 255 255 255
-10.55 -3.65 1.61 255 255 255
19.70 46.99 3.25 255 255 255
-10.53 -3.63 1.34 255 255 255
-10.38 -3.63 1.84 255 255 255
-10.55 -3.65 1.73 255 255 255
-10.21 -3.59 1.38 255 255 255
10.02 34.69 2.03 255 255 255
-10.40 -3.66 2.27 255 255 255
-10.73 -3.67 1.38 255 255 255
5.43 33.93 2.41 255 255 255
-10.37 -3.61 1.43 255 255 255
-10.56 -3.67 2.03 255 255 255
6.85 25.54 1.70 255 255 255
5.14 25.54 1.16 255 255 255
5.47 33.95 1.53 255 255 255
6.34 24.65 0.99 255 255 255
7.67 34.26 1.32 255 255 255
-10.22 -3.60 1.44 255 255 255
-10.54 -3.63 1.40 255 255 255
-10.35 -3.58 0.70 255 255 255
-7.52 1.96 0.54 255 255 255
-10.53 -3.61 0.90 255 255 255
-10.38 -3.62 1.49 255 255 255
-7.64 2.08 0.82 255 255 255
-10.35 -3.57 1.05 255 255 255
-10.73 -3.67 1.45 255 255 255
-10.54 -3.62 1.12 255 255 255
-10.22 -3.60 1.51 255 255 255
-10.55 -3.64 1.47 255 255 255
-10.36 -3.59 1.19 255 255 255
-10.73 -3.66 1.20 255 255 255
-10.39 -3.63 1.56 255 255 255
-10.73 -3.66 1.52 255 255 255
-10.38 -3.62 1.29 255 255 255
-10.22 -3.59 1.57 255 255 255
-10.55 -3.64 1.25 255 255 255
-10.21 -3.59 1.32 255 255 255
-10.56 -3.65 1.54 255 255 255
-10.73 -3.65 1.31 255 255 255
-10.39 -3.65 1.66 255 255 255
-10.38 -3.62 1.36 255 255 255
-10.56 -3.65 1.61 255 255 255
19.92 46.99 3.26 255 255 255
-10.39 -3.63 1.84 255 255 255
-10.55 -3.64 1.33 255 255 255
-10.21 -3.58 1.38 255 255 255
-10.56 -3.66 1.73 255 255 255
-10.74 -3.67 1.38 255 255 255
-10.41 -3.67 2.27 255 255 255
5.59 33.95 2.42 255 255 255
-10.38 -3.62 1.43 255 255 255
-10.57 -3.67 2.03 255 255 255
6.90 25.39 1.70 255 255 255
7.81 34.24 2.23 255 255 255
5.19 25.40 1.16 255 255 255
5.62 34.00 1.53 255 255 255
6.50 24.72 0.99 255 255 255
7.86 34.29 1.32 255 255 255
-10.22 -3.59 1.44 255 255 255
-10.55 -3.62 1.40 255 255 255
-10.37 -3.59 0.70 255 255 255
-7.50 1.96 0.53 255 255 255
-10.39 -3.62 1.49 255 255 255
-10.54 -3.61 0.90 255 255 255
-7.61 2.11 0.81 255 255 255
-10.36 -3.57 1.05 255 255 255
-10.75 -3.66 1.45 255 255 255
-10.22 -3.59 1.51 255 255 255
-10.55 -3.62 1.12 255 255 255
-10.38 -3.60 1.19 255 255 255
-10.56 -3.64 1.47 255 255 255
-10.74 -3.66 1.20 255 255 255
-10.40 -3.64 1.56 255 255 255
-10.75 -3.66 1.52 255 255 255
-10.39 -3.63 1.29 255 255 255
-10.23 -3.59 1.57 255 255 255
-10.56 -3.64 1.25 255 255 255
-10.57 -3.65 1.54 255 255 255
-10.22 -3.59 1.32 255 255 255
-10.74 -3.65 1.31 255 255 255
-10.40 -3.63 1.66 255 255 255
-10.57 -3.65 1.61 255 255 255
-10.39 -3.62 1.36 255 255 255
-10.56 -3.64 1.33 255 255 255
-10.40 -3.63 1.84 255 255 255
-10.23 -3.59 1.38 255 255 255
-10.57 -3.65 1.73 255 255 255
10.35 34.67 2.03 255 255 255
-10.42 -3.67 2.27 255 255 255
-10.75 -3.66 1.38 255 255 255
5.74 33.97 2.42 255 255 255
-10.39 -3.62 1.43 255 255 255
-10.58 -3.67 2.03 255 255 255
6.98 25.32 1.70 255 255 255
7.96 34.26 2.23 255 255 255
5.24 25.27 1.16 255 255 255
5.78 33.99 1.53 255 255 255
6.64 24.74 0.99 255 255 255
8.01 34.31 1.32 255 255 255
-10.24 -3.60 1.44 255 255 255
-10.56 -3.63 1.40 255 255 255
-10.38 -3.59 0.70 255 255 255
-7.49 1.96 0.53 255 255 255
-10.56 -3.62 0.90 255 255 255
-10.40 -3.62 1.49 255 255 255
-7.60 2.11 0.81 255 255 255
-10.76 -3.67 1.45 255 255 255
-10.38 -3.59 1.05 255 255 255
-10.23 -3.59 1.51 255 255 255
-10.56 -3.62 1.11 255 255 255
-10.57 -3.65 1.47 255 255 255
-10.39 -3.59 1.19 255 255 255
-10.76 -3.66 1.20 255 255 255
-10.41 -3.64 1.56 255 255 255
-10.76 -3.67 1.52 255 255 255
-10.40 -3.63 1.29 255 255 255
-10.57 -3.64 1.25 255 255 255
-10.24 -3.59 1.57 255 255 255
-10.23 -3.59 1.32 255 255 255
-10.58 -3.65 1.54 255 255 255
-10.41 -3.63 1.66 255 255 255
-10.75 -3.65 1.31 255 255 255
-10.58 -3.65 1.61 255 255 255
-10.40 -3.62 1.36 255 255 255
-10.41 -3.63 1.85 255 255 255
-10.57 -3.64 1.33 255 255 255
-10.23 -3.59 1.38 255 255 255
-10.58 -3.65 1.73 255 255 255
10.53 34.73 2.03 255 255 255
-10.76 -3.67 1.38 255 255 255
-10.43 -3.67 2.27 255 255 255
5.88 33.99 2.42 255 255 255
-10.59 -3.66 2.03 255 255 255
-10.40 -3.62 1.43 255 255 255
7.05 25.24 1.70 255 255 255
8.13 34.29 2.23 255 255 255
5.27 25.13 1.17 255 255 255
5.93 34.04 1.53 255 255 255
6.78 24.78 0.99 255 255 255
8.17 34.33 1.32 255 255 255
-10.25 -3.60 1.44 255 255 255
-10.57 -3.63 1.40 255 255 255
-10.39 -3.59 0.69 255 255 255
-7.47 1.96 0.53 255 255 255
-10.57 -3.62 0.90 255 255 255
-10.41 -3.62 1.49 255 255 255
-7.57 2.14 0.81 255 255 255
-10.39 -3.59 1.05 255 255 255
-10.78 -3.67 1.45 255 255 255
-10.57 -3.62 1.11 255 255 255
-10.25 -3.60 1.51 255 255 255
-10.59 -3.65 1.47 255 255 255
-10.40 -3.60 1.18 255 255 255
-10.77 -3.66 1.20 255 255 255
-10.41 -3.63 1.56 255 255 255
-10.78 -3.67 1.52 255 255 255
-10.41 -3.62 1.29 255 255 255
-10.59 -3.65 1.25 255 255 255
-10.25 -3.60 1.57 255 255 255
-10.24 -3.59 1.32 255 255 255
-10.59 -3.66 1.54 255 255 255
-10.42 -3.63 1.66 255 255 255
-10.76 -3.65 1.31 255 255 255
-10.59 -3.65 1.61 255 255 255
-10.41 -3.62 1.36 255 255 255
-10.59 -3.64 1.33 255 255 255
-10.42 -3.63 1.85 255 255 255
-10.60 -3.66 1.73 255 255 255
-10.25 -3.59 1.38 255 255 255
10.70 34.75 2.03 255 255 255
-10.44 -3.67 2.27 255 255 255
-10.78 -3.67 1.38 255 255 255
6.05 34.02 2.42 255 255 255
-10.60 -3.67 2.04 255 255 255
-10.42 -3.63 1.42 255 255 255
7.05 25.05 1.70 255 255 255
8.30 34.34 2.23 255 255 255
5.32 24.99 1.17 255 255 255
6.09 34.07 1.53 255 255 255
6.92 24.78 0.99 255 255 255
8.35 34.39 1.32 255 255 255
-10.26 -3.60 1.44 255 255 255
-10.40 -3.58 0.69 255 255 255
-10.59 -3.63 1.40 255 255 255
-7.46 1.96 0.53 255 255 255
-10.42 -3.63 1.49 255 255 255
-10.58 -3.62 0.90 255 255 255
-7.55 2.16 0.80 255 255 255
-10.79 -3.68 1.45 255 255 255
-10.40 -3.59 1.05 255 255 255
-10.59 -3.63 1.11 255 255 255
-10.26 -3.61 1.51 255 255 255
-10.60 -3.65 1.47 255 255 255
-10.41 -3.60 1.18 255 255 255
-10.78 -3.66 1.20 255 255 255
-10.43 -3.64 1.56 255 255 255
-10.79 -3.67 1.52 255 255 255
-10.42 -3.62 1.29 255 255 255
-10.26 -3.60 1.57 255 255 255
-10.60 -3.65 1.25 255 255 255
-10.26 -3.59 1.31 255 255 255
-10.61 -3.66 1.54 255 255 255
-10.43 -3.63 1.66 255 255 255
-10.77 -3.65 1.31 255 255 255
-10.42 -3.62 1.36 255 255 255
-10.61 -3.65 1.61 255 255 255
-10.60 -3.65 1.33 255 255 255
-10.43 -3.63 1.85 255 255 255
-10.61 -3.66 1.73 255 255 255
-10.26 -3.59 1.38 255 255 255
10.89 34.78 2.03 255 255 255
-10.79 -3.67 1.38 255 255 255
-10.46 -3.68 2.28 255 255 255
6.21 34.04 2.43 255 255 255
-10.62 -3.67 2.04 255 255 255
-10.43 -3.62 1.42 255 255 255
7.19 25.05 1.70 255 255 255
8.46 34.33 2.24 255 255 255
5.41 24.93 1.17 255 255 255
6.25 34.06 1.53 255 255 255
7.08 24.85 0.99 255 255 255
8.51 34.38 1.32 255 255 255
-10.27 -3.61 1.44 255 255 255
-10.41 -3.59 0.69 255 255 255
-10.60 -3.64 1.40 255 255 255
-7.44 1.97 0.53 255 255 255
-10.44 -3.63 1.49 255 255 255
-10.59 -3.62 0.89 255 255 255
-7.54 2.15 0.80 255 255 255
-10.41 -3.58 1.05 255 255 255
-10.80 -3.67 1.45 255 255 255
-10.60 -3.63 1.11 255 255 255
-10.27 -3.60 1.51 255 255 255
-10.42 -3.61 1.18 255 255 255
-10.61 -3.65 1.47 255 255 255
-10.44 -3.64 1.56 255 255 255
-10.79 -3.66 1.20 255 255 255
-10.43 -3.62 1.29 255 255 255
-10.80 -3.67 1.52 255 255 255
-10.27 -3.60 1.57 255 255 255
-10.61 -3.64 1.25 255 255 255
-10.27 -3.60 1.31 255 255 255
-10.62 -3.66 1.54 255 255 255
-10.79 -3.66 1.31 255 255 255
-10.44 -3.64 1.66 255 255 255
-10.44 -3.63 1.36 255 255 255
-10.62 -3.65 1.61 255 255 255
-10.44 -3.63 1.85 255 255 255
-10.61 -3.64 1.33 255 255 255
-10.27 -3.59 1.38 255 255 255
-10.62 -3.66 1.74 255 255 255
11.07 34.81 2.04 255 255 255
-10.47 -3.67 2.28 255 255 255
-10.80 -3.67 1.38 255 255 255
6.36 34.06 2.43 255 255 255
-10.63 -3.68 2.04 255 255 255
-10.44 -3.63 1.42 255 255 255
7.29 25.00 1.70 255 255 255
8.64 34.39 2.24 255 255 255
5.51 24.89 1.17 255 255 255
6.40 34.08 1.54 255 255 255
7.20 24.82 0.99 255 255 255
8.68 34.41 1.32 255 255 255
-10.78 -3.93 -0.08 255 255 255
-10.28 -3.60 1.44 255 255 255
-10.42 -3.59 0.69 255 255 255
-10.61 -3.64 1.40 255 255 255
-7.43 1.97 0.53 255 255 255
-10.61 -3.63 0.89 255 255 255
-10.44 -3.62 1.49 255 255 255
-7.52 2.15 0.80 255 255 255
-10.42 -3.59 1.05 255 255 255
-10.82 -3.68 1.45 255 255 255
-10.28 -3.60 1.51 255 255 255
-10.61 -3.62 1.11 255 255 255
-10.62 -3.65 1.47 255 255 255
-10.43 -3.60 1.18 255 255 255
-10.81 -3.66 1.20 255 255 255
-10.46 -3.64 1.56 255 255 255
-10.81 -3.67 1.52 255 255 255
-10.44 -3.62 1.29 255 255 255
-10.62 -3.64 1.24 255 255 255
-10.28 -3.60 1.57 255 255 255
-10.63 -3.65 1.54 255 255 255
-10.28 -3.60 1.31 255 255 255
-10.80 -3.65 1.31 255 255 255
-10.46 -3.64 1.66 255 255 255
-10.64 -3.66 1.61 255 255 255
-10.45 -3.62 1.36 255 255 255
-10.46 -3.64 1.85 255 255 255
-10.63 -3.65 1.33 255 255 255
-10.28 -3.60 1.38 255 255 255
-10.64 -3.66 1.73 255 255 255
-10.81 -3.66 1.38 255 255 255
-10.48 -3.67 2.28 255 255 255
6.52 34.09 2.43 255 255 255
-10.64 -3.68 2.04 255 255 255
-10.45 -3.63 1.42 255 255 255
8.80 34.38 2.24 255 255 255
5.57 24.79 1.17 255 255 255
6.55 34.13 1.54 255 255 255
7.35 24.86 0.98 255 255 255
8.83 34.43 1.32 255 255 255
-10.29 -3.61 1.44 255 255 255
-10.78 -3.91 -0.07 255 255 255
-10.63 -3.64 1.40 255 255 255
-10.43 -3.59 0.69 255 255 255
-7.42 1.96 0.53 255 255 255
-10.62 -3.63 0.89 255 255 255
-10.46 -3.63 1.49 255 255 255
-7.51 2.16 0.80 255 255 255
-10.83 -3.68 1.45 255 255 255
-10.44 -3.60 1.04 255 255 255
-10.62 -3.62 1.11 255 255 255
-10.29 -3.60 1.51 255 255 255
-10.45 -3.61 1.18 255 255 255
-10.64 -3.65 1.47 255 255 255
-10.46 -3.64 1.56 255 255 255
-10.82 -3.67 1.20 255 255 255
-10.46 -3.63 1.29 255 255 255
-10.83 -3.68 1.52 255 255 255
-10.29 -3.61 1.57 255 255 255
-10.64 -3.65 1.24 255 255 255
-10.29 -3.60 1.31 255 255 255
-10.64 -3.66 1.54 255 255 255
-10.47 -3.64 1.66 255 255 255
-10.82 -3.66 1.31 255 255 255
-10.46 -3.62 1.36 255 255 255
-10.65 -3.66 1.61 255 255 255
-10.47 -3.64 1.85 255 255 255
-10.64 -3.66 1.33 255 255 255
-10.65 -3.66 1.74 255 255 255
-10.29 -3.60 1.38 255 255 255
11.43 34.86 2.04 255 255 255
-10.83 -3.67 1.38 255 255 255
-10.49 -3.67 2.28 255 255 255
6.67 34.11 2.43 255 255 255
-10.66 -3.67 2.04 255 255 255
-10.46 -3.62 1.42 255 255 255
8.66 26.76 1.72 255 255 255
5.67 24.76 1.17 255 255 255
6.71 34.12 1.54 255 255 255
7.47 24.88 0.98 255 255 255
9.02 34.46 1.32 255 255 255
-10.78 -3.89 -0.06 255 255 255
-10.30 -3.61 1.44 255 255 255
-10.64 -3.64 1.40 255 255 255
-10.45 -3.59 0.68 255 255 255
-7.40 1.97 0.52 255 255 255
-10.63 -3.63 0.89 255 255 255
-10.47 -3.63 1.49 255 255 255
-7.51 2.12 0.81 255 255 255
-10.45 -3.60 1.04 255 255 255
-10.85 -3.69 1.45 255 255 255
-10.30 -3.61 1.51 255 255 255
-10.63 -3.63 1.11 255 255 255
-10.46 -3.61 1.18 255 255 255
-10.65 -3.66 1.47 255 255 255
-10.48 -3.64 1.56 255 255 255
-10.83 -3.67 1.19 255 255 255
-10.47 -3.62 1.29 255 255 255
-10.84 -3.68 1.52 255 255 255
-10.31 -3.61 1.57 255 255 255
-10.65 -3.65 1.24 255 255 255
-10.65 -3.66 1.54 255 255 255
-10.30 -3.60 1.31 255 255 255
-10.83 -3.66 1.31 255 255 255
-10.48 -3.64 1.66 255 255 255
-10.66 -3.66 1.61 255 255 255
-10.47 -3.63 1.36 255 255 255
-10.65 -3.66 1.33 255 255 255
-10.48 -3.64 1.85 255 255 255
-10.30 -3.60 1.38 255 255 255
-10.66 -3.67 1.74 255 255 255
11.60 34.88 2.04 255 255 255
-10.50 -3.67 2.28 255 255 255
-10.84 -3.67 1.38 255 255 255
6.83 34.13 2.44 255 255 255
-10.48 -3.63 1.42 255 255 255
-10.67 -3.68 2.04 255 255 255
7.80 25.22 1.71 255 255 255
9.13 34.46 2.25 255 255 255
5.78 24.76 1.17 255 255 255
6.87 34.15 1.54 255 255 255
7.64 24.92 0.98 255 255 255
9.17 34.48 1.32 255 255 255
-10.78 -3.87 -0.05 255 255 255
-10.31 -3.61 1.44 255 255 255
-10.65 -3.64 1.40 255 255 255
-10.46 -3.59 0.68 255 255 255
-7.38 1.97 0.52 255 255 255
-10.64 -3.63 0.89 255 255 255
-10.48 -3.63 1.49 255 255 255
-7.50 2.12 0.80 255 255 255
-10.86 -3.69 1.45 255 255 255
-10.46 -3.60 1.04 255 255 255
-10.65 -3.63 1.11 255 255 255
-10.31 -3.61 1.51 255 255 255
-10.67 -3.66 1.47 255 255 255
-10.47 -3.61 1.18 255 255 255
-10.85 -3.67 1.19 255 255 255
-10.49 -3.64 1.56 255 255 255
-10.86 -3.68 1.52 255 255 255
-10.48 -3.62 1.29 255 255 255
-10.32 -3.61 1.57 255 255 255
-10.66 -3.65 1.24 255 255 255
-10.67 -3.67 1.54 255 255 255
-10.31 -3.61 1.31 255 255 255
-10.85 -3.66 1.30 255 255 255
-10.49 -3.64 1.66 255 255 255
-10.48 -3.62 1.35 255 255 255
-10.67 -3.67 1.61 255 255 255
-10.67 -3.66 1.33 255 255 255
-10.49 -3.63 1.85 255 255 255
-10.67 -3.67 1.74 255 255 255
-10.32 -3.60 1.38 255 255 255
11.80 34.91 2.05 255 255 255
-10.85 -3.67 1.38 255 255 255
-10.51 -3.68 2.28 255 255 255
6.98 34.15 2.44 255 255 255
-10.69 -3.68 2.04 255 255 255
-10.49 -3.64 1.42 255 255 255
7.72 24.87 1.70 255 255 255
9.31 34.52 2.25 255 255 255
5.90 24.74 1.17 255 255 255
7.03 34.20 1.54 255 255 255
7.78 24.94 0.98 255 255 255
9.34 34.50 1.32 255 255 255
-10.79 -3.86 -0.05 255 255 255
-10.33 -3.62 1.44 255 255 255
-10.67 -3.64 1.40 255 255 255
-10.47 -3.60 0.68 255 255 255
-7.37 1.97 0.52 255 255 255
-10.66 -3.63 0.89 255 255 255
-10.49 -3.63 1.49 255 255 255
-7.49 2.10 0.81 255 255 255
-10.48 -3.60 1.04 255 255 255
-10.87 -3.68 1.45 255 255 255
-10.66 -3.64 1.10 255 255 255
-10.33 -3.61 1.51 255 255 255
-10.68 -3.66 1.47 255 255 255
-10.48 -3.61 1.18 255 255 255
-10.50 -3.64 1.56 255 255 255
-10.86 -3.66 1.19 255 255 255
-10.87 -3.69 1.52 255 255 255
-10.49 -3.63 1.29 255 255 255
-10.68 -3.66 1.24 255 255 255
-10.33 -3.61 1.57 255 255 255
-10.32 -3.60 1.31 255 255 255
-10.68 -3.66 1.54 255 255 255
-10.86 -3.67 1.30 255 255 255
-10.51 -3.65 1.66 255 255 255
-10.49 -3.63 1.35 255 255 255
-10.69 -3.67 1.61 255 255 255
-10.51 -3.64 1.85 255 255 255
-10.68 -3.66 1.33 255 255 255
-10.32 -3.59 1.38 255 255 255
-10.69 -3.67 1.74 255 255 255
11.97 34.94 2.05 255 255 255
-10.53 -3.68 2.29 255 255 255
-10.87 -3.67 1.38 255 255 255
7.14 34.17 2.44 255 255 255
-10.70 -3.69 2.05 255 255 255
-10.50 -3.64 1.42 255 255 255
6.01 24.73 1.17 255 255 255
7.17 34.19 1.54 255 255 255
7.91 24.94 0.98 255 255 255
9.51 34.53 1.32 255 255 255
5.02 25.94 0.63 255 255 255
-10.34 -3.61 1.44 255 255 255
-10.79 -3.83 -0.04 255 255 255
-10.69 -3.66 1.40 255 255 255
-10.49 -3.60 0.68 255 255 255
-7.35 1.98 0.51 255 255 255
-10.67 -3.64 0.88 255 255 255
-10.50 -3.63 1.49 255 255 255
-7.48 2.11 0.80 255 255 255
-10.88 -3.68 1.45 255 255 255
-10.49 -3.60 1.04 255 255 255
-10.67 -3.63 1.10 255 255 255
-10.34 -3.61 1.51 255 255 255
-10.69 -3.66 1.47 255 255 255
-10.50 -3.62 1.18 255 255 255
-10.88 -3.67 1.19 255 255 255
-10.52 -3.65 1.56 255 255 255
-10.89 -3.68 1.52 255 255 255
-10.50 -3.63 1.29 255 255 255
-10.69 -3.66 1.24 255 255 255
-10.34 -3.61 1.57 255 255 255
-10.70 -3.67 1.54 255 255 255
-10.34 -3.60 1.31 255 255 255
-10.52 -3.65 1.66 255 255 255
-10.87 -3.66 1.30 255 255 255
-10.70 -3.67 1.61 255 255 255
-10.51 -3.63 1.35 255 255 255
-10.69 -3.66 1.33 255 255 255
-10.51 -3.64 1.85 255 255 255
-10.70 -3.67 1.74 255 255 255
-10.34 -3.60 1.38 255 255 255
12.17 34.96 2.05 255 255 255
-10.88 -3.67 1.38 255 255 255
-10.53 -3.67 2.29 255 255 255
7.32 34.20 2.45 255 255 255
-10.51 -3.63 1.42 255 255 255
-10.71 -3.69 2.05 255 255 255
6.11 24.68 1.17 255 255 255
7.36 34.22 1.54 255 255 255
8.03 24.93 0.98 255 255 255
9.68 34.55 1.32 255 255 255
5.10 25.85 0.63 255 255 255
-10.79 -3.82 -0.03 255 255 255
-10.34 -3.61 1.44 255 255 255
-10.50 -3.61 0.67 255 255 255
-10.69 -3.65 1.40 255 255 255
-7.34 1.98 0.51 255 255 255
-10.52 -3.63 1.49 255 255 255
-10.69 -3.64 0.88 255 255 255
-7.45 2.12 0.80 255 255 255
-10.50 -3.61 1.04 255 255 255
-10.90 -3.69 1.45 255 255 255
-10.35 -3.62 1.51 255 255 255
-10.68 -3.63 1.10 255 255 255
-10.50 -3.61 1.18 255 255 255
-10.70 -3.66 1.47 255 255 255
-10.53 -3.65 1.56 255 255 255
-10.90 -3.68 1.19 255 255 255
-10.51 -3.62 1.29 255 255 255
-10.90 -3.68 1.52 255 255 255
-10.71 -3.67 1.24 255 255 255
-10.35 -3.61 1.58 255 255 255
-10.71 -3.67 1.54 255 255 255
-10.35 -3.61 1.31 255 255 255
-10.89 -3.67 1.30 255 255 255
-10.53 -3.65 1.66 255 255 255
-10.71 -3.68 1.61 255 255 255
-10.52 -3.63 1.35 255 255 255
-10.71 -3.67 1.33 255 255 255
-10.53 -3.65 1.85 255 255 255
-10.71 -3.68 1.74 255 255 255
-10.35 -3.61 1.38 255 255 255
7.13 26.22 1.89 255 255 255
-10.90 -3.68 1.37 255 255 255
-10.55 -3.67 2.29 255 255 255
7.46 34.19 2.45 255 255 255
-10.53 -3.64 1.42 255 255 255
-10.72 -3.68 2.05 255 255 255
9.81 34.56 2.26 255 255 255
6.25 24.72 1.17 255 255 255
7.51 34.24 1.54 255 255 255
8.22 25.03 0.98 255 255 255
9.87 34.58 1.32 255 255 255
5.15 25.72 0.63 255 255 255
-10.36 -3.61 1.44 255 255 255
-10.79 -3.79 -0.02 255 255 255
-10.51 -3.60 0.67 255 255 255
-10.70 -3.65 1.40 255 255 255
-7.32 1.98 0.51 255 255 255
-10.53 -3.64 1.49 255 255 255
-10.70 -3.64 0.88 255 255 255
-7.45 2.10 0.80 255 255 255
-10.91 -3.69 1.45 255 255 255
-10.52 -3.61 1.03 255 255 255
-10.70 -3.64 1.10 255 255 255
-10.36 -3.61 1.51 255 255 255
-10.72 -3.67 1.47 255 255 255
-10.52 -3.61 1.18 255 255 255
-10.91 -3.68 1.19 255 255 255
-10.53 -3.64 1.56 255 255 255
-10.91 -3.69 1.52 255 255 255
-10.52 -3.62 1.29 255 255 255
-10.72 -3.66 1.24 255 255 255
-10.36 -3.61 1.57 255 255 255
-10.36 -3.61 1.31 255 255 255
-10.73 -3.68 1.54 255 255 255
-10.91 -3.67 1.30 255 255 255
-10.54 -3.65 1.66 255 255 255
-10.53 -3.63 1.35 255 255 255
-10.73 -3.68 1.61 255 255 255
-10.54 -3.65 1.85 255 255 255
-10.72 -3.67 1.33 255 255 255
-10.36 -3.61 1.38 255 255 255
-10.73 -3.68 1.74 255 255 255
7.14 26.02 1.89 255 255 255
-10.56 -3.68 2.29 255 255 255
-10.91 -3.68 1.37 255 255 255
7.63 34.25 2.45 255 255 255
-10.54 -3.65 1.42 255 255 255
-10.74 -3.69 2.05 255 255 255
10.00 34.59 2.26 255 255 255
6.39 24.74 1.17 255 255 255
7.67 34.26 1.54 255 255 255
8.35 25.02 0.98 255 255 255
10.04 34.60 1.32 255 255 255
5.22 25.63 0.63 255 255 255
-10.79 -3.78 -0.02 255 255 255
-10.37 -3.62 1.44 255 255 255
-10.72 -3.65 1.40 255 255 255
-10.52 -3.60 0.67 255 255 255
-7.30 1.99 0.51 255 255 255
-10.71 -3.64 0.88 255 255 255
-10.54 -3.64 1.49 255 255 255
-7.44 2.09 0.80 255 255 255
-10.53 -3.61 1.03 255 255 255
-10.93 -3.69 1.45 255 255 255
-10.37 -3.62 1.51 255 255 255
-10.72 -3.65 1.10 255 255 255
-10.53 -3.62 1.17 255 255 255
-10.73 -3.67 1.47 255 255 255
-10.55 -3.65 1.56 255 255 255
-10.92 -3.69 1.19 255 255 255
-10.92 -3.69 1.52 255 255 255
-10.54 -3.62 1.28 255 255 255
-10.73 -3.67 1.24 255 255 255
-10.37 -3.61 1.57 255 255 255
-10.74 -3.68 1.54 255 255 255
-10.37 -3.62 1.31 255 255 255
-10.55 -3.65 1.66 255 255 255
-10.92 -3.67 1.30 255 255 255
-10.54 -3.63 1.35 255 255 255
-10.74 -3.68 1.61 255 255 255
-10.74 -3.67 1.33 255 255 255
-10.55 -3.65 1.85 255 255 255
-10.74 -3.68 1.74 255 255 255
-10.37 -3.61 1.38 255 255 255
7.16 25.87 1.89 255 255 255
-10.93 -3.69 1.37 255 255 255
-10.57 -3.68 2.29 255 255 255
7.78 34.27 2.46 255 255 255
-10.55 -3.64 1.42 255 255 255
-10.75 -3.70 2.05 255 255 255
8.61 25.24 1.71 255 255 255
6.55 24.81 1.17 255 255 255
7.82 34.28 1.54 255 255 255
8.51 25.06 0.97 255 255 255
10.21 34.63 1.32 255 255 255
5.24 25.43 0.64 255 255 255
-10.80 -3.77 -0.02 255 255 255
-10.38 -3.61 1.44 255 255 255
-10.53 -3.60 0.67 255 255 255
-10.73 -3.65 1.40 255 255 255
-7.28 1.99 0.50 255 255 255
-10.55 -3.64 1.49 255 255 255
-10.73 -3.65 0.88 255 255 255
-7.42 2.11 0.80 255 255 255
-10.54 -3.61 1.03 255 255 255
-10.94 -3.69 1.45 255 255 255
-10.73 -3.65 1.10 255 255 255
-10.38 -3.62 1.51 255 255 255
-10.75 -3.67 1.47 255 255 255
-10.54 -3.62 1.17 255 255 255
-10.56 -3.65 1.56 255 255 255
-10.94 -3.68 1.19 255 255 255
-10.55 -3.63 1.28 255 255 255
-10.94 -3.69 1.52 255 255 255
-10.74 -3.67 1.24 255 255 255
-10.38 -3.61 1.57 255 255 255
-10.38 -3.61 1.31 255 255 255
-10.75 -3.68 1.54 255 255 255
-10.93 -3.68 1.30 255 255 255
-10.57 -3.66 1.66 255 255 255
-10.55 -3.63 1.35 255 255 255
-10.75 -3.68 1.61 255 255 255
-10.57 -3.66 1.85 255 255 255
-10.75 -3.67 1.33 255 255 255
-10.76 -3.68 1.74 255 255 255
-10.38 -3.61 1.38 255 255 255
7.21 25.75 1.89 255 255 255
-10.94 -3.69 1.37 255 255 255
-10.58 -3.68 2.29 255 255 255
7.96 34.29 2.46 255 255 255
-10.77 -3.69 2.05 255 255 255
-10.56 -3.65 1.42 255 255 255
8.79 25.31 1.71 255 255 255
10.34 34.64 2.26 255 255 255
6.66 24.79 1.17 255 255 255
7.99 34.31 1.54 255 255 255
8.63 25.04 0.97 255 255 255
5.61 25.93 1.34 255 255 255
5.17 25.09 0.65 255 255 255
-10.80 -3.75 -0.01 255 255 255
-10.39 -3.62 1.44 255 255 255
-10.54 -3.60 0.67 255 255 255
-10.75 -3.66 1.40 255 255 255
-7.27 2.00 0.50 255 255 255
-10.73 -3.64 0.88 255 255 255
-10.56 -3.64 1.49 255 255 255
-7.40 2.12 0.80 255 255 255
-10.55 -3.61 1.03 255 255 255
-10.95 -3.69 1.45 255 255 255
-10.39 -3.62 1.51 255 255 255
-10.74 -3.64 1.10 255 255 255
-10.55 -3.62 1.17 255 255 255
-10.76 -3.67 1.47 255 255 255
-10.57 -3.65 1.56 255 255 255
-10.95 -3.69 1.18 255 255 255
-10.95 -3.68 1.52 255 255 255
-10.56 -3.63 1.28 255 255 255
-10.76 -3.67 1.23 255 255 255
-10.40 -3.63 1.58 255 255 255
-10.39 -3.61 1.31 255 255 255
-10.76 -3.68 1.54 255 255 255
-10.95 -3.67 1.30 255 255 255
-10.58 -3.65 1.66 255 255 255
-10.57 -3.63 1.35 255 255 255
-10.77 -3.68 1.61 255 255 255
-10.58 -3.66 1.86 255 255 255
-10.76 -3.67 1.33 255 255 255
-10.40 -3.61 1.37 255 255 255
-10.77 -3.68 1.74 255 255 255
7.31 25.65 1.89 255 255 255
-10.59 -3.68 2.29 255 255 255
-10.96 -3.69 1.37 255 255 255
8.11 34.31 2.46 255 255 255
-10.57 -3.65 1.42 255 255 255
-10.78 -3.70 2.06 255 255 255
8.92 25.30 1.71 255 255 255
10.52 34.66 2.27 255 255 255
6.80 24.81 1.17 255 255 255
8.16 34.33 1.55 255 255 255
8.83 25.12 0.97 255 255 255
5.64 25.75 1.34 255 255 255
5.22 24.97 0.65 255 255 255
-10.81 -3.74 -0.01 255 255 255
-10.40 -3.62 1.44 255 255 255
-10.55 -3.60 0.67 255 255 255
-10.76 -3.66 1.40 255 255 255
-7.26 1.99 0.50 255 255 255
-10.75 -3.65 0.87 255 255 255
-10.58 -3.65 1.49 255 255 255
-7.39 2.11 0.80 255 255 255
-10.97 -3.69 1.45 255 255 255
-10.56 -3.61 1.03 255 255 255
-10.41 -3.63 1.51 255 255 255
-10.75 -3.65 1.10 255 255 255
-10.56 -3.62 1.17 255 255 255
-10.77 -3.67 1.47 255 255 255
-10.97 -3.69 1.18 255 255 255
-10.58 -3.65 1.56 255 255 255
-10.97 -3.68 1.52 255 255 255
-10.58 -3.63 1.28 255 255 255
-10.77 -3.67 1.23 255 255 255
-10.41 -3.63 1.58 255 255 255
-10.78 -3.68 1.54 255 255 255
-10.40 -3.61 1.31 255 255 255
-10.96 -3.68 1.30 255 255 255
-10.59 -3.65 1.66 255 255 255
-10.58 -3.64 1.35 255 255 255
-10.78 -3.69 1.61 255 255 255
-10.59 -3.66 1.86 255 255 255
-10.78 -3.68 1.32 255 255 255
-10.41 -3.61 1.37 255 255 255
-10.78 -3.68 1.74 255 255 255
7.38 25.58 1.89 255 255 255
-10.97 -3.69 1.37 255 255 255
-10.61 -3.68 2.30 255 255 255
8.28 34.34 2.46 255 255 255
-10.79 -3.69 2.06 255 255 255
-10.59 -3.65 1.42 255 255 255
9.11 25.39 1.71 255 255 255
10.68 34.68 2.27 255 255 255
6.95 24.86 1.16 255 255 255
8.32 34.35 1.55 255 255 255
8.93 25.10 0.97 255 255 255
5.68 25.61 1.34 255 255 255
5.28 24.88 0.65 255 255 255
-10.82 -3.73 -0.01 255 255 255
-10.41 -3.62 1.44 255 255 255
-10.56 -3.60 0.66 255 255 255
-10.77 -3.65 1.40 255 255 255
-7.24 2.00 0.50 255 255 255
-10.76 -3.65 0.87 255 255 255
-10.59 -3.65 1.49 255 255 255
-7.38 2.11 0.80 255 255 255
-10.98 -3.70 1.45 255 255 255
-10.58 -3.62 1.03 255 255 255
-10.77 -3.65 1.09 255 255 255
-10.42 -3.62 1.51 255 255 255
-10.58 -3.62 1.17 255 255 255
-10.79 -3.68 1.47 255 255 255
-10.60 -3.65 1.56 255 255 255
-10.98 -3.68 1.18 255 255 255
-10.59 -3.64 1.28 255 255 255
-10.98 -3.68 1.52 255 255 255
-10.42 -3.62 1.58 255 255 255
-10.78 -3.67 1.23 255 255 255
-10.79 -3.68 1.54 255 255 255
-10.42 -3.62 1.31 255 255 255
-10.98 -3.68 1.30 255 255 255
-10.60 -3.66 1.66 255 255 255
-10.80 -3.69 1.61 255 255 255
-10.59 -3.64 1.35 255 255 255
-10.61 -3.66 1.86 255 255 255
-10.79 -3.68 1.32 255 255 255
4.35 23.10 2.63 255 255 255
-10.42 -3.62 1.37 255 255 255
-10.80 -3.69 1.74 255 255 255
7.44 25.49 1.89 255 255 255
-10.62 -3.69 2.30 255 255 255
-10.99 -3.69 1.37 255 255 255
8.43 34.36 2.47 255 255 255
-10.60 -3.64 1.42 255 255 255
-10.80 -3.70 2.06 255 255 255
10.86 34.71 2.27 255 255 255
7.09 24.88 1.16 255 255 255
8.48 34.41 1.55 255 255 255
9.08 25.12 0.97 255 255 255
5.75 25.53 1.34 255 255 255
5.33 24.76 0.65 255 255 255
-10.42 -3.62 1.44 255 255 255
-10.58 -3.61 0.66 255 255 255
-10.79 -3.66 1.40 255 255 255
-7.23 1.98 0.50 255 255 255
-10.78 -3.64 0.87 255 255 255
-10.60 -3.64 1.49 255 255 255
-7.36 2.12 0.79 255 255 255
-11.00 -3.70 1.45 255 255 255
-10.59 -3.62 1.03 255 255 255
-10.79 -3.66 1.09 255 255 255
-10.43 -3.63 1.51 255 255 255
-10.80 -3.68 1.47 255 255 255
-10.59 -3.63 1.17 255 255 255
-10.61 -3.65 1.56 255 255 255
-10.99 -3.69 1.18 255 255 255
-10.99 -3.69 1.52 255 255 255
-10.60 -3.63 1.28 255 255 255
-10.79 -3.67 1.23 255 255 255
-10.43 -3.63 1.58 255 255 255
-10.43 -3.62 1.31 255 255 255
-10.81 -3.69 1.54 255 255 255
-10.61 -3.65 1.66 255 255 255
-10.99 -3.68 1.30 255 255 255
-10.60 -3.64 1.35 255 255 255
-10.81 -3.69 1.61 255 255 255
-10.81 -3.68 1.32 255 255 255
-10.62 -3.66 1.86 255 255 255
4.45 23.07 2.63 255 255 255
-10.81 -3.68 1.74 255 255 255
-10.43 -3.62 1.37 255 255 255
7.55 25.46 1.89 255 255 255
-11.00 -3.70 1.37 255 255 255
-10.64 -3.69 2.30 255 255 255
8.60 34.38 2.47 255 255 255
-10.61 -3.65 1.42 255 255 255
-10.82 -3.70 2.06 255 255 255
11.05 34.74 2.28 255 255 255
7.23 24.90 1.16 255 255 255
8.64 34.40 1.55 255 255 255
9.27 25.20 0.97 255 255 255
5.81 25.43 1.34 255 255 255
5.39 24.65 0.65 255 255 255
-10.44 -3.62 1.44 255 255 255
-10.59 -3.60 0.66 255 255 255
-10.80 -3.66 1.40 255 255 255
-7.22 1.98 0.50 255 255 255
-10.79 -3.65 0.87 255 255 255
-10.62 -3.65 1.49 255 255 255
-7.34 2.12 0.79 255 255 255
-10.60 -3.62 1.03 255 255 255
-11.01 -3.70 1.45 255 255 255
-10.80 -3.65 1.09 255 255 255
-10.44 -3.63 1.51 255 255 255
-10.81 -3.68 1.47 255 255 255
-10.60 -3.63 1.17 255 255 255
-11.01 -3.69 1.18 255 255 255
-10.62 -3.66 1.56 255 255 255
-10.61 -3.64 1.28 255 255 255
-11.01 -3.70 1.52 255 255 255
-10.81 -3.68 1.23 255 255 255
-10.44 -3.62 1.58 255 255 255
-10.44 -3.62 1.31 255 255 255
-10.82 -3.69 1.54 255 255 255
-11.00 -3.68 1.30 255 255 255
-10.63 -3.66 1.66 255 255 255
-10.82 -3.69 1.61 255 255 255
-10.62 -3.64 1.35 255 255 255
-10.82 -3.68 1.32 255 255 255
-10.63 -3.66 1.86 255 255 255
-10.82 -3.69 1.74 255 255 255
-10.44 -3.61 1.37 255 255 255
7.67 25.43 1.89 255 255 255
-10.65 -3.69 2.30 255 255 255
-11.02 -3.70 1.37 255 255 255
8.77 34.41 2.47 255 255 255
-10.62 -3.65 1.42 255 255 255
-10.83 -3.70 2.06 255 255 255
11.24 34.76 2.28 255 255 255
7.37 24.92 1.16 255 255 255
8.81 34.42 1.55 255 255 255
9.40 25.19 0.97 255 255 255
5.90 25.34 1.34 255 255 255
5.47 24.58 0.66 255 255 255
-10.45 -3.63 1.44 255 255 255
-10.81 -3.66 1.40 255 255 255
-10.60 -3.60 0.66 255 255 255
-7.20 1.99 0.49 255 255 255
-10.80 -3.65 0.87 255 255 255
-10.63 -3.65 1.49 255 255 255
-7.32 2.13 0.79 255 255 255
-11.03 -3.70 1.45 255 255 255
-10.61 -3.61 1.03 255 255 255
-10.81 -3.66 1.09 255 255 255
-10.45 -3.63 1.51 255 255 255
-10.62 -3.62 1.17 255 255 255
-10.83 -3.68 1.47 255 255 255
-10.64 -3.66 1.56 255 255 255
-11.03 -3.70 1.18 255 255 255
-10.63 -3.65 1.28 255 255 255
-11.02 -3.69 1.52 255 255 255
-10.45 -3.62 1.57 255 255 255
-10.82 -3.67 1.23 255 255 255
-10.45 -3.62 1.31 255 255 255
-10.83 -3.68 1.54 255 255 255
-10.64 -3.66 1.66 255 255 255
-11.02 -3.68 1.30 255 255 255
-10.63 -3.65 1.35 255 255 255
-10.84 -3.69 1.62 255 255 255
-10.65 -3.67 1.86 255 255 255
-10.83 -3.68 1.32 255 255 255
-10.45 -3.62 1.37 255 255 255
-10.83 -3.69 1.74 255 255 255
7.72 25.31 1.89 255 255 255
-10.66 -3.69 2.30 255 255 255
-11.03 -3.69 1.37 255 255 255
-10.64 -3.65 1.42 255 255 255
-10.84 -3.70 2.06 255 255 255
9.76 25.53 1.72 255 255 255
7.50 24.93 1.16 255 255 255
8.98 34.48 1.55 255 255 255
9.59 25.28 0.96 255 255 255
5.97 25.29 1.34 255 255 255
5.59 24.58 0.65 255 255 255
-10.46 -3.62 1.44 255 255 255
-10.61 -3.61 0.66 255 255 255
-10.83 -3.67 1.40 255 255 255
-7.18 1.99 0.49 255 255 255
-10.82 -3.65 0.86 255 255 255
-10.64 -3.65 1.49 255 255 255
-7.31 2.12 0.79 255 255 255
-10.62 -3.62 1.02 255 255 255
-11.04 -3.70 1.45 255 255 255
-10.46 -3.62 1.51 255 255 255
-10.82 -3.66 1.09 255 255 255
-10.84 -3.68 1.47 255 255 255
-10.63 -3.63 1.17 255 255 255
-11.04 -3.70 1.18 255 255 255
-10.65 -3.66 1.56 255 255 255
-11.04 -3.70 1.52 255 255 255
-10.64 -3.65 1.28 255 255 255
-10.47 -3.63 1.58 255 255 255
-10.84 -3.68 1.23 255 255 255
-10.84 -3.69 1.54 255 255 255
-10.46 -3.62 1.30 255 255 255
-11.03 -3.68 1.29 255 255 255
-10.65 -3.66 1.67 255 255 255
-10.85 -3.69 1.62 255 255 255
-10.64 -3.65 1.35 255 255 255
-10.84 -3.68 1.32 255 255 255
-10.66 -3.67 1.86 255 255 255
-10.46 -3.62 1.37 255 255 255
-10.85 -3.69 1.74 255 255 255
7.84 25.30 1.89 255 255 255
-10.67 -3.69 2.31 255 255 255
-11.04 -3.70 1.37 255 255 255
9.11 34.46 2.48 255 255 255
-10.65 -3.65 1.42 255 255 255
-10.86 -3.70 2.06 255 255 255
11.59 34.82 2.28 255 255 255
7.65 24.96 1.16 255 255 255
9.17 34.48 1.55 255 255 255
9.79 25.34 0.96 255 255 255
6.05 25.19 1.34 255 255 255
5.76 24.65 0.65 255 255 255
-10.47 -3.63 1.44 255 255 255
-10.62 -3.60 0.66 255 255 255
-10.84 -3.67 1.40 255 255 255
-7.17 1.99 0.49 255 255 255
3.27 22.99 2.76 255 255 255
-10.66 -3.66 1.49 255 255 255
-10.83 -3.65 0.86 255 255 255
-7.29 2.13 0.79 255 255 255
-11.06 -3.71 1.45 255 255 255
-10.64 -3.62 1.02 255 255 255
-10.84 -3.66 1.09 255 255 255
-10.48 -3.63 1.51 255 255 255
-10.85 -3.69 1.47 255 255 255
-10.64 -3.63 1.16 255 255 255
-10.66 -3.66 1.56 255 255 255
-11.06 -3.70 1.18 255 255 255
-10.66 -3.65 1.28 255 255 255
-11.06 -3.70 1.52 255 255 255
-10.48 -3.63 1.58 255 255 255
-10.85 -3.68 1.23 255 255 255
-10.47 -3.62 1.30 255 255 255
-10.86 -3.69 1.54 255 255 255
-10.67 -3.66 1.67 255 255 255
-11.05 -3.68 1.29 255 255 255
-10.66 -3.65 1.35 255 255 255
-10.86 -3.69 1.62 255 255 255
-10.67 -3.67 1.86 255 255 255
-10.86 -3.69 1.32 255 255 255
-10.87 -3.70 1.75 255 255 255
-10.48 -3.62 1.37 255 255 255
8.04 25.39 1.89 255 255 255
-11.06 -3.70 1.37 255 255 255
-10.69 -3.70 2.31 255 255 255
9.29 34.48 2.48 255 255 255
-10.87 -3.70 2.06 255 255 255
-10.66 -3.66 1.42 255 255 255
17.31 35.61 1.84 255 255 255
11.78 34.84 2.29 255 255 255
7.79 24.98 1.16 255 255 255
9.32 34.50 1.55 255 255 255
6.69 20.85 1.04 255 255 255
6.15 25.14 1.34 255 255 255
5.88 24.67 0.65 255 255 255
-10.48 -3.62 1.44 255 255 255
-10.64 -3.61 0.65 255 255 255
-10.85 -3.67 1.39 255 255 255
-7.15 1.99 0.49 255 255 255
3.29 22.84 2.75 255 255 255
-10.66 -3.65 1.49 255 255 255
-10.84 -3.65 0.86 255 255 255
-7.27 2.13 0.79 255 255 255
-11.08 -3.71 1.45 255 255 255
-10.65 -3.62 1.02 255 255 255
-10.85 -3.66 1.09 255 255 255
-10.49 -3.63 1.51 255 255 255
-10.65 -3.63 1.16 255 255 255
-10.87 -3.69 1.47 255 255 255
-10.67 -3.66 1.56 255 255 255
-11.07 -3.70 1.18 255 255 255
-10.67 -3.65 1.28 255 255 255
-11.07 -3.70 1.52 255 255 255
-10.49 -3.63 1.58 255 255 255
-10.86 -3.67 1.23 255 255 255
-10.87 -3.69 1.54 255 255 255
-10.49 -3.62 1.30 255 255 255
-11.07 -3.70 1.29 255 255 255
-10.68 -3.67 1.67 255 255 255
-10.67 -3.66 1.35 255 255 255
-10.88 -3.69 1.62 255 255 255
6.68 20.74 2.29 255 255 255
-10.68 -3.67 1.86 255 255 255
-10.87 -3.68 1.32 255 255 255
-10.48 -3.62 1.37 255 255 255
-10.88 -3.69 1.75 255 255 255
8.16 25.39 1.89 255 255 255
-10.70 -3.70 2.31 255 255 255
-11.08 -3.70 1.37 255 255 255
9.44 34.50 2.49 255 255 255
-10.68 -3.66 1.42 255 255 255
-10.89 -3.71 2.07 255 255 255
6.69 20.72 1.66 255 255 255
11.96 34.90 2.29 255 255 255
7.91 24.99 1.16 255 255 255
9.49 34.55 1.55 255 255 255
6.70 20.71 1.04 255 255 255
6.24 25.11 1.34 255 255 255
6.15 24.91 0.64 255 255 255
-10.50 -3.63 1.44 255 255 255
-10.64 -3.60 0.65 255 255 255
-10.87 -3.67 1.39 255 255 255
-7.14 1.99 0.48 255 255 255
3.34 22.73 2.75 255 255 255
-10.68 -3.66 1.49 255 255 255
-10.86 -3.66 0.86 255 255 255
-7.26 2.13 0.78 255 255 255
-11.09 -3.71 1.44 255 255 255
-10.66 -3.62 1.02 255 255 255
-10.50 -3.63 1.51 255 255 255
-10.87 -3.67 1.08 255 255 255
-10.89 -3.69 1.47 255 255 255
-10.67 -3.63 1.16 255 255 255
-11.08 -3.70 1.18 255 255 255
-10.69 -3.67 1.56 255 255 255
-11.09 -3.71 1.52 255 255 255
-10.68 -3.65 1.28 255 255 255
-10.88 -3.68 1.23 255 255 255
-10.51 -3.64 1.58 255 255 255
-10.89 -3.69 1.54 255 255 255
-10.50 -3.63 1.30 255 255 255
-10.70 -3.67 1.67 255 255 255
-11.08 -3.69 1.29 255 255 255
-10.69 -3.66 1.35 255 255 255
-10.89 -3.69 1.62 255 255 255
6.74 20.65 2.29 255 255 255
-10.88 -3.68 1.32 255 255 255
-10.70 -3.67 1.86 255 255 255
-10.89 -3.69 1.75 255 255 255
-10.50 -3.62 1.37 255 255 255
8.32 25.43 1.89 255 255 255
-11.09 -3.70 1.37 255 255 255
-10.72 -3.71 2.32 255 255 255
9.63 34.53 2.49 255 255 255
-10.90 -3.71 2.07 255 255 255
-10.69 -3.66 1.42 255 255 255
6.73 20.63 1.66 255 255 255
12.15 34.89 2.29 255 255 255
8.09 25.06 1.16 255 255 255
9.66 34.58 1.55 255 255 255
-4.02 5.92 1.28 255 255 255
6.31 25.02 1.34 255 255 255
6.13 24.69 0.65 255 255 255
-10.51 -3.63 1.44 255 255 255
-10.67 -3.61 0.65 255 255 255
-10.88 -3.67 1.39 255 255 255
-7.12 1.99 0.48 255 255 255
-10.70 -3.66 1.49 255 255 255
-10.87 -3.66 0.85 255 255 255
-7.24 2.13 0.78 255 255 255
-11.11 -3.72 1.44 255 255 255
-10.67 -3.62 1.02 255 255 255
-10.88 -3.66 1.08 255 255 255
-10.51 -3.63 1.51 255 255 255
-10.68 -3.63 1.16 255 255 255
-10.90 -3.69 1.47 255 255 255
-11.10 -3.70 1.17 255 255 255
-10.70 -3.67 1.56 255 255 255
-11.11 -3.71 1.52 255 255 255
-10.69 -3.66 1.27 255 255 255
-10.52 -3.64 1.58 255 255 255
-10.89 -3.69 1.23 255 255 255
-10.51 -3.62 1.30 255 255 255
-10.90 -3.69 1.54 255 255 255
-11.09 -3.69 1.29 255 255 255
-10.70 -3.67 1.67 255 255 255
-10.91 -3.70 1.62 255 255 255
-10.70 -3.66 1.35 255 255 255
-4.03 5.88 1.68 255 255 255
-10.90 -3.68 1.32 255 255 255
-10.71 -3.67 1.87 255 255 255
-10.51 -3.62 1.37 255 255 255
-10.90 -3.70 1.75 255 255 255
8.48 25.47 1.90 255 255 255
-11.11 -3.71 1.37 255 255 255
-10.73 -3.70 2.32 255 255 255
9.78 34.55 2.49 255 255 255
-10.92 -3.71 2.07 255 255 255
-10.70 -3.66 1.42 255 255 255
-4.02 5.88 1.48 255 255 255
12.33 34.95 2.29 255 255 255
8.22 25.06 1.16 255 255 255
9.85 34.60 1.55 255 255 255
-4.03 5.86 1.28 255 255 255
6.39 24.94 1.34 255 255 255
-10.52 -3.63 1.44 255 255 255
-4.02 5.87 1.88 255 255 255
-10.68 -3.61 0.64 255 255 255
-10.89 -3.67 1.39 255 255 255
-7.11 1.99 0.48 255 255 255
-10.71 -3.66 1.49 255 255 255
-10.89 -3.66 0.85 255 255 255
-7.23 2.14 0.78 255 255 255
-11.12 -3.72 1.44 255 255 255
-10.68 -3.62 1.02 255 255 255
-10.89 -3.67 1.08 255 255 255
-10.53 -3.64 1.51 255 255 255
-10.69 -3.64 1.16 255 255 255
-10.91 -3.69 1.47 255 255 255
-10.71 -3.67 1.56 255 255 255
-11.11 -3.70 1.17 255 255 255
-11.12 -3.72 1.52 255 255 255
-10.71 -3.66 1.27 255 255 255
-10.53 -3.63 1.58 255 255 255
-10.90 -3.68 1.23 255 255 255
-10.91 -3.69 1.54 255 255 255
-10.52 -3.62 1.30 255 255 255
-10.72 -3.67 1.67 255 255 255
-11.11 -3.69 1.29 255 255 255
-10.71 -3.66 1.35 255 255 255
-10.92 -3.70 1.62 255 255 255
-4.03 5.83 1.68 255 255 255
-10.72 -3.68 1.86 255 255 255
-10.91 -3.68 1.32 255 255 255
-10.52 -3.63 1.37 255 255 255
-10.92 -3.70 1.75 255 255 255
8.64 25.51 1.90 255 255 255
-10.74 -3.71 2.32 255 255 255
-11.12 -3.71 1.37 255 255 255
9.98 34.61 2.50 255 255 255
-10.72 -3.67 1.42 255 255 255
-10.93 -3.71 2.07 255 255 255
-4.01 5.84 1.48 255 255 255
12.50 34.95 2.30 255 255 255
8.39 25.10 1.16 255 255 255
10.02 34.63 1.55 255 255 255
-4.02 5.83 1.28 255 255 255
6.49 24.89 1.34 255 255 255
-3.98 5.87 2.08 255 255 255
6.37 24.69 0.64 255 255 255
-10.53 -3.63 1.44 255 255 255
-4.01 5.82 1.88 255 255 255
-10.90 -3.67 1.39 255 255 255
-10.69 -3.61 0.64 255 255 255
-7.08 2.00 0.48 255 255 255
3.61 22.63 2.75 255 255 255
-10.90 -3.66 0.85 255 255 255
-10.72 -3.67 1.49 255 255 255
-7.21 2.13 0.78 255 255 255
-11.14 -3.71 1.44 255 255 255
-10.70 -3.63 1.02 255 255 255
-10.54 -3.63 1.51 255 255 255
-10.90 -3.66 1.08 255 255 255
-10.70 -3.64 1.16 255 255 255
-10.92 -3.69 1.47 255 255 255
-10.73 -3.67 1.56 255 255 255
-11.13 -3.70 1.17 255 255 255
-10.72 -3.66 1.27 255 255 255
-11.14 -3.72 1.52 255 255 255
-10.54 -3.63 1.58 255 255 255
-10.92 -3.69 1.22 255 255 255
-10.53 -3.62 1.30 255 255 255
-10.93 -3.69 1.54 255 255 255
-10.73 -3.67 1.67 255 255 255
-11.13 -3.70 1.29 255 255 255
-10.72 -3.66 1.35 255 255 255
-10.93 -3.70 1.62 255 255 255
-4.03 5.79 1.68 255 255 255
-10.73 -3.68 1.87 255 255 255
-10.92 -3.68 1.32 255 255 255
-10.93 -3.70 1.75 255 255 255
-10.53 -3.63 1.37 255 255 255
8.78 25.51 1.90 255 255 255
-10.75 -3.70 2.32 255 255 255
-11.14 -3.71 1.37 255 255 255
-10.73 -3.66 1.42 255 255 255
-10.95 -3.71 2.07 255 255 255
-4.01 5.80 1.48 255 255 255
12.71 34.97 2.30 255 255 255
8.58 25.18 1.16 255 255 255
10.19 34.62 1.55 255 255 255
-4.01 5.79 1.28 255 255 255
6.58 24.84 1.34 255 255 255
-3.98 5.82 2.08 255 255 255
6.55 24.76 0.64 255 255 255
-10.55 -3.64 1.44 255 255 255
-4.01 5.78 1.88 255 255 255
-10.70 -3.62 0.64 255 255 255
-10.92 -3.68 1.39 255 255 255
-7.07 2.00 0.47 255 255 255
-10.92 -3.67 0.85 255 255 255
-10.73 -3.67 1.49 255 255 255
-6.73 2.89 0.63 255 255 255
-10.71 -3.63 1.01 255 255 255
-11.15 -3.72 1.44 255 255 255
-10.92 -3.67 1.08 255 255 255
-10.55 -3.64 1.51 255 255 255
-10.94 -3.69 1.47 255 255 255
-10.72 -3.65 1.16 255 255 255
-11.15 -3.71 1.17 255 255 255
-10.74 -3.68 1.56 255 255 255
-11.15 -3.72 1.52 255 255 255
-10.73 -3.66 1.27 255 255 255
-10.94 -3.69 1.22 255 255 255
-10.55 -3.64 1.58 255 255 255
-10.54 -3.63 1.30 255 255 255
-10.94 -3.70 1.54 255 255 255
-11.15 -3.70 1.29 255 255 255
-10.75 -3.67 1.67 255 255 255
-10.74 -3.66 1.34 255 255 255
-10.94 -3.70 1.62 255 255 255
-4.00 5.77 1.68 255 255 255
-10.94 -3.69 1.32 255 255 255
-10.75 -3.68 1.87 255 255 255
-10.95 -3.70 1.75 255 255 255
-10.55 -3.63 1.37 255 255 255
8.92 25.52 1.90 255 255 255
-10.77 -3.71 2.32 255 255 255
-11.15 -3.71 1.37 255 255 255
10.32 34.66 2.50 255 255 255
-10.74 -3.67 1.42 255 255 255
-10.96 -3.72 2.08 255 255 255
-3.99 5.78 1.48 255 255 255
12.89 35.00 2.30 255 255 255
8.68 25.14 1.16 255 255 255
10.37 34.68 1.56 255 255 255
-4.00 5.75 1.28 255 255 255
-3.96 5.80 2.08 255 255 255
6.71 24.86 1.34 255 255 255
6.67 24.78 0.64 255 255 255
-10.56 -3.65 1.44 255 255 255
-3.99 5.75 1.88 255 255 255
-10.94 -3.68 1.39 255 255 255
-10.72 -3.63 0.63 255 255 255
-7.05 2.00 0.47 255 255 255
-10.93 -3.67 0.85 255 255 255
-10.75 -3.67 1.49 255 255 255
-6.72 2.88 0.63 255 255 255
-11.17 -3.72 1.44 255 255 255
-10.73 -3.63 1.01 255 255 255
-10.93 -3.67 1.08 255 255 255
-10.56 -3.63 1.51 255 255 255
-10.74 -3.65 1.16 255 255 255
-10.95 -3.69 1.47 255 255 255
-10.76 -3.68 1.56 255 255 255
-11.16 -3.71 1.17 255 255 255
-11.17 -3.72 1.52 255 255 255
-10.75 -3.67 1.27 255 255 255
-10.95 -3.69 1.22 255 255 255
-10.57 -3.64 1.58 255 255 255
-10.95 -3.70 1.54 255 255 255
-10.56 -3.63 1.30 255 255 255
-11.16 -3.71 1.29 255 255 255
-10.76 -3.68 1.67 255 255 255
-10.96 -3.71 1.62 255 255 255
-10.75 -3.66 1.34 255 255 255
-3.99 5.73 1.68 255 255 255
-10.96 -3.70 1.32 255 255 255
-10.76 -3.68 1.87 255 255 255
-10.56 -3.63 1.37 255 255 255
-10.96 -3.70 1.75 255 255 255
9.12 25.63 1.90 255 255 255
-10.79 -3.72 2.33 255 255 255
-11.17 -3.71 1.37 255 255 255
10.49 34.65 2.50 255 255 255
-10.76 -3.67 1.42 255 255 255
-10.98 -3.73 2.08 255 255 255
-3.97 5.76 1.48 255 255 255
13.08 35.03 2.31 255 255 255
8.84 25.17 1.16 255 255 255
10.54 34.70 1.56 255 255 255
-3.98 5.73 1.28 255 255 255
6.78 24.76 1.34 255 255 255
-3.95 5.76 2.08 255 255 255
-10.57 -3.64 1.44 255 255 255
-3.97 5.72 1.88 255 255 255
-10.95 -3.68 1.39 255 255 255
-10.73 -3.62 0.63 255 255 255
-7.03 2.00 0.47 255 255 255
-10.95 -3.67 0.84 255 255 255
-10.76 -3.67 1.49 255 255 255
-6.71 2.87 0.63 255 255 255
-11.18 -3.72 1.44 255 255 255
-10.74 -3.64 1.01 255 255 255
-10.94 -3.67 1.08 255 255 255
-10.57 -3.64 1.51 255 255 255
-10.97 -3.69 1.47 255 255 255
-10.75 -3.65 1.16 255 255 255
-11.19 -3.72 1.17 255 255 255
-10.77 -3.68 1.56 255 255 255
-11.19 -3.73 1.52 255 255 255
-10.77 -3.67 1.27 255 255 255
-10.97 -3.69 1.22 255 255 255
-10.58 -3.64 1.58 255 255 255
-10.57 -3.62 1.30 255 255 255
-10.97 -3.70 1.54 255 255 255
-11.18 -3.71 1.29 255 255 255
-10.77 -3.68 1.67 255 255 255
-10.98 -3.71 1.62 255 255 255
-10.77 -3.67 1.34 255 255 255
-3.96 5.72 1.68 255 255 255
-10.77 -3.68 1.87 255 255 255
-10.97 -3.70 1.32 255 255 255
-10.57 -3.63 1.37 255 255 255
-10.98 -3.70 1.75 255 255 255
9.28 25.65 1.91 255 255 255
-10.80 -3.71 2.33 255 255 255
-11.19 -3.71 1.36 255 255 255
10.68 34.68 2.51 255 255 255
-10.77 -3.67 1.42 255 255 255
-10.99 -3.72 2.08 255 255 255
-3.95 5.72 1.48 255 255 255
13.26 35.05 2.31 255 255 255
8.98 25.17 1.16 255 255 255
10.73 34.73 1.56 255 255 255
-3.95 5.71 1.28 255 255 255
6.84 24.66 1.34 255 255 255
-3.93 5.74 2.08 255 255 255
6.96 24.84 0.63 255 255 255
-10.58 -3.64 1.44 255 255 255
-3.95 5.71 1.88 255 255 255
-10.96 -3.68 1.39 255 255 255
-10.74 -3.63 0.63 255 255 255
-7.01 2.01 0.46 255 255 255
-10.96 -3.67 0.84 255 255 255
-10.77 -3.67 1.49 255 255 255
-6.68 2.88 0.63 255 255 255
-11.20 -3.72 1.44 255 255 255
-10.75 -3.63 1.01 255 255 255
-10.96 -3.67 1.08 255 255 255
-10.58 -3.64 1.51 255 255 255
-10.76 -3.65 1.16 255 255 255
-10.98 -3.70 1.47 255 255 255
-10.79 -3.69 1.56 255 255 255
-11.20 -3.72 1.17 255 255 255
-10.77 -3.67 1.27 255 255 255
-11.20 -3.72 1.52 255 255 255
-10.59 -3.65 1.58 255 255 255
-10.98 -3.70 1.22 255 255 255
-10.58 -3.63 1.30 255 255 255
-10.98 -3.70 1.54 255 255 255
-10.78 -3.68 1.67 255 255 255
-11.19 -3.71 1.29 255 255 255
-10.99 -3.71 1.62 255 255 255
-10.78 -3.67 1.34 255 255 255
-3.95 5.69 1.68 255 255 255
-10.98 -3.70 1.32 255 255 255
-10.79 -3.69 1.87 255 255 255
-10.99 -3.71 1.75 255 255 255
-10.58 -3.63 1.37 255 255 255
9.47 25.74 1.91 255 255 255
-10.81 -3.71 2.33 255 255 255
-11.20 -3.72 1.36 255 255 255
10.84 34.74 2.51 255 255 255
-10.78 -3.67 1.42 255 255 255
-11.01 -3.73 2.08 255 255 255
-3.92 5.72 1.48 255 255 255
13.45 35.08 2.31 255 255 255
9.13 25.21 1.16 255 255 255
10.90 34.76 1.56 255 255 255
-3.93 5.71 1.28 255 255 255
6.92 24.61 1.34 255 255 255
-3.90 5.73 2.08 255 255 255
7.09 24.86 0.63 255 255 255
-10.60 -3.64 1.44 255 255 255
-3.92 5.70 1.88 255 255 255
-10.76 -3.63 0.63 255 255 255
-10.98 -3.68 1.39 255 255 255
-6.99 2.01 0.46 255 255 255
-10.97 -3.67 0.84 255 255 255
-10.79 -3.68 1.49 255 255 255
8.87 24.78 2.62 255 255 255
-6.67 2.87 0.63 255 255 255
-11.21 -3.72 1.44 255 255 255
-10.77 -3.64 1.01 255 255 255
-10.98 -3.67 1.07 255 255 255
-10.60 -3.64 1.51 255 255 255
-11.00 -3.70 1.47 255 255 255
-10.77 -3.65 1.15 255 255 255
-11.22 -3.72 1.16 255 255 255
-10.80 -3.68 1.56 255 255 255
-11.21 -3.72 1.52 255 255 255
-10.79 -3.67 1.27 255 255 255
-10.60 -3.65 1.58 255 255 255
-11.00 -3.70 1.22 255 255 255
-11.00 -3.70 1.54 255 255 255
-10.59 -3.63 1.30 255 255 255
-10.80 -3.68 1.67 255 255 255
-11.21 -3.71 1.29 255 255 255
-11.00 -3.70 1.62 255 255 255
-10.79 -3.67 1.34 255 255 255
-3.91 5.69 1.68 255 255 255
-10.80 -3.68 1.87 255 255 255
-10.99 -3.69 1.32 255 255 255
-10.60 -3.64 1.37 255 255 255
-11.01 -3.71 1.75 255 255 255
9.52 25.62 1.91 255 255 255
-11.22 -3.72 1.36 255 255 255
-10.82 -3.71 2.33 255 255 255
11.03 34.76 2.51 255 255 255
-11.02 -3.72 2.08 255 255 255
-10.79 -3.67 1.41 255 255 255
-3.89 5.70 1.48 255 255 255
13.65 35.11 2.31 255 255 255
9.36 25.35 1.15 255 255 255
-3.90 5.69 1.28 255 255 255
-3.88 5.72 2.08 255 255 255
7.70 25.62 1.34 255 255 255
7.24 24.88 0.63 255 255 255
-10.61 -3.65 1.44 255 255 255
-3.89 5.69 1.88 255 255 255
-10.77 -3.63 0.63 255 255 255
-10.99 -3.68 1.39 255 255 255
-6.98 2.01 0.46 255 255 255
-10.80 -3.68 1.49 255 255 255
-10.99 -3.67 0.84 255 255 255
8.62 24.24 2.60 255 255 255
-6.65 2.87 0.63 255 255 255
-10.78 -3.64 1.01 255 255 255
-11.23 -3.72 1.44 255 255 255
-10.99 -3.67 1.07 255 255 255
-10.61 -3.64 1.51 255 255 255
-11.01 -3.71 1.47 255 255 255
-10.79 -3.65 1.15 255 255 255
-11.23 -3.72 1.16 255 255 255
-10.81 -3.68 1.56 255 255 255
-11.23 -3.72 1.52 255 255 255
-10.80 -3.66 1.27 255 255 255
-10.61 -3.64 1.58 255 255 255
-11.01 -3.70 1.22 255 255 255
-11.01 -3.70 1.54 255 255 255
-10.61 -3.64 1.30 255 255 255
-10.81 -3.68 1.67 255 255 255
-11.23 -3.72 1.28 255 255 255
-10.80 -3.67 1.34 255 255 255
-11.02 -3.71 1.62 255 255 255
-3.88 5.67 1.68 255 255 255
-11.01 -3.69 1.31 255 255 255
-10.81 -3.68 1.87 255 255 255
