ply
format ascii 1.0
element vertex 1661
property float x
property float y
property float z
property uchar red
property uchar green
property uchar blue
end_header
6.19 16.42 -1.43 156 163 112
6.19 16.32 -1.43 158 162 111
6.19 16.21 -1.43 159 163 112
6.19 16.11 -1.43 160 165 111
6.19 16.01 -1.43 161 165 114
6.19 15.91 -1.43 159 163 112
5.98 15.70 -1.25 159 162 115
5.98 15.59 -1.25 157 163 117
5.98 15.49 -1.25 156 161 120
5.98 15.39 -1.25 154 158 121
5.98 15.29 -1.25 152 156 123
5.98 15.19 -1.25 147 151 124
5.98 15.09 -1.25 143 148 125
5.76 14.88 -1.07 142 146 129
5.76 14.78 -1.07 141 145 130
5.76 14.68 -1.07 141 144 133
5.54 14.47 -0.89 143 144 138
5.54 14.37 -0.89 143 143 141
5.54 14.27 -0.89 142 142 140
5.54 14.17 -0.89 141 141 141
-4.59 9.28 7.47 144 145 140
-4.59 9.20 7.47 142 143 138
-4.59 9.12 7.47 143 144 138
-4.70 8.99 7.56 140 141 135
-4.84 8.85 7.67 142 143 137
-4.84 8.77 7.67 143 144 138
-4.84 8.69 7.67 142 143 138
-4.97 8.55 7.79 152 153 148
-4.97 8.48 7.79 158 161 152
-4.97 8.40 7.79 158 161 154
-4.97 8.32 7.79 160 162 157
-4.97 8.25 7.79 161 163 162
-4.97 8.17 7.79 162 166 165
-4.97 8.09 7.79 164 168 169
-4.97 8.01 7.79 165 169 172
-4.97 7.94 7.79 168 172 171
-4.97 7.86 7.79 171 175 174
-4.97 7.78 7.79 164 169 165
-4.97 7.71 7.79 147 152 148
-4.97 7.63 7.79 138 140 139
-4.97 7.55 7.79 135 136 138
-5.08 7.43 7.88 130 131 133
-5.08 7.35 7.88 121 122 126
-5.08 7.27 7.88 115 116 121
-5.08 7.20 7.88 115 116 121
-5.08 7.12 7.88 121 122 127
-5.08 7.04 7.88 130 131 136
-5.08 6.97 7.88 126 127 131
-5.08 6.89 7.88 113 114 118
-5.08 6.81 7.88 109 110 112
-5.08 6.73 7.88 115 116 118
-5.08 6.66 7.88 84 88 89
-5.08 6.58 7.88 80 84 85
-5.08 6.50 7.88 79 83 84
-5.08 6.43 7.88 90 94 95
-5.08 6.35 7.88 84 90 90
-5.08 6.27 7.88 93 99 99
-5.08 6.20 7.88 118 126 128
-5.08 6.12 7.88 156 165 164
-4.97 6.08 7.79 160 169 164
-4.97 6.01 7.79 159 168 163
-5.08 5.89 7.88 159 168 163
-5.08 5.81 7.88 161 170 167
-5.08 5.73 7.88 161 170 167
-5.08 5.66 7.88 161 170 167
-5.08 5.58 7.88 160 169 166
-5.08 5.50 7.88 161 170 169
-5.08 5.43 7.88 161 170 169
-5.08 5.35 7.88 162 171 170
-5.08 5.27 7.88 161 170 169
-5.08 5.20 7.88 161 169 171
-5.08 5.12 7.88 161 169 171
-5.08 5.04 7.88 162 170 172
-5.08 4.97 7.88 163 171 173
-5.08 4.89 7.88 161 171 173
-5.08 4.81 7.88 161 171 173
-5.08 4.73 7.88 161 171 173
-5.08 4.66 7.88 162 172 174
-5.08 4.58 7.88 162 172 173
-5.08 4.50 7.88 161 171 172
-5.08 4.43 7.88 159 168 167
-5.08 4.35 7.88 157 166 165
-5.08 4.27 7.88 163 172 171
-5.08 4.20 7.88 163 169 167
-5.08 4.12 7.88 162 168 166
-5.08 4.04 7.88 162 168 164
-5.08 3.97 7.88 162 168 164
-5.08 3.89 7.88 163 169 165
-5.08 3.81 7.88 164 170 166
-5.08 3.73 7.88 165 171 167
-5.08 3.66 7.88 164 170 166
-5.08 3.58 7.88 164 170 168
-5.08 3.50 7.88 165 171 169
-5.08 3.43 7.88 165 171 171
-5.08 3.35 7.88 164 170 170
-5.08 3.27 7.88 165 171 171
-5.08 3.20 7.88 166 172 172
-5.08 3.12 7.88 163 172 171
-5.08 3.04 7.88 163 172 171
-5.08 2.97 7.88 163 172 169
-5.08 2.89 7.88 164 173 170
-5.08 2.81 7.88 165 174 169
-4.97 2.77 7.79 166 175 170
-4.97 2.69 7.79 167 177 169
-4.97 2.61 7.79 168 178 170
-4.97 2.54 7.79 177 188 182
-4.45 2.29 7.36 201 209 198
-4.18 2.29 7.13 197 205 194
-4.04 2.25 7.02 200 208 197
-4.04 2.17 7.02 200 208 197
-3.77 2.16 6.79 199 207 196
-3.63 2.12 6.68 199 207 196
-3.49 2.07 6.57 197 207 196
-3.36 2.03 6.45 197 207 196
-2.92 2.06 6.09 196 206 197
-2.78 2.01 5.98 196 206 197
-2.78 1.93 5.98 199 206 198
-2.78 1.85 5.98 202 209 201
5.76 3.68 -1.07 198 203 196
5.76 3.57 -1.07 135 140 133
5.76 3.47 -1.07 159 164 158
5.98 3.42 -1.25 159 164 158
5.98 3.32 -1.25 160 165 159
5.98 3.22 -1.25 159 164 158
5.76 3.07 -1.07 157 163 159
5.76 2.97 -1.07 156 162 158
5.76 2.87 -1.07 154 163 158
5.76 2.77 -1.07 154 163 158
5.76 2.67 -1.07 155 164 159
5.76 2.57 -1.07 154 163 160
5.76 2.46 -1.07 155 164 161
5.76 2.36 -1.07 155 164 161
5.76 2.26 -1.07 156 165 162
5.76 2.16 -1.07 156 165 162
5.98 2.11 -1.25 156 165 162
5.98 2.00 -1.25 157 166 161
5.98 1.90 -1.25 158 167 162
6.19 1.85 -1.43 157 166 161
5.98 1.70 -1.25 156 165 160
5.98 1.60 -1.25 155 165 157
5.98 1.50 -1.25 155 165 157
5.98 1.40 -1.25 156 166 158
5.98 1.29 -1.25 157 167 159
5.98 1.19 -1.25 159 169 161
5.98 1.09 -1.25 161 171 163
5.98 0.99 -1.25 159 169 161
5.98 0.89 -1.25 160 170 162
5.98 0.79 -1.25 159 170 164
5.98 0.69 -1.25 159 170 164
5.98 0.58 -1.25 158 169 163
5.98 0.48 -1.25 157 170 163
5.98 0.38 -1.25 156 169 162
5.98 0.28 -1.25 157 170 163
5.98 0.18 -1.25 157 170 163
5.98 0.08 -1.25 158 169 165
5.98 -0.02 -1.25 158 169 165
5.98 -0.13 -1.25 158 169 165
5.98 -0.23 -1.25 159 170 166
5.98 -0.33 -1.25 161 170 167
5.98 -0.43 -1.25 161 170 167
5.98 -0.53 -1.25 161 172 168
5.98 -0.63 -1.25 160 171 167
5.98 -0.73 -1.25 160 171 167
5.98 -0.84 -1.25 160 171 167
5.98 -0.94 -1.25 161 172 168
5.98 -1.04 -1.25 161 172 168
5.98 -1.14 -1.25 163 172 169
5.98 -1.24 -1.25 164 173 170
5.98 -1.34 -1.25 163 172 169
5.98 -1.44 -1.25 163 172 169
5.98 -1.54 -1.25 163 172 169
5.98 -1.65 -1.25 163 172 169
5.76 -1.77 -1.07 164 173 170
5.76 -1.88 -1.07 164 173 170
5.76 -1.98 -1.07 161 170 167
5.76 -2.08 -1.07 163 172 167
5.98 -2.15 -1.25 163 172 167
5.98 -2.25 -1.25 163 172 167
5.98 -2.36 -1.25 163 172 169
5.98 -2.46 -1.25 162 173 169
5.98 -2.56 -1.25 163 173 172
5.98 -2.66 -1.25 162 174 174
5.98 -2.76 -1.25 163 175 175
5.98 -2.86 -1.25 162 174 174
5.98 -2.96 -1.25 162 174 174
5.98 -3.07 -1.25 162 174 174
5.98 -3.17 -1.25 163 175 175
5.98 -3.27 -1.25 164 174 173
5.76 -3.39 -1.07 164 174 173
5.76 -3.49 -1.07 164 175 171
5.76 -3.59 -1.07 165 174 171
5.76 -3.69 -1.07 167 176 173
5.76 -3.79 -1.07 169 175 173
5.76 -3.89 -1.07 168 177 174
5.76 -4.00 -1.07 167 176 173
5.76 -4.10 -1.07 167 176 173
5.98 -4.18 -1.25 167 176 173
5.98 -4.28 -1.25 166 177 173
5.98 -4.38 -1.25 167 178 174
5.98 -4.49 -1.25 167 178 174
5.98 -4.59 -1.25 166 177 173
5.98 -4.69 -1.25 166 177 173
5.98 -4.79 -1.25 166 177 173
5.98 -4.89 -1.25 166 177 173
5.98 -4.99 -1.25 166 177 173
5.98 -5.09 -1.25 166 177 173
5.98 -5.20 -1.25 167 178 174
5.98 -5.30 -1.25 167 178 174
5.98 -5.40 -1.25 168 179 173
5.98 -5.50 -1.25 168 179 173
6.19 -5.59 -1.43 168 179 173
5.98 -5.70 -1.25 168 179 173
5.98 -5.80 -1.25 169 178 173
5.98 -5.91 -1.25 169 178 173
5.98 -6.01 -1.25 167 178 172
5.98 -6.11 -1.25 168 179 173
5.98 -6.21 -1.25 169 180 176
5.98 -6.31 -1.25 169 180 176
5.98 -6.41 -1.25 168 180 176
5.98 -6.51 -1.25 167 179 175
5.98 -6.62 -1.25 164 179 176
5.98 -6.72 -1.25 164 179 176
5.76 -6.82 -1.07 166 181 178
5.76 -6.92 -1.07 166 181 178
5.76 -7.02 -1.07 166 181 178
5.76 -7.12 -1.07 167 182 177
5.76 -7.22 -1.07 167 182 177
5.76 -7.33 -1.07 169 181 177
5.76 -7.43 -1.07 169 181 177
5.98 -7.53 -1.25 170 182 178
5.98 -7.63 -1.25 170 182 178
5.98 -7.73 -1.25 171 183 179
5.98 -7.83 -1.25 172 184 180
5.98 -7.93 -1.25 173 186 179
6.19 -8.04 -1.43 173 186 179
5.98 -8.14 -1.25 173 184 178
5.98 -8.24 -1.25 172 183 177
5.98 -8.34 -1.25 175 186 180
5.98 -8.44 -1.25 174 185 179
5.98 -8.54 -1.25 174 185 181
5.98 -8.64 -1.25 174 185 181
5.98 -8.75 -1.25 174 185 181
5.98 -8.85 -1.25 175 186 182
5.98 -8.95 -1.25 176 187 183
5.98 -9.05 -1.25 176 187 183
5.98 -9.15 -1.25 175 186 182
5.98 -9.25 -1.25 177 188 182
5.98 -9.35 -1.25 178 189 183
5.98 -9.46 -1.25 178 189 183
5.98 -9.56 -1.25 178 189 183
5.98 -9.66 -1.25 177 188 180
5.98 -9.76 -1.25 177 188 180
5.98 -9.86 -1.25 175 190 183
5.98 -9.96 -1.25 176 191 184
5.98 -10.06 -1.25 179 192 185
5.98 -10.17 -1.25 181 194 187
5.98 -10.27 -1.25 180 193 186
5.98 -10.37 -1.25 180 193 186
5.98 -10.47 -1.25 181 193 189
5.98 -10.57 -1.25 183 195 191
5.98 -10.67 -1.25 185 196 192
5.98 -10.77 -1.25 185 196 192
5.98 -10.87 -1.25 185 196 192
5.98 -10.98 -1.25 185 196 192
5.98 -11.08 -1.25 186 195 192
5.98 -11.18 -1.25 187 196 193
5.98 -11.28 -1.25 187 196 195
5.98 -11.38 -1.25 187 196 195
5.98 -11.48 -1.25 188 197 194
5.98 -11.58 -1.25 188 197 194
5.98 -11.69 -1.25 191 200 197
5.98 -11.79 -1.25 193 202 199
5.98 -11.89 -1.25 193 202 199
5.98 -11.99 -1.25 192 201 198
5.76 -12.07 -1.07 191 200 197
5.76 -12.17 -1.07 194 203 200
5.76 -12.27 -1.07 194 203 200
5.76 -12.37 -1.07 194 203 200
5.76 -12.47 -1.07 196 205 202
5.76 -12.57 -1.07 199 208 205
5.76 -12.67 -1.07 201 210 207
5.76 -12.78 -1.07 201 210 207
5.76 -12.88 -1.07 201 210 207
5.76 -12.98 -1.07 202 211 208
5.76 -13.08 -1.07 203 212 209
5.76 -13.18 -1.07 203 212 209
5.76 -13.28 -1.07 204 213 210
5.76 -13.38 -1.07 204 213 210
5.76 -13.48 -1.07 204 213 210
5.76 -13.58 -1.07 204 213 210
5.76 -13.68 -1.07 204 213 210
5.76 -13.79 -1.07 204 213 210
5.76 -13.89 -1.07 204 213 210
5.98 -14.02 -1.25 204 213 210
5.98 -14.12 -1.25 204 213 210
5.98 -14.22 -1.25 205 214 211
5.98 -14.32 -1.25 206 215 212
5.98 -14.42 -1.25 206 215 214
5.98 -14.53 -1.25 204 213 212
5.98 -14.63 -1.25 204 212 214
5.98 -14.73 -1.25 204 212 214
5.98 -14.83 -1.25 204 212 214
5.98 -14.93 -1.25 204 212 214
5.98 -15.03 -1.25 204 212 214
5.76 -15.30 -1.07 207 215 217
5.76 -15.40 -1.07 207 215 217
5.76 -15.50 -1.07 207 215 217
5.76 -15.60 -1.07 207 215 217
5.76 -15.70 -1.07 206 214 216
5.76 -15.80 -1.07 205 213 215
5.76 -15.90 -1.07 203 211 213
5.98 -16.05 -1.25 202 210 213
5.98 -16.15 -1.25 198 206 209
5.76 -16.21 -1.07 187 194 200
1.95 -15.56 2.07 172 182 184
1.95 -15.66 2.07 158 169 175
1.95 -15.75 2.07 111 129 151
1.95 -15.84 2.07 78 102 138
1.95 -15.93 2.07 20 50 100
1.95 -16.03 2.07 21 56 120
1.76 -16.08 2.23 27 65 138
1.95 -16.21 2.07 25 67 141
1.76 -16.26 2.23 18 58 128
1.76 -16.36 2.23 24 60 118
1.76 -16.45 2.23 53 87 133
1.76 -16.54 2.23 96 127 158
1.76 -16.63 2.23 127 153 176
1.57 -16.68 2.39 152 174 187
1.57 -16.77 2.39 166 183 191
1.57 -16.86 2.39 179 194 201
1.57 -16.96 2.39 191 202 206
1.40 -17.01 2.52 201 209 212
1.40 -17.10 2.52 202 207 210
1.40 -17.19 2.52 200 206 206
1.40 -17.28 2.52 203 209 209
1.40 -17.37 2.52 206 214 216
1.40 -17.47 2.52 206 214 216
1.57 -17.60 2.39 210 220 222
1.57 -17.69 2.39 213 223 225
1.57 -17.78 2.39 212 220 222
1.57 -17.87 2.39 217 223 223
1.57 -17.96 2.39 215 219 220
1.57 -18.06 2.39 213 217 216
1.57 -18.15 2.39 217 221 222
1.57 -18.24 2.39 208 218 217
1.57 -18.33 2.39 199 211 211
1.57 -18.42 2.39 186 198 196
1.57 -18.51 2.39 177 187 186
1.57 -18.61 2.39 171 180 179
1.57 -18.70 2.39 154 161 167
1.57 -18.79 2.39 116 126 138
1.57 -18.88 2.39 78 93 116
1.57 -18.97 2.39 57 76 106
1.57 -19.06 2.39 74 97 131
5.54 -20.68 -0.89 193 203 212
5.54 -20.79 -0.89 211 220 227
5.54 -20.89 -0.89 216 224 227
5.54 -20.99 -0.89 219 227 230
5.54 -21.09 -0.89 218 224 224
5.32 -21.12 -0.71 224 230 230
5.32 -21.22 -0.71 224 228 229
5.32 -21.32 -0.71 222 226 229
5.32 -21.42 -0.71 223 227 230
5.32 -21.52 -0.71 224 227 232
5.32 -21.62 -0.71 224 227 232
5.32 -21.72 -0.71 222 226 229
5.32 -21.82 -0.71 221 225 228
5.32 -21.92 -0.71 219 223 224
5.32 -22.02 -0.71 219 223 224
5.10 -22.05 -0.53 224 228 229
4.91 -22.48 -0.37 219 223 224
4.91 -22.58 -0.37 220 224 225
5.49 23.91 -0.98 56 55 51
5.71 23.96 -1.16 74 73 69
5.71 23.86 -1.16 109 106 101
5.71 23.76 -1.16 128 125 120
5.92 23.81 -1.34 127 123 120
5.92 23.71 -1.34 122 118 117
5.92 23.61 -1.34 125 121 120
5.92 23.50 -1.34 125 121 122
5.92 23.40 -1.34 126 120 124
5.92 23.30 -1.34 126 120 124
5.92 23.20 -1.34 126 120 120
5.92 23.10 -1.34 126 120 120
5.92 23.00 -1.34 126 121 117
5.92 22.90 -1.34 126 121 117
5.92 22.79 -1.34 131 124 116
5.92 22.69 -1.34 131 124 116
5.92 22.59 -1.34 128 124 115
5.92 22.49 -1.34 127 123 114
5.92 22.39 -1.34 128 124 115
5.92 22.29 -1.34 128 125 118
5.92 22.19 -1.34 129 126 119
5.92 22.08 -1.34 128 125 118
5.92 21.98 -1.34 128 125 118
5.92 21.88 -1.34 128 125 118
5.92 21.78 -1.34 129 126 119
5.92 21.68 -1.34 129 126 119
5.92 21.58 -1.34 130 127 120
5.92 21.48 -1.34 131 126 120
5.71 21.24 -1.16 131 126 120
5.71 21.14 -1.16 132 127 121
5.71 21.03 -1.16 132 127 121
5.71 20.93 -1.16 131 128 123
5.71 20.83 -1.16 132 129 124
5.71 20.73 -1.16 132 129 124
5.71 20.63 -1.16 133 130 125
5.71 20.53 -1.16 131 130 126
5.71 20.43 -1.16 131 130 126
5.71 20.33 -1.16 133 132 128
5.71 20.23 -1.16 131 130 126
5.71 20.13 -1.16 132 129 124
5.71 20.03 -1.16 134 131 126
5.71 19.92 -1.16 134 131 124
5.71 19.82 -1.16 135 130 124
5.71 19.72 -1.16 136 131 127
5.71 19.62 -1.16 136 131 127
5.71 19.52 -1.16 137 132 129
5.71 19.42 -1.16 137 131 131
5.71 19.32 -1.16 137 131 131
5.71 19.22 -1.16 137 131 133
5.71 19.12 -1.16 136 130 132
5.71 19.02 -1.16 136 132 133
5.71 18.92 -1.16 136 132 133
5.71 18.81 -1.16 137 133 134
5.71 18.71 -1.16 137 133 134
5.71 18.61 -1.16 137 133 130
5.71 18.51 -1.16 136 132 129
5.71 18.41 -1.16 134 134 126
5.49 18.19 -0.98 135 135 127
0.65 15.36 3.03 135 135 125
0.65 15.27 3.03 135 135 125
0.65 15.18 3.03 137 135 122
0.81 15.19 2.90 138 136 123
0.81 15.10 2.90 139 137 122
0.81 15.01 2.90 141 139 124
0.81 14.92 2.90 142 141 121
0.81 14.83 2.90 142 144 120
0.81 14.74 2.90 143 146 119
0.81 14.65 2.90 143 148 118
0.81 14.56 2.90 144 149 117
1.00 14.57 2.74 145 151 115
1.00 14.48 2.74 146 152 114
1.00 14.39 2.74 146 154 113
1.00 14.30 2.74 147 156 113
1.00 14.21 2.74 149 158 113
5.92 16.51 -1.34 153 159 111
5.92 16.41 -1.34 154 161 110
5.92 16.30 -1.34 155 162 111
5.92 16.20 -1.34 157 161 110
5.92 16.10 -1.34 158 162 111
5.92 16.00 -1.34 159 164 110
5.92 15.90 -1.34 160 165 111
5.92 15.80 -1.34 159 163 112
5.71 15.58 -1.16 159 163 113
5.71 15.48 -1.16 159 162 115
5.71 15.38 -1.16 159 162 119
5.71 15.28 -1.16 155 160 119
5.71 15.18 -1.16 153 157 120
5.71 15.08 -1.16 150 155 123
5.71 14.98 -1.16 146 150 123
5.71 14.88 -1.16 144 147 126
5.49 14.67 -0.98 143 146 127
5.49 14.57 -0.98 142 144 130
5.49 14.47 -0.98 142 143 135
5.49 14.37 -0.98 142 143 138
-4.63 9.28 7.40 143 144 139
-4.63 9.20 7.40 142 143 138
-4.74 9.07 7.49 144 145 139
-4.74 8.99 7.49 141 142 136
-4.87 8.85 7.61 142 143 137
-4.87 8.77 7.61 143 144 138
-4.87 8.69 7.61 140 141 136
-5.01 8.55 7.72 149 150 145
-5.01 8.48 7.72 157 158 150
-5.01 8.40 7.72 158 159 153
-5.01 8.32 7.72 159 160 154
-5.01 8.25 7.72 159 159 157
-5.01 8.17 7.72 157 159 158
-5.01 8.09 7.72 156 157 159
-5.01 8.01 7.72 156 160 161
-5.01 7.94 7.72 159 164 160
-5.01 7.86 7.72 157 162 158
-5.01 7.78 7.72 161 166 160
-5.01 7.71 7.72 169 174 168
-5.01 7.63 7.72 174 176 173
-5.12 7.50 7.81 173 175 174
-5.12 7.43 7.81 174 176 175
-5.12 7.35 7.81 179 180 182
-5.12 7.27 7.81 178 182 185
-5.12 7.20 7.81 177 181 184
-5.12 7.12 7.81 169 173 174
-5.12 7.04 7.81 155 159 160
-5.12 6.97 7.81 141 145 146
-5.12 6.89 7.81 131 135 136
-5.12 6.81 7.81 123 127 128
-5.12 6.73 7.81 117 121 122
-5.12 6.66 7.81 123 127 128
-5.12 6.58 7.81 121 125 126
-5.12 6.50 7.81 118 123 126
-5.12 6.43 7.81 123 128 131
-5.12 6.35 7.81 110 115 118
-5.12 6.27 7.81 112 117 120
-5.12 6.20 7.81 134 139 142
-5.12 6.12 7.81 168 174 174
-5.12 6.04 7.81 160 169 164
-5.12 5.97 7.81 159 168 163
-5.12 5.89 7.81 160 169 164
-5.12 5.81 7.81 161 170 167
-5.12 5.73 7.81 161 170 167
-5.12 5.66 7.81 161 170 167
-5.12 5.58 7.81 161 170 167
-5.12 5.50 7.81 160 169 168
-5.12 5.43 7.81 160 169 168
-5.12 5.35 7.81 161 170 169
-5.12 5.27 7.81 161 170 169
-5.12 5.20 7.81 161 169 171
-5.26 5.07 7.92 162 170 172
-5.26 4.99 7.92 162 170 172
-5.26 4.92 7.92 163 171 174
-5.26 4.84 7.92 163 173 175
-5.26 4.76 7.92 162 171 176
-5.26 4.69 7.92 162 171 176
-5.26 4.61 7.92 162 171 176
-5.26 4.53 7.92 163 173 175
-5.26 4.46 7.92 165 175 177
-5.26 4.38 7.92 166 174 176
-5.26 4.30 7.92 166 174 176
-5.26 4.23 7.92 164 173 172
-5.26 4.15 7.92 167 176 173
-5.26 4.07 7.92 168 177 174
-5.26 4.00 7.92 170 176 172
-5.12 3.97 7.81 168 174 170
-5.12 3.89 7.81 166 172 168
-5.12 3.81 7.81 164 170 166
-5.26 3.69 7.92 162 171 168
-5.26 3.61 7.92 162 171 168
-5.26 3.54 7.92 163 172 169
-5.26 3.46 7.92 164 173 170
-5.26 3.38 7.92 166 175 174
-5.26 3.31 7.92 167 176 175
-5.26 3.23 7.92 168 176 178
-5.26 3.15 7.92 169 177 179
-5.26 3.08 7.92 167 177 178
-5.26 3.00 7.92 168 178 179
-5.12 2.97 7.81 169 179 178
-5.12 2.89 7.81 169 179 178
-5.12 2.81 7.81 169 179 178
-5.12 2.73 7.81 169 179 178
-5.12 2.66 7.81 170 181 177
-5.01 2.61 7.72 171 182 178
-5.01 2.54 7.72 168 181 174
-4.49 2.29 7.29 195 205 196
-4.22 2.29 7.06 193 203 194
-4.08 2.25 6.95 198 206 195
-3.81 2.24 6.72 198 206 195
-3.67 2.20 6.61 196 206 195
-3.53 2.15 6.50 196 206 195
-3.40 2.11 6.38 196 206 197
-3.12 2.10 6.16 196 206 197
5.71 3.68 -1.16 210 215 208
5.71 3.57 -1.16 132 137 130
5.71 3.47 -1.16 160 163 156
5.71 3.37 -1.16 161 164 157
5.71 3.27 -1.16 160 162 157
5.71 3.17 -1.16 160 162 157
5.71 3.07 -1.16 158 163 157
5.71 2.97 -1.16 158 163 157
5.71 2.87 -1.16 157 163 159
5.71 2.77 -1.16 157 163 159
5.71 2.67 -1.16 158 164 160
5.71 2.57 -1.16 154 163 160
5.71 2.46 -1.16 154 163 160
5.71 2.36 -1.16 155 164 161
5.71 2.26 -1.16 155 164 161
5.71 2.16 -1.16 155 164 161
5.71 2.06 -1.16 156 165 162
5.71 1.96 -1.16 157 166 161
5.92 1.90 -1.34 158 167 162
5.92 1.80 -1.34 156 165 160
5.92 1.70 -1.34 155 164 159
5.71 1.56 -1.16 155 164 159
5.71 1.45 -1.16 155 164 159
5.71 1.35 -1.16 156 166 158
5.71 1.25 -1.16 158 168 160
5.71 1.15 -1.16 159 169 161
5.71 1.05 -1.16 160 170 162
5.71 0.95 -1.16 159 169 161
5.71 0.85 -1.16 159 169 161
5.71 0.75 -1.16 158 169 163
5.71 0.65 -1.16 158 169 163
5.71 0.55 -1.16 159 170 164
5.92 0.48 -1.34 157 170 163
5.92 0.38 -1.34 157 170 163
5.92 0.28 -1.34 157 170 163
5.92 0.18 -1.34 156 169 162
5.92 0.08 -1.34 158 169 165
5.71 -0.06 -1.16 158 169 165
5.71 -0.16 -1.16 158 169 165
5.71 -0.26 -1.16 159 170 166
5.71 -0.36 -1.16 161 170 167
5.71 -0.46 -1.16 161 170 167
5.71 -0.56 -1.16 160 171 167
5.92 -0.63 -1.34 160 171 167
5.92 -0.73 -1.34 160 171 167
5.92 -0.84 -1.34 160 171 167
5.71 -0.97 -1.16 160 171 167
5.71 -1.07 -1.16 161 172 168
5.71 -1.17 -1.16 162 173 169
5.71 -1.27 -1.16 163 174 170
5.71 -1.37 -1.16 162 171 168
5.71 -1.47 -1.16 162 171 168
5.71 -1.57 -1.16 162 171 168
5.71 -1.67 -1.16 162 171 168
5.71 -1.77 -1.16 163 172 169
5.71 -1.88 -1.16 162 171 168
5.71 -1.98 -1.16 159 168 165
5.71 -2.08 -1.16 163 172 167
5.71 -2.18 -1.16 162 171 166
5.71 -2.28 -1.16 162 171 168
5.71 -2.38 -1.16 162 171 168
5.71 -2.48 -1.16 163 172 171
5.71 -2.58 -1.16 163 172 171
5.71 -2.68 -1.16 163 173 174
5.71 -2.78 -1.16 163 173 174
5.71 -2.88 -1.16 161 171 172
5.71 -2.99 -1.16 162 172 173
5.71 -3.09 -1.16 162 174 174
5.71 -3.19 -1.16 163 175 175
5.71 -3.29 -1.16 163 175 173
5.71 -3.39 -1.16 163 175 173
5.71 -3.49 -1.16 163 175 171
5.71 -3.59 -1.16 164 175 171
5.71 -3.69 -1.16 164 175 171
5.71 -3.79 -1.16 165 174 171
5.71 -3.89 -1.16 166 175 172
5.71 -4.00 -1.16 166 175 172
5.71 -4.10 -1.16 166 177 173
5.71 -4.20 -1.16 166 177 173
5.71 -4.30 -1.16 167 178 174
5.92 -4.38 -1.34 167 178 174
5.92 -4.49 -1.34 167 178 174
5.92 -4.59 -1.34 166 177 173
5.92 -4.69 -1.34 166 177 173
5.92 -4.79 -1.34 166 177 173
5.92 -4.89 -1.34 166 177 173
5.92 -4.99 -1.34 166 177 173
5.92 -5.09 -1.34 166 177 173
5.92 -5.20 -1.34 167 178 174
5.92 -5.30 -1.34 167 178 174
5.71 -5.41 -1.16 168 179 173
5.71 -5.51 -1.16 168 179 173
5.92 -5.60 -1.34 168 179 173
5.92 -5.70 -1.34 168 179 173
5.92 -5.80 -1.34 169 178 173
5.71 -5.91 -1.16 169 178 173
5.71 -6.01 -1.16 166 177 171
5.71 -6.11 -1.16 167 178 172
5.71 -6.22 -1.16 168 179 175
5.71 -6.32 -1.16 168 179 175
5.71 -6.42 -1.16 168 180 178
5.71 -6.52 -1.16 168 180 178
5.71 -6.62 -1.16 166 181 178
5.71 -6.72 -1.16 166 181 178
5.71 -6.82 -1.16 167 182 177
5.71 -6.92 -1.16 167 182 177
5.71 -7.02 -1.16 167 182 177
5.71 -7.12 -1.16 166 181 176
5.71 -7.22 -1.16 166 181 176
5.71 -7.33 -1.16 168 180 176
5.71 -7.43 -1.16 168 180 176
5.71 -7.53 -1.16 168 181 174
5.71 -7.63 -1.16 168 181 174
5.71 -7.73 -1.16 170 183 176
5.71 -7.83 -1.16 171 184 177
5.71 -7.93 -1.16 172 185 178
5.92 -8.04 -1.34 173 186 179
5.92 -8.14 -1.34 174 185 179
5.92 -8.24 -1.34 173 184 178
5.71 -8.34 -1.16 175 184 179
5.71 -8.44 -1.16 175 184 179
5.71 -8.54 -1.16 175 184 181
5.71 -8.64 -1.16 175 184 181
5.71 -8.74 -1.16 175 184 181
5.71 -8.84 -1.16 175 184 181
5.71 -8.94 -1.16 176 185 182
5.71 -9.04 -1.16 176 185 182
5.71 -9.14 -1.16 176 185 182
5.71 -9.24 -1.16 177 186 183
5.71 -9.34 -1.16 178 187 184
5.71 -9.45 -1.16 178 187 182
5.92 -9.56 -1.34 178 187 182
5.92 -9.66 -1.34 178 187 182
5.92 -9.76 -1.34 178 187 182
5.71 -9.85 -1.16 175 188 181
5.71 -9.95 -1.16 177 190 183
5.71 -10.05 -1.16 179 192 185
5.71 -10.15 -1.16 180 193 186
5.71 -10.25 -1.16 179 192 185
5.71 -10.35 -1.16 179 192 185
5.92 -10.47 -1.34 182 193 189
5.92 -10.57 -1.34 184 195 191
5.92 -10.67 -1.34 183 194 190
5.71 -10.76 -1.16 184 195 191
5.71 -10.86 -1.16 185 196 192
5.71 -10.96 -1.16 186 197 193
5.71 -11.06 -1.16 188 197 194
5.71 -11.16 -1.16 188 197 194
5.71 -11.26 -1.16 188 197 196
5.71 -11.36 -1.16 188 197 196
5.71 -11.46 -1.16 189 198 195
5.71 -11.56 -1.16 189 198 195
5.71 -11.67 -1.16 191 200 197
5.71 -11.77 -1.16 193 202 199
5.71 -11.87 -1.16 194 203 200
5.71 -11.97 -1.16 193 202 199
5.71 -12.07 -1.16 192 201 198
5.71 -12.17 -1.16 196 205 202
5.71 -12.27 -1.16 196 205 202
5.71 -12.37 -1.16 197 206 203
5.71 -12.47 -1.16 198 207 204
5.71 -12.57 -1.16 200 209 206
5.49 -12.65 -0.98 202 211 208
5.49 -12.75 -0.98 203 212 209
5.71 -12.88 -1.16 202 211 208
5.71 -12.98 -1.16 202 211 206
5.49 -13.05 -0.98 202 211 206
5.49 -13.15 -0.98 203 212 207
5.49 -13.25 -0.98 203 212 207
5.49 -13.35 -0.98 204 213 210
5.49 -13.45 -0.98 204 213 210
5.49 -13.55 -0.98 204 213 210
5.71 -13.68 -1.16 204 213 210
5.71 -13.79 -1.16 206 215 212
5.71 -13.89 -1.16 205 214 211
5.71 -13.99 -1.16 205 214 211
5.71 -14.09 -1.16 205 214 211
5.71 -14.19 -1.16 206 215 212
5.71 -14.29 -1.16 207 216 213
5.92 -14.42 -1.34 207 216 215
5.92 -14.53 -1.34 206 215 214
5.92 -14.63 -1.34 205 213 215
5.92 -14.73 -1.34 205 213 215
5.92 -14.83 -1.34 205 213 215
5.71 -14.90 -1.16 204 212 214
5.71 -15.00 -1.16 204 212 214
5.71 -15.10 -1.16 204 212 214
5.71 -15.20 -1.16 205 213 215
5.71 -15.30 -1.16 204 212 214
5.71 -15.40 -1.16 204 212 214
5.71 -15.50 -1.16 204 212 214
5.71 -15.60 -1.16 205 213 215
5.71 -15.70 -1.16 206 214 216
5.71 -15.80 -1.16 205 213 215
5.71 -15.90 -1.16 204 212 214
5.71 -16.01 -1.16 203 211 214
5.71 -16.11 -1.16 203 207 216
5.71 -16.21 -1.16 188 192 201
1.71 -15.53 2.15 172 180 183
1.71 -15.62 2.15 156 166 168
1.71 -15.71 2.15 115 134 148
1.91 -15.84 1.99 89 114 144
1.91 -15.93 1.99 31 62 108
1.91 -16.03 1.99 20 54 115
1.71 -16.45 2.15 99 125 160
1.71 -16.54 2.15 130 156 171
1.71 -16.63 2.15 144 164 173
1.52 -16.68 2.31 156 171 178
1.52 -16.77 2.31 177 188 194
1.52 -16.86 2.31 191 202 206
1.36 -16.92 2.44 196 204 207
1.36 -17.01 2.44 197 203 203
1.36 -17.10 2.44 195 199 200
1.36 -17.19 2.44 197 201 202
5.49 -18.48 -0.98 199 207 210
5.49 -18.58 -0.98 200 210 212
1.52 -17.69 2.31 200 209 214
1.52 -17.78 2.31 199 207 210
1.52 -17.87 2.31 210 215 218
1.52 -17.96 2.31 209 214 217
1.52 -18.06 2.31 211 215 214
1.52 -18.15 2.31 210 216 216
1.52 -18.24 2.31 201 211 210
1.52 -18.33 2.31 193 205 205
1.52 -18.42 2.31 181 193 193
1.52 -18.51 2.31 168 178 179
1.52 -18.61 2.31 157 163 163
1.52 -18.70 2.31 134 139 143
1.52 -18.79 2.31 113 120 130
1.52 -18.88 2.31 88 99 117
1.52 -18.97 2.31 67 85 109
1.52 -19.06 2.31 73 94 123
5.71 -20.55 -1.16 149 161 177
5.71 -20.65 -1.16 175 183 196
5.71 -20.75 -1.16 188 197 206
5.49 -20.79 -0.98 203 212 219
5.49 -20.89 -0.98 212 219 225
5.49 -20.99 -0.98 220 228 231
5.49 -21.09 -0.98 219 225 225
5.49 -21.19 -0.98 223 229 229
5.27 -21.22 -0.79 224 228 229
5.27 -21.32 -0.79 225 229 232
5.27 -21.42 -0.79 225 229 232
5.27 -21.52 -0.79 224 227 232
5.27 -21.62 -0.79 223 226 231
5.27 -21.72 -0.79 223 227 230
5.27 -21.82 -0.79 222 226 229
5.27 -21.92 -0.79 223 227 226
5.05 -21.95 -0.61 223 227 226
5.05 -22.05 -0.61 222 226 227
5.05 -22.15 -0.61 222 226 227
4.86 -22.18 -0.45 224 228 229
4.86 -22.28 -0.45 226 230 231
4.86 -22.38 -0.45 227 231 232
4.86 -22.48 -0.45 225 229 230
4.86 -22.58 -0.45 222 226 227
4.86 -22.68 -0.45 218 222 223
4.86 -22.78 -0.45 217 221 222
5.27 -23.42 -0.79 218 222 223
5.27 -23.52 -0.79 217 223 223
5.27 -23.62 -0.79 224 226 223
5.27 -23.72 -0.79 222 222 220
5.66 24.06 -1.24 88 85 80
5.44 23.81 -1.06 109 106 101
5.44 23.71 -1.06 123 120 113
5.44 23.61 -1.06 125 122 115
5.66 23.66 -1.24 123 120 115
5.66 23.56 -1.24 125 121 118
5.87 23.61 -1.43 124 120 117
5.66 23.36 -1.24 125 121 120
5.66 23.26 -1.24 125 121 122
5.66 23.15 -1.24 125 121 122
5.66 23.05 -1.24 125 119 119
5.66 22.95 -1.24 125 119 119
5.66 22.85 -1.24 125 120 117
5.66 22.75 -1.24 124 119 115
5.66 22.65 -1.24 132 125 119
5.66 22.55 -1.24 131 124 116
5.66 22.45 -1.24 128 124 115
5.66 22.35 -1.24 127 123 114
5.66 22.25 -1.24 127 123 114
5.66 22.15 -1.24 127 124 117
5.66 22.04 -1.24 127 124 117
5.87 22.08 -1.43 129 126 119
5.87 21.98 -1.43 129 126 119
5.87 21.88 -1.43 129 126 119
5.66 21.64 -1.24 129 126 119
5.66 21.54 -1.24 129 126 119
5.66 21.44 -1.24 130 127 120
5.66 21.34 -1.24 131 126 120
5.66 21.24 -1.24 132 127 121
5.66 21.14 -1.24 133 128 122
5.66 21.03 -1.24 133 128 122
5.66 20.93 -1.24 132 129 122
5.66 20.83 -1.24 132 129 122
5.66 20.73 -1.24 132 129 124
5.66 20.63 -1.24 132 129 124
5.66 20.53 -1.24 130 129 125
5.66 20.43 -1.24 130 129 125
5.66 20.33 -1.24 132 131 127
5.66 20.23 -1.24 130 129 125
5.66 20.13 -1.24 132 129 124
5.66 20.03 -1.24 134 131 126
5.66 19.92 -1.24 134 131 126
5.66 19.82 -1.24 135 130 124
5.66 19.72 -1.24 136 131 127
5.66 19.62 -1.24 135 130 126
5.66 19.52 -1.24 136 131 128
5.66 19.42 -1.24 136 130 130
5.66 19.32 -1.24 137 131 131
5.44 19.09 -1.06 135 131 132
5.44 18.99 -1.06 136 132 133
5.66 19.02 -1.24 136 132 133
5.66 18.92 -1.24 137 133 134
5.66 18.81 -1.24 137 133 134
5.66 18.71 -1.24 136 132 133
5.66 18.61 -1.24 136 132 129
5.66 18.51 -1.24 137 133 130
5.66 18.41 -1.24 137 134 129
5.44 18.19 -1.06 136 133 128
0.60 15.36 2.96 136 133 126
0.60 15.27 2.96 137 134 127
0.60 15.18 2.96 136 134 122
0.77 15.19 2.82 136 134 122
0.77 15.10 2.82 137 135 122
0.77 15.01 2.82 139 137 124
0.77 14.92 2.82 141 140 122
0.77 14.83 2.82 142 144 122
0.77 14.74 2.82 143 146 119
0.77 14.65 2.82 144 149 119
0.77 14.56 2.82 145 150 118
0.96 14.57 2.66 145 151 115
0.96 14.48 2.66 145 151 115
0.96 14.39 2.66 145 153 112
0.96 14.30 2.66 146 154 113
0.96 14.21 2.66 147 156 113
5.66 16.39 -1.24 151 159 110
5.66 16.29 -1.24 153 160 109
5.66 16.19 -1.24 154 161 110
5.66 16.09 -1.24 157 161 110
5.66 15.99 -1.24 158 162 111
5.66 15.89 -1.24 159 164 110
5.66 15.79 -1.24 160 165 111
5.66 15.69 -1.24 160 164 113
5.66 15.58 -1.24 160 164 114
5.66 15.48 -1.24 160 164 114
5.66 15.38 -1.24 160 163 118
5.66 15.28 -1.24 157 163 117
5.66 15.18 -1.24 156 162 118
5.66 15.08 -1.24 153 157 120
5.66 14.98 -1.24 148 154 120
5.44 14.77 -1.06 146 150 123
5.44 14.67 -1.06 144 148 125
5.44 14.57 -1.06 141 144 125
5.44 14.47 -1.06 140 142 129
5.22 14.26 -0.88 141 142 134
-4.67 9.28 7.34 143 144 138
-4.67 9.20 7.34 142 143 137
-4.78 9.07 7.43 145 146 140
-4.78 8.99 7.43 142 143 137
-4.91 8.85 7.54 144 145 140
-4.91 8.77 7.54 144 145 140
-4.91 8.69 7.54 140 140 138
-4.91 8.62 7.54 147 148 143
-5.05 8.48 7.65 157 156 151
-5.05 8.40 7.65 158 157 152
-5.05 8.32 7.65 159 160 155
-5.05 8.25 7.65 159 159 159
-5.05 8.17 7.65 159 161 160
-5.05 8.09 7.65 160 161 163
-5.05 8.01 7.65 163 167 168
-5.05 7.94 7.65 167 172 168
-5.05 7.86 7.65 167 172 168
-5.05 7.78 7.65 163 168 162
-5.05 7.71 7.65 160 165 159
-5.05 7.63 7.65 160 165 161
-5.16 7.50 7.74 163 168 164
-5.16 7.43 7.74 164 166 165
-5.16 7.35 7.74 161 163 162
-5.16 7.27 7.74 158 162 161
-5.16 7.20 7.74 163 167 166
-5.16 7.12 7.74 163 167 168
-5.16 7.04 7.74 159 163 164
-5.30 6.91 7.86 163 167 168
-5.30 6.83 7.86 174 178 179
-5.30 6.76 7.86 177 183 183
-5.30 6.68 7.86 175 181 181
-5.16 6.66 7.74 178 183 186
-5.16 6.58 7.74 176 181 184
-5.16 6.50 7.74 173 178 181
-5.16 6.43 7.74 179 184 187
-5.16 6.35 7.74 171 176 179
-5.16 6.27 7.74 166 171 174
-5.16 6.20 7.74 158 163 166
-5.16 6.12 7.74 160 166 166
-5.16 6.04 7.74 161 167 163
-5.16 5.97 7.74 161 167 163
-5.16 5.89 7.74 161 167 163
-5.30 5.76 7.86 162 168 166
-5.30 5.68 7.86 163 169 167
-5.30 5.61 7.86 161 170 167
-5.30 5.53 7.86 161 170 167
-5.30 5.45 7.86 160 169 168
-5.30 5.38 7.86 160 169 168
-5.30 5.30 7.86 160 169 168
-5.30 5.22 7.86 160 169 168
-5.30 5.15 7.86 160 168 170
-5.30 5.07 7.86 161 169 171
-5.30 4.99 7.86 160 170 171
-5.30 4.92 7.86 160 170 172
-5.30 4.84 7.86 162 172 174
-5.30 4.76 7.86 162 171 176
-5.30 4.69 7.86 161 171 173
-5.30 4.61 7.86 160 170 172
-5.30 4.53 7.86 160 170 172
-5.43 4.41 7.97 160 170 172
-5.43 4.33 7.97 163 171 173
-5.43 4.26 7.97 164 172 174
-5.43 4.18 7.97 161 170 169
-5.43 4.11 7.97 161 170 167
-5.43 4.03 7.97 163 172 169
-5.43 3.95 7.97 164 173 170
-5.43 3.88 7.97 166 175 172
-5.30 3.84 7.86 168 177 172
-5.30 3.77 7.86 169 178 173
-5.43 3.65 7.97 167 176 173
-5.43 3.57 7.97 167 176 173
-5.30 3.54 7.86 166 175 174
-5.30 3.46 7.86 164 173 172
-5.30 3.38 7.86 162 172 171
-5.30 3.31 7.86 162 172 171
-5.43 3.19 7.97 162 172 173
-5.43 3.11 7.97 161 171 172
-5.43 3.04 7.97 162 172 173
-5.43 2.96 7.97 164 174 175
-5.30 2.92 7.86 166 176 177
-5.30 2.85 7.86 167 177 178
-5.30 2.77 7.86 166 178 178
-5.30 2.69 7.86 167 179 179
-5.16 2.66 7.74 169 181 179
-5.16 2.58 7.74 170 182 180
-5.05 2.54 7.65 167 179 175
-4.53 2.29 7.22 198 208 199
-4.26 2.29 7.00 201 211 202
-4.12 2.25 6.88 197 204 196
-3.85 2.24 6.66 197 204 196
-3.71 2.20 6.54 198 205 197
-3.58 2.15 6.43 198 205 197
-3.44 2.11 6.31 196 206 197
-3.17 2.10 6.09 196 206 197
5.66 3.68 -1.24 219 224 217
5.66 3.57 -1.24 134 139 132
5.66 3.47 -1.24 159 162 155
5.66 3.37 -1.24 161 164 157
5.66 3.27 -1.24 159 161 156
5.66 3.17 -1.24 160 162 157
5.66 3.07 -1.24 161 163 158
5.66 2.97 -1.24 161 163 158
5.66 2.87 -1.24 159 164 160
5.66 2.77 -1.24 158 163 159
5.66 2.67 -1.24 158 163 159
5.66 2.57 -1.24 153 162 159
5.44 2.42 -1.06 154 163 160
5.44 2.32 -1.06 155 164 161
5.44 2.22 -1.06 155 164 161
5.66 2.16 -1.24 155 164 159
5.66 2.06 -1.24 155 164 159
5.66 1.96 -1.24 156 165 160
5.66 1.86 -1.24 156 165 160
5.66 1.76 -1.24 155 164 159
5.66 1.66 -1.24 156 165 160
5.66 1.56 -1.24 156 165 160
5.66 1.45 -1.24 157 166 161
5.66 1.35 -1.24 158 167 162
5.66 1.25 -1.24 158 167 162
5.66 1.15 -1.24 159 168 163
5.66 1.05 -1.24 159 168 163
5.66 0.95 -1.24 159 169 161
5.66 0.85 -1.24 159 169 161
5.66 0.75 -1.24 157 168 162
5.66 0.65 -1.24 158 169 163
5.66 0.55 -1.24 159 170 164
5.66 0.45 -1.24 157 170 163
5.66 0.34 -1.24 156 169 162
5.66 0.24 -1.24 156 169 162
5.66 0.14 -1.24 156 169 162
5.66 0.04 -1.24 157 168 164
5.66 -0.06 -1.24 158 169 165
5.66 -0.16 -1.24 158 169 165
5.66 -0.26 -1.24 159 170 166
5.66 -0.36 -1.24 161 170 167
5.66 -0.46 -1.24 161 170 167
5.66 -0.56 -1.24 160 171 167
5.66 -0.66 -1.24 160 171 167
5.66 -0.77 -1.24 159 170 166
5.66 -0.87 -1.24 159 170 166
5.66 -0.97 -1.24 159 170 166
5.66 -1.07 -1.24 160 171 167
5.66 -1.17 -1.24 161 172 168
5.66 -1.27 -1.24 161 172 168
5.66 -1.37 -1.24 159 170 166
5.66 -1.47 -1.24 160 171 167
5.66 -1.57 -1.24 162 173 169
5.66 -1.67 -1.24 162 173 169
5.66 -1.77 -1.24 161 172 168
5.66 -1.88 -1.24 160 171 167
5.66 -1.98 -1.24 160 171 167
5.66 -2.08 -1.24 162 171 166
5.66 -2.18 -1.24 162 171 166
5.66 -2.28 -1.24 162 171 168
5.66 -2.38 -1.24 162 171 168
5.66 -2.48 -1.24 162 171 168
5.66 -2.58 -1.24 163 172 169
5.66 -2.68 -1.24 163 172 171
5.66 -2.78 -1.24 163 172 171
5.66 -2.88 -1.24 161 171 170
5.66 -2.99 -1.24 162 172 171
5.66 -3.09 -1.24 163 173 172
5.66 -3.19 -1.24 164 174 173
5.66 -3.29 -1.24 163 175 173
5.66 -3.39 -1.24 163 175 173
5.44 -3.51 -1.06 163 175 173
5.66 -3.59 -1.24 163 175 173
5.66 -3.69 -1.24 163 174 170
5.44 -3.81 -1.06 163 174 170
5.44 -3.91 -1.06 163 174 170
5.44 -4.01 -1.06 164 175 171
5.66 -4.10 -1.24 165 176 172
5.66 -4.20 -1.24 166 177 173
5.66 -4.30 -1.24 167 178 174
5.66 -4.40 -1.24 167 178 174
5.66 -4.50 -1.24 167 178 174
5.66 -4.60 -1.24 166 177 173
5.66 -4.70 -1.24 166 177 173
5.66 -4.80 -1.24 165 177 173
5.66 -4.90 -1.24 165 177 173
5.66 -5.00 -1.24 165 177 173
5.66 -5.11 -1.24 165 177 173
5.66 -5.21 -1.24 166 177 173
5.66 -5.31 -1.24 167 178 174
5.66 -5.41 -1.24 168 179 175
5.66 -5.51 -1.24 168 179 175
5.66 -5.61 -1.24 167 178 172
5.66 -5.71 -1.24 167 178 172
5.66 -5.81 -1.24 168 177 172
5.66 -5.91 -1.24 169 178 173
5.66 -6.01 -1.24 167 178 172
5.66 -6.11 -1.24 167 178 172
5.66 -6.22 -1.24 167 178 174
5.66 -6.32 -1.24 167 178 174
5.66 -6.42 -1.24 167 179 177
5.66 -6.52 -1.24 168 180 178
5.66 -6.62 -1.24 167 181 181
5.66 -6.72 -1.24 167 181 181
5.44 -6.82 -1.06 168 183 178
5.44 -6.92 -1.06 167 182 177
5.44 -7.02 -1.06 167 182 177
5.44 -7.13 -1.06 166 181 176
5.44 -7.23 -1.06 166 181 176
5.66 -7.33 -1.24 168 180 176
5.66 -7.43 -1.24 168 180 176
5.66 -7.53 -1.24 168 181 174
5.66 -7.63 -1.24 168 181 174
5.66 -7.73 -1.24 169 182 175
5.66 -7.83 -1.24 169 182 175
5.66 -7.93 -1.24 170 183 176
5.66 -8.03 -1.24 171 184 177
5.66 -8.13 -1.24 173 184 178
5.66 -8.23 -1.24 174 185 179
5.66 -8.34 -1.24 173 182 179
5.66 -8.44 -1.24 173 182 179
5.66 -8.54 -1.24 174 183 178
5.66 -8.64 -1.24 175 184 179
5.66 -8.74 -1.24 175 184 179
5.66 -8.84 -1.24 175 184 179
5.66 -8.94 -1.24 175 184 179
5.66 -9.04 -1.24 174 183 178
5.66 -9.14 -1.24 176 185 180
5.66 -9.24 -1.24 176 185 182
5.66 -9.34 -1.24 176 185 182
5.66 -9.45 -1.24 176 185 182
5.66 -9.55 -1.24 178 187 184
5.66 -9.65 -1.24 179 188 185
5.66 -9.75 -1.24 180 189 186
5.66 -9.85 -1.24 175 186 180
5.66 -9.95 -1.24 178 189 183
5.66 -10.05 -1.24 180 191 185
5.66 -10.15 -1.24 180 191 185
5.66 -10.25 -1.24 180 191 185
5.66 -10.35 -1.24 180 191 185
5.66 -10.45 -1.24 182 193 189
5.66 -10.56 -1.24 184 195 191
5.66 -10.66 -1.24 183 194 190
5.66 -10.76 -1.24 184 195 191
5.66 -10.86 -1.24 185 196 192
5.66 -10.96 -1.24 186 197 193
5.66 -11.06 -1.24 188 197 194
5.66 -11.16 -1.24 188 197 194
5.66 -11.26 -1.24 188 197 196
5.66 -11.36 -1.24 187 196 195
5.66 -11.46 -1.24 191 200 195
5.66 -11.56 -1.24 190 199 194
5.66 -11.67 -1.24 190 199 194
5.66 -11.77 -1.24 192 201 196
5.66 -11.87 -1.24 194 203 198
5.44 -11.95 -1.06 194 203 198
5.44 -12.05 -1.06 193 202 197
5.44 -12.15 -1.06 196 205 200
5.44 -12.25 -1.06 197 206 201
5.44 -12.35 -1.06 198 207 202
5.44 -12.45 -1.06 199 208 203
5.44 -12.55 -1.06 200 209 204
5.44 -12.65 -1.06 201 210 205
5.44 -12.75 -1.06 202 211 206
5.44 -12.85 -1.06 203 212 207
5.44 -12.95 -1.06 203 212 207
5.44 -13.05 -1.06 204 213 208
5.44 -13.15 -1.06 204 213 208
5.44 -13.25 -1.06 204 213 208
5.44 -13.35 -1.06 205 214 209
5.44 -13.45 -1.06 206 215 210
5.44 -13.55 -1.06 206 215 212
5.44 -13.65 -1.06 207 216 213
5.44 -13.75 -1.06 207 216 213
5.44 -13.85 -1.06 206 215 212
5.44 -13.96 -1.06 205 214 211
5.66 -14.09 -1.24 205 214 213
5.66 -14.19 -1.24 206 215 214
5.66 -14.29 -1.24 207 216 215
5.66 -14.39 -1.24 208 217 216
5.66 -14.49 -1.24 208 216 218
5.66 -14.59 -1.24 207 215 217
5.66 -14.69 -1.24 206 214 216
5.66 -14.79 -1.24 206 214 216
5.66 -14.90 -1.24 205 213 215
5.66 -15.00 -1.24 205 213 215
5.66 -15.10 -1.24 205 213 215
5.66 -15.20 -1.24 205 213 215
5.66 -15.30 -1.24 203 211 213
5.66 -15.40 -1.24 203 211 213
5.66 -15.50 -1.24 203 211 213
5.66 -15.60 -1.24 204 212 214
5.66 -15.70 -1.24 205 213 215
5.66 -15.80 -1.24 205 213 215
5.66 -15.90 -1.24 204 212 214
5.66 -16.01 -1.24 203 211 214
5.66 -16.11 -1.24 204 208 217
5.66 -16.21 -1.24 187 191 200
1.67 -15.53 2.07 173 181 184
1.67 -15.62 2.07 156 166 168
1.67 -15.71 2.07 120 138 150
1.67 -15.80 2.07 99 123 147
1.67 -15.89 2.07 43 71 110
1.67 -15.99 2.07 28 59 114
1.67 -16.45 2.07 127 147 172
1.67 -16.54 2.07 145 162 170
1.67 -16.63 2.07 159 170 172
1.48 -16.68 2.23 173 184 186
1.48 -16.77 2.23 189 196 202
1.48 -16.86 2.23 196 204 206
1.48 -16.96 2.23 197 202 205
1.31 -17.01 2.37 198 202 201
1.31 -17.10 2.37 199 203 202
1.31 -17.19 2.37 198 202 203
5.44 -18.48 -1.06 197 205 208
5.44 -18.58 -1.06 200 209 214
1.48 -17.69 2.23 202 211 216
1.48 -17.78 2.23 201 209 212
1.48 -17.87 2.23 209 214 217
1.48 -17.96 2.23 206 211 214
1.48 -18.06 2.23 207 211 210
1.48 -18.15 2.23 202 208 208
1.48 -18.24 2.23 189 199 200
1.48 -18.33 2.23 182 193 195
1.48 -18.42 2.23 174 184 186
1.48 -18.51 2.23 165 173 176
1.48 -18.61 2.23 157 161 162
1.48 -18.70 2.23 135 138 143
1.48 -18.79 2.23 115 119 128
1.48 -18.88 2.23 93 102 117
1.48 -18.97 2.23 69 85 108
1.48 -19.06 2.23 69 89 114
5.66 -20.55 -1.24 148 159 177
5.66 -20.65 -1.24 167 175 188
5.66 -20.75 -1.24 184 192 203
5.44 -20.79 -1.06 195 204 211
5.44 -20.89 -1.06 207 214 220
5.44 -20.99 -1.06 220 228 231
5.44 -21.09 -1.06 219 225 225
5.44 -21.19 -1.06 222 228 228
5.22 -21.22 -0.88 222 226 227
5.22 -21.32 -0.88 224 228 231
5.22 -21.42 -0.88 224 228 231
5.22 -21.52 -0.88 223 226 231
5.22 -21.62 -0.88 223 226 231
5.22 -21.72 -0.88 223 227 228
5.22 -21.82 -0.88 224 228 229
5.22 -21.92 -0.88 225 229 228
5.00 -21.95 -0.70 226 230 229
5.00 -22.05 -0.70 222 223 225
5.00 -22.15 -0.70 222 223 225
4.81 -22.18 -0.54 222 223 225
4.81 -22.28 -0.54 223 224 226
4.81 -22.38 -0.54 224 225 227
4.81 -22.48 -0.54 225 226 228
4.81 -22.58 -0.54 223 227 228
4.81 -22.68 -0.54 224 228 229
4.81 -22.78 -0.54 225 229 230
5.22 -23.42 -0.88 219 225 225
5.22 -23.52 -0.88 219 225 225
5.22 -23.62 -0.88 225 227 224
5.22 -23.72 -0.88 228 229 224
5.39 24.11 -1.15 73 69 68
5.61 24.16 -1.33 94 90 89
5.39 23.91 -1.15 116 113 108
5.39 23.81 -1.15 124 121 116
5.39 23.71 -1.15 122 119 110
5.39 23.61 -1.15 122 119 110
5.39 23.51 -1.15 124 121 114
5.61 23.56 -1.33 125 122 117
5.61 23.46 -1.33 125 122 117
5.61 23.36 -1.33 126 122 121
5.61 23.26 -1.33 127 123 122
5.61 23.15 -1.33 126 122 123
5.61 23.05 -1.33 127 123 122
5.61 22.95 -1.33 128 124 123
5.61 22.85 -1.33 128 124 121
5.61 22.75 -1.33 127 122 118
5.61 22.65 -1.33 128 123 117
5.61 22.55 -1.33 131 124 116
5.61 22.45 -1.33 130 126 117
5.61 22.35 -1.33 130 126 117
5.61 22.25 -1.33 130 126 117
5.61 22.15 -1.33 128 125 118
5.61 22.04 -1.33 128 125 118
5.61 21.94 -1.33 129 126 119
5.61 21.84 -1.33 129 126 119
5.61 21.74 -1.33 129 126 119
5.61 21.64 -1.33 129 126 119
5.61 21.54 -1.33 130 127 120
5.39 21.30 -1.15 130 127 120
5.39 21.20 -1.15 132 127 121
5.39 21.10 -1.15 132 127 121
5.39 21.00 -1.15 133 128 122
5.39 20.90 -1.15 133 128 122
5.39 20.80 -1.15 132 129 122
5.39 20.70 -1.15 132 129 122
5.39 20.60 -1.15 132 129 124
5.61 20.63 -1.33 132 129 124
5.61 20.53 -1.33 130 129 125
5.39 20.30 -1.15 130 129 125
5.39 20.20 -1.15 132 131 127
5.39 20.09 -1.15 130 129 125
5.39 19.99 -1.15 132 128 125
5.39 19.89 -1.15 133 129 126
5.39 19.79 -1.15 134 131 126
5.39 19.69 -1.15 135 130 126
5.39 19.59 -1.15 136 131 127
5.39 19.49 -1.15 132 128 125
5.39 19.39 -1.15 133 129 126
5.39 19.29 -1.15 134 130 129
5.39 19.19 -1.15 134 130 129
5.39 19.09 -1.15 134 130 131
5.39 18.99 -1.15 134 130 131
5.39 18.89 -1.15 135 131 132
5.39 18.79 -1.15 136 132 133
5.39 18.69 -1.15 135 131 132
5.61 18.71 -1.33 135 131 132
5.61 18.61 -1.33 135 131 128
5.39 18.39 -1.15 137 133 130
5.39 18.29 -1.15 137 134 129
5.39 18.19 -1.15 136 133 128
0.56 15.36 2.88 136 133 124
0.56 15.27 2.88 137 134 125
0.56 15.18 2.88 135 132 123
0.72 15.19 2.74 135 132 123
0.72 15.10 2.74 136 134 121
0.72 15.01 2.74 138 136 123
0.72 14.92 2.74 140 139 121
0.72 14.83 2.74 141 143 121
0.72 14.74 2.74 142 145 118
0.72 14.65 2.74 144 147 118
0.72 14.56 2.74 145 149 116
0.91 14.57 2.58 144 150 114
0.91 14.48 2.58 144 150 112
0.91 14.39 2.58 144 151 110
0.91 14.30 2.58 145 152 111
0.91 14.21 2.58 147 154 112
5.39 16.28 -1.15 149 157 108
5.61 16.29 -1.33 152 159 108
5.39 16.08 -1.15 153 160 109
5.39 15.98 -1.15 154 161 109
5.39 15.88 -1.15 155 162 110
5.39 15.78 -1.15 159 164 110
5.39 15.68 -1.15 160 165 111
5.39 15.57 -1.15 161 166 112
5.39 15.47 -1.15 161 166 112
5.39 15.37 -1.15 161 165 114
5.39 15.27 -1.15 162 166 116
5.39 15.17 -1.15 161 165 115
5.39 15.07 -1.15 160 163 116
5.39 14.97 -1.15 156 162 118
5.39 14.87 -1.15 151 157 119
5.39 14.77 -1.15 149 155 121
5.39 14.67 -1.15 145 150 120
5.39 14.57 -1.15 142 146 123
5.17 14.36 -0.97 140 143 124
5.17 14.26 -0.97 140 142 129
5.17 14.16 -0.97 142 144 133
4.95 13.96 -0.79 144 145 137
-4.71 9.28 7.27 142 143 135
-4.71 9.20 7.27 142 143 135
-4.82 9.07 7.36 145 146 138
-4.82 8.99 7.36 142 143 135
-4.95 8.85 7.47 143 146 139
-4.95 8.77 7.47 144 146 141
-4.95 8.69 7.47 138 140 135
-4.95 8.62 7.47 143 145 142
-4.95 8.54 7.47 154 155 150
-5.09 8.40 7.59 155 155 153
-5.09 8.32 7.59 151 151 149
-4.95 8.31 7.47 141 141 143
-4.95 8.23 7.47 132 133 135
-5.09 8.09 7.59 130 131 135
-5.09 8.01 7.59 128 132 135
-5.09 7.94 7.59 129 135 133
-5.09 7.86 7.59 133 139 137
-5.09 7.78 7.59 136 142 138
-5.09 7.71 7.59 139 145 141
-5.09 7.63 7.59 147 152 148
-5.20 7.50 7.68 155 159 158
-5.20 7.43 7.68 156 160 159
-5.20 7.35 7.68 152 156 157
-5.20 7.27 7.68 162 166 165
-5.20 7.20 7.68 161 165 164
-5.20 7.12 7.68 161 165 164
-5.20 7.04 7.68 162 166 165
-5.33 6.91 7.79 160 166 166
-5.33 6.83 7.79 158 164 164
-5.33 6.76 7.79 156 161 164
-5.33 6.68 7.79 155 160 163
-5.33 6.60 7.79 160 165 168
-5.33 6.53 7.79 161 166 169
-5.33 6.45 7.79 157 163 163
-5.33 6.37 7.79 162 168 168
-5.33 6.30 7.79 161 167 167
-5.33 6.22 7.79 167 173 173
-5.33 6.14 7.79 164 168 169
-5.33 6.07 7.79 162 166 167
-5.20 6.04 7.68 162 167 163
-5.20 5.97 7.68 162 167 163
-5.33 5.84 7.79 162 167 163
-5.33 5.76 7.79 161 167 165
-5.33 5.68 7.79 162 168 166
-5.33 5.61 7.79 163 169 167
-5.33 5.53 7.79 163 169 167
-5.33 5.45 7.79 161 170 169
-5.33 5.38 7.79 161 170 169
-5.33 5.30 7.79 160 169 168
-5.33 5.22 7.79 160 169 168
-5.33 5.15 7.79 160 168 170
-5.33 5.07 7.79 160 168 170
-5.33 4.99 7.79 159 169 170
-5.33 4.92 7.79 159 169 170
-5.33 4.84 7.79 159 169 171
-5.33 4.76 7.79 160 170 172
-5.47 4.64 7.91 161 171 173
-5.47 4.56 7.91 161 171 173
-5.47 4.49 7.91 160 170 172
-5.47 4.41 7.91 159 169 171
-5.47 4.33 7.91 159 169 170
-5.47 4.26 7.91 160 170 171
-5.47 4.18 7.91 165 175 176
-5.47 4.11 7.91 164 174 173
-5.47 4.03 7.91 164 174 173
-5.47 3.95 7.91 165 174 173
-5.47 3.88 7.91 165 174 173
-5.47 3.80 7.91 165 174 171
-5.47 3.72 7.91 165 174 171
-5.47 3.65 7.91 162 171 170
-5.47 3.57 7.91 163 172 171
-5.47 3.49 7.91 164 173 172
-5.47 3.42 7.91 165 174 173
-5.47 3.34 7.91 166 176 175
-5.47 3.27 7.91 169 179 178
-5.47 3.19 7.91 170 180 181
-5.47 3.11 7.91 170 180 181
-5.47 3.04 7.91 169 179 180
-5.47 2.96 7.91 170 180 181
-5.47 2.88 7.91 171 181 182
-5.47 2.81 7.91 171 181 182
-5.47 2.73 7.91 169 181 181
-5.33 2.69 7.79 168 180 180
-5.33 2.62 7.79 169 181 179
-5.20 2.58 7.68 170 182 180
-5.20 2.50 7.68 170 182 180
-5.09 2.46 7.59 166 178 176
-4.95 2.42 7.47 189 200 196
-4.82 2.38 7.36 199 208 203
-4.71 2.33 7.27 195 204 199
-4.71 2.25 7.27 198 205 198
-4.57 2.21 7.15 196 203 196
-4.30 2.21 6.93 198 205 197
-4.02 2.20 6.70 198 205 197
-3.75 2.20 6.47 199 206 198
-3.62 2.15 6.36 199 206 198
-3.48 2.11 6.24 200 207 199
-3.21 2.10 6.02 200 207 199
-2.91 2.09 5.77 201 208 200
-2.91 2.01 5.77 201 208 200
-2.77 1.96 5.65 198 205 197
-2.77 1.88 5.65 202 209 201
5.61 3.47 -1.33 159 161 156
5.61 3.37 -1.33 161 163 158
5.61 3.27 -1.33 160 162 157
5.61 3.17 -1.33 161 163 158
5.61 3.07 -1.33 162 164 161
5.61 2.97 -1.33 163 165 162
5.61 2.87 -1.33 160 165 161
5.61 2.77 -1.33 158 163 159
5.39 2.62 -1.15 157 162 158
5.39 2.52 -1.15 154 163 158
5.39 2.42 -1.15 154 163 158
5.39 2.32 -1.15 155 164 159
5.39 2.22 -1.15 156 165 160
5.39 2.12 -1.15 155 164 159
5.39 2.02 -1.15 155 164 159
5.39 1.91 -1.15 155 164 159
5.39 1.81 -1.15 155 164 159
5.39 1.71 -1.15 156 165 160
5.39 1.61 -1.15 156 165 160
5.39 1.51 -1.15 157 166 161
5.39 1.41 -1.15 158 167 162
5.39 1.31 -1.15 158 167 162
5.39 1.21 -1.15 159 168 163
5.39 1.11 -1.15 159 168 163
5.39 1.01 -1.15 159 168 163
5.39 0.91 -1.15 158 168 160
5.39 0.81 -1.15 158 168 160
5.39 0.71 -1.15 156 167 161
5.61 0.65 -1.33 157 168 162
5.61 0.55 -1.33 158 169 163
5.61 0.45 -1.33 157 170 163
5.61 0.34 -1.33 156 169 162
5.61 0.24 -1.33 156 169 162
5.61 0.14 -1.33 156 169 162
5.61 0.04 -1.33 158 169 165
5.61 -0.06 -1.33 158 169 165
5.39 -0.19 -1.15 159 170 166
5.39 -0.30 -1.15 159 170 166
5.39 -0.40 -1.15 160 169 166
5.39 -0.50 -1.15 160 169 166
5.39 -0.60 -1.15 161 170 167
5.39 -0.70 -1.15 161 170 167
5.61 -0.77 -1.33 159 170 166
5.61 -0.87 -1.33 159 170 166
5.61 -0.97 -1.33 159 170 166
5.39 -1.10 -1.15 159 170 166
5.39 -1.20 -1.15 160 171 167
5.39 -1.30 -1.15 160 171 167
5.39 -1.40 -1.15 158 169 165
5.39 -1.50 -1.15 159 170 166
5.39 -1.60 -1.15 161 172 168
5.39 -1.70 -1.15 162 173 169
5.39 -1.80 -1.15 162 173 169
5.39 -1.90 -1.15 162 173 169
5.39 -2.00 -1.15 162 174 170
5.39 -2.10 -1.15 160 171 167
5.39 -2.20 -1.15 160 171 167
5.39 -2.30 -1.15 161 172 168
5.39 -2.40 -1.15 161 172 168
5.39 -2.50 -1.15 163 172 169
5.39 -2.61 -1.15 163 172 169
5.39 -2.71 -1.15 163 172 171
5.39 -2.81 -1.15 162 171 170
5.39 -2.91 -1.15 162 171 170
5.39 -3.01 -1.15 163 172 171
5.39 -3.11 -1.15 162 172 171
5.39 -3.21 -1.15 163 173 172
5.39 -3.31 -1.15 162 174 172
5.39 -3.41 -1.15 163 175 173
5.39 -3.51 -1.15 163 175 173
5.39 -3.61 -1.15 163 175 173
5.39 -3.71 -1.15 164 175 171
5.39 -3.81 -1.15 164 175 171
5.39 -3.91 -1.15 163 174 170
5.39 -4.01 -1.15 163 174 170
5.39 -4.11 -1.15 164 175 171
5.39 -4.21 -1.15 165 176 172
5.39 -4.31 -1.15 165 176 172
5.39 -4.41 -1.15 167 178 174
5.61 -4.50 -1.33 167 178 174
5.61 -4.60 -1.33 165 177 173
5.61 -4.70 -1.33 165 177 173
5.61 -4.80 -1.33 165 177 173
5.61 -4.90 -1.33 165 177 173
5.61 -5.00 -1.33 163 178 173
5.61 -5.11 -1.33 165 177 173
5.61 -5.21 -1.33 164 176 172
5.61 -5.31 -1.33 167 178 174
5.61 -5.41 -1.33 168 179 175
5.61 -5.51 -1.33 168 179 175
5.61 -5.61 -1.33 167 178 174
5.61 -5.71 -1.33 166 177 173
5.61 -5.81 -1.33 168 177 172
5.39 -5.92 -1.15 169 178 173
5.39 -6.02 -1.15 169 180 176
5.39 -6.12 -1.15 168 179 175
5.61 -6.22 -1.33 168 179 175
5.61 -6.32 -1.33 167 178 174
5.39 -6.42 -1.15 166 178 176
5.39 -6.52 -1.15 167 179 177
5.39 -6.62 -1.15 166 180 180
5.39 -6.72 -1.15 167 181 181
5.39 -6.82 -1.15 167 182 179
5.39 -6.92 -1.15 166 181 178
5.39 -7.02 -1.15 166 181 178
5.39 -7.13 -1.15 166 181 176
5.39 -7.23 -1.15 167 182 177
5.39 -7.33 -1.15 169 181 177
5.39 -7.43 -1.15 170 182 178
5.61 -7.53 -1.33 170 182 178
5.61 -7.63 -1.33 170 182 178
5.61 -7.73 -1.33 170 182 178
5.61 -7.83 -1.33 170 182 178
5.61 -7.93 -1.33 169 182 175
5.61 -8.03 -1.33 169 182 175
5.61 -8.13 -1.33 171 182 176
5.61 -8.23 -1.33 172 183 177
5.39 -8.33 -1.15 172 181 178
5.39 -8.43 -1.15 173 182 179
5.39 -8.53 -1.15 174 183 178
5.39 -8.63 -1.15 175 184 179
5.39 -8.73 -1.15 176 185 180
5.39 -8.83 -1.15 175 184 179
5.39 -8.93 -1.15 174 183 178
5.61 -9.04 -1.33 173 182 177
5.61 -9.14 -1.33 177 186 181
5.61 -9.24 -1.33 175 184 181
5.61 -9.34 -1.33 175 184 181
5.61 -9.45 -1.33 176 185 182
5.61 -9.55 -1.33 177 186 183
5.61 -9.65 -1.33 179 188 187
5.61 -9.75 -1.33 181 190 189
5.61 -9.85 -1.33 175 186 180
5.61 -9.95 -1.33 178 189 183
5.61 -10.05 -1.33 180 191 185
5.61 -10.15 -1.33 179 190 184
5.39 -10.24 -1.15 179 190 184
5.61 -10.35 -1.33 181 192 186
5.61 -10.45 -1.33 182 193 189
5.61 -10.56 -1.33 182 193 189
5.61 -10.66 -1.33 183 194 190
5.61 -10.76 -1.33 184 195 191
5.61 -10.86 -1.33 186 195 192
5.61 -10.96 -1.33 187 196 193
5.61 -11.06 -1.33 187 196 193
5.61 -11.16 -1.33 187 196 193
5.61 -11.26 -1.33 186 195 194
5.61 -11.36 -1.33 186 195 194
5.61 -11.46 -1.33 191 200 195
5.61 -11.56 -1.33 190 199 194
5.61 -11.67 -1.33 190 199 194
5.61 -11.77 -1.33 192 201 196
5.39 -11.85 -1.15 193 202 197
5.39 -11.95 -1.15 193 202 197
5.39 -12.05 -1.15 193 202 197
5.39 -12.15 -1.15 195 204 199
5.39 -12.25 -1.15 196 205 200
5.39 -12.35 -1.15 198 207 202
5.39 -12.45 -1.15 199 208 203
5.39 -12.55 -1.15 199 208 203
5.39 -12.65 -1.15 199 208 203
5.39 -12.75 -1.15 201 210 205
5.39 -12.85 -1.15 202 211 206
5.39 -12.95 -1.15 203 212 207
5.39 -13.05 -1.15 203 212 207
5.39 -13.15 -1.15 203 212 207
5.39 -13.25 -1.15 204 213 208
5.39 -13.35 -1.15 204 213 208
5.39 -13.45 -1.15 205 214 209
5.39 -13.55 -1.15 206 215 212
5.39 -13.65 -1.15 207 216 213
5.39 -13.75 -1.15 207 216 213
5.39 -13.85 -1.15 206 215 212
5.39 -13.96 -1.15 205 214 213
5.39 -14.06 -1.15 204 213 212
5.39 -14.16 -1.15 205 214 213
5.61 -14.29 -1.33 207 216 215
5.61 -14.39 -1.33 208 217 216
5.61 -14.49 -1.33 208 216 218
5.61 -14.59 -1.33 208 216 218
5.61 -14.69 -1.33 207 215 217
5.61 -14.79 -1.33 206 214 216
5.61 -14.90 -1.33 205 213 215
5.61 -15.00 -1.33 205 213 215
5.61 -15.10 -1.33 205 213 215
5.61 -15.20 -1.33 205 213 215
5.61 -15.30 -1.33 205 213 215
5.61 -15.40 -1.33 205 213 215
5.39 -15.46 -1.15 205 213 215
