ply
format ascii 1.0
element vertex 1665
property float x
property float y
property float z
property uchar red
property uchar green
property uchar blue
end_header
2.36 -28.22 -1.08 217 217 217
2.36 -28.32 -1.08 218 218 218
2.17 -28.32 -0.91 218 218 218
2.17 -28.42 -0.91 217 217 215
2.17 -28.51 -0.91 217 217 215
2.17 -28.61 -0.91 216 216 214
2.17 -28.70 -0.91 216 215 213
2.17 -28.80 -0.91 221 219 220
2.17 -28.89 -0.91 222 218 219
2.17 -28.99 -0.91 221 217 218
2.17 -29.08 -0.91 221 217 218
2.17 -29.18 -0.91 222 218 217
2.17 -29.27 -0.91 223 219 218
2.17 -29.37 -0.91 223 219 218
2.17 -29.46 -0.91 223 219 218
2.17 -29.56 -0.91 220 216 215
2.17 -29.66 -0.91 221 217 216
2.17 -29.75 -0.91 217 213 214
2.17 -29.85 -0.91 215 210 214
2.17 -29.94 -0.91 213 208 212
2.17 -30.04 -0.91 209 204 208
1.98 -30.03 -0.75 205 200 204
2.17 -30.23 -0.91 199 195 196
2.17 -30.32 -0.91 195 191 192
2.17 -30.42 -0.91 183 178 182
2.17 -30.51 -0.91 177 172 176
2.17 -30.61 -0.91 170 165 171
2.17 -30.71 -0.91 161 156 162
2.17 -30.80 -0.91 159 154 158
2.17 -30.90 -0.91 152 147 151
2.17 -30.99 -0.91 150 146 147
1.98 -30.98 -0.75 149 145 146
1.98 -31.08 -0.75 146 141 145
1.98 -31.17 -0.75 144 139 145
1.98 -31.27 -0.75 141 135 145
1.98 -31.36 -0.75 132 126 140
1.98 -31.46 -0.75 117 110 126
1.98 -31.55 -0.75 104 97 113
1.80 -31.54 -0.58 81 80 86
1.80 -31.63 -0.58 90 89 94
1.80 -31.73 -0.58 87 88 92
1.80 -31.82 -0.58 74 78 87
1.80 -31.92 -0.58 55 61 75
1.80 -32.01 -0.58 43 49 73
1.80 -32.11 -0.58 30 36 70
1.80 -32.20 -0.58 34 43 86
1.80 -32.29 -0.58 32 39 93
1.80 -32.39 -0.58 38 49 105
1.80 -32.48 -0.58 15 25 86
1.80 -32.58 -0.58 0 6 66
1.80 -32.67 -0.58 0 0 55
1.98 -32.88 -0.75 0 0 53
1.98 -32.98 -0.75 0 0 51
1.98 -33.07 -0.75 26 43 95
1.98 -33.17 -0.75 49 66 118
1.80 -33.15 -0.58 81 97 149
1.80 -33.24 -0.58 102 115 168
1.80 -33.33 -0.58 103 117 166
1.80 -33.43 -0.58 94 104 155
1.80 -33.52 -0.58 78 89 135
1.80 -33.62 -0.58 70 78 125
1.61 -33.60 -0.41 51 60 103
1.61 -33.69 -0.41 39 48 89
1.61 -33.78 -0.41 29 38 77
1.61 -33.88 -0.41 35 45 81
1.61 -33.97 -0.41 49 62 94
1.61 -34.07 -0.41 51 65 94
1.61 -34.16 -0.41 56 66 93
1.61 -34.25 -0.41 57 64 80
1.61 -34.35 -0.41 78 82 93
1.61 -34.44 -0.41 92 95 104
1.61 -34.54 -0.41 91 91 99
1.61 -34.63 -0.41 84 85 89
1.61 -34.72 -0.41 85 83 88
1.42 -34.70 -0.25 95 93 96
2.52 23.78 -1.35 0 0 0
2.52 23.69 -1.35 0 0 0
2.52 23.59 -1.35 0 0 0
2.31 23.34 -1.16 0 0 0
2.31 23.24 -1.16 0 0 0
2.31 23.15 -1.16 0 0 0
2.12 22.92 -1.00 0 0 0
2.12 22.82 -1.00 0 0 0
2.12 22.73 -1.00 0 0 0
2.12 22.63 -1.00 130 120 121
2.12 22.53 -1.00 130 120 121
2.31 22.57 -1.16 130 120 121
2.31 22.48 -1.16 129 121 119
2.31 22.38 -1.16 130 122 120
2.31 22.28 -1.16 130 122 119
2.31 22.19 -1.16 130 122 119
2.31 22.09 -1.16 130 123 117
2.31 22.00 -1.16 130 123 117
2.31 21.90 -1.16 133 126 118
2.31 21.80 -1.16 132 125 117
2.52 21.86 -1.35 128 124 115
2.52 21.76 -1.35 128 124 115
2.52 21.66 -1.35 129 125 116
2.52 21.57 -1.35 129 125 116
2.52 21.47 -1.35 128 124 115
2.52 21.37 -1.35 128 124 115
2.52 21.28 -1.35 131 128 119
2.71 21.31 -1.52 129 126 117
2.71 21.21 -1.52 128 125 116
2.52 20.99 -1.35 130 126 117
2.52 20.89 -1.35 130 126 117
2.31 20.65 -1.16 131 124 116
2.31 20.56 -1.16 131 124 116
2.31 20.46 -1.16 132 125 117
2.31 20.37 -1.16 131 124 116
2.31 20.27 -1.16 128 124 115
2.31 20.18 -1.16 130 126 117
2.31 20.08 -1.16 132 128 119
2.31 19.98 -1.16 133 129 120
2.31 19.89 -1.16 131 128 119
2.31 19.79 -1.16 130 127 120
2.31 19.70 -1.16 128 125 118
2.31 19.60 -1.16 129 126 121
2.31 19.50 -1.16 130 127 122
2.31 19.41 -1.16 130 127 122
2.31 19.31 -1.16 130 127 122
2.31 19.22 -1.16 131 128 123
2.31 19.12 -1.16 132 127 121
2.31 19.03 -1.16 132 127 121
2.31 18.93 -1.16 133 128 122
2.31 18.83 -1.16 134 129 123
2.31 18.74 -1.16 134 129 123
2.52 18.77 -1.35 133 128 122
2.52 18.68 -1.35 132 125 117
2.52 18.58 -1.35 134 127 119
2.52 18.49 -1.35 136 129 123
2.52 18.39 -1.35 131 128 121
2.52 18.29 -1.35 131 128 123
2.52 18.20 -1.35 132 129 124
2.52 18.10 -1.35 133 130 125
2.52 18.00 -1.35 133 129 126
2.31 17.78 -1.16 134 130 127
2.31 17.68 -1.16 134 130 127
2.31 17.59 -1.16 134 130 127
2.31 17.49 -1.16 136 131 128
2.31 17.40 -1.16 134 129 126
2.31 17.30 -1.16 133 128 125
2.31 17.20 -1.16 133 128 125
2.31 17.11 -1.16 135 130 126
2.31 17.01 -1.16 137 132 128
2.31 16.92 -1.16 137 132 128
2.31 16.82 -1.16 136 131 128
2.31 16.73 -1.16 134 130 127
2.31 16.63 -1.16 133 129 128
2.31 16.53 -1.16 132 128 125
2.12 16.33 -1.00 132 128 125
2.12 16.24 -1.00 132 128 125
2.12 16.14 -1.00 133 129 126
2.12 16.05 -1.00 133 129 126
2.12 15.95 -1.00 136 132 129
2.12 15.86 -1.00 137 133 130
2.12 15.76 -1.00 137 133 132
2.12 15.66 -1.00 136 132 131
2.12 15.57 -1.00 136 132 131
2.12 15.47 -1.00 136 132 131
2.31 15.48 -1.16 137 133 134
2.31 15.38 -1.16 138 134 135
2.31 15.29 -1.16 135 131 132
2.12 15.09 -1.00 134 130 131
2.12 15.00 -1.00 134 130 127
2.12 14.90 -1.00 135 131 128
2.12 14.81 -1.00 137 134 129
2.31 14.81 -1.16 139 136 131
2.31 14.71 -1.16 138 135 130
2.31 14.62 -1.16 137 133 130
2.52 14.63 -1.35 136 132 131
2.52 14.54 -1.35 135 131 132
2.52 14.44 -1.35 135 131 132
2.52 14.34 -1.35 137 133 134
2.52 14.25 -1.35 138 134 133
2.52 14.15 -1.35 139 135 134
2.52 14.05 -1.35 138 135 130
2.52 13.96 -1.35 136 133 126
2.31 13.75 -1.16 136 133 126
2.31 13.66 -1.16 137 134 127
2.31 13.56 -1.16 137 134 127
2.31 13.47 -1.16 137 134 127
2.12 13.28 -1.00 137 134 127
2.12 13.18 -1.00 135 134 129
2.12 13.09 -1.00 135 134 129
2.12 12.99 -1.00 135 134 129
2.12 12.90 -1.00 134 133 128
2.12 12.80 -1.00 136 132 129
2.12 12.71 -1.00 135 131 128
2.12 12.61 -1.00 135 131 128
1.93 12.43 -0.83 136 132 129
-4.73 9.19 5.13 137 133 132
-4.86 9.04 5.25 138 134 133
-4.86 8.96 5.25 137 133 132
-4.86 8.88 5.25 136 132 131
-4.99 8.74 5.37 136 132 131
-4.99 8.66 5.37 132 128 127
-4.99 8.58 5.37 147 143 142
-4.99 8.50 5.37 158 154 153
-5.13 8.37 5.49 156 152 149
-5.13 8.29 5.49 155 150 147
-5.13 8.21 5.49 155 150 147
-5.13 8.13 5.49 156 148 146
-5.13 8.05 5.49 157 149 147
-5.13 7.97 5.49 159 149 147
-5.13 7.89 5.49 158 148 146
-5.13 7.81 5.49 157 146 144
-5.26 7.68 5.61 156 145 143
-5.26 7.60 5.61 159 145 145
-5.26 7.52 5.61 161 147 147
-5.26 7.44 5.61 160 146 146
-5.26 7.36 5.61 157 143 143
-5.26 7.28 5.61 159 145 145
-5.26 7.20 5.61 165 151 151
-5.26 7.13 5.61 163 151 153
-5.26 7.05 5.61 160 148 150
-5.26 6.97 5.61 181 170 174
-5.26 6.89 5.61 196 185 191
-5.39 6.76 5.73 185 179 183
-5.39 6.68 5.73 114 107 114
-5.39 6.60 5.73 23 18 25
-5.39 6.52 5.73 3 0 5
-5.39 6.44 5.73 1 0 7
-5.39 6.36 5.73 0 0 9
-5.39 6.29 5.73 14 16 29
-5.39 6.21 5.73 26 30 41
-5.39 6.13 5.73 24 28 39
-5.39 6.05 5.73 6 10 21
-5.53 5.92 5.85 0 3 14
-5.53 5.84 5.85 0 0 9
-5.53 5.77 5.85 3 7 16
-5.53 5.69 5.85 1 5 14
-5.53 5.61 5.85 0 0 9
-5.53 5.53 5.85 0 0 11
-5.53 5.45 5.85 0 3 14
-5.53 5.37 5.85 0 0 12
-5.53 5.30 5.85 0 0 12
-5.53 5.22 5.85 50 52 65
-5.53 5.14 5.85 119 121 133
-5.53 5.06 5.85 171 175 184
-5.53 4.98 5.85 177 182 188
-5.53 4.91 5.85 179 184 190
-5.63 4.79 5.95 169 174 180
-5.53 4.75 5.85 165 168 173
-5.53 4.67 5.85 174 177 182
-5.53 4.59 5.85 175 176 181
-5.63 4.48 5.95 160 161 166
-5.63 4.40 5.95 158 159 164
-5.63 4.32 5.95 154 159 165
-5.63 4.25 5.95 151 156 162
-5.63 4.17 5.95 147 154 160
-5.63 4.09 5.95 147 154 160
-5.63 4.01 5.95 146 157 161
-5.63 3.94 5.95 146 157 161
-5.63 3.86 5.95 140 155 160
-5.63 3.78 5.95 140 155 160
-5.63 3.70 5.95 139 156 163
-5.63 3.62 5.95 141 158 165
-5.63 3.55 5.95 141 160 166
-5.63 3.47 5.95 140 159 165
-5.63 3.39 5.95 139 159 166
-5.63 3.31 5.95 140 160 167
-5.63 3.24 5.95 141 161 168
-5.63 3.16 5.95 140 160 167
-5.63 3.08 5.95 140 160 167
-5.63 3.00 5.95 140 160 167
-5.63 2.92 5.95 141 162 167
-5.63 2.85 5.95 141 162 167
-5.63 2.77 5.95 143 162 168
-5.53 2.57 5.85 158 173 176
-5.53 2.49 5.85 164 178 179
-5.39 2.45 5.73 152 164 162
-5.26 2.41 5.61 201 212 208
-5.13 2.37 5.49 192 202 194
-4.99 2.33 5.37 197 207 199
-4.99 2.25 5.37 199 206 198
-4.73 2.24 5.13 198 205 197
-4.46 2.23 4.90 194 204 196
-4.19 2.22 4.66 195 205 197
-3.77 2.26 4.28 196 205 200
-3.50 2.25 4.04 187 196 191
-3.50 2.16 4.04 178 189 185
-3.34 2.12 3.89 180 191 187
-3.21 2.07 3.77 189 198 197
-3.21 1.99 3.77 194 203 202
-3.05 1.95 3.63 201 210 209
-2.91 1.90 3.51 186 195 194
2.31 2.73 -1.16 144 150 146
2.31 2.64 -1.16 160 166 162
2.31 2.54 -1.16 158 163 159
2.31 2.45 -1.16 155 160 156
2.31 2.35 -1.16 157 162 158
2.31 2.25 -1.16 159 164 158
2.31 2.16 -1.16 158 163 157
2.31 2.06 -1.16 157 163 153
2.31 1.97 -1.16 157 163 153
2.31 1.87 -1.16 157 163 153
2.31 1.78 -1.16 157 163 153
2.31 1.68 -1.16 158 163 156
2.31 1.58 -1.16 159 164 157
2.31 1.49 -1.16 158 165 158
2.31 1.39 -1.16 159 166 159
2.31 1.30 -1.16 159 165 161
2.31 1.20 -1.16 159 165 161
2.31 1.10 -1.16 158 167 164
2.31 1.01 -1.16 158 167 164
2.31 0.91 -1.16 157 166 163
2.31 0.82 -1.16 157 166 163
2.31 0.72 -1.16 157 166 165
2.31 0.63 -1.16 156 165 164
2.31 0.53 -1.16 155 164 161
2.31 0.43 -1.16 156 165 162
2.31 0.34 -1.16 158 167 164
2.31 0.24 -1.16 159 168 165
2.31 0.15 -1.16 159 168 165
2.31 0.05 -1.16 160 169 166
2.31 -0.05 -1.16 160 169 166
2.31 -0.14 -1.16 160 169 166
2.31 -0.24 -1.16 160 169 166
2.31 -0.33 -1.16 160 169 164
2.31 -0.43 -1.16 159 168 163
2.31 -0.52 -1.16 159 168 163
2.31 -0.62 -1.16 159 168 163
2.31 -0.72 -1.16 159 168 163
2.12 -0.84 -1.00 160 169 164
2.12 -0.94 -1.00 160 171 165
2.12 -1.03 -1.00 160 171 165
2.12 -1.13 -1.00 160 171 165
2.12 -1.22 -1.00 159 170 164
2.12 -1.32 -1.00 160 169 164
2.12 -1.41 -1.00 159 168 163
2.12 -1.51 -1.00 159 168 163
2.31 -1.58 -1.16 158 167 162
2.31 -1.67 -1.16 159 168 163
2.31 -1.77 -1.16 159 168 163
2.31 -1.87 -1.16 160 169 164
2.31 -1.96 -1.16 161 170 165
2.31 -2.06 -1.16 161 170 165
2.31 -2.15 -1.16 161 170 165
2.31 -2.25 -1.16 161 170 165
2.31 -2.35 -1.16 160 169 164
2.31 -2.44 -1.16 161 170 165
2.31 -2.54 -1.16 161 170 167
2.31 -2.63 -1.16 162 171 168
2.31 -2.73 -1.16 162 171 170
2.31 -2.82 -1.16 163 172 171
2.31 -2.92 -1.16 163 172 171
2.31 -3.02 -1.16 163 172 171
2.31 -3.11 -1.16 162 171 170
2.31 -3.21 -1.16 162 171 170
2.31 -3.30 -1.16 162 171 170
2.31 -3.40 -1.16 163 172 171
2.31 -3.50 -1.16 163 172 169
2.31 -3.59 -1.16 163 172 169
2.31 -3.69 -1.16 164 173 170
2.31 -3.78 -1.16 164 173 170
2.31 -3.88 -1.16 164 173 170
2.31 -3.97 -1.16 164 173 170
2.31 -4.07 -1.16 165 174 171
2.31 -4.17 -1.16 165 174 171
2.52 -4.25 -1.35 166 175 172
2.31 -4.36 -1.16 165 174 171
2.31 -4.45 -1.16 165 174 171
2.12 -4.56 -1.00 166 175 172
2.12 -4.66 -1.00 166 175 172
2.12 -4.75 -1.00 166 175 172
2.12 -4.85 -1.00 165 174 171
2.12 -4.94 -1.00 165 174 171
2.12 -5.04 -1.00 165 174 171
2.12 -5.14 -1.00 166 175 172
2.12 -5.23 -1.00 167 176 173
2.12 -5.33 -1.00 166 177 173
2.12 -5.42 -1.00 167 178 174
2.12 -5.52 -1.00 167 178 174
2.12 -5.61 -1.00 168 179 175
2.12 -5.71 -1.00 169 180 176
2.12 -5.80 -1.00 169 180 176
2.12 -5.90 -1.00 168 181 174
2.12 -5.99 -1.00 168 181 174
2.12 -6.09 -1.00 167 180 173
2.12 -6.18 -1.00 167 180 173
2.12 -6.28 -1.00 167 180 173
2.12 -6.38 -1.00 167 180 173
2.12 -6.47 -1.00 167 180 173
2.31 -6.56 -1.16 167 180 173
2.31 -6.66 -1.16 167 180 173
2.31 -6.75 -1.16 167 180 173
2.31 -6.85 -1.16 165 178 171
2.31 -6.95 -1.16 167 180 173
2.31 -7.04 -1.16 168 181 174
2.31 -7.14 -1.16 168 181 174
2.52 -7.23 -1.35 169 182 175
2.52 -7.33 -1.35 170 183 176
2.52 -7.43 -1.35 171 184 177
2.52 -7.52 -1.35 172 183 177
2.52 -7.62 -1.35 170 181 175
2.52 -7.71 -1.35 169 180 176
2.52 -7.81 -1.35 169 180 176
2.52 -7.91 -1.35 171 182 178
2.52 -8.00 -1.35 173 184 180
2.52 -8.10 -1.35 173 184 180
2.31 -8.19 -1.16 173 184 180
2.31 -8.29 -1.16 171 182 178
2.31 -8.38 -1.16 172 183 179
2.31 -8.48 -1.16 172 183 179
2.31 -8.58 -1.16 172 183 179
2.31 -8.67 -1.16 171 182 178
2.52 -8.77 -1.35 172 183 179
2.52 -8.87 -1.35 173 184 180
2.31 -8.96 -1.16 174 185 181
2.31 -9.05 -1.16 173 184 180
2.31 -9.15 -1.16 174 185 181
2.31 -9.25 -1.16 175 186 182
2.31 -9.34 -1.16 176 187 183
2.31 -9.44 -1.16 176 187 183
2.31 -9.53 -1.16 177 188 184
2.31 -9.63 -1.16 177 188 184
2.31 -9.73 -1.16 177 188 184
2.31 -9.82 -1.16 178 189 185
2.31 -9.92 -1.16 178 189 185
2.31 -10.01 -1.16 177 188 184
2.31 -10.11 -1.16 177 188 184
2.31 -10.20 -1.16 179 190 186
2.31 -10.30 -1.16 179 190 186
2.31 -10.40 -1.16 178 189 185
2.31 -10.49 -1.16 181 192 188
2.31 -10.59 -1.16 181 192 188
2.12 -10.67 -1.00 182 193 189
2.12 -10.76 -1.00 183 194 190
2.12 -10.86 -1.00 184 195 191
2.12 -10.96 -1.00 185 196 192
2.31 -11.07 -1.16 185 196 192
2.31 -11.16 -1.16 185 196 192
2.31 -11.26 -1.16 186 195 192
2.31 -11.35 -1.16 186 195 192
2.31 -11.45 -1.16 190 199 196
2.31 -11.55 -1.16 192 201 198
2.31 -11.64 -1.16 193 202 199
2.31 -11.74 -1.16 193 202 199
2.31 -11.83 -1.16 193 202 199
2.31 -11.93 -1.16 196 205 202
2.31 -12.03 -1.16 196 205 202
2.31 -12.12 -1.16 197 206 203
2.12 -12.20 -1.00 198 207 204
2.12 -12.29 -1.00 199 208 205
2.12 -12.39 -1.00 200 209 206
2.12 -12.48 -1.00 201 210 207
2.12 -12.58 -1.00 202 211 208
2.12 -12.67 -1.00 198 209 205
2.12 -12.77 -1.00 199 210 206
2.12 -12.86 -1.00 201 212 208
2.12 -12.96 -1.00 202 213 209
2.12 -13.05 -1.00 204 213 210
2.31 -13.18 -1.16 204 213 210
2.31 -13.27 -1.16 205 214 211
2.31 -13.37 -1.16 206 215 212
2.31 -13.46 -1.16 211 217 215
2.31 -13.56 -1.16 211 217 215
2.31 -13.65 -1.16 211 217 215
2.31 -13.75 -1.16 212 216 215
2.31 -13.85 -1.16 212 216 215
2.31 -13.94 -1.16 213 217 216
2.31 -14.04 -1.16 214 218 217
2.31 -14.13 -1.16 214 223 218
2.52 -14.26 -1.35 214 223 218
2.52 -14.36 -1.35 215 224 219
2.52 -14.46 -1.35 216 225 220
2.52 -14.55 -1.35 219 225 221
2.52 -14.65 -1.35 219 225 221
2.52 -14.75 -1.35 220 225 221
2.52 -14.84 -1.35 220 225 221
2.52 -14.94 -1.35 220 224 223
2.52 -15.03 -1.35 219 223 222
2.31 -15.09 -1.16 219 223 222
2.31 -15.19 -1.16 219 223 222
2.31 -15.28 -1.16 220 224 223
2.31 -15.38 -1.16 221 225 224
2.31 -15.67 -1.16 218 224 222
2.31 -15.76 -1.16 219 225 223
2.12 -15.82 -1.00 220 226 224
2.12 -15.92 -1.00 221 227 225
2.12 -16.01 -1.00 222 228 224
2.12 -16.11 -1.00 221 227 223
2.12 -16.20 -1.00 221 227 223
2.12 -16.30 -1.00 220 226 222
2.12 -16.39 -1.00 222 228 224
2.12 -16.49 -1.00 223 229 225
2.12 -16.58 -1.00 223 229 225
2.12 -16.68 -1.00 222 228 226
2.12 -16.78 -1.00 222 228 226
2.12 -16.87 -1.00 223 229 227
2.12 -16.97 -1.00 224 230 228
2.12 -17.06 -1.00 223 227 226
2.12 -17.16 -1.00 222 226 225
2.12 -17.25 -1.00 223 227 226
2.12 -17.35 -1.00 223 227 226
2.12 -17.44 -1.00 224 228 227
2.12 -17.54 -1.00 226 230 229
2.12 -17.63 -1.00 227 231 230
2.12 -17.73 -1.00 228 232 231
2.12 -17.82 -1.00 226 230 229
2.12 -17.92 -1.00 227 231 230
2.12 -18.02 -1.00 230 234 233
2.12 -18.11 -1.00 231 235 234
2.12 -18.21 -1.00 231 235 234
2.12 -18.30 -1.00 229 233 232
2.12 -18.40 -1.00 229 231 230
2.12 -18.49 -1.00 231 233 232
2.12 -18.59 -1.00 230 230 230
2.12 -18.68 -1.00 229 229 229
2.12 -18.78 -1.00 227 227 227
2.12 -18.87 -1.00 227 227 227
2.12 -18.97 -1.00 229 229 229
2.12 -19.07 -1.00 231 231 231
2.12 -19.16 -1.00 233 233 233
2.12 -19.26 -1.00 232 232 232
2.12 -19.35 -1.00 232 232 232
2.12 -19.45 -1.00 231 231 231
1.93 -19.49 -0.83 231 231 231
1.93 -19.58 -0.83 231 231 231
1.93 -19.68 -0.83 231 231 231
2.12 -19.83 -1.00 230 232 231
2.12 -19.92 -1.00 230 232 231
2.12 -20.02 -1.00 230 230 230
1.93 -20.06 -0.83 230 230 230
1.93 -20.15 -0.83 230 230 230
1.93 -20.25 -0.83 230 230 230
2.12 -20.40 -1.00 230 230 230
2.12 -20.50 -1.00 231 231 231
2.12 -20.59 -1.00 233 233 233
2.12 -20.69 -1.00 233 233 233
2.12 -20.78 -1.00 233 233 233
2.12 -20.88 -1.00 234 234 234
1.93 -20.91 -0.83 234 234 234
1.93 -21.01 -0.83 234 234 234
2.12 -21.16 -1.00 234 234 234
2.12 -21.26 -1.00 235 235 235
2.12 -21.36 -1.00 235 235 235
2.12 -21.45 -1.00 234 234 234
2.12 -21.55 -1.00 234 234 234
2.12 -21.64 -1.00 234 234 234
2.12 -21.74 -1.00 234 234 234
2.12 -21.83 -1.00 234 234 234
2.12 -21.93 -1.00 233 233 233
2.12 -22.02 -1.00 233 233 233
2.12 -22.12 -1.00 232 232 232
2.12 -22.21 -1.00 232 232 232
2.12 -22.31 -1.00 232 232 232
1.93 -22.34 -0.83 231 231 231
1.93 -22.43 -0.83 231 231 231
1.93 -22.53 -0.83 231 231 231
1.93 -22.62 -0.83 231 231 231
1.93 -22.72 -0.83 231 231 231
1.93 -22.81 -0.83 232 232 230
1.93 -22.91 -0.83 232 232 230
2.12 -23.07 -1.00 231 231 231
2.12 -23.17 -1.00 231 231 231
2.12 -23.26 -1.00 231 231 231
2.12 -23.36 -1.00 231 231 231
2.12 -23.45 -1.00 231 231 233
2.12 -23.55 -1.00 231 231 233
2.12 -23.64 -1.00 232 232 234
2.12 -23.74 -1.00 232 232 234
2.12 -23.84 -1.00 232 232 232
2.12 -23.93 -1.00 231 231 231
2.12 -24.03 -1.00 231 231 231
2.12 -24.12 -1.00 232 232 232
2.12 -24.22 -1.00 231 231 229
2.12 -24.31 -1.00 229 229 227
2.12 -24.41 -1.00 230 230 230
2.12 -24.50 -1.00 230 230 230
2.12 -24.60 -1.00 229 229 229
1.93 -24.62 -0.83 229 229 229
1.93 -24.71 -0.83 229 229 229
1.93 -24.81 -0.83 229 229 229
1.93 -24.90 -0.83 229 229 229
1.93 -25.00 -0.83 228 228 228
1.93 -25.09 -0.83 226 226 226
1.93 -25.19 -0.83 226 226 226
1.93 -25.28 -0.83 225 225 225
2.12 -25.46 -1.00 225 225 225
2.12 -25.55 -1.00 225 225 225
2.12 -25.65 -1.00 226 226 226
2.12 -25.74 -1.00 228 228 228
2.12 -25.84 -1.00 225 225 227
2.12 -25.93 -1.00 225 225 227
2.12 -26.03 -1.00 224 223 228
2.12 -26.13 -1.00 224 223 228
2.12 -26.22 -1.00 224 223 229
2.12 -26.32 -1.00 224 223 229
2.12 -26.41 -1.00 222 222 224
2.12 -26.51 -1.00 221 221 223
2.12 -26.60 -1.00 225 225 223
2.12 -26.70 -1.00 224 224 222
2.12 -26.79 -1.00 223 223 221
2.12 -26.89 -1.00 221 221 219
2.12 -26.98 -1.00 220 220 220
2.12 -27.08 -1.00 220 220 222
2.12 -27.18 -1.00 219 218 223
2.12 -27.27 -1.00 219 218 224
2.12 -27.37 -1.00 220 220 222
2.12 -27.46 -1.00 219 219 221
2.12 -27.56 -1.00 218 218 220
2.12 -27.65 -1.00 218 218 220
2.12 -27.75 -1.00 218 218 220
2.12 -27.84 -1.00 219 219 221
2.12 -27.94 -1.00 219 219 221
2.12 -28.03 -1.00 218 218 218
2.12 -28.13 -1.00 218 218 218
2.12 -28.22 -1.00 218 218 218
2.12 -28.32 -1.00 218 218 218
2.12 -28.42 -1.00 217 217 217
2.12 -28.51 -1.00 217 217 217
2.12 -28.61 -1.00 216 216 216
1.93 -28.61 -0.83 216 216 216
1.93 -28.70 -0.83 218 216 219
1.93 -28.80 -0.83 218 216 219
1.93 -28.89 -0.83 218 216 217
1.93 -28.99 -0.83 218 216 217
1.93 -29.08 -0.83 219 217 218
1.93 -29.18 -0.83 219 217 218
1.93 -29.27 -0.83 219 218 216
1.93 -29.37 -0.83 219 218 216
2.12 -29.56 -1.00 221 217 216
2.12 -29.66 -1.00 221 217 216
2.12 -29.75 -1.00 216 212 213
2.12 -29.85 -1.00 214 209 213
1.93 -29.84 -0.83 212 207 211
1.93 -29.94 -0.83 209 204 208
1.93 -30.03 -0.83 205 200 204
1.93 -30.13 -0.83 196 190 192
1.93 -30.22 -0.83 194 188 190
1.93 -30.32 -0.83 182 176 180
1.93 -30.41 -0.83 177 171 175
1.93 -30.51 -0.83 169 164 170
1.93 -30.60 -0.83 160 155 161
1.93 -30.70 -0.83 159 154 158
1.93 -30.79 -0.83 153 148 152
1.93 -30.89 -0.83 155 151 152
1.93 -30.98 -0.83 152 148 149
1.93 -31.08 -0.83 148 143 147
1.93 -31.17 -0.83 146 141 147
1.93 -31.27 -0.83 148 143 149
1.93 -31.36 -0.83 149 143 153
1.93 -31.46 -0.83 146 140 152
1.93 -31.55 -0.83 141 134 150
1.75 -31.54 -0.66 118 114 129
1.75 -31.63 -0.66 108 104 121
1.75 -31.73 -0.66 99 95 109
1.75 -31.82 -0.66 98 96 107
1.75 -31.92 -0.66 75 73 86
1.75 -32.01 -0.66 59 58 72
1.75 -32.11 -0.66 37 38 58
1.75 -32.20 -0.66 32 34 59
1.75 -32.29 -0.66 17 22 54
1.75 -32.39 -0.66 28 36 73
1.75 -32.48 -0.66 38 50 92
1.75 -32.58 -0.66 38 51 95
1.75 -32.67 -0.66 40 54 99
1.75 -32.77 -0.66 33 52 95
1.75 -32.86 -0.66 27 44 88
1.75 -32.96 -0.66 8 26 66
1.75 -33.05 -0.66 0 10 51
1.75 -33.15 -0.66 0 0 43
1.75 -33.24 -0.66 0 0 43
1.75 -33.33 -0.66 0 0 43
1.75 -33.43 -0.66 0 0 43
1.75 -33.52 -0.66 1 8 52
1.56 -33.50 -0.50 18 23 65
1.56 -33.60 -0.50 34 37 78
1.56 -33.69 -0.50 41 45 82
1.56 -33.78 -0.50 44 47 82
1.56 -33.88 -0.50 49 52 83
1.56 -33.97 -0.50 53 57 82
1.56 -34.07 -0.50 56 61 81
1.56 -34.16 -0.50 71 74 91
1.56 -34.25 -0.50 81 83 95
1.56 -34.35 -0.50 87 87 95
1.56 -34.44 -0.50 91 90 95
1.56 -34.54 -0.50 97 96 101
1.56 -34.63 -0.50 101 99 100
1.56 -34.72 -0.50 91 87 88
1.56 -34.82 -0.50 83 79 80
2.26 23.63 -1.25 0 0 0
2.47 23.69 -1.44 0 0 0
2.26 23.43 -1.25 0 0 0
2.26 23.34 -1.25 0 0 0
2.07 23.11 -1.08 0 0 0
2.07 23.01 -1.08 0 0 0
2.07 22.92 -1.08 0 0 0
2.07 22.82 -1.08 0 0 0
2.07 22.73 -1.08 0 0 0
2.07 22.63 -1.08 130 120 121
2.07 22.53 -1.08 130 120 121
2.07 22.44 -1.08 130 120 121
2.07 22.34 -1.08 130 120 119
2.07 22.25 -1.08 130 120 119
2.07 22.15 -1.08 130 121 116
2.07 22.06 -1.08 130 121 116
2.07 21.96 -1.08 129 122 114
2.07 21.87 -1.08 128 121 113
2.07 21.77 -1.08 131 124 114
2.07 21.68 -1.08 131 124 114
2.26 21.71 -1.25 130 123 115
2.26 21.61 -1.25 130 123 115
2.26 21.52 -1.25 131 124 116
2.26 21.42 -1.25 131 124 116
2.26 21.33 -1.25 129 125 116
2.26 21.23 -1.25 129 125 116
2.26 21.13 -1.25 128 125 116
2.26 21.04 -1.25 127 124 115
2.26 20.94 -1.25 128 124 115
2.47 20.99 -1.44 130 126 117
2.26 20.75 -1.25 131 127 118
2.26 20.65 -1.25 131 124 116
2.07 20.44 -1.08 129 122 114
2.07 20.34 -1.08 130 123 115
2.07 20.24 -1.08 130 123 115
2.07 20.15 -1.08 129 125 116
2.07 20.05 -1.08 130 126 117
2.07 19.96 -1.08 131 128 119
2.26 19.98 -1.25 132 129 120
2.26 19.89 -1.25 130 127 118
2.26 19.79 -1.25 129 126 119
2.26 19.70 -1.25 131 128 121
2.26 19.60 -1.25 131 128 123
2.26 19.50 -1.25 132 129 122
2.26 19.41 -1.25 132 129 122
2.26 19.31 -1.25 132 129 122
2.26 19.22 -1.25 132 129 122
2.26 19.12 -1.25 133 128 122
2.26 19.03 -1.25 132 127 121
2.26 18.93 -1.25 132 127 121
2.26 18.83 -1.25 133 128 122
2.26 18.74 -1.25 136 129 123
2.26 18.64 -1.25 134 127 121
2.26 18.55 -1.25 132 125 119
2.26 18.45 -1.25 134 127 121
2.26 18.35 -1.25 137 130 124
2.26 18.26 -1.25 130 127 120
2.26 18.16 -1.25 131 128 121
2.26 18.07 -1.25 131 128 123
2.26 17.97 -1.25 132 129 124
2.26 17.88 -1.25 133 130 125
2.26 17.78 -1.25 133 130 125
2.07 17.57 -1.08 134 129 126
2.07 17.48 -1.08 134 129 126
2.07 17.38 -1.08 135 130 127
2.07 17.29 -1.08 135 130 127
2.07 17.19 -1.08 135 130 126
2.07 17.10 -1.08 134 129 125
2.07 17.00 -1.08 134 129 125
2.07 16.90 -1.08 134 129 125
2.07 16.81 -1.08 136 131 125
2.07 16.71 -1.08 137 132 128
2.07 16.62 -1.08 136 132 129
2.07 16.52 -1.08 135 131 130
2.07 16.43 -1.08 134 130 129
2.07 16.33 -1.08 133 129 128
2.07 16.24 -1.08 134 130 127
2.07 16.14 -1.08 135 132 127
2.07 16.05 -1.08 135 132 127
2.07 15.95 -1.08 134 131 126
2.07 15.86 -1.08 135 132 127
2.07 15.76 -1.08 136 132 129
2.07 15.66 -1.08 136 132 129
2.07 15.57 -1.08 136 132 131
2.07 15.47 -1.08 135 131 130
2.07 15.38 -1.08 136 132 131
2.07 15.28 -1.08 136 132 131
2.07 15.19 -1.08 133 131 132
2.07 15.09 -1.08 132 130 131
2.07 15.00 -1.08 132 131 127
2.07 14.90 -1.08 133 132 128
2.07 14.81 -1.08 135 134 129
2.07 14.71 -1.08 136 135 130
2.07 14.62 -1.08 136 135 130
2.26 14.62 -1.25 135 134 130
2.26 14.52 -1.25 133 132 128
2.26 14.43 -1.25 133 132 130
2.26 14.33 -1.25 134 132 133
2.26 14.23 -1.25 135 133 134
2.26 14.14 -1.25 136 135 131
2.26 14.04 -1.25 136 135 131
2.26 13.95 -1.25 136 135 130
2.26 13.85 -1.25 135 132 123
2.26 13.75 -1.25 135 132 123
2.07 13.57 -1.08 136 133 124
2.07 13.47 -1.08 136 133 124
2.07 13.37 -1.08 136 133 126
2.07 13.28 -1.08 136 133 126
2.07 13.18 -1.08 136 133 126
2.07 13.09 -1.08 136 133 126
2.07 12.99 -1.08 137 134 129
2.07 12.90 -1.08 136 133 128
2.07 12.80 -1.08 135 132 127
2.07 12.71 -1.08 135 132 127
1.89 12.52 -0.91 135 131 128
1.89 12.43 -0.91 136 132 129
-4.77 9.19 5.07 137 133 130
-4.90 9.04 5.18 137 133 130
-4.90 8.96 5.18 137 133 132
-4.90 8.88 5.18 136 132 131
-4.90 8.80 5.18 135 131 130
-5.03 8.66 5.30 132 128 127
-5.03 8.58 5.30 141 137 136
-5.03 8.50 5.30 158 154 153
-5.03 8.43 5.30 157 153 150
-5.17 8.29 5.42 155 150 147
-5.17 8.21 5.42 154 149 146
-5.17 8.13 5.42 156 148 145
-5.17 8.05 5.42 158 148 146
-5.17 7.97 5.42 159 149 147
-5.17 7.89 5.42 159 148 146
-5.17 7.81 5.42 157 146 144
-5.17 7.73 5.42 155 144 142
-5.17 7.65 5.42 161 147 147
-5.30 7.52 5.54 156 142 142
-5.30 7.44 5.54 160 146 146
-5.30 7.36 5.54 158 144 144
-5.30 7.28 5.54 150 138 138
-5.30 7.20 5.54 166 154 154
-5.30 7.13 5.54 182 172 173
-5.30 7.05 5.54 178 168 169
-5.30 6.97 5.54 122 113 116
-5.30 6.89 5.54 48 39 44
-5.30 6.81 5.54 3 0 2
-5.30 6.73 5.54 3 0 4
-5.30 6.65 5.54 18 15 22
-5.30 6.57 5.54 36 33 40
-5.30 6.50 5.54 40 39 47
-5.30 6.42 5.54 28 27 35
-5.43 6.29 5.66 0 0 9
-5.43 6.21 5.66 0 0 9
-5.43 6.13 5.66 0 0 9
-5.43 6.05 5.66 14 18 27
-5.43 5.97 5.66 62 66 75
-5.43 5.89 5.66 90 97 105
-5.43 5.82 5.66 119 126 134
-5.56 5.69 5.78 104 111 121
-5.56 5.61 5.78 49 56 66
-5.56 5.53 5.78 45 51 63
-5.56 5.45 5.78 40 46 58
-5.56 5.37 5.78 40 43 58
-5.56 5.30 5.78 25 28 43
-5.56 5.22 5.78 4 5 23
-5.56 5.14 5.78 0 0 18
-5.56 5.06 5.78 0 0 18
-5.56 4.98 5.78 0 0 19
-5.56 4.91 5.78 18 20 41
-5.56 4.83 5.78 58 60 81
-5.56 4.75 5.78 91 92 112
-5.56 4.67 5.78 108 109 129
-5.56 4.59 5.78 124 123 139
-5.56 4.52 5.78 137 136 152
-5.67 4.40 5.88 148 148 160
-5.67 4.32 5.88 154 157 164
-5.67 4.25 5.88 154 157 164
-5.67 4.17 5.88 150 158 160
-5.67 4.09 5.88 149 157 159
-5.67 4.01 5.88 147 157 156
-5.67 3.94 5.88 145 155 156
-5.67 3.86 5.88 141 155 156
-5.67 3.78 5.88 139 153 156
-5.67 3.70 5.88 138 153 158
-5.67 3.62 5.88 140 155 160
-5.67 3.55 5.88 140 157 164
-5.67 3.47 5.88 139 156 163
-5.67 3.39 5.88 138 157 164
-5.67 3.31 5.88 139 158 165
-5.67 3.24 5.88 141 161 168
-5.67 3.16 5.88 141 161 168
-5.67 3.08 5.88 140 160 167
-5.67 3.00 5.88 140 160 167
-5.67 2.92 5.88 140 160 167
-5.67 2.85 5.88 141 161 168
-5.67 2.77 5.88 142 163 168
-5.56 2.57 5.78 156 171 176
-5.56 2.49 5.78 164 178 179
-5.43 2.45 5.66 154 166 164
-5.30 2.41 5.54 198 207 204
-5.17 2.37 5.42 194 203 198
-5.03 2.33 5.30 198 205 198
-4.77 2.32 5.07 199 206 199
-4.50 2.31 4.83 199 206 199
-3.38 2.21 3.82 172 182 181
-3.25 2.16 3.70 171 181 180
-3.25 2.07 3.70 179 189 188
-3.25 1.99 3.70 190 200 199
-3.09 1.95 3.56 199 209 208
-2.96 1.90 3.44 183 193 192
2.07 2.69 -1.08 138 144 142
2.07 2.59 -1.08 157 163 161
2.07 2.50 -1.08 157 162 158
2.07 2.40 -1.08 154 159 155
2.07 2.31 -1.08 156 161 157
2.07 2.21 -1.08 157 162 158
2.07 2.12 -1.08 157 162 156
2.07 2.02 -1.08 157 162 155
2.07 1.93 -1.08 157 163 153
2.07 1.83 -1.08 157 163 153
2.07 1.73 -1.08 157 163 153
2.07 1.64 -1.08 158 163 156
2.07 1.54 -1.08 159 164 157
2.07 1.45 -1.08 159 166 159
2.07 1.35 -1.08 159 166 159
2.07 1.26 -1.08 158 164 160
2.07 1.16 -1.08 158 164 160
2.26 1.10 -1.25 157 166 163
2.26 1.01 -1.25 157 166 163
2.26 0.91 -1.25 157 166 165
2.26 0.82 -1.25 157 166 165
2.07 0.69 -1.08 157 166 165
2.07 0.59 -1.08 157 166 165
2.07 0.49 -1.08 156 165 162
2.26 0.43 -1.25 156 165 162
2.26 0.34 -1.25 157 166 163
2.07 0.21 -1.08 158 167 164
2.07 0.11 -1.08 159 168 165
2.07 0.02 -1.08 160 169 166
2.07 -0.08 -1.08 159 168 165
2.07 -0.17 -1.08 159 168 163
2.07 -0.27 -1.08 159 168 163
2.07 -0.36 -1.08 159 168 163
2.07 -0.46 -1.08 159 168 163
2.07 -0.56 -1.08 159 168 163
2.07 -0.65 -1.08 160 169 164
2.07 -0.75 -1.08 160 169 164
2.07 -0.84 -1.08 161 170 165
2.07 -0.94 -1.08 163 172 167
2.07 -1.03 -1.08 162 171 166
2.07 -1.13 -1.08 161 170 165
2.07 -1.22 -1.08 160 169 164
2.07 -1.32 -1.08 159 168 163
2.07 -1.41 -1.08 159 168 163
2.07 -1.51 -1.08 160 169 164
2.07 -1.60 -1.08 160 169 164
2.07 -1.70 -1.08 160 169 164
2.07 -1.80 -1.08 160 169 164
2.26 -1.87 -1.25 160 169 164
2.26 -1.96 -1.25 161 170 165
2.26 -2.06 -1.25 161 170 165
2.07 -2.18 -1.08 161 170 165
2.07 -2.27 -1.08 162 171 168
2.07 -2.37 -1.08 160 169 166
2.07 -2.46 -1.08 161 170 167
2.07 -2.56 -1.08 161 170 169
2.07 -2.65 -1.08 161 170 169
2.07 -2.75 -1.08 162 171 170
2.07 -2.85 -1.08 162 171 170
2.07 -2.94 -1.08 163 171 173
2.07 -3.04 -1.08 163 171 173
2.07 -3.13 -1.08 163 171 173
2.07 -3.23 -1.08 163 171 173
2.07 -3.32 -1.08 163 172 171
2.07 -3.42 -1.08 163 172 171
2.07 -3.51 -1.08 164 173 170
2.07 -3.61 -1.08 164 173 170
2.07 -3.70 -1.08 165 174 171
2.07 -3.80 -1.08 165 174 171
2.07 -3.89 -1.08 163 174 170
2.07 -3.99 -1.08 163 174 170
2.07 -4.09 -1.08 164 175 171
2.07 -4.18 -1.08 164 175 171
2.26 -4.26 -1.25 164 175 171
2.26 -4.36 -1.25 164 175 171
2.07 -4.47 -1.08 163 174 170
2.07 -4.56 -1.08 163 174 170
2.07 -4.66 -1.08 164 175 171
2.07 -4.75 -1.08 164 175 171
2.07 -4.85 -1.08 164 175 171
2.07 -4.94 -1.08 164 175 171
2.07 -5.04 -1.08 164 175 171
2.07 -5.14 -1.08 165 176 172
2.07 -5.23 -1.08 165 176 172
2.07 -5.33 -1.08 165 176 170
2.07 -5.42 -1.08 165 176 170
2.07 -5.52 -1.08 165 176 170
2.07 -5.61 -1.08 165 176 170
2.07 -5.71 -1.08 165 176 172
2.07 -5.80 -1.08 166 177 173
2.07 -5.90 -1.08 165 177 173
2.07 -5.99 -1.08 166 178 174
2.07 -6.09 -1.08 166 178 174
2.07 -6.18 -1.08 165 177 173
2.07 -6.28 -1.08 165 177 173
2.07 -6.38 -1.08 164 176 172
2.07 -6.47 -1.08 164 176 172
2.07 -6.57 -1.08 164 176 172
2.07 -6.66 -1.08 162 177 172
2.07 -6.76 -1.08 162 177 172
2.07 -6.85 -1.08 166 179 170
2.07 -6.95 -1.08 167 180 171
2.26 -7.04 -1.25 167 180 171
2.26 -7.14 -1.25 168 181 174
2.26 -7.23 -1.25 168 181 174
2.26 -7.33 -1.25 170 181 175
2.26 -7.43 -1.25 171 182 176
2.26 -7.52 -1.25 172 183 177
2.26 -7.62 -1.25 170 181 175
2.26 -7.71 -1.25 169 180 174
2.26 -7.81 -1.25 170 181 175
2.26 -7.90 -1.25 173 182 179
2.26 -8.00 -1.25 174 183 180
2.26 -8.10 -1.25 175 184 181
2.26 -8.19 -1.25 174 183 180
2.26 -8.29 -1.25 171 182 178
2.26 -8.38 -1.25 171 182 178
2.26 -8.48 -1.25 171 182 178
2.26 -8.58 -1.25 172 183 179
2.26 -8.67 -1.25 172 183 179
2.26 -8.77 -1.25 173 184 180
2.26 -8.86 -1.25 174 185 181
2.26 -8.96 -1.25 175 186 182
2.26 -9.05 -1.25 174 185 181
2.07 -9.14 -1.08 175 186 182
2.26 -9.25 -1.25 175 186 182
2.07 -9.33 -1.08 176 187 183
2.26 -9.44 -1.25 176 187 183
2.07 -9.52 -1.08 176 187 183
2.07 -9.62 -1.08 176 187 183
2.07 -9.71 -1.08 177 188 184
2.07 -9.81 -1.08 179 190 186
2.07 -9.91 -1.08 179 190 186
2.07 -10.00 -1.08 177 188 184
2.07 -10.10 -1.08 178 189 185
2.07 -10.19 -1.08 179 190 186
2.07 -10.29 -1.08 180 191 187
2.07 -10.38 -1.08 179 190 186
2.07 -10.48 -1.08 181 192 188
2.07 -10.57 -1.08 181 192 188
2.07 -10.67 -1.08 181 192 188
2.07 -10.76 -1.08 183 194 190
2.07 -10.86 -1.08 184 195 191
2.07 -10.96 -1.08 185 196 192
2.07 -11.05 -1.08 185 196 192
2.26 -11.16 -1.25 185 196 192
2.26 -11.26 -1.25 185 194 191
2.07 -11.34 -1.08 186 195 192
2.07 -11.43 -1.08 189 198 195
2.07 -11.53 -1.08 190 199 196
2.07 -11.62 -1.08 191 200 197
2.26 -11.74 -1.25 191 200 197
2.26 -11.83 -1.25 191 200 197
2.26 -11.93 -1.25 195 204 201
2.07 -12.00 -1.08 195 204 201
2.07 -12.10 -1.08 196 205 202
2.07 -12.20 -1.08 197 206 203
2.07 -12.29 -1.08 198 207 204
2.07 -12.39 -1.08 199 208 205
2.07 -12.48 -1.08 200 209 206
2.07 -12.58 -1.08 201 210 207
2.07 -12.67 -1.08 200 211 207
2.07 -12.77 -1.08 201 212 208
2.07 -12.86 -1.08 203 214 210
2.07 -12.96 -1.08 204 215 211
2.07 -13.05 -1.08 206 215 212
2.07 -13.15 -1.08 207 216 213
2.07 -13.25 -1.08 207 216 213
2.26 -13.37 -1.25 208 217 214
2.26 -13.46 -1.25 209 215 213
2.07 -13.53 -1.08 208 214 212
2.07 -13.63 -1.08 207 213 211
2.07 -13.72 -1.08 206 210 209
2.07 -13.82 -1.08 207 211 210
2.26 -13.94 -1.25 210 214 213
2.26 -14.04 -1.25 211 215 214
2.26 -14.13 -1.25 211 220 217
2.26 -14.23 -1.25 212 221 218
2.26 -14.33 -1.25 213 222 219
2.26 -14.42 -1.25 214 223 220
2.26 -14.52 -1.25 216 222 220
2.26 -14.61 -1.25 215 221 219
2.26 -14.71 -1.25 214 218 217
2.26 -14.80 -1.25 213 217 216
2.26 -14.90 -1.25 213 218 214
2.26 -15.00 -1.25 214 219 215
2.26 -15.09 -1.25 215 220 216
2.07 -15.15 -1.08 216 221 217
2.07 -15.25 -1.08 217 222 218
2.07 -15.34 -1.08 218 223 219
2.07 -15.44 -1.08 217 223 219
2.07 -15.53 -1.08 217 223 219
2.07 -15.63 -1.08 220 226 222
2.07 -15.73 -1.08 220 226 222
2.07 -15.82 -1.08 220 226 222
2.07 -15.92 -1.08 220 226 222
2.07 -16.01 -1.08 222 228 226
2.07 -16.11 -1.08 222 228 226
2.07 -16.20 -1.08 222 228 226
2.07 -16.30 -1.08 223 229 227
2.07 -16.39 -1.08 222 228 226
2.07 -16.49 -1.08 222 228 226
2.07 -16.58 -1.08 223 229 227
2.07 -16.68 -1.08 224 230 226
2.07 -16.78 -1.08 224 230 226
2.07 -16.87 -1.08 223 229 225
2.07 -16.97 -1.08 222 228 224
2.07 -17.06 -1.08 221 225 224
2.07 -17.16 -1.08 221 225 224
2.07 -17.25 -1.08 221 225 224
2.07 -17.35 -1.08 222 226 225
2.07 -17.44 -1.08 223 227 226
2.07 -17.92 -1.08 226 230 229
2.07 -18.02 -1.08 228 232 231
2.07 -18.11 -1.08 229 233 232
2.07 -18.21 -1.08 230 234 233
1.89 -18.25 -0.91 230 234 233
1.89 -18.35 -0.91 229 233 232
1.89 -18.44 -0.91 235 237 236
1.89 -18.54 -0.91 237 239 238
1.89 -18.63 -0.91 240 242 241
1.89 -18.73 -0.91 241 243 242
1.89 -18.82 -0.91 242 244 243
1.89 -18.92 -0.91 240 242 241
1.89 -19.01 -0.91 238 240 239
1.89 -19.11 -0.91 236 238 237
1.89 -19.20 -0.91 234 236 235
1.89 -19.30 -0.91 233 235 234
1.89 -19.39 -0.91 233 233 233
1.89 -19.49 -0.91 233 233 233
1.89 -19.58 -0.91 234 234 234
1.89 -19.68 -0.91 234 234 234
1.89 -19.77 -0.91 234 234 234
1.89 -19.87 -0.91 233 233 233
1.89 -19.96 -0.91 232 232 232
1.89 -20.06 -0.91 232 232 232
1.89 -20.15 -0.91 232 232 232
1.89 -20.25 -0.91 233 233 233
1.89 -20.34 -0.91 233 233 233
1.89 -20.44 -0.91 233 233 233
1.89 -20.53 -0.91 232 232 232
1.89 -20.63 -0.91 230 230 230
1.89 -20.72 -0.91 230 230 230
1.89 -20.82 -0.91 230 230 230
1.89 -20.91 -0.91 231 231 231
1.89 -21.01 -0.91 232 232 232
1.89 -21.10 -0.91 232 232 232
1.89 -21.20 -0.91 232 232 232
1.89 -21.29 -0.91 232 232 232
2.07 -21.45 -1.08 233 233 233
2.07 -21.55 -1.08 233 233 233
2.07 -21.64 -1.08 234 234 234
2.07 -21.74 -1.08 233 233 233
1.89 -21.77 -0.91 233 233 233
2.07 -21.93 -1.08 232 232 232
2.07 -22.02 -1.08 232 232 232
2.07 -22.12 -1.08 231 231 231
1.89 -22.15 -0.91 231 231 231
1.89 -22.24 -0.91 231 231 231
1.89 -22.34 -0.91 231 231 231
1.89 -22.43 -0.91 231 231 231
1.89 -22.53 -0.91 231 231 231
1.89 -22.62 -0.91 231 231 231
1.89 -22.72 -0.91 231 231 231
1.89 -22.81 -0.91 232 232 230
1.89 -22.91 -0.91 231 231 229
1.89 -23.00 -0.91 231 231 229
1.89 -23.10 -0.91 231 231 229
1.89 -23.19 -0.91 231 231 231
1.89 -23.29 -0.91 231 231 231
2.07 -23.45 -1.08 231 231 233
2.07 -23.55 -1.08 231 231 233
2.07 -23.64 -1.08 230 230 232
2.07 -23.74 -1.08 231 231 233
2.07 -23.84 -1.08 231 231 231
2.07 -23.93 -1.08 230 230 230
2.07 -24.03 -1.08 229 229 229
2.07 -24.12 -1.08 230 230 230
2.07 -24.22 -1.08 229 229 227
2.07 -24.31 -1.08 228 228 226
2.07 -24.41 -1.08 230 230 230
1.89 -24.43 -0.91 230 230 230
1.89 -24.52 -0.91 230 230 230
1.89 -24.62 -0.91 230 230 230
1.89 -24.71 -0.91 231 231 231
1.89 -24.81 -0.91 231 231 231
1.89 -24.90 -0.91 230 230 230
1.89 -25.00 -0.91 229 229 229
1.89 -25.09 -0.91 227 227 227
1.89 -25.19 -0.91 226 226 226
1.89 -25.28 -0.91 227 227 227
1.89 -25.38 -0.91 228 228 228
1.89 -25.47 -0.91 229 229 229
2.07 -25.65 -1.08 228 228 228
2.07 -25.74 -1.08 228 228 228
2.07 -25.84 -1.08 225 225 227
2.07 -25.93 -1.08 225 225 227
2.07 -26.03 -1.08 225 224 229
2.07 -26.13 -1.08 225 224 229
2.07 -26.22 -1.08 225 224 230
2.07 -26.32 -1.08 224 223 229
2.07 -26.41 -1.08 223 223 225
2.07 -26.51 -1.08 222 222 224
2.07 -26.60 -1.08 224 224 222
1.89 -26.61 -0.91 224 224 222
1.89 -26.71 -0.91 224 224 222
2.07 -26.89 -1.08 223 223 221
2.07 -26.98 -1.08 222 222 222
2.07 -27.08 -1.08 220 220 222
2.07 -27.18 -1.08 219 218 223
2.07 -27.27 -1.08 219 218 224
2.07 -27.37 -1.08 220 220 222
2.07 -27.46 -1.08 219 219 221
2.07 -27.56 -1.08 218 218 220
2.07 -27.65 -1.08 218 218 220
2.07 -27.75 -1.08 219 219 221
2.07 -27.84 -1.08 219 219 221
2.07 -27.94 -1.08 220 220 222
2.07 -28.03 -1.08 219 219 221
2.07 -28.13 -1.08 219 219 221
2.07 -28.22 -1.08 218 218 218
2.07 -28.32 -1.08 217 217 217
2.07 -28.42 -1.08 217 217 217
1.89 -28.42 -0.91 217 217 217
1.89 -28.51 -0.91 218 218 218
1.89 -28.61 -0.91 218 218 218
1.89 -28.70 -0.91 216 216 218
1.89 -28.80 -0.91 217 217 219
1.89 -28.89 -0.91 218 218 220
1.89 -28.99 -0.91 219 219 221
1.89 -29.08 -0.91 220 218 219
1.89 -29.18 -0.91 219 217 218
1.89 -29.27 -0.91 219 217 218
1.89 -29.37 -0.91 219 217 218
1.89 -29.46 -0.91 220 218 219
1.89 -29.56 -0.91 219 217 218
1.89 -29.65 -0.91 215 211 212
1.89 -29.75 -0.91 213 208 212
1.89 -29.84 -0.91 212 207 211
1.89 -29.94 -0.91 208 203 207
1.89 -30.03 -0.91 204 199 203
1.89 -30.13 -0.91 195 189 191
1.89 -30.22 -0.91 193 187 189
1.89 -30.32 -0.91 183 177 181
1.89 -30.41 -0.91 178 171 178
1.89 -30.51 -0.91 172 165 172
1.89 -30.60 -0.91 163 156 164
1.89 -30.70 -0.91 161 156 162
1.89 -30.79 -0.91 155 150 156
1.89 -30.89 -0.91 154 150 151
1.89 -30.98 -0.91 153 149 150
1.89 -31.08 -0.91 150 146 147
1.89 -31.17 -0.91 146 141 145
1.89 -31.27 -0.91 143 141 144
1.89 -31.36 -0.91 142 139 146
1.89 -31.46 -0.91 139 136 145
1.89 -31.55 -0.91 138 132 146
1.70 -31.54 -0.74 127 120 136
1.70 -31.63 -0.74 109 100 117
1.70 -31.73 -0.74 100 89 105
1.70 -31.82 -0.74 122 110 120
1.70 -31.92 -0.74 117 105 115
1.70 -32.01 -0.74 120 110 118
1.70 -32.11 -0.74 113 103 112
1.70 -32.20 -0.74 84 78 90
1.70 -32.29 -0.74 52 48 63
1.70 -32.39 -0.74 35 36 56
1.70 -32.48 -0.74 27 32 54
1.70 -32.58 -0.74 14 21 49
1.70 -32.67 -0.74 18 29 59
1.70 -32.77 -0.74 20 33 65
1.70 -32.86 -0.74 23 37 72
1.70 -32.96 -0.74 31 45 80
1.70 -33.05 -0.74 34 48 85
1.70 -33.15 -0.74 37 49 87
1.70 -33.24 -0.74 37 49 87
1.70 -33.33 -0.74 40 49 88
1.70 -33.43 -0.74 44 52 91
1.70 -33.52 -0.74 42 50 87
1.51 -33.50 -0.58 40 44 81
1.51 -33.60 -0.58 41 46 78
1.51 -33.69 -0.58 55 59 88
1.51 -33.78 -0.58 66 68 93
1.51 -33.88 -0.58 70 72 93
1.51 -33.97 -0.58 70 74 85
1.51 -34.07 -0.58 72 75 84
1.51 -34.16 -0.58 87 87 95
1.51 -34.25 -0.58 92 91 96
1.51 -34.35 -0.58 92 90 95
1.51 -34.44 -0.58 86 82 83
1.51 -34.54 -0.58 86 82 83
1.51 -34.63 -0.58 102 97 94
2.21 23.63 -1.33 0 0 0
2.21 23.53 -1.33 0 0 0
2.21 23.43 -1.33 0 0 0
2.03 23.20 -1.16 0 0 0
2.03 23.11 -1.16 0 0 0
2.03 23.01 -1.16 0 0 0
2.03 22.92 -1.16 0 0 0
2.03 22.82 -1.16 0 0 0
2.03 22.73 -1.16 0 0 0
2.03 22.63 -1.16 128 118 116
2.03 22.53 -1.16 128 118 116
2.03 22.44 -1.16 128 118 116
2.03 22.34 -1.16 129 120 115
2.03 22.25 -1.16 129 120 115
2.03 22.15 -1.16 129 120 113
1.84 21.93 -0.99 128 119 112
1.84 21.83 -0.99 128 119 110
2.03 21.87 -1.16 127 118 109
2.03 21.77 -1.16 130 123 113
2.03 21.68 -1.16 130 123 113
2.03 21.58 -1.16 129 122 112
2.03 21.48 -1.16 130 123 113
2.03 21.39 -1.16 130 123 115
2.03 21.29 -1.16 130 123 115
2.03 21.20 -1.16 131 124 118
2.03 21.10 -1.16 131 124 118
2.03 21.01 -1.16 128 124 115
2.03 20.91 -1.16 129 125 116
2.03 20.82 -1.16 129 125 116
2.21 20.85 -1.33 134 127 119
2.21 20.75 -1.33 135 128 120
2.03 20.53 -1.16 134 127 119
2.03 20.44 -1.16 131 124 116
2.03 20.34 -1.16 131 124 116
2.03 20.24 -1.16 131 124 116
2.03 20.15 -1.16 130 126 117
2.03 20.05 -1.16 131 127 118
2.03 19.96 -1.16 131 128 119
2.03 19.86 -1.16 130 127 118
2.03 19.77 -1.16 129 126 117
2.03 19.67 -1.16 127 124 117
2.03 19.58 -1.16 132 129 122
2.21 19.60 -1.33 131 128 123
2.21 19.50 -1.33 131 128 123
2.21 19.41 -1.33 131 128 123
2.21 19.31 -1.33 133 128 124
2.21 19.22 -1.33 133 128 124
2.03 19.00 -1.16 132 127 123
2.03 18.91 -1.16 131 126 122
2.03 18.81 -1.16 134 126 123
2.21 18.83 -1.33 134 126 123
2.21 18.74 -1.33 135 128 122
2.03 18.53 -1.16 134 127 121
2.03 18.43 -1.16 134 127 121
2.03 18.34 -1.16 135 128 122
2.03 18.24 -1.16 136 129 123
2.03 18.15 -1.16 131 128 121
2.21 18.16 -1.33 131 128 121
2.21 18.07 -1.33 132 129 122
2.21 17.97 -1.33 132 129 122
2.03 17.76 -1.16 133 128 124
2.03 17.67 -1.16 134 129 125
2.03 17.57 -1.16 134 129 125
2.03 17.48 -1.16 135 130 126
2.03 17.38 -1.16 134 129 125
2.03 17.29 -1.16 135 130 126
2.03 17.19 -1.16 136 131 127
2.03 17.10 -1.16 135 130 126
2.03 17.00 -1.16 135 128 122
2.03 16.90 -1.16 135 128 122
2.03 16.81 -1.16 137 130 124
2.03 16.71 -1.16 138 130 127
2.03 16.62 -1.16 136 132 129
2.03 16.52 -1.16 135 131 130
2.03 16.43 -1.16 135 131 128
2.03 16.33 -1.16 134 130 127
2.03 16.24 -1.16 134 131 126
2.03 16.14 -1.16 136 133 126
2.03 16.05 -1.16 137 134 127
2.03 15.95 -1.16 135 132 125
2.03 15.86 -1.16 136 133 126
2.03 15.76 -1.16 137 134 129
2.03 15.66 -1.16 138 134 131
2.03 15.57 -1.16 137 133 130
2.03 15.47 -1.16 136 132 131
2.03 15.38 -1.16 136 132 131
2.03 15.28 -1.16 136 132 131
2.03 15.19 -1.16 134 132 133
2.03 15.09 -1.16 134 132 133
2.03 15.00 -1.16 133 132 128
2.03 14.90 -1.16 134 133 129
2.03 14.81 -1.16 134 133 128
2.03 14.71 -1.16 134 133 128
2.03 14.62 -1.16 134 133 128
2.03 14.52 -1.16 134 133 129
2.03 14.42 -1.16 136 135 131
2.03 14.33 -1.16 136 135 133
2.03 14.23 -1.16 136 135 133
2.03 14.14 -1.16 136 135 133
2.21 14.14 -1.33 135 134 130
2.21 14.04 -1.33 135 134 130
2.03 13.85 -1.16 134 134 126
2.03 13.76 -1.16 136 133 124
2.03 13.66 -1.16 136 133 124
2.03 13.57 -1.16 136 133 124
2.03 13.47 -1.16 135 132 123
2.03 13.37 -1.16 135 132 123
2.03 13.28 -1.16 135 132 123
2.03 13.18 -1.16 136 131 125
2.03 13.09 -1.16 136 131 125
1.84 12.90 -0.99 137 132 126
1.84 12.81 -0.99 137 132 126
1.84 12.71 -0.99 135 132 127
1.84 12.62 -0.99 135 132 127
1.84 12.52 -0.99 136 133 128
1.84 12.43 -0.99 137 134 129
-4.81 9.19 5.00 137 134 129
-4.94 9.04 5.12 137 134 129
-4.94 8.96 5.12 135 134 130
-4.94 8.88 5.12 135 134 130
-4.94 8.80 5.12 133 132 128
-5.07 8.66 5.24 130 129 125
-5.07 8.58 5.24 135 134 130
-5.07 8.50 5.24 155 154 150
-5.07 8.43 5.24 157 153 150
-5.07 8.35 5.24 155 150 147
-5.20 8.21 5.36 155 150 147
-5.20 8.13 5.36 156 148 145
-5.20 8.05 5.36 157 149 146
-5.20 7.97 5.36 158 148 146
-5.20 7.89 5.36 158 148 146
-5.20 7.81 5.36 157 146 144
-5.20 7.73 5.36 155 143 143
-5.20 7.65 5.36 159 147 147
-5.20 7.58 5.36 149 137 139
-5.20 7.50 5.36 158 146 146
-5.20 7.42 5.36 173 161 161
-5.20 7.34 5.36 180 170 171
-5.20 7.26 5.36 170 160 161
-5.20 7.18 5.36 113 104 105
-5.20 7.10 5.36 38 29 30
-5.34 6.97 5.48 9 3 5
-5.34 6.89 5.48 8 2 4
-5.34 6.81 5.48 32 27 31
-5.34 6.73 5.48 51 46 52
-5.34 6.65 5.48 27 25 30
-5.34 6.57 5.48 2 0 6
-5.34 6.50 5.48 5 4 12
-5.34 6.42 5.48 18 17 25
-5.34 6.34 5.48 107 104 113
-5.47 6.21 5.59 159 158 166
-5.47 6.13 5.59 185 184 192
-5.47 6.05 5.59 179 182 189
-5.47 5.97 5.59 183 186 193
-5.47 5.89 5.59 181 188 196
-5.47 5.82 5.59 174 181 191
-5.47 5.74 5.59 88 97 106
-5.47 5.66 5.59 35 43 56
-5.60 5.53 5.71 35 41 55
-5.60 5.45 5.71 43 49 65
-5.60 5.37 5.71 46 51 70
-5.60 5.30 5.71 45 50 69
-5.60 5.22 5.71 41 43 64
-5.60 5.14 5.71 48 50 73
-5.60 5.06 5.71 36 40 67
-5.60 4.98 5.71 35 39 68
-5.60 4.91 5.71 30 31 59
-5.60 4.83 5.71 34 35 63
-5.60 4.75 5.71 59 59 85
-5.60 4.67 5.71 85 85 111
-5.60 4.59 5.71 102 100 122
-5.60 4.52 5.71 112 110 131
-5.60 4.44 5.71 125 124 142
-5.60 4.36 5.71 146 146 158
-5.60 4.28 5.71 152 152 160
-5.71 4.17 5.81 152 157 161
-5.71 4.09 5.81 153 158 161
-5.71 4.01 5.81 149 158 155
-5.71 3.94 5.81 144 154 153
-5.71 3.86 5.81 146 157 159
-5.71 3.78 5.81 138 152 155
-5.71 3.70 5.81 133 148 153
-5.71 3.62 5.81 136 151 156
-5.71 3.55 5.81 138 155 162
-5.71 3.47 5.81 139 156 163
-5.71 3.39 5.81 138 157 164
-5.71 3.31 5.81 139 158 165
-5.71 3.24 5.81 139 159 166
-5.71 3.16 5.81 140 160 167
-5.71 3.08 5.81 140 160 167
-5.71 3.00 5.81 139 159 166
-5.71 2.92 5.81 140 160 167
-5.71 2.85 5.81 142 162 169
-5.60 2.80 5.71 144 164 171
-5.60 2.57 5.71 155 170 177
-5.60 2.49 5.71 163 178 181
-5.47 2.45 5.59 159 171 171
-5.34 2.41 5.48 190 199 198
-5.07 2.40 5.24 198 207 202
-5.07 2.33 5.24 199 205 201
-4.81 2.32 5.00 198 203 197
-4.54 2.31 4.76 197 202 196
-3.42 2.21 3.75 175 187 185
-3.29 2.16 3.63 169 181 179
-3.29 2.07 3.63 172 184 184
-3.13 2.03 3.49 185 197 197
-3.00 1.98 3.37 193 205 203
-2.84 1.94 3.22 178 190 188
2.03 2.69 -1.16 133 142 139
2.03 2.59 -1.16 155 164 161
2.03 2.50 -1.16 158 164 162
2.03 2.40 -1.16 155 161 159
2.03 2.31 -1.16 158 163 159
2.03 2.21 -1.16 159 164 160
2.03 2.12 -1.16 158 163 159
2.03 2.02 -1.16 157 162 155
2.03 1.93 -1.16 157 162 155
2.03 1.83 -1.16 158 163 156
2.03 1.73 -1.16 158 163 156
2.03 1.64 -1.16 159 164 158
2.03 1.54 -1.16 159 164 158
2.03 1.45 -1.16 159 166 159
2.03 1.35 -1.16 160 167 160
2.03 1.26 -1.16 158 164 160
2.03 1.16 -1.16 158 164 160
2.03 1.07 -1.16 156 165 162
2.03 0.97 -1.16 157 166 163
2.03 0.88 -1.16 157 166 163
2.03 0.78 -1.16 158 167 164
2.03 0.69 -1.16 158 167 166
2.03 0.59 -1.16 158 167 166
2.03 0.49 -1.16 158 167 164
2.03 0.40 -1.16 157 166 163
2.03 0.30 -1.16 158 167 164
2.03 0.21 -1.16 158 167 164
2.03 0.11 -1.16 159 168 165
2.03 0.02 -1.16 158 167 162
2.03 -0.08 -1.16 157 166 161
2.03 -0.17 -1.16 159 168 163
2.03 -0.27 -1.16 158 167 162
2.03 -0.36 -1.16 158 167 162
2.03 -0.46 -1.16 158 167 162
2.03 -0.56 -1.16 159 168 163
2.03 -0.65 -1.16 160 169 164
2.03 -0.75 -1.16 161 171 163
2.03 -0.84 -1.16 161 171 163
2.03 -0.94 -1.16 164 170 166
2.03 -1.03 -1.16 163 169 165
1.84 -1.16 -0.99 162 168 164
1.84 -1.25 -0.99 162 168 164
1.84 -1.35 -0.99 160 169 164
1.84 -1.44 -0.99 160 169 164
1.84 -1.54 -0.99 161 171 163
1.84 -1.63 -0.99 162 172 164
1.84 -1.73 -0.99 161 170 165
2.03 -1.80 -1.16 160 169 164
2.03 -1.89 -1.16 161 170 165
2.03 -1.99 -1.16 161 170 165
2.03 -2.08 -1.16 161 170 167
2.03 -2.18 -1.16 161 170 167
2.03 -2.27 -1.16 162 171 168
2.03 -2.37 -1.16 160 169 168
2.03 -2.46 -1.16 160 169 168
2.03 -2.56 -1.16 160 169 168
2.03 -2.65 -1.16 160 169 168
2.03 -2.75 -1.16 161 169 171
2.03 -2.85 -1.16 161 169 171
2.03 -2.94 -1.16 161 169 171
2.03 -3.04 -1.16 161 169 171
2.03 -3.13 -1.16 164 172 174
2.03 -3.23 -1.16 163 171 173
2.03 -3.32 -1.16 163 172 171
2.03 -3.42 -1.16 163 172 171
2.03 -3.51 -1.16 163 172 169
2.03 -3.61 -1.16 164 173 170
2.03 -3.70 -1.16 165 174 171
2.03 -3.80 -1.16 166 175 172
2.03 -3.89 -1.16 163 174 170
2.03 -3.99 -1.16 163 174 170
2.03 -4.09 -1.16 164 175 171
2.03 -4.18 -1.16 164 175 171
2.03 -4.28 -1.16 164 175 171
2.03 -4.37 -1.16 164 175 171
2.03 -4.47 -1.16 163 174 170
2.03 -4.56 -1.16 161 172 168
2.03 -4.66 -1.16 162 173 169
2.03 -4.75 -1.16 163 174 170
2.03 -4.85 -1.16 164 175 171
2.03 -4.94 -1.16 164 175 171
2.03 -5.04 -1.16 165 176 172
1.84 -5.15 -0.99 166 177 173
1.84 -5.24 -0.99 166 177 173
2.03 -5.33 -1.16 166 177 171
2.03 -5.42 -1.16 165 176 170
2.03 -5.52 -1.16 165 176 170
2.03 -5.61 -1.16 164 175 169
2.03 -5.71 -1.16 165 176 172
1.84 -5.81 -0.99 165 176 172
1.84 -5.91 -0.99 166 177 173
1.84 -6.00 -0.99 167 178 174
1.84 -6.09 -0.99 167 179 175
1.84 -6.19 -0.99 167 179 175
1.84 -6.28 -0.99 166 178 174
1.84 -6.38 -0.99 165 177 173
1.84 -6.47 -0.99 164 179 174
1.84 -6.57 -0.99 164 179 174
2.03 -6.66 -1.16 163 178 173
2.03 -6.76 -1.16 163 178 173
2.03 -6.85 -1.16 167 180 171
2.03 -6.95 -1.16 167 180 173
2.03 -7.04 -1.16 167 180 173
2.03 -7.14 -1.16 166 179 172
2.03 -7.23 -1.16 166 179 172
2.03 -7.33 -1.16 167 178 172
2.03 -7.42 -1.16 168 179 173
2.03 -7.52 -1.16 170 181 175
2.03 -7.62 -1.16 169 180 174
2.03 -7.71 -1.16 170 179 176
2.03 -7.81 -1.16 170 179 176
2.03 -7.90 -1.16 171 180 177
2.03 -8.00 -1.16 172 181 178
2.03 -8.09 -1.16 173 182 179
2.03 -8.19 -1.16 173 182 179
2.03 -8.28 -1.16 172 183 179
2.03 -8.38 -1.16 171 182 178
2.03 -8.47 -1.16 171 182 178
2.03 -8.57 -1.16 171 182 178
2.03 -8.67 -1.16 172 183 179
2.03 -8.76 -1.16 173 184 180
2.03 -8.86 -1.16 175 186 182
2.03 -8.95 -1.16 176 187 183
2.03 -9.05 -1.16 175 186 182
2.03 -9.14 -1.16 175 186 182
2.03 -9.24 -1.16 175 186 182
2.03 -9.33 -1.16 176 187 183
2.03 -9.43 -1.16 176 187 183
2.03 -9.52 -1.16 176 187 183
2.03 -9.62 -1.16 176 187 183
2.03 -9.71 -1.16 175 186 182
2.03 -9.81 -1.16 177 188 184
2.03 -9.91 -1.16 178 189 185
2.03 -10.00 -1.16 177 188 184
2.03 -10.10 -1.16 178 189 185
2.03 -10.19 -1.16 180 191 187
2.03 -10.29 -1.16 181 192 188
2.03 -10.38 -1.16 181 192 188
2.03 -10.48 -1.16 182 193 189
2.03 -10.57 -1.16 182 193 189
2.03 -10.67 -1.16 182 193 189
2.03 -10.76 -1.16 183 194 190
2.03 -10.86 -1.16 184 195 191
2.03 -10.96 -1.16 184 195 191
2.03 -11.05 -1.16 184 195 191
2.03 -11.15 -1.16 183 194 190
2.03 -11.24 -1.16 185 194 191
2.03 -11.34 -1.16 186 195 192
2.03 -11.43 -1.16 188 197 194
2.03 -11.53 -1.16 188 197 194
2.03 -11.62 -1.16 189 198 195
2.03 -11.72 -1.16 189 198 195
2.03 -11.81 -1.16 190 199 196
2.03 -11.91 -1.16 192 201 198
2.03 -12.00 -1.16 192 201 198
2.03 -12.10 -1.16 193 202 199
2.03 -12.20 -1.16 193 202 199
2.03 -12.29 -1.16 195 204 201
2.03 -12.39 -1.16 196 205 202
2.03 -12.48 -1.16 198 207 204
2.03 -12.58 -1.16 198 207 204
2.03 -12.67 -1.16 199 210 206
2.03 -12.77 -1.16 200 211 207
2.03 -12.86 -1.16 201 212 208
1.84 -12.93 -0.99 203 214 210
1.84 -13.03 -0.99 206 215 212
2.03 -13.15 -1.16 207 216 213
2.03 -13.25 -1.16 208 217 214
2.03 -13.34 -1.16 209 218 215
2.03 -13.44 -1.16 210 216 214
2.03 -13.53 -1.16 211 217 215
2.03 -13.63 -1.16 209 215 213
2.03 -13.72 -1.16 208 212 211
2.03 -13.82 -1.16 210 214 213
