ply
format ascii 1.0
element vertex 1601
property float x
property float y
property float z
property uchar red
property uchar green
property uchar blue
end_header
-5.22 -18.42 -0.49 0 0 41
-5.22 -18.50 -0.49 0 0 49
-5.07 -18.64 -0.65 89 95 147
-4.95 -18.76 -0.78 199 206 248
-4.95 -18.85 -0.78 223 228 255
-4.80 -18.98 -0.94 189 194 214
-4.80 -19.06 -0.94 188 190 203
-4.80 -19.15 -0.94 193 194 198
-4.80 -19.23 -0.94 194 194 196
-4.80 -19.32 -0.94 196 196 198
-4.80 -19.40 -0.94 198 198 200
-4.80 -19.49 -0.94 198 198 200
-4.80 -19.57 -0.94 195 197 196
-4.80 -19.66 -0.94 194 196 193
-4.80 -19.74 -0.94 196 198 193
-4.65 -19.88 -1.10 197 199 194
-4.65 -19.97 -1.10 196 196 196
-4.65 -20.05 -1.10 197 197 199
-4.80 -20.08 -0.94 198 198 200
-4.80 -20.17 -0.94 198 198 200
-4.80 -20.25 -0.94 198 198 200
-4.65 -20.39 -1.10 197 197 199
-4.65 -20.48 -1.10 196 196 196
-4.65 -20.57 -1.10 195 195 195
-4.65 -20.65 -1.10 199 199 199
-4.65 -20.74 -1.10 198 198 198
-4.80 -20.76 -0.94 198 198 198
-4.80 -20.85 -0.94 197 197 197
-4.80 -20.93 -0.94 197 197 197
-4.80 -21.02 -0.94 198 198 198
-4.80 -21.10 -0.94 199 199 199
-4.80 -21.19 -0.94 201 199 200
-4.80 -21.27 -0.94 201 199 200
-4.80 -21.36 -0.94 201 199 200
-4.80 -21.44 -0.94 200 198 199
-4.80 -21.53 -0.94 199 199 199
-4.80 -21.61 -0.94 198 198 198
-4.65 -21.76 -1.10 198 198 198
-4.65 -21.85 -1.10 198 198 198
-4.65 -21.93 -1.10 198 200 199
-4.80 -21.95 -0.94 198 200 199
-4.80 -22.04 -0.94 198 200 199
-4.65 -22.19 -1.10 198 200 199
-4.65 -22.27 -1.10 196 200 199
-4.65 -22.36 -1.10 196 200 199
-4.65 -22.44 -1.10 196 200 199
-4.65 -22.53 -1.10 198 200 199
-4.65 -22.61 -1.10 198 199 201
-4.65 -22.70 -1.10 200 200 202
-4.65 -22.78 -1.10 201 201 203
-4.65 -22.87 -1.10 201 201 203
-4.65 -22.96 -1.10 201 201 201
-4.65 -23.04 -1.10 201 201 201
-4.65 -23.13 -1.10 203 201 202
-4.80 -23.14 -0.94 204 202 203
-4.80 -23.23 -0.94 203 201 202
-4.65 -23.38 -1.10 202 200 201
-4.65 -23.47 -1.10 201 199 200
-4.65 -23.55 -1.10 202 200 203
-4.65 -23.64 -1.10 204 202 205
-4.65 -23.72 -1.10 203 201 204
-4.65 -23.81 -1.10 201 199 202
-4.65 -23.89 -1.10 202 200 205
-4.65 -23.98 -1.10 203 201 206
-4.65 -24.06 -1.10 205 203 208
-4.65 -24.15 -1.10 205 203 208
-4.65 -24.24 -1.10 204 202 205
-4.65 -24.32 -1.10 203 201 204
-4.80 -24.33 -0.94 202 200 203
-4.80 -24.42 -0.94 202 200 203
-4.80 -24.50 -0.94 203 201 202
-4.80 -24.59 -0.94 203 201 202
-4.80 -24.67 -0.94 203 201 202
-4.80 -24.76 -0.94 203 201 202
-4.80 -24.84 -0.94 202 200 201
-4.80 -24.93 -0.94 202 200 201
-4.80 -25.01 -0.94 201 200 198
-4.65 -25.17 -1.10 201 200 198
-4.65 -25.26 -1.10 204 200 199
-4.65 -25.34 -1.10 204 200 199
-4.65 -25.43 -1.10 204 200 199
-4.65 -25.52 -1.10 204 200 199
-4.65 -25.60 -1.10 204 200 199
-4.65 -25.69 -1.10 204 200 199
-4.65 -25.77 -1.10 204 200 199
-4.65 -25.86 -1.10 206 202 201
-4.80 -25.86 -0.94 205 201 200
-4.80 -25.95 -0.94 204 200 199
-4.80 -26.03 -0.94 205 201 200
-4.80 -26.12 -0.94 207 203 202
-4.80 -26.20 -0.94 209 205 204
-4.80 -26.29 -0.94 209 205 204
-4.80 -26.37 -0.94 209 205 204
-4.80 -26.46 -0.94 207 205 206
-4.80 -26.54 -0.94 207 205 206
-4.80 -26.63 -0.94 206 204 205
-4.80 -26.71 -0.94 205 203 204
-4.80 -26.80 -0.94 207 205 206
-4.80 -26.88 -0.94 209 207 208
-4.80 -26.97 -0.94 210 206 207
-4.80 -27.05 -0.94 207 203 204
-4.80 -27.31 -0.94 211 205 207
-4.80 -27.39 -0.94 211 205 207
-4.80 -27.48 -0.94 212 206 208
-4.80 -27.56 -0.94 211 205 207
-4.80 -27.65 -0.94 211 205 207
-4.80 -27.73 -0.94 210 206 205
-4.80 -27.82 -0.94 210 206 205
-4.80 -27.90 -0.94 210 206 205
-4.80 -27.99 -0.94 211 207 206
-4.80 -28.07 -0.94 213 209 208
-4.80 -28.16 -0.94 213 209 208
-4.80 -28.24 -0.94 212 208 207
-4.80 -28.33 -0.94 211 207 206
-4.80 -28.41 -0.94 212 208 207
-4.80 -28.50 -0.94 213 209 208
-4.80 -28.58 -0.94 214 210 209
-4.80 -28.67 -0.94 214 210 209
-4.80 -28.75 -0.94 215 211 210
-4.65 -28.93 -1.10 215 211 210
-4.65 -29.01 -1.10 214 210 209
-4.65 -29.10 -1.10 215 209 211
-4.80 -29.09 -0.94 215 209 211
-4.80 -29.18 -0.94 218 209 214
-4.80 -29.26 -0.94 216 210 212
-4.80 -29.35 -0.94 214 208 208
-4.80 -29.43 -0.94 213 207 207
-4.80 -29.52 -0.94 213 207 207
-4.80 -29.60 -0.94 213 207 207
-4.80 -29.69 -0.94 212 203 204
-4.80 -29.77 -0.94 220 210 211
-4.80 -29.86 -0.94 211 200 204
-4.80 -29.94 -0.94 155 140 145
-4.80 -30.03 -0.94 78 63 68
-4.65 -30.21 -1.10 111 94 100
-4.65 -30.30 -1.10 111 91 100
-4.65 -30.38 -1.10 115 95 104
-4.84 19.94 -1.01 0 0 0
-4.84 19.86 -1.01 0 0 0
-4.84 19.77 -1.01 0 0 0
-4.84 19.69 -1.01 0 0 0
-4.69 19.72 -1.18 0 0 0
-4.69 19.63 -1.18 0 0 0
-4.69 19.55 -1.18 0 0 0
-4.69 19.46 -1.18 126 120 104
-4.69 19.38 -1.18 126 120 104
-4.69 19.29 -1.18 126 120 104
-4.69 19.21 -1.18 126 120 106
-4.69 19.12 -1.18 127 121 107
-4.69 19.04 -1.18 127 121 109
-4.69 18.95 -1.18 127 121 109
-4.69 18.87 -1.18 126 119 109
-4.69 18.78 -1.18 125 118 108
-4.69 18.70 -1.18 126 119 111
-4.69 18.61 -1.18 126 119 111
-4.69 18.52 -1.18 126 119 113
-4.69 18.44 -1.18 126 119 113
-4.69 18.35 -1.18 126 119 113
-4.69 18.27 -1.18 127 120 114
-4.84 18.07 -1.01 127 120 114
-4.84 17.99 -1.01 128 121 115
-4.84 17.90 -1.01 130 123 115
-4.84 17.82 -1.01 129 122 114
-4.84 17.73 -1.01 129 120 115
-4.69 17.76 -1.18 130 120 118
-4.69 17.67 -1.18 131 121 119
-4.69 17.59 -1.18 131 121 119
-4.84 17.39 -1.01 131 121 119
-4.84 17.31 -1.01 127 119 117
-4.84 17.22 -1.01 130 122 120
-4.84 17.14 -1.01 130 125 121
-4.69 17.16 -1.18 129 124 120
-4.69 17.07 -1.18 129 126 121
-4.69 16.99 -1.18 130 127 122
-4.84 16.80 -1.01 130 127 122
-4.84 16.71 -1.01 129 126 121
-4.84 16.63 -1.01 130 127 120
-4.84 16.54 -1.01 131 128 121
-4.84 16.46 -1.01 131 128 119
-4.84 16.37 -1.01 129 126 117
-4.84 16.29 -1.01 131 127 118
-4.99 16.10 -0.85 133 129 120
-4.99 16.02 -0.85 136 129 121
-4.84 16.03 -1.01 135 128 120
-4.84 15.95 -1.01 136 129 121
-4.84 15.86 -1.01 137 130 124
-4.84 15.78 -1.01 136 129 123
-4.69 15.79 -1.18 135 127 124
-4.69 15.71 -1.18 137 129 127
-4.69 15.62 -1.18 135 129 129
-4.69 15.54 -1.18 133 127 127
-4.69 15.45 -1.18 133 129 130
-4.69 15.37 -1.18 134 130 131
-4.69 15.28 -1.18 134 130 131
-4.69 15.20 -1.18 135 131 132
-4.69 15.11 -1.18 134 130 129
-4.69 15.03 -1.18 134 130 129
-4.69 14.94 -1.18 134 130 129
-4.69 14.85 -1.18 135 131 130
-4.69 14.77 -1.18 132 128 125
-4.69 14.68 -1.18 133 129 126
-4.69 14.60 -1.18 135 131 128
-4.69 14.51 -1.18 135 131 128
-4.69 14.43 -1.18 135 131 128
-4.69 14.34 -1.18 135 131 128
-4.69 14.26 -1.18 135 132 127
-4.69 14.17 -1.18 136 131 128
-4.69 14.09 -1.18 138 133 130
-4.69 14.00 -1.18 140 131 132
-4.69 13.92 -1.18 140 132 130
-4.84 13.74 -1.01 141 133 131
-4.84 13.65 -1.01 142 134 131
-4.69 13.66 -1.18 140 135 131
-4.69 13.57 -1.18 139 134 130
-4.69 13.49 -1.18 139 134 130
-4.69 13.40 -1.18 140 135 131
-4.69 13.32 -1.18 141 136 132
-4.69 13.23 -1.18 141 136 132
-4.84 13.06 -1.01 140 135 132
-4.69 13.06 -1.18 140 135 132
-4.69 12.98 -1.18 139 135 132
-4.69 12.89 -1.18 140 136 133
-4.84 12.72 -1.01 137 136 131
-4.84 12.63 -1.01 138 137 132
-4.99 12.46 -0.85 141 138 133
-4.99 12.38 -0.85 142 139 134
-4.99 12.30 -0.85 144 139 136
-4.99 12.21 -0.85 145 140 137
-4.84 12.21 -1.01 148 140 138
-4.84 12.13 -1.01 148 140 138
-4.84 12.04 -1.01 148 140 138
-4.84 11.96 -1.01 148 140 138
-4.84 11.87 -1.01 147 139 137
-4.84 11.79 -1.01 147 139 137
-4.84 11.70 -1.01 145 140 136
-4.84 11.62 -1.01 146 141 137
-4.69 11.61 -1.18 148 143 137
-4.69 11.53 -1.18 145 143 131
-4.69 11.44 -1.18 146 144 132
-4.69 11.36 -1.18 146 144 132
-4.69 11.27 -1.18 146 144 132
-4.69 11.18 -1.18 145 142 133
-4.69 11.10 -1.18 144 141 132
-4.69 11.01 -1.18 146 143 134
-4.69 10.93 -1.18 147 144 135
-4.69 10.84 -1.18 147 144 137
-4.69 10.76 -1.18 147 144 137
-4.69 10.67 -1.18 147 144 137
-4.69 10.59 -1.18 147 144 137
-4.69 10.50 -1.18 147 144 137
-4.69 10.42 -1.18 146 143 136
-4.69 10.33 -1.18 146 143 136
-4.69 10.25 -1.18 145 142 135
-4.69 10.16 -1.18 147 142 136
-4.69 10.07 -1.18 148 143 137
-4.69 9.99 -1.18 149 144 138
-4.69 9.90 -1.18 149 144 138
-4.69 9.82 -1.18 148 145 138
-4.69 9.73 -1.18 148 145 138
-4.84 9.58 -1.01 149 146 141
-4.84 9.49 -1.01 148 147 142
-4.84 9.41 -1.01 150 149 144
-4.99 9.25 -0.85 146 147 142
-4.99 9.16 -0.85 148 149 144
-5.12 9.02 -0.72 151 153 148
-5.12 8.94 -0.72 149 151 146
-5.12 8.85 -0.72 149 151 146
-5.12 8.77 -0.72 152 152 150
-5.27 8.61 -0.56 151 151 149
-5.27 8.53 -0.56 138 136 137
-5.27 8.45 -0.56 132 130 131
-5.39 8.31 -0.43 132 130 131
-5.39 8.22 -0.43 130 128 129
-5.39 8.14 -0.43 129 127 128
-5.39 8.05 -0.43 133 133 131
-5.39 7.97 -0.43 137 137 135
-5.39 7.89 -0.43 128 128 126
-5.39 7.80 -0.43 130 130 128
-5.39 7.72 -0.43 132 132 130
-5.39 7.64 -0.43 132 132 130
-5.54 7.49 -0.26 128 128 126
-5.54 7.40 -0.26 121 121 119
-5.54 7.32 -0.26 114 114 112
-5.54 7.24 -0.26 110 110 108
-5.54 7.15 -0.26 96 98 95
-5.54 7.07 -0.26 95 95 93
-5.54 6.99 -0.26 95 95 93
-5.54 6.90 -0.26 100 100 98
-5.54 6.82 -0.26 109 109 107
-5.54 6.74 -0.26 119 118 116
-5.66 6.60 -0.13 125 124 122
-5.66 6.52 -0.13 101 100 98
-5.66 6.44 -0.13 102 101 99
-5.66 6.35 -0.13 104 104 104
-5.66 6.27 -0.13 109 109 109
-5.66 6.19 -0.13 116 116 118
-5.66 6.11 -0.13 125 125 127
-5.66 6.02 -0.13 131 132 134
-5.66 5.94 -0.13 135 136 138
-5.66 5.86 -0.13 139 145 145
-5.66 5.77 -0.13 145 151 151
-5.66 5.69 -0.13 153 159 157
-5.66 5.61 -0.13 160 166 164
-5.66 5.52 -0.13 166 170 169
-5.81 5.39 0.03 171 175 174
-5.66 5.36 -0.13 174 178 177
-5.66 5.28 -0.13 177 181 180
-5.66 5.19 -0.13 173 177 176
-5.81 5.05 0.03 173 175 172
-5.81 4.97 0.03 170 172 169
-5.81 4.89 0.03 169 171 168
-5.81 4.81 0.03 170 172 169
-5.81 4.72 0.03 168 170 167
-5.81 4.64 0.03 165 167 164
-5.81 4.56 0.03 164 164 164
-5.81 4.48 0.03 164 164 164
-5.81 4.39 0.03 161 163 162
-5.81 4.31 0.03 159 161 160
-5.81 4.23 0.03 154 160 160
-5.81 4.15 0.03 152 158 158
-5.81 4.06 0.03 147 157 156
-5.81 3.98 0.03 147 157 156
-5.81 3.90 0.03 145 157 157
-5.81 3.82 0.03 145 157 157
-5.81 3.73 0.03 147 157 158
-5.81 3.65 0.03 147 157 158
-5.94 3.53 0.16 147 155 157
-5.94 3.45 0.16 146 154 156
-5.94 3.36 0.16 148 153 157
-5.94 3.28 0.16 149 154 158
-6.06 3.16 0.30 147 157 158
-6.06 3.08 0.30 147 157 158
-6.06 3.00 0.30 146 156 158
-5.94 2.95 0.16 147 158 162
-5.94 2.87 0.16 147 158 162
-5.94 2.79 0.16 146 157 161
-5.94 2.70 0.16 145 156 160
-5.94 2.62 0.16 155 165 167
-5.94 2.54 0.16 158 166 169
-5.81 2.49 0.03 158 166 168
-5.66 2.45 -0.13 156 160 163
-5.66 2.37 -0.13 180 184 183
-5.54 2.32 -0.26 198 200 199
-5.27 2.32 -0.56 189 190 185
-5.12 2.28 -0.72 159 160 155
-4.99 2.23 -0.85 161 164 157
-4.99 2.14 -0.85 168 171 164
-4.99 2.06 -0.85 168 169 163
-4.84 2.01 -1.01 164 165 159
-4.84 1.93 -1.01 163 164 159
-4.69 1.88 -1.18 164 165 160
-4.69 1.80 -1.18 163 164 159
-4.69 1.71 -1.18 162 163 158
-4.69 1.63 -1.18 161 161 159
-4.69 1.54 -1.18 162 162 160
-4.69 1.45 -1.18 161 163 162
-4.69 1.37 -1.18 159 161 160
-4.69 1.28 -1.18 158 162 161
-4.69 1.20 -1.18 156 160 159
-4.69 1.11 -1.18 154 158 157
-4.69 1.03 -1.18 157 159 158
-4.69 0.94 -1.18 156 158 157
-4.69 0.86 -1.18 155 157 156
-4.69 0.77 -1.18 154 156 155
-4.69 0.69 -1.18 154 156 155
-4.69 0.60 -1.18 154 156 155
-4.69 0.52 -1.18 153 158 154
-4.69 0.43 -1.18 153 158 154
-4.69 0.35 -1.18 152 157 153
-4.69 0.26 -1.18 151 156 152
-4.69 0.17 -1.18 151 156 152
-4.69 0.09 -1.18 150 155 151
-4.69 0.00 -1.18 151 156 150
-4.69 -0.08 -1.18 151 156 150
-4.69 -0.17 -1.18 151 156 150
-4.69 -0.25 -1.18 152 157 151
-4.84 -0.37 -1.01 149 157 146
-4.84 -0.45 -1.01 151 159 148
-4.84 -0.54 -1.01 153 161 150
-4.84 -0.62 -1.01 154 162 151
-4.84 -0.71 -1.01 155 163 152
-4.84 -0.79 -1.01 159 166 158
-4.84 -0.88 -1.01 161 168 160
-4.84 -0.96 -1.01 160 167 160
-4.84 -1.05 -1.01 160 167 160
-4.84 -1.13 -1.01 160 167 160
-4.69 -1.19 -1.18 161 168 161
-4.69 -1.28 -1.18 161 167 163
-4.69 -1.36 -1.18 161 167 163
-4.69 -1.45 -1.18 161 167 163
-4.69 -1.53 -1.18 161 167 163
-4.69 -1.62 -1.18 160 169 166
-4.69 -1.70 -1.18 159 168 165
-4.69 -1.79 -1.18 161 167 165
-4.69 -1.87 -1.18 161 167 165
-4.69 -1.96 -1.18 161 167 165
-4.69 -2.04 -1.18 162 168 166
-4.69 -2.30 -1.18 162 168 166
-4.69 -2.39 -1.18 162 168 166
-4.69 -2.47 -1.18 163 167 166
-4.69 -2.56 -1.18 163 167 166
-4.69 -2.64 -1.18 162 166 165
-4.69 -2.73 -1.18 162 166 165
-4.69 -2.81 -1.18 161 165 164
-4.69 -2.90 -1.18 161 167 163
-4.69 -2.98 -1.18 161 167 163
-4.69 -3.07 -1.18 161 167 163
-4.69 -3.15 -1.18 161 167 163
-4.69 -3.24 -1.18 161 167 163
-4.69 -3.32 -1.18 160 166 162
-4.69 -3.41 -1.18 160 166 162
-4.69 -3.50 -1.18 160 166 162
-4.69 -3.58 -1.18 162 168 164
-4.69 -3.67 -1.18 162 168 164
-4.69 -3.75 -1.18 164 169 165
-4.69 -3.84 -1.18 166 168 165
-4.69 -3.92 -1.18 164 166 163
-4.69 -4.01 -1.18 165 165 163
-4.69 -4.09 -1.18 165 165 163
-4.69 -4.35 -1.18 159 169 161
-4.69 -4.43 -1.18 159 168 163
-4.69 -4.52 -1.18 159 168 163
-4.69 -4.61 -1.18 162 168 164
-4.69 -4.69 -1.18 163 169 165
-4.69 -4.78 -1.18 164 170 166
-4.69 -4.86 -1.18 163 169 165
-4.69 -4.95 -1.18 163 169 165
-4.84 -5.04 -1.01 162 168 166
-4.84 -5.13 -1.01 162 168 166
-4.84 -5.21 -1.01 164 168 167
-4.84 -5.30 -1.01 165 169 168
-4.84 -5.38 -1.01 166 170 169
-4.84 -5.47 -1.01 167 171 170
-4.84 -5.55 -1.01 171 175 174
-4.84 -5.64 -1.01 168 172 171
-4.84 -5.72 -1.01 162 166 165
-4.84 -5.81 -1.01 149 153 152
-4.84 -5.89 -1.01 195 199 198
-4.84 -5.98 -1.01 252 255 255
-4.84 -6.06 -1.01 240 245 241
-4.84 -6.15 -1.01 252 255 253
-4.84 -6.23 -1.01 249 255 251
-4.69 -6.31 -1.18 246 252 248
-4.69 -6.40 -1.18 246 252 248
-4.69 -6.48 -1.18 245 251 247
-4.84 -6.57 -1.01 244 250 246
-4.99 -6.66 -0.85 246 252 248
-4.99 -6.74 -0.85 250 255 252
-4.99 -6.83 -0.85 249 255 251
-4.99 -6.91 -0.85 246 252 250
-4.99 -7.00 -0.85 247 253 251
-4.99 -7.08 -0.85 248 254 252
-4.99 -7.17 -0.85 247 253 251
-4.99 -7.25 -0.85 246 252 250
-4.99 -7.34 -0.85 246 252 250
-4.84 -7.42 -1.01 247 253 251
-4.84 -7.51 -1.01 251 255 255
-4.84 -7.59 -1.01 244 250 248
-4.84 -7.68 -1.01 243 249 247
-4.84 -7.76 -1.01 247 253 251
-4.84 -7.85 -1.01 246 252 250
-4.84 -7.93 -1.01 245 251 249
-4.84 -8.02 -1.01 247 253 251
-4.84 -8.10 -1.01 247 253 251
-4.84 -8.19 -1.01 249 255 251
-4.84 -8.27 -1.01 245 251 247
-4.69 -8.36 -1.18 239 245 241
-4.69 -8.45 -1.18 230 236 232
-4.69 -8.53 -1.18 235 241 239
-4.84 -8.61 -1.01 243 249 247
-4.84 -8.70 -1.01 250 255 255
-4.84 -8.78 -1.01 249 255 255
-4.84 -8.87 -1.01 205 210 213
-4.84 -8.95 -1.01 153 158 162
-4.84 -9.04 -1.01 160 165 169
-4.84 -9.12 -1.01 172 177 181
-4.84 -9.21 -1.01 172 177 181
-4.84 -9.29 -1.01 169 174 180
-4.84 -9.38 -1.01 171 176 180
-4.84 -9.46 -1.01 173 179 179
-4.84 -9.55 -1.01 172 178 176
-4.84 -9.63 -1.01 171 177 175
-4.84 -9.72 -1.01 172 178 176
-4.84 -9.80 -1.01 174 178 177
-4.84 -9.89 -1.01 176 180 179
-4.84 -9.97 -1.01 175 179 178
-4.84 -10.06 -1.01 174 178 177
-4.84 -10.14 -1.01 172 178 176
-4.84 -10.23 -1.01 174 180 178
-4.84 -10.31 -1.01 173 182 179
-4.84 -10.40 -1.01 171 180 177
-4.84 -10.48 -1.01 169 180 176
-4.84 -10.57 -1.01 169 180 176
-4.84 -10.65 -1.01 167 179 175
-4.84 -10.74 -1.01 166 177 173
-4.84 -10.82 -1.01 165 176 172
-4.84 -10.91 -1.01 171 177 175
-4.84 -10.99 -1.01 150 154 153
-4.84 -11.08 -1.01 147 149 148
-4.84 -11.16 -1.01 145 147 146
-4.99 -11.23 -0.85 140 144 143
-4.99 -11.31 -0.85 142 146 145
-4.99 -11.40 -0.85 144 153 150
-5.12 -11.47 -0.72 147 156 153
-5.12 -11.55 -0.72 149 160 156
-5.12 -11.64 -0.72 147 158 154
-5.12 -11.72 -0.72 144 153 148
-5.27 -11.79 -0.56 142 148 144
-5.27 -11.87 -0.56 139 145 141
-5.27 -11.95 -0.56 137 141 140
-5.27 -12.04 -0.56 133 139 139
-5.27 -12.12 -0.56 136 141 144
-5.27 -12.21 -0.56 138 144 144
-5.12 -12.31 -0.72 138 144 144
-5.12 -12.40 -0.72 143 149 149
-5.12 -12.48 -0.72 154 160 160
-5.12 -12.56 -0.72 159 165 163
-5.12 -12.65 -0.72 159 165 163
-4.99 -12.75 -0.85 168 174 170
-4.99 -12.84 -0.85 175 181 177
-4.99 -12.92 -0.85 175 181 177
-4.99 -13.01 -0.85 147 154 147
-4.99 -13.09 -0.85 136 143 136
-4.84 -13.20 -1.01 123 130 123
-4.84 -13.29 -1.01 112 118 114
-4.84 -13.37 -1.01 112 117 113
-4.84 -13.46 -1.01 129 133 132
-4.84 -13.54 -1.01 138 144 142
-4.84 -13.63 -1.01 151 157 155
-4.84 -13.71 -1.01 178 187 186
-4.84 -13.80 -1.01 183 192 191
-4.84 -13.88 -1.01 136 144 146
-4.84 -13.97 -1.01 82 90 92
-4.84 -14.05 -1.01 19 27 29
-4.69 -14.16 -1.18 0 4 6
-4.69 -14.25 -1.18 0 2 4
-4.69 -14.33 -1.18 9 17 19
-4.69 -14.42 -1.18 33 39 39
-4.69 -14.51 -1.18 43 49 49
-4.69 -14.59 -1.18 45 49 50
-4.69 -14.68 -1.18 57 58 60
-4.69 -14.76 -1.18 57 58 62
-4.69 -14.85 -1.18 52 51 56
-4.69 -14.93 -1.18 40 41 45
-4.69 -15.02 -1.18 19 20 24
-4.69 -15.10 -1.18 0 1 4
-4.69 -15.19 -1.18 34 40 40
-4.69 -15.27 -1.18 86 92 92
-4.69 -15.36 -1.18 160 166 166
-4.69 -15.44 -1.18 199 205 205
-4.84 -15.50 -1.01 233 237 236
-4.84 -15.58 -1.01 228 232 231
-4.84 -15.67 -1.01 202 206 205
-4.84 -15.75 -1.01 184 188 187
-4.84 -15.84 -1.01 183 185 182
-4.84 -15.92 -1.01 185 187 184
-4.99 -15.97 -0.85 181 181 181
-4.99 -16.05 -0.85 176 176 176
-4.99 -16.14 -0.85 170 170 168
-4.99 -16.22 -0.85 167 167 165
-4.99 -16.31 -0.85 163 163 161
-4.99 -16.39 -0.85 158 158 156
-4.99 -16.48 -0.85 155 156 151
-4.99 -16.56 -0.85 154 155 150
-4.84 -16.68 -1.01 154 156 151
-4.84 -16.77 -1.01 151 153 148
-4.84 -16.85 -1.01 150 152 149
-4.84 -16.94 -1.01 149 151 148
-4.84 -17.02 -1.01 142 144 141
-4.84 -17.11 -1.01 121 123 122
-4.84 -17.19 -1.01 119 119 117
-4.84 -17.28 -1.01 120 116 107
-4.99 -17.32 -0.85 117 110 100
-4.99 -17.41 -0.85 101 97 86
-4.99 -17.49 -0.85 104 98 82
-4.99 -17.58 -0.85 152 145 116
-4.99 -17.66 -0.85 96 86 51
-5.12 -17.71 -0.72 13 1 0
-5.12 -17.79 -0.72 32 20 0
-5.12 -17.88 -0.72 23 13 12
-5.27 -17.92 -0.56 44 41 60
-5.39 -17.96 -0.43 62 68 104
-5.39 -18.04 -0.43 49 62 106
-5.39 -18.13 -0.43 42 59 102
-5.39 -18.21 -0.43 28 45 88
-5.39 -18.30 -0.43 14 26 66
-5.54 -18.33 -0.26 13 21 67
-5.54 -18.42 -0.26 0 2 53
-5.27 -18.59 -0.56 0 0 46
-5.12 -18.72 -0.72 95 104 143
-4.99 -18.85 -0.85 208 215 243
-4.99 -18.93 -0.85 222 229 245
-4.99 -19.01 -0.85 195 200 206
-4.99 -19.10 -0.85 198 198 196
-4.99 -19.18 -0.85 194 194 192
-4.99 -19.27 -0.85 195 193 194
-4.99 -19.35 -0.85 195 195 195
-4.99 -19.44 -0.85 196 196 198
-4.99 -19.52 -0.85 195 197 196
-4.99 -19.61 -0.85 195 197 194
-4.99 -19.69 -0.85 193 198 192
-4.84 -19.83 -1.01 196 198 193
-4.84 -19.91 -1.01 194 196 195
-4.84 -20.00 -1.01 196 196 198
-4.84 -20.08 -1.01 196 196 198
-4.84 -20.17 -1.01 197 197 199
-4.84 -20.25 -1.01 197 197 199
-4.84 -20.34 -1.01 196 196 198
-4.84 -20.42 -1.01 196 196 196
-4.84 -20.51 -1.01 196 196 196
-4.84 -20.59 -1.01 196 196 196
-4.84 -20.68 -1.01 197 197 197
-4.99 -20.71 -0.85 197 197 197
-4.99 -20.79 -0.85 197 197 197
-4.99 -20.88 -0.85 198 198 198
-4.99 -20.96 -0.85 199 199 199
-4.99 -21.05 -0.85 199 199 199
-4.99 -21.13 -0.85 200 198 199
-4.99 -21.21 -0.85 200 198 199
-4.99 -21.30 -0.85 200 198 199
-4.99 -21.38 -0.85 200 198 199
-4.99 -21.47 -0.85 199 199 199
-4.99 -21.55 -0.85 199 199 199
-4.84 -21.70 -1.01 199 199 199
-4.84 -21.78 -1.01 199 199 199
-4.84 -21.87 -1.01 198 200 199
-4.84 -21.95 -1.01 199 201 200
-4.84 -22.04 -1.01 199 201 200
-4.84 -22.12 -1.01 199 201 200
-4.84 -22.21 -1.01 196 200 199
-4.84 -22.29 -1.01 196 200 199
-4.84 -22.38 -1.01 195 199 198
-4.84 -22.46 -1.01 196 198 197
-4.84 -22.55 -1.01 197 198 200
-4.84 -22.63 -1.01 198 198 200
-4.84 -22.72 -1.01 199 199 199
-4.84 -22.80 -1.01 199 199 199
-4.84 -22.89 -1.01 199 199 199
-4.84 -22.97 -1.01 199 199 199
-4.84 -23.06 -1.01 201 200 198
-4.84 -23.14 -1.01 202 201 199
-4.84 -23.23 -1.01 202 201 199
-4.84 -23.31 -1.01 202 200 201
-4.84 -23.40 -1.01 201 199 200
-4.84 -23.48 -1.01 200 198 199
-4.69 -23.64 -1.18 201 199 200
-4.69 -23.72 -1.18 204 199 203
-4.84 -23.74 -1.01 203 198 202
-4.84 -23.82 -1.01 202 200 205
-4.84 -23.91 -1.01 203 201 206
-4.84 -23.99 -1.01 203 201 206
-4.84 -24.08 -1.01 203 201 206
-4.84 -24.16 -1.01 202 200 205
-4.84 -24.25 -1.01 201 199 204
-4.99 -24.26 -0.85 201 199 202
-4.99 -24.35 -0.85 201 199 202
-4.99 -24.43 -0.85 203 201 204
-4.99 -24.52 -0.85 203 201 204
-4.99 -24.60 -0.85 203 201 202
-4.99 -24.68 -0.85 202 200 201
-4.99 -24.77 -0.85 202 200 201
-4.99 -24.85 -0.85 202 200 201
-4.99 -24.94 -0.85 202 201 199
-4.84 -25.10 -1.01 202 201 199
-4.84 -25.18 -1.01 205 201 200
-4.84 -25.27 -1.01 204 200 199
-4.69 -25.43 -1.18 203 199 198
-4.69 -25.52 -1.18 203 199 198
-4.84 -25.52 -1.01 203 199 198
-4.84 -25.61 -1.01 203 199 198
-4.84 -25.69 -1.01 203 199 198
-4.84 -25.78 -1.01 202 198 197
-4.84 -25.86 -1.01 202 198 197
-4.84 -25.95 -1.01 203 199 198
-4.84 -26.03 -1.01 203 199 198
-4.99 -26.04 -0.85 204 200 199
-4.84 -26.20 -1.01 206 202 201
-4.84 -26.29 -1.01 207 203 202
-4.84 -26.37 -1.01 207 203 202
-4.84 -26.46 -1.01 205 203 204
-4.84 -26.54 -1.01 207 205 206
-4.84 -26.63 -1.01 207 205 206
-4.84 -26.71 -1.01 206 204 205
-4.84 -26.80 -1.01 208 204 205
-4.84 -26.88 -1.01 210 206 207
-4.84 -26.97 -1.01 209 205 206
-4.84 -27.05 -1.01 207 203 204
-4.84 -27.31 -1.01 210 204 206
-4.84 -27.39 -1.01 213 204 207
-4.84 -27.48 -1.01 213 204 207
-4.84 -27.56 -1.01 213 204 207
-4.84 -27.65 -1.01 212 203 206
-4.84 -27.73 -1.01 210 204 204
-4.84 -27.82 -1.01 210 204 204
-4.84 -27.90 -1.01 211 205 205
-4.84 -27.99 -1.01 210 204 204
-4.84 -28.07 -1.01 210 204 204
-4.84 -28.16 -1.01 211 205 205
-4.84 -28.24 -1.01 212 206 206
-4.84 -28.33 -1.01 213 207 207
-4.84 -28.41 -1.01 213 207 207
-4.84 -28.50 -1.01 214 208 208
-4.84 -28.58 -1.01 215 209 209
-4.84 -28.67 -1.01 216 210 210
-4.84 -28.75 -1.01 216 210 210
-4.84 -28.84 -1.01 215 209 209
-4.84 -28.92 -1.01 215 209 209
-4.84 -29.01 -1.01 214 208 210
-4.99 -29.00 -0.85 217 208 211
-4.99 -29.08 -0.85 218 209 214
-4.99 -29.17 -0.85 216 210 212
-4.99 -29.25 -0.85 214 208 210
-4.99 -29.34 -0.85 213 207 209
-4.99 -29.42 -0.85 212 206 206
-4.84 -29.60 -1.01 212 206 206
-4.84 -29.69 -1.01 211 202 203
-4.84 -29.77 -1.01 218 208 209
-4.84 -29.86 -1.01 214 204 205
-4.84 -29.94 -1.01 172 157 160
-4.84 -30.03 -1.01 83 68 73
-4.84 -30.11 -1.01 107 90 96
-4.84 -30.20 -1.01 109 89 98
-4.84 -30.28 -1.01 109 89 98
-5.03 20.00 -0.93 0 0 0
-4.88 20.03 -1.09 0 0 0
-4.88 19.94 -1.09 0 0 0
-4.88 19.86 -1.09 0 0 0
-4.88 19.77 -1.09 0 0 0
-4.88 19.69 -1.09 0 0 0
-4.88 19.60 -1.09 0 0 0
-4.88 19.52 -1.09 0 0 0
-4.88 19.43 -1.09 0 0 0
-4.88 19.35 -1.09 126 120 104
-4.88 19.26 -1.09 126 120 104
-4.88 19.18 -1.09 126 120 104
-4.88 19.09 -1.09 125 119 105
-4.88 19.01 -1.09 126 120 106
-4.88 18.92 -1.09 127 121 109
-4.88 18.84 -1.09 128 121 111
-4.88 18.75 -1.09 128 121 111
-4.88 18.67 -1.09 127 120 112
-4.88 18.58 -1.09 126 119 113
-4.88 18.50 -1.09 125 118 112
-4.88 18.41 -1.09 125 118 112
-4.88 18.33 -1.09 127 120 114
-4.88 18.24 -1.09 128 121 115
-4.88 18.16 -1.09 128 121 115
-4.88 18.07 -1.09 127 120 114
-4.88 17.99 -1.09 125 118 112
-4.88 17.90 -1.09 131 124 116
-4.88 17.82 -1.09 129 122 114
-4.88 17.73 -1.09 129 120 115
-4.88 17.65 -1.09 132 122 120
-4.88 17.39 -1.09 130 120 119
-4.88 17.31 -1.09 127 119 117
-4.88 17.22 -1.09 130 122 120
-4.88 17.14 -1.09 130 125 122
-4.88 17.05 -1.09 129 124 121
-4.88 16.97 -1.09 128 125 120
-4.88 16.88 -1.09 130 127 122
-4.88 16.80 -1.09 131 128 123
-4.88 16.71 -1.09 130 127 122
-4.88 16.63 -1.09 130 127 118
-4.88 16.54 -1.09 132 129 120
-4.88 16.46 -1.09 132 128 117
-5.03 16.27 -0.93 130 126 115
-5.03 16.19 -0.93 132 125 115
-5.03 16.10 -0.93 135 128 118
-5.03 16.02 -0.93 137 130 120
-5.03 15.93 -0.93 136 129 119
-5.03 15.85 -0.93 135 126 119
-5.03 15.76 -0.93 136 127 120
-5.03 15.68 -0.93 136 127 122
-4.88 15.69 -1.09 135 126 121
-4.88 15.61 -1.09 138 130 127
-4.88 15.52 -1.09 138 130 128
-4.88 15.44 -1.09 137 128 129
-4.88 15.35 -1.09 133 129 130
-4.73 15.37 -1.25 134 129 133
-4.73 15.28 -1.25 134 130 131
-4.88 15.10 -1.09 133 129 130
-4.88 15.01 -1.09 131 127 128
-4.88 14.93 -1.09 131 127 128
-4.88 14.84 -1.09 133 129 128
-4.88 14.76 -1.09 134 130 129
-4.88 14.67 -1.09 132 128 125
-4.88 14.59 -1.09 133 129 126
-4.88 14.50 -1.09 135 131 128
-4.88 14.42 -1.09 136 132 129
-4.88 14.33 -1.09 135 132 127
-4.88 14.25 -1.09 134 131 126
-4.88 14.16 -1.09 134 131 126
-4.88 14.08 -1.09 135 130 126
-4.88 13.99 -1.09 137 132 129
-4.88 13.91 -1.09 138 130 128
-4.88 13.82 -1.09 139 131 129
-5.03 13.65 -0.93 139 131 129
-5.03 13.56 -0.93 140 132 129
-4.88 13.57 -1.09 138 133 129
-4.88 13.48 -1.09 138 133 129
-4.88 13.40 -1.09 139 134 130
-4.88 13.31 -1.09 140 135 131
-4.88 13.23 -1.09 142 137 134
-4.88 13.14 -1.09 142 137 134
-4.88 13.06 -1.09 140 136 133
-4.88 12.97 -1.09 140 136 133
-4.88 12.89 -1.09 141 137 136
-4.88 12.80 -1.09 142 138 137
-5.03 12.63 -0.93 137 136 131
-5.03 12.55 -0.93 137 136 131
-5.03 12.46 -0.93 140 136 133
-5.03 12.38 -0.93 141 137 134
-5.03 12.30 -0.93 143 138 135
-5.03 12.21 -0.93 143 138 135
-5.03 12.13 -0.93 145 137 135
-5.03 12.04 -0.93 146 138 136
-5.03 11.96 -0.93 149 139 138
-4.88 11.96 -1.09 148 138 137
-4.88 11.87 -1.09 147 139 136
-4.88 11.79 -1.09 146 138 135
-4.88 11.70 -1.09 147 140 134
-4.88 11.62 -1.09 148 141 135
-4.88 11.53 -1.09 148 144 135
-4.73 11.53 -1.25 145 143 131
-4.73 11.44 -1.25 147 145 132
-4.73 11.36 -1.25 147 145 132
-4.73 11.27 -1.25 146 144 131
-4.73 11.18 -1.25 144 142 130
-4.73 11.10 -1.25 143 141 129
-4.73 11.01 -1.25 145 142 133
-4.73 10.93 -1.25 146 143 134
-4.73 10.84 -1.25 146 143 134
-4.73 10.76 -1.25 146 143 134
-4.73 10.67 -1.25 146 143 136
-4.88 10.51 -1.09 146 143 136
-4.88 10.43 -1.09 146 143 136
-4.88 10.34 -1.09 145 142 135
-4.88 10.26 -1.09 141 141 133
-4.88 10.17 -1.09 143 140 133
-4.88 10.09 -1.09 144 141 132
-4.88 10.00 -1.09 146 142 133
-4.88 9.92 -1.09 148 144 135
-4.88 9.83 -1.09 149 145 136
-4.88 9.75 -1.09 148 145 136
-4.88 9.66 -1.09 148 145 136
-4.88 9.58 -1.09 149 146 139
-4.88 9.49 -1.09 146 145 140
-5.03 9.33 -0.93 151 150 145
-5.03 9.25 -0.93 145 146 141
-5.03 9.16 -0.93 147 148 143
-5.16 9.02 -0.79 150 152 147
-5.16 8.94 -0.79 144 146 141
-5.16 8.85 -0.79 144 146 143
-5.16 8.77 -0.79 150 152 151
-5.31 8.61 -0.63 150 150 150
-5.31 8.53 -0.63 136 136 138
-5.31 8.45 -0.63 127 127 129
-5.31 8.36 -0.63 127 127 129
-5.43 8.22 -0.50 129 129 131
-5.43 8.14 -0.50 132 132 134
-5.43 8.05 -0.50 131 131 131
-5.43 7.97 -0.50 124 124 124
-5.43 7.89 -0.50 129 129 129
-5.43 7.80 -0.50 128 128 128
-5.43 7.72 -0.50 128 128 126
-5.43 7.64 -0.50 130 130 128
-5.43 7.55 -0.50 133 133 131
-5.43 7.47 -0.50 135 135 133
-5.43 7.39 -0.50 135 136 131
-5.43 7.30 -0.50 133 135 132
-5.58 7.15 -0.34 135 141 139
-5.58 7.07 -0.34 135 139 138
-5.58 6.99 -0.34 134 138 137
-5.58 6.90 -0.34 134 136 133
-5.58 6.82 -0.34 132 134 131
-5.58 6.74 -0.34 131 131 129
-5.58 6.65 -0.34 130 130 128
-5.58 6.57 -0.34 127 127 125
-5.58 6.49 -0.34 128 128 126
-5.71 6.35 -0.20 128 128 126
-5.71 6.27 -0.20 125 125 123
-5.71 6.19 -0.20 120 122 121
-5.71 6.11 -0.20 115 117 116
-5.71 6.02 -0.20 111 115 116
-5.71 5.94 -0.20 110 114 115
-5.71 5.86 -0.20 113 117 120
-5.71 5.77 -0.20 109 113 116
-5.71 5.69 -0.20 104 105 109
-5.71 5.61 -0.20 97 98 102
-5.71 5.52 -0.20 92 93 95
-5.71 5.44 -0.20 92 93 95
-5.71 5.36 -0.20 96 97 99
-5.71 5.28 -0.20 100 101 103
-5.71 5.19 -0.20 107 107 109
-5.71 5.11 -0.20 125 125 127
-5.71 5.03 -0.20 128 128 130
-5.86 4.89 -0.04 129 129 129
-5.86 4.81 -0.04 136 136 136
-5.86 4.72 -0.04 145 145 145
-5.86 4.64 -0.04 152 150 151
-5.86 4.56 -0.04 149 148 146
-5.86 4.48 -0.04 155 151 150
-5.86 4.39 -0.04 158 158 156
-5.86 4.31 -0.04 165 165 163
-5.86 4.23 -0.04 166 171 167
-5.86 4.15 -0.04 168 173 169
-5.86 4.06 -0.04 167 173 171
-5.86 3.98 -0.04 166 172 170
-5.86 3.90 -0.04 164 173 172
-5.86 3.82 -0.04 164 173 172
-5.86 3.73 -0.04 162 171 170
-5.86 3.65 -0.04 162 168 168
-5.86 3.57 -0.04 161 166 169
-5.86 3.49 -0.04 164 168 171
-5.98 3.36 0.09 168 172 175
-5.98 3.28 0.09 171 175 178
-5.98 3.20 0.09 160 166 166
-5.98 3.12 0.09 159 165 165
-5.98 3.03 0.09 156 164 166
-5.98 2.95 0.09 155 165 167
-5.98 2.87 0.09 155 165 167
-5.98 2.79 0.09 154 163 168
-5.98 2.70 0.09 152 161 166
-5.98 2.62 0.09 152 160 163
-5.98 2.54 0.09 163 168 172
-5.86 2.49 -0.04 163 169 169
-5.71 2.45 -0.20 160 161 163
-5.71 2.37 -0.20 182 184 181
-5.58 2.32 -0.34 188 188 186
-5.31 2.32 -0.63 176 175 171
-5.16 2.28 -0.79 153 152 148
-5.16 2.19 -0.79 166 168 163
-5.03 2.14 -0.93 165 167 162
-5.03 2.06 -0.93 162 163 158
-5.03 1.97 -0.93 161 162 157
-4.88 1.93 -1.09 164 164 162
-4.88 1.84 -1.09 161 161 159
-4.88 1.76 -1.09 159 159 159
-4.88 1.67 -1.09 163 163 163
-4.73 1.63 -1.25 161 161 161
-4.73 1.54 -1.25 162 162 162
-4.88 1.42 -1.09 160 161 163
-4.88 1.33 -1.09 159 160 162
-4.88 1.25 -1.09 159 160 162
-4.88 1.16 -1.09 156 160 161
-4.88 1.08 -1.09 153 157 158
-4.88 0.99 -1.09 155 157 156
-4.88 0.91 -1.09 155 157 156
-4.88 0.82 -1.09 154 156 155
-4.88 0.74 -1.09 154 156 155
-4.88 0.65 -1.09 154 156 155
-4.88 0.57 -1.09 154 156 155
-4.73 0.52 -1.25 153 158 154
-4.73 0.43 -1.25 153 158 154
-4.73 0.35 -1.25 152 157 153
-4.73 0.26 -1.25 151 156 152
-4.88 0.14 -1.09 150 155 151
-4.88 0.06 -1.09 150 155 151
-4.88 -0.03 -1.09 150 155 149
-4.73 -0.08 -1.25 150 155 149
-4.73 -0.17 -1.25 150 155 149
-4.88 -0.28 -1.09 151 156 149
-4.88 -0.37 -1.09 148 156 145
-4.88 -0.45 -1.09 150 158 145
-5.03 -0.57 -0.93 151 159 146
-5.03 -0.65 -0.93 152 160 147
-5.03 -0.74 -0.93 152 160 149
-4.88 -0.79 -1.09 158 166 155
-4.88 -0.88 -1.09 161 169 158
-4.88 -0.96 -1.09 160 167 159
-4.88 -1.05 -1.09 160 167 159
-4.88 -1.13 -1.09 160 167 160
-4.88 -1.22 -1.09 161 168 161
-4.88 -1.30 -1.09 161 168 161
-4.88 -1.39 -1.09 161 168 161
-4.73 -1.45 -1.25 161 168 161
-4.73 -1.53 -1.25 161 167 163
-4.73 -1.62 -1.25 161 170 165
-4.73 -1.70 -1.25 160 169 166
-4.73 -1.79 -1.25 159 168 165
-4.73 -1.87 -1.25 159 168 165
-4.73 -1.96 -1.25 162 168 166
-4.73 -2.04 -1.25 162 168 166
-4.73 -2.13 -1.25 162 168 166
-4.73 -2.22 -1.25 162 168 166
-4.73 -2.30 -1.25 162 168 166
-4.73 -2.39 -1.25 162 168 166
-4.73 -2.47 -1.25 163 167 166
-4.88 -2.58 -1.09 163 167 166
-4.88 -2.66 -1.09 162 166 165
-4.88 -2.75 -1.09 162 166 165
-4.88 -2.83 -1.09 161 165 164
-4.88 -2.92 -1.09 161 167 163
-4.88 -3.00 -1.09 160 166 162
-4.88 -3.09 -1.09 160 166 162
-4.73 -3.15 -1.25 159 165 161
-4.73 -3.24 -1.25 159 165 161
-4.73 -3.32 -1.25 159 165 161
-4.73 -3.41 -1.25 160 166 162
-4.88 -3.51 -1.09 160 166 162
-4.88 -3.60 -1.09 160 166 162
-4.88 -3.68 -1.09 161 167 163
-4.73 -3.75 -1.25 163 168 164
-4.73 -3.84 -1.25 165 167 164
-4.73 -3.92 -1.25 164 166 163
-4.73 -4.01 -1.25 165 165 163
-4.73 -4.09 -1.25 166 166 164
-4.88 -4.53 -1.09 160 166 162
-4.88 -4.62 -1.09 161 167 163
-4.88 -4.70 -1.09 162 168 164
-4.88 -4.79 -1.09 163 169 165
-4.88 -4.87 -1.09 163 168 164
-4.88 -4.96 -1.09 162 167 163
-4.88 -5.04 -1.09 162 166 165
-5.03 -5.14 -0.93 162 166 165
-5.03 -5.22 -0.93 163 167 166
-4.88 -5.30 -1.09 164 168 167
-4.88 -5.38 -1.09 165 169 168
-4.88 -5.47 -1.09 166 170 169
-4.88 -5.55 -1.09 165 169 168
-4.88 -5.64 -1.09 167 171 170
-4.88 -5.72 -1.09 146 150 149
-4.88 -5.81 -1.09 182 186 185
-4.88 -5.89 -1.09 250 254 253
-4.88 -5.98 -1.09 249 253 252
-4.88 -6.06 -1.09 251 255 252
-4.88 -6.15 -1.09 245 250 246
-4.88 -6.23 -1.09 250 255 251
-4.88 -6.32 -1.09 247 252 248
-5.03 -6.58 -0.93 245 251 247
-5.03 -6.66 -0.93 248 254 250
-5.03 -6.74 -0.93 249 255 251
-5.03 -6.83 -0.93 244 250 246
-5.03 -6.91 -0.93 249 255 253
-5.03 -7.00 -0.93 250 255 254
-5.03 -7.08 -0.93 246 252 250
-5.03 -7.17 -0.93 245 251 249
-5.03 -7.25 -0.93 248 254 252
-5.03 -7.34 -0.93 249 255 253
-5.03 -7.42 -0.93 247 253 251
-5.03 -7.51 -0.93 246 252 250
-5.03 -7.59 -0.93 242 248 246
-5.03 -7.68 -0.93 246 252 250
-5.03 -7.76 -0.93 250 255 254
-5.03 -7.84 -0.93 246 252 250
-5.03 -7.93 -0.93 243 249 247
-5.03 -8.01 -0.93 245 251 249
-5.03 -8.10 -0.93 247 253 251
-5.03 -8.18 -0.93 244 250 246
-5.03 -8.27 -0.93 243 249 245
-4.88 -8.36 -1.09 244 250 246
-4.88 -8.44 -1.09 246 252 248
-4.88 -8.53 -1.09 242 248 246
-5.03 -8.61 -0.93 238 244 242
-5.03 -8.69 -0.93 238 244 244
-5.03 -8.78 -0.93 243 249 249
-5.03 -8.86 -0.93 251 255 255
-5.03 -8.94 -0.93 209 214 218
-4.88 -9.04 -1.09 166 171 175
-4.88 -9.12 -1.09 147 152 158
-4.88 -9.21 -1.09 158 163 169
-4.88 -9.29 -1.09 170 175 181
-4.88 -9.38 -1.09 172 177 181
-4.88 -9.46 -1.09 173 179 179
-4.88 -9.55 -1.09 170 176 174
-5.03 -9.62 -0.93 168 174 172
-5.03 -9.71 -0.93 168 174 172
-5.03 -9.79 -0.93 172 176 175
-5.03 -9.88 -0.93 174 178 177
-5.03 -9.96 -0.93 174 178 177
-5.03 -10.04 -0.93 172 176 175
-5.03 -10.13 -0.93 170 176 174
-5.03 -10.21 -0.93 174 180 178
-4.88 -10.31 -1.09 174 183 180
-4.88 -10.40 -1.09 173 182 179
-4.88 -10.48 -1.09 170 181 177
-4.88 -10.57 -1.09 169 180 176
-4.88 -10.65 -1.09 167 179 175
-5.03 -10.72 -0.93 167 178 174
-5.03 -10.81 -0.93 171 182 178
-5.03 -10.89 -0.93 164 170 168
-5.03 -10.98 -0.93 159 163 162
-5.03 -11.06 -0.93 158 160 159
-5.03 -11.14 -0.93 159 161 160
-5.03 -11.23 -0.93 154 158 157
-5.03 -11.31 -0.93 154 158 157
-5.16 -11.38 -0.79 147 156 153
-5.16 -11.47 -0.79 149 158 155
-5.16 -11.55 -0.79 147 157 156
-5.16 -11.64 -0.79 147 156 155
-5.31 -11.70 -0.63 149 158 157
-5.31 -11.79 -0.63 154 160 160
-5.43 -11.85 -0.50 152 156 157
-5.43 -11.94 -0.50 146 150 151
-5.43 -12.02 -0.50 141 145 148
-5.43 -12.11 -0.50 142 146 149
-5.31 -12.21 -0.63 143 147 150
-5.31 -12.29 -0.63 140 144 147
-5.16 -12.40 -0.79 138 142 143
-5.16 -12.48 -0.79 137 141 142
-5.16 -12.56 -0.79 141 145 144
-5.16 -12.65 -0.79 145 149 148
-5.16 -12.73 -0.79 150 155 151
-5.03 -12.84 -0.93 149 154 150
-5.03 -12.92 -0.93 153 158 152
-5.03 -13.01 -0.93 170 175 168
-5.03 -13.09 -0.93 168 173 166
-5.03 -13.18 -0.93 163 168 161
-5.03 -13.26 -0.93 163 168 162
-5.03 -13.34 -0.93 149 151 146
-5.03 -13.43 -0.93 132 134 131
-5.03 -13.51 -0.93 118 123 119
-5.03 -13.60 -0.93 120 125 121
-5.03 -13.68 -0.93 123 129 127
-5.03 -13.77 -0.93 132 138 136
-5.03 -13.85 -0.93 149 158 157
-5.03 -13.94 -0.93 169 178 177
-5.03 -14.02 -0.93 178 186 188
-5.03 -14.11 -0.93 163 171 173
-4.88 -14.22 -1.09 120 128 130
-4.88 -14.31 -1.09 46 54 56
-4.88 -14.39 -1.09 0 2 5
-4.88 -14.48 -1.09 0 1 4
-4.88 -14.56 -1.09 6 12 12
-4.88 -14.65 -1.09 20 24 27
-4.88 -14.73 -1.09 40 44 47
-4.88 -14.82 -1.09 50 51 56
-4.88 -14.90 -1.09 52 56 59
-4.88 -14.99 -1.09 50 54 57
-4.88 -15.07 -1.09 44 48 51
-4.88 -15.16 -1.09 23 29 29
-4.88 -15.24 -1.09 0 5 5
-4.88 -15.33 -1.09 0 2 2
-4.88 -15.41 -1.09 11 17 17
-5.03 -15.46 -0.93 57 61 60
-5.03 -15.55 -0.93 125 129 128
-5.03 -15.63 -0.93 188 190 189
-5.03 -15.71 -0.93 219 221 220
-5.03 -15.80 -0.93 223 225 222
-5.03 -15.88 -0.93 218 218 216
-5.03 -15.97 -0.93 199 199 199
-5.03 -16.05 -0.93 193 191 192
-5.03 -16.14 -0.93 188 187 185
-5.03 -16.22 -0.93 187 186 184
-5.03 -16.31 -0.93 184 184 182
-5.03 -16.39 -0.93 178 178 176
-5.03 -16.48 -0.93 170 171 166
-5.03 -16.56 -0.93 165 166 161
-5.03 -16.65 -0.93 157 158 153
-5.03 -16.73 -0.93 152 153 148
-5.03 -16.81 -0.93 148 148 146
-5.03 -16.90 -0.93 147 147 145
-4.88 -17.02 -1.09 141 143 140
-4.88 -17.11 -1.09 125 127 126
-4.88 -17.19 -1.09 126 125 123
-5.03 -17.24 -0.93 128 116 116
-5.03 -17.32 -0.93 121 107 106
-5.16 -17.37 -0.79 102 94 91
-5.16 -17.46 -0.79 101 97 85
-5.16 -17.54 -0.79 140 139 111
-5.16 -17.62 -0.79 44 42 4
-5.16 -17.71 -0.79 8 3 0
-5.16 -17.79 -0.79 36 30 0
-5.31 -17.83 -0.63 15 7 0
-5.43 -17.88 -0.50 38 32 42
-5.58 -17.92 -0.34 58 62 87
-5.58 -18.00 -0.34 60 68 104
-5.58 -18.08 -0.34 67 79 117
-5.58 -18.17 -0.34 58 70 112
-5.58 -18.25 -0.34 68 75 121
-5.58 -18.33 -0.34 30 36 84
-5.71 -18.37 -0.20 6 16 65
-5.58 -18.50 -0.34 0 0 42
-5.31 -18.67 -0.63 0 0 32
-5.16 -18.80 -0.79 63 74 94
-5.03 -18.93 -0.93 193 202 207
-5.03 -19.01 -0.93 230 236 234
-5.03 -19.10 -0.93 185 186 180
-5.03 -19.18 -0.93 194 195 189
-5.03 -19.27 -0.93 194 193 191
-5.03 -19.35 -0.93 193 193 193
-5.03 -19.44 -0.93 194 194 196
-5.03 -19.52 -0.93 195 196 198
-5.03 -19.61 -0.93 197 199 198
-5.03 -19.69 -0.93 194 199 195
-5.03 -19.78 -0.93 195 197 194
-5.03 -19.86 -0.93 195 197 196
-5.03 -19.95 -0.93 196 196 198
-5.03 -20.03 -0.93 196 196 198
-5.03 -20.11 -0.93 196 196 198
-5.03 -20.20 -0.93 196 196 198
-5.03 -20.28 -0.93 196 196 198
-5.03 -20.37 -0.93 197 197 197
-5.03 -20.45 -0.93 197 197 197
-5.03 -20.54 -0.93 194 194 194
-5.03 -20.62 -0.93 195 195 195
-5.03 -20.71 -0.93 196 196 196
-5.03 -20.79 -0.93 198 198 198
-5.03 -20.88 -0.93 199 199 199
-5.03 -20.96 -0.93 199 199 199
-5.03 -21.05 -0.93 200 200 200
-5.03 -21.13 -0.93 199 197 198
-5.03 -21.21 -0.93 199 197 198
-5.03 -21.30 -0.93 200 198 199
-5.03 -21.38 -0.93 200 198 199
-5.03 -21.47 -0.93 200 200 200
-5.03 -21.55 -0.93 200 200 200
-5.03 -21.64 -0.93 200 200 200
-4.88 -21.78 -1.09 200 200 200
-5.03 -21.81 -0.93 198 200 199
-5.03 -21.89 -0.93 199 201 200
-5.03 -21.98 -0.93 199 201 200
-5.03 -22.06 -0.93 199 201 200
-5.03 -22.15 -0.93 197 201 200
-4.88 -22.29 -1.09 196 200 199
-4.88 -22.38 -1.09 194 198 197
-4.88 -22.46 -1.09 196 198 197
-4.88 -22.55 -1.09 199 200 202
-4.88 -22.63 -1.09 201 201 203
-4.88 -22.72 -1.09 201 201 201
-4.88 -22.80 -1.09 200 200 200
-4.88 -22.89 -1.09 200 199 197
-4.88 -22.97 -1.09 199 198 196
-5.03 -22.99 -0.93 200 199 197
-5.03 -23.08 -0.93 201 200 198
-5.03 -23.16 -0.93 200 199 197
-5.03 -23.25 -0.93 202 201 199
-5.03 -23.33 -0.93 199 198 196
-5.03 -23.41 -0.93 199 195 196
-4.88 -23.57 -1.09 199 195 196
-4.88 -23.65 -1.09 201 196 200
-4.88 -23.74 -1.09 202 197 203
-5.03 -23.75 -0.93 203 201 206
-5.03 -23.84 -0.93 203 200 207
-5.03 -23.92 -0.93 203 201 206
-5.03 -24.01 -0.93 202 200 205
-5.03 -24.09 -0.93 201 199 204
-5.03 -24.18 -0.93 201 199 204
-5.03 -24.26 -0.93 201 199 202
-5.03 -24.35 -0.93 202 200 203
-5.03 -24.43 -0.93 202 200 203
-5.03 -24.52 -0.93 202 200 203
-5.03 -24.60 -0.93 201 199 200
-5.03 -24.68 -0.93 201 199 200
-5.03 -24.77 -0.93 201 199 200
-5.03 -24.85 -0.93 201 199 200
-5.03 -24.94 -0.93 202 201 199
-5.03 -25.02 -0.93 202 201 199
-5.03 -25.11 -0.93 205 201 200
-5.03 -25.19 -0.93 204 200 199
-4.88 -25.35 -1.09 204 200 199
-4.88 -25.44 -1.09 204 200 199
-4.88 -25.52 -1.09 204 200 199
-5.03 -25.53 -0.93 205 201 200
-5.03 -25.62 -0.93 205 201 200
-5.03 -25.70 -0.93 203 199 198
-5.03 -25.78 -0.93 204 200 199
-5.03 -25.87 -0.93 204 200 199
-5.03 -25.95 -0.93 204 200 199
-5.03 -26.04 -0.93 204 200 199
-5.03 -26.12 -0.93 204 200 199
-5.03 -26.21 -0.93 206 202 201
-5.03 -26.29 -0.93 207 203 202
-5.03 -26.38 -0.93 201 199 200
-5.03 -26.46 -0.93 205 203 204
-5.03 -26.55 -0.93 206 204 205
-5.03 -26.63 -0.93 205 203 204
-5.03 -26.72 -0.93 206 202 203
-5.03 -26.80 -0.93 208 204 205
-5.03 -26.88 -0.93 209 205 206
-5.03 -26.97 -0.93 209 205 206
-5.03 -27.05 -0.93 212 206 208
-5.03 -27.14 -0.93 212 206 208
-5.03 -27.22 -0.93 211 205 207
-5.03 -27.31 -0.93 212 203 206
-5.03 -27.39 -0.93 211 202 205
-5.03 -27.48 -0.93 210 201 204
-5.03 -27.56 -0.93 209 200 203
-5.03 -27.65 -0.93 211 205 205
-5.03 -27.73 -0.93 211 205 205
-5.03 -27.82 -0.93 211 205 205
-5.03 -27.90 -0.93 209 203 203
-5.03 -27.98 -0.93 209 203 203
-5.03 -28.07 -0.93 209 203 203
-5.03 -28.15 -0.93 212 206 206
-5.03 -28.24 -0.93 215 209 209
-5.03 -28.32 -0.93 212 206 206
-5.03 -28.41 -0.93 213 207 207
-5.03 -28.49 -0.93 214 208 208
-5.03 -28.58 -0.93 215 209 209
-5.03 -28.66 -0.93 217 208 209
-5.03 -28.92 -0.93 215 206 209
-5.03 -29.00 -0.93 215 206 209
-5.03 -29.08 -0.93 216 207 212
-5.03 -29.17 -0.93 215 209 211
-5.03 -29.25 -0.93 214 208 210
-5.03 -29.34 -0.93 214 208 210
-5.03 -29.42 -0.93 213 207 207
-4.88 -29.60 -1.09 213 207 207
-4.88 -29.69 -1.09 211 202 203
-5.03 -29.68 -0.93 215 205 206
-5.03 -29.76 -0.93 227 217 218
-5.03 -29.85 -0.93 184 169 172
-5.03 -29.93 -0.93 104 89 94
-5.03 -30.02 -0.93 106 89 95
-5.03 -30.10 -0.93 116 97 103
-5.03 -30.18 -0.93 103 86 92
-5.08 20.00 -1.00 0 0 0
-5.08 19.91 -1.00 0 0 0
-4.93 19.94 -1.16 0 0 0
-4.93 19.86 -1.16 0 0 0
-5.08 19.66 -1.00 0 0 0
-5.08 19.57 -1.00 0 0 0
-5.08 19.49 -1.00 0 0 0
-5.08 19.40 -1.00 0 0 0
-4.93 19.43 -1.16 0 0 0
-4.93 19.35 -1.16 125 118 112
-4.93 19.26 -1.16 125 118 112
-4.93 19.18 -1.16 125 118 112
-4.93 19.09 -1.16 126 119 113
-4.93 19.01 -1.16 127 120 114
-4.93 18.92 -1.16 128 121 115
-4.93 18.84 -1.16 128 121 115
-4.93 18.75 -1.16 129 120 115
-4.93 18.67 -1.16 128 119 114
-4.93 18.58 -1.16 130 121 116
-4.93 18.50 -1.16 129 120 115
-4.93 18.41 -1.16 128 119 114
-4.93 18.33 -1.16 126 117 112
-4.93 18.24 -1.16 127 116 112
-4.93 18.16 -1.16 129 118 114
-4.93 18.07 -1.16 130 119 113
-5.08 17.88 -1.00 131 120 114
-5.08 17.80 -1.00 128 121 111
-5.08 17.71 -1.00 127 120 110
-5.08 17.63 -1.00 127 120 112
-4.93 17.65 -1.16 132 125 119
-4.93 17.39 -1.16 128 121 115
-4.93 17.31 -1.16 127 119 116
-4.93 17.22 -1.16 128 120 117
-4.93 17.14 -1.16 131 123 120
-4.93 17.05 -1.16 132 124 121
-4.93 16.97 -1.16 133 126 120
-4.93 16.88 -1.16 133 126 120
-4.93 16.80 -1.16 133 126 120
-4.93 16.71 -1.16 134 127 121
-4.93 16.63 -1.16 135 126 117
-4.93 16.54 -1.16 135 126 117
-4.93 16.46 -1.16 135 126 117
-5.08 16.27 -1.00 135 126 117
-5.08 16.19 -1.00 135 126 117
-5.08 16.10 -1.00 135 126 117
-5.08 16.02 -1.00 134 127 117
-5.08 15.93 -1.00 134 127 119
-5.08 15.85 -1.00 132 128 119
-5.08 15.76 -1.00 132 127 121
-5.08 15.68 -1.00 133 128 124
-5.08 15.60 -1.00 134 129 125
-5.08 15.51 -1.00 134 130 127
-5.08 15.43 -1.00 134 130 129
-5.08 15.34 -1.00 136 130 130
-5.08 15.26 -1.00 135 129 129
-5.08 15.17 -1.00 138 129 130
-4.93 15.18 -1.16 139 131 129
-4.93 15.10 -1.16 139 131 129
-5.08 14.92 -1.00 139 131 129
-5.08 14.83 -1.00 138 130 128
-5.08 14.75 -1.00 138 130 127
-5.08 14.66 -1.00 138 130 127
-5.08 14.58 -1.00 137 129 126
-4.93 14.59 -1.16 137 129 126
-4.93 14.50 -1.16 137 132 129
-5.08 14.33 -1.00 137 132 129
-5.08 14.24 -1.00 137 132 129
-5.08 14.16 -1.00 137 132 129
-5.08 14.07 -1.00 135 129 129
-5.08 13.99 -1.00 134 128 128
-5.08 13.90 -1.00 140 131 134
-5.08 13.82 -1.00 140 131 134
-5.08 13.73 -1.00 139 130 133
-5.08 13.65 -1.00 137 128 131
-5.08 13.56 -1.00 139 130 131
-5.08 13.48 -1.00 140 135 132
-5.08 13.40 -1.00 138 133 130
-4.93 13.40 -1.16 138 133 130
-4.93 13.31 -1.16 140 135 132
-4.93 13.23 -1.16 141 136 132
-5.08 13.06 -1.00 141 136 132
-5.08 12.97 -1.00 139 136 129
-5.08 12.89 -1.00 139 136 129
-5.08 12.80 -1.00 139 136 129
-5.08 12.72 -1.00 141 138 131
-5.08 12.63 -1.00 144 141 134
-5.08 12.55 -1.00 140 137 130
-5.08 12.46 -1.00 140 135 131
-5.20 12.31 -0.87 143 138 134
-5.20 12.22 -0.87 145 137 134
-5.20 12.14 -0.87 143 135 132
-5.20 12.06 -0.87 145 135 134
-5.08 12.04 -1.00 149 139 138
-5.08 11.96 -1.00 148 138 137
-5.08 11.87 -1.00 148 138 137
-5.08 11.79 -1.00 147 138 139
-5.08 11.70 -1.00 147 138 139
-5.08 11.62 -1.00 147 138 139
-5.08 11.53 -1.00 146 137 138
-4.93 11.53 -1.16 143 137 137
-4.93 11.45 -1.16 146 139 133
-4.93 11.36 -1.16 147 140 132
-4.93 11.28 -1.16 148 141 133
-4.93 11.19 -1.16 149 142 134
-4.93 11.11 -1.16 147 143 134
-4.93 11.02 -1.16 147 143 134
-4.93 10.94 -1.16 148 143 137
-4.93 10.85 -1.16 149 144 138
-4.93 10.77 -1.16 148 145 138
-4.93 10.68 -1.16 148 145 138
-4.93 10.60 -1.16 148 145 136
-4.93 10.51 -1.16 147 144 135
-5.08 10.35 -1.00 143 143 133
-5.08 10.26 -1.00 142 142 132
-5.08 10.18 -1.00 144 144 134
-5.08 10.10 -1.00 145 145 137
-5.08 10.01 -1.00 145 144 139
-5.08 9.93 -1.00 145 144 140
-5.08 9.84 -1.00 145 144 139
-5.08 9.76 -1.00 146 145 140
-4.93 9.75 -1.16 147 147 139
-4.93 9.66 -1.16 148 147 142
-4.93 9.58 -1.16 149 148 143
-5.08 9.42 -1.00 147 146 144
-5.08 9.33 -1.00 148 146 147
-5.08 9.25 -1.00 149 147 150
-5.08 9.16 -1.00 150 148 151
-5.20 9.02 -0.87 151 150 148
-5.20 8.94 -0.87 152 151 149
-5.20 8.85 -0.87 153 152 147
-5.20 8.77 -0.87 153 152 148
-5.35 8.61 -0.70 154 156 153
-5.35 8.53 -0.70 144 146 145
-5.35 8.45 -0.70 127 129 128
-5.35 8.36 -0.70 129 131 130
-5.35 8.28 -0.70 127 128 130
-5.35 8.19 -0.70 132 133 135
-5.47 8.05 -0.57 125 126 128
-5.47 7.97 -0.57 126 127 129
-5.35 7.94 -0.70 130 132 131
-5.35 7.86 -0.70 128 130 129
-5.47 7.72 -0.57 127 129 128
-5.47 7.64 -0.57 128 130 129
-5.47 7.55 -0.57 129 131 128
-5.47 7.47 -0.57 128 130 127
-5.47 7.39 -0.57 128 130 125
-5.47 7.30 -0.57 129 131 126
-5.47 7.22 -0.57 129 129 127
-5.47 7.13 -0.57 129 129 127
-5.62 6.99 -0.41 131 131 129
-5.62 6.90 -0.41 133 133 131
-5.62 6.82 -0.41 134 134 132
-5.62 6.74 -0.41 134 134 132
-5.62 6.65 -0.41 133 133 131
-5.62 6.57 -0.41 133 133 131
-5.62 6.49 -0.41 135 135 133
-5.62 6.40 -0.41 135 135 133
-5.62 6.32 -0.41 135 135 133
-5.75 6.19 -0.27 137 137 135
-5.75 6.11 -0.27 140 140 138
-5.75 6.02 -0.27 141 141 139
-5.75 5.94 -0.27 139 139 137
-5.75 5.86 -0.27 140 142 141
-5.75 5.77 -0.27 140 142 141
-5.75 5.69 -0.27 141 142 144
-5.75 5.61 -0.27 141 142 144
-5.75 5.52 -0.27 140 141 145
-5.75 5.44 -0.27 138 139 143
-5.75 5.36 -0.27 136 137 142
-5.75 5.28 -0.27 135 136 141
-5.75 5.19 -0.27 135 134 140
-5.75 5.11 -0.27 128 127 132
-5.75 5.03 -0.27 126 125 130
-5.75 4.94 -0.27 124 123 128
-5.90 4.81 -0.11 121 120 125
-5.90 4.72 -0.11 117 117 119
-5.90 4.64 -0.11 112 114 113
-5.75 4.61 -0.27 115 122 114
-5.75 4.53 -0.27 114 124 113
-5.75 4.45 -0.27 114 126 116
-5.75 4.36 -0.27 116 127 119
-5.75 4.28 -0.27 120 131 123
-5.75 4.20 -0.27 125 136 132
-5.75 4.11 -0.27 130 139 136
-5.75 4.03 -0.27 132 141 140
-5.90 3.90 -0.11 145 151 151
-5.90 3.82 -0.11 145 151 151
-5.90 3.73 -0.11 148 152 151
-5.90 3.65 -0.11 153 155 154
-5.90 3.57 -0.11 156 158 155
-5.90 3.49 -0.11 159 159 157
-5.90 3.40 -0.11 160 159 155
-6.02 3.28 0.02 159 158 154
-6.02 3.20 0.02 161 162 154
-6.02 3.12 0.02 164 165 159
-6.02 3.03 0.02 167 168 162
-6.02 2.95 0.02 173 173 173
-6.02 2.87 0.02 175 175 177
-6.02 2.79 0.02 175 176 178
-6.02 2.70 0.02 175 176 178
-6.02 2.62 0.02 173 175 174
-5.90 2.58 -0.11 169 171 170
-5.90 2.49 -0.11 168 173 169
-5.75 2.45 -0.27 166 171 167
-5.75 2.37 -0.27 168 172 171
-5.62 2.32 -0.41 171 175 176
-5.35 2.32 -0.70 162 166 167
-5.20 2.28 -0.87 157 161 162
-5.20 2.19 -0.87 159 164 158
-5.20 2.11 -0.87 159 164 157
-5.08 2.06 -1.00 158 165 158
-5.08 1.97 -1.00 158 165 158
-5.08 1.89 -1.00 157 163 159
-4.93 1.84 -1.16 157 163 159
-4.93 1.76 -1.16 157 163 161
-4.93 1.67 -1.16 157 163 161
-4.93 1.59 -1.16 158 162 161
-4.93 1.50 -1.16 158 162 161
-4.93 1.42 -1.16 161 163 162
-4.93 1.33 -1.16 160 162 161
-4.93 1.25 -1.16 158 158 156
-4.93 1.16 -1.16 157 156 152
-4.93 1.08 -1.16 156 155 153
-4.93 0.99 -1.16 156 156 154
-4.93 0.91 -1.16 156 156 156
-4.93 0.82 -1.16 157 157 157
-4.93 0.74 -1.16 156 156 156
-4.93 0.65 -1.16 154 156 155
-4.93 0.57 -1.16 153 155 154
-4.93 0.48 -1.16 152 154 153
-4.93 0.40 -1.16 151 153 152
-4.93 0.31 -1.16 152 154 153
-4.93 0.23 -1.16 152 154 153
-4.93 0.14 -1.16 152 154 153
-4.93 0.06 -1.16 151 153 152
-4.93 -0.03 -1.16 151 153 152
-4.93 -0.11 -1.16 151 153 152
-4.93 -0.20 -1.16 152 154 153
-4.93 -0.28 -1.16 152 154 151
-4.93 -0.37 -1.16 149 154 148
-5.08 -0.48 -1.00 149 154 147
-5.08 -0.57 -1.00 150 155 148
-5.08 -0.65 -1.00 152 157 150
-5.08 -0.74 -1.00 152 157 150
-5.08 -0.82 -1.00 156 161 155
-5.08 -0.91 -1.00 161 166 160
-5.08 -0.99 -1.00 160 165 159
-5.08 -1.07 -1.00 161 166 160
-5.08 -1.16 -1.00 163 168 162
-4.93 -1.22 -1.16 163 168 162
-4.93 -1.30 -1.16 163 168 162
-4.93 -1.39 -1.16 162 167 161
-4.93 -1.47 -1.16 162 167 161
-4.93 -1.56 -1.16 161 166 160
-4.93 -1.64 -1.16 162 168 158
-4.93 -1.73 -1.16 162 168 158
-4.93 -1.81 -1.16 161 167 157
-4.93 -1.90 -1.16 162 168 158
-4.93 -1.98 -1.16 163 168 161
-4.93 -2.07 -1.16 162 167 160
-4.93 -2.15 -1.16 161 166 159
-4.78 -2.22 -1.32 160 165 158
-4.78 -2.30 -1.32 164 169 163
-4.93 -2.41 -1.16 162 167 161
-4.93 -2.49 -1.16 161 166 162
-4.93 -2.58 -1.16 161 166 162
-4.93 -2.66 -1.16 163 168 164
-4.93 -2.75 -1.16 164 169 165
-4.93 -2.83 -1.16 162 166 165
-4.93 -2.92 -1.16 164 166 163
-4.93 -3.00 -1.16 164 166 163
-4.93 -3.09 -1.16 162 167 163
-4.93 -3.17 -1.16 163 168 164
-4.93 -3.26 -1.16 160 169 164
-4.93 -3.34 -1.16 160 169 164
-4.93 -3.43 -1.16 158 169 163
-4.93 -3.51 -1.16 158 169 163
-4.93 -3.60 -1.16 157 168 164
-4.93 -3.68 -1.16 156 167 163
-4.93 -3.77 -1.16 156 165 162
-4.93 -3.85 -1.16 158 164 162
-4.93 -3.94 -1.16 159 165 163
-4.93 -4.02 -1.16 161 165 164
-4.93 -4.11 -1.16 164 166 165
-4.93 -4.53 -1.16 165 167 162
-4.93 -4.62 -1.16 165 167 162
-5.08 -4.71 -1.00 165 167 162
-5.08 -4.80 -1.00 164 169 163
-5.08 -4.88 -1.00 163 168 164
-5.08 -4.97 -1.00 164 169 165
-5.08 -5.05 -1.00 164 170 166
-5.08 -5.14 -1.00 170 176 172
-5.08 -5.22 -1.00 160 166 164
-5.08 -5.31 -1.00 168 174 172
