ply
format ascii 1.0
element vertex 1649
property float x
property float y
property float z
property uchar red
property uchar green
property uchar blue
end_header
12.50 -2.48 0.25 44 119 158
12.50 -2.59 0.25 42 118 154
12.24 -2.73 0.43 48 122 161
12.24 -2.84 0.43 55 120 158
12.24 -2.95 0.43 66 121 152
14.43 22.00 -1.23 67 68 63
14.43 21.89 -1.23 66 66 66
14.43 21.77 -1.23 53 54 59
14.43 21.66 -1.23 71 71 81
14.43 21.55 -1.23 113 112 126
14.43 21.43 -1.23 127 127 137
14.43 21.32 -1.23 136 138 135
14.43 21.20 -1.23 132 135 126
14.43 21.09 -1.23 130 133 124
14.43 20.98 -1.23 132 135 126
14.43 20.86 -1.23 134 135 127
14.43 20.75 -1.23 134 134 124
14.43 20.63 -1.23 135 135 125
14.43 20.52 -1.23 137 137 129
14.43 20.40 -1.23 136 136 128
14.43 20.29 -1.23 136 135 130
14.43 20.18 -1.23 136 135 130
14.43 20.06 -1.23 136 135 131
14.43 19.95 -1.23 136 135 131
14.43 19.83 -1.23 135 135 133
14.43 19.72 -1.23 135 135 133
14.43 19.61 -1.23 137 137 135
14.43 19.49 -1.23 137 137 135
14.75 19.53 -1.45 138 137 133
14.75 19.42 -1.45 138 137 133
14.75 19.31 -1.45 138 137 132
14.75 19.19 -1.45 138 137 132
14.75 19.08 -1.45 139 136 129
14.75 18.96 -1.45 139 136 129
14.43 18.69 -1.23 139 139 131
14.43 18.58 -1.23 140 140 132
14.43 18.47 -1.23 139 140 134
14.43 18.35 -1.23 139 140 134
14.43 18.24 -1.23 137 139 134
14.43 18.12 -1.23 137 139 134
14.43 18.01 -1.23 137 139 136
14.43 17.90 -1.23 138 140 139
14.43 17.78 -1.23 138 138 138
14.43 17.67 -1.23 138 138 136
14.43 17.55 -1.23 138 138 136
14.43 17.44 -1.23 138 137 133
14.43 17.32 -1.23 138 137 133
14.43 17.21 -1.23 140 137 132
14.43 17.10 -1.23 140 137 132
14.43 16.98 -1.23 140 139 134
14.43 16.87 -1.23 139 138 133
14.43 16.75 -1.23 138 139 133
14.43 16.64 -1.23 139 140 134
14.43 16.53 -1.23 140 143 136
14.43 16.41 -1.23 140 143 136
14.43 16.30 -1.23 137 142 136
14.43 16.18 -1.23 138 140 137
14.43 16.07 -1.23 139 141 138
14.43 15.96 -1.23 139 139 139
14.43 15.84 -1.23 138 138 136
14.43 15.73 -1.23 139 139 137
14.43 15.61 -1.23 140 141 136
14.43 15.50 -1.23 141 142 137
14.43 15.39 -1.23 141 142 134
14.43 15.27 -1.23 140 141 133
14.43 15.16 -1.23 141 142 134
14.43 15.04 -1.23 140 142 131
14.43 14.93 -1.23 138 140 129
14.43 14.81 -1.23 137 139 128
14.15 14.58 -1.03 137 139 128
14.15 14.47 -1.03 137 138 130
14.15 14.36 -1.03 136 138 127
14.43 14.36 -1.23 138 140 127
14.15 14.13 -1.03 138 140 126
14.15 14.02 -1.03 138 140 126
14.15 13.90 -1.03 139 141 127
14.15 13.79 -1.03 139 141 128
14.15 13.68 -1.03 139 141 128
14.15 13.56 -1.03 138 141 130
14.15 13.45 -1.03 138 141 130
14.15 13.34 -1.03 140 143 134
14.15 13.22 -1.03 139 142 133
14.15 13.11 -1.03 139 142 133
14.15 12.99 -1.03 139 142 133
14.43 12.99 -1.23 141 144 133
14.43 12.88 -1.23 141 144 133
14.43 12.76 -1.23 139 145 133
14.75 12.76 -1.45 140 143 132
14.75 12.65 -1.45 141 143 132
14.75 12.54 -1.45 143 144 136
14.75 12.42 -1.45 143 144 136
15.04 12.41 -1.65 142 143 135
15.04 12.29 -1.65 141 142 134
15.04 12.18 -1.65 141 144 137
15.36 12.18 -1.87 142 145 138
15.36 12.06 -1.87 145 150 144
15.36 11.94 -1.87 145 150 144
15.36 11.83 -1.87 145 151 147
15.36 11.71 -1.87 147 153 149
15.36 11.60 -1.87 149 158 155
15.36 11.48 -1.87 152 161 158
15.36 11.36 -1.87 153 164 160
15.36 11.25 -1.87 155 164 161
15.36 11.13 -1.87 164 173 168
15.36 11.02 -1.87 170 176 172
15.36 10.90 -1.87 163 172 169
15.36 10.78 -1.87 151 160 157
15.36 10.67 -1.87 143 155 153
15.36 10.55 -1.87 135 147 145
15.36 10.44 -1.87 107 121 121
15.36 10.32 -1.87 79 93 93
15.64 10.30 -2.07 58 76 76
15.64 10.18 -2.07 39 57 59
15.64 10.06 -2.07 35 53 55
15.64 9.95 -2.07 36 56 57
15.64 9.83 -2.07 40 60 61
15.64 9.71 -2.07 43 63 64
15.64 9.60 -2.07 41 64 70
15.64 9.48 -2.07 42 74 87
15.64 9.36 -2.07 42 78 100
15.64 9.25 -2.07 43 82 111
15.64 8.90 -2.07 41 87 136
15.64 8.78 -2.07 39 90 137
15.64 8.66 -2.07 38 88 137
15.64 8.55 -2.07 37 88 133
15.64 8.43 -2.07 40 91 136
15.64 8.31 -2.07 43 92 133
15.64 8.20 -2.07 41 90 133
15.36 8.00 -1.87 38 86 134
15.36 7.88 -1.87 38 85 137
15.36 7.77 -1.87 38 87 145
15.36 7.65 -1.87 42 88 147
15.36 7.54 -1.87 36 83 137
15.36 7.42 -1.87 37 84 138
15.36 7.30 -1.87 35 86 139
15.36 7.19 -1.87 31 91 145
15.36 7.07 -1.87 32 93 150
15.36 6.96 -1.87 33 95 152
15.36 6.84 -1.87 34 96 155
15.36 6.72 -1.87 32 92 152
15.36 6.61 -1.87 36 95 155
15.36 6.49 -1.87 39 98 158
15.36 6.37 -1.87 39 95 156
15.36 6.26 -1.87 37 92 149
15.36 6.14 -1.87 37 92 149
15.36 6.03 -1.87 37 92 148
15.36 5.91 -1.87 37 94 149
15.36 5.79 -1.87 36 96 150
15.36 5.68 -1.87 37 98 152
15.36 5.56 -1.87 36 98 149
15.36 5.45 -1.87 34 96 147
15.36 5.33 -1.87 34 96 145
15.36 5.21 -1.87 35 97 146
15.36 5.10 -1.87 36 98 147
15.36 4.98 -1.87 36 98 147
15.04 4.80 -1.65 33 95 144
15.04 4.68 -1.65 34 96 145
15.04 4.57 -1.65 35 99 147
15.04 4.45 -1.65 36 100 148
15.04 4.33 -1.65 33 99 149
15.04 4.22 -1.65 32 99 151
15.04 4.10 -1.65 34 100 152
15.04 3.99 -1.65 40 102 151
15.04 3.87 -1.65 41 101 151
15.04 3.76 -1.65 40 100 150
15.04 3.64 -1.65 39 99 149
14.75 3.47 -1.45 37 97 149
14.75 3.36 -1.45 38 98 150
14.75 3.24 -1.45 40 100 152
14.75 3.13 -1.45 42 102 154
14.75 3.01 -1.45 38 100 151
14.75 2.90 -1.45 37 99 150
14.75 2.78 -1.45 36 102 152
14.43 2.61 -1.23 35 101 151
14.43 2.49 -1.23 33 100 152
14.43 2.38 -1.23 36 103 155
14.43 2.27 -1.23 35 105 156
14.43 2.15 -1.23 30 100 152
14.43 2.04 -1.23 35 102 155
14.43 1.92 -1.23 36 103 158
14.43 1.81 -1.23 38 105 160
14.43 1.70 -1.23 39 106 161
14.43 1.58 -1.23 38 108 160
14.43 1.47 -1.23 37 108 160
14.15 1.31 -1.03 37 108 160
14.15 1.19 -1.03 36 108 158
14.15 1.08 -1.03 37 109 159
14.15 0.97 -1.03 38 112 161
14.15 0.85 -1.03 38 112 161
14.15 0.74 -1.03 35 112 158
14.15 0.63 -1.03 35 112 158
13.86 0.47 -0.83 35 112 158
13.86 0.36 -0.83 36 113 159
13.57 0.20 -0.63 41 116 158
13.57 0.09 -0.63 41 116 158
13.57 -0.02 -0.63 42 116 161
13.57 -0.13 -0.63 41 115 162
13.57 -0.25 -0.63 41 115 162
13.28 -0.40 -0.43 41 115 164
13.28 -0.51 -0.43 43 116 167
13.28 -0.62 -0.43 44 117 168
13.28 -0.73 -0.43 42 115 166
13.28 -0.84 -0.43 42 115 166
13.02 -0.99 -0.25 44 118 167
13.02 -1.10 -0.25 45 119 168
13.02 -1.21 -0.25 46 120 167
13.28 -1.29 -0.43 44 118 165
13.02 -1.43 -0.25 39 114 156
13.02 -1.54 -0.25 44 120 156
13.02 -1.65 -0.25 40 118 154
13.02 -1.76 -0.25 38 117 156
12.73 -1.90 -0.05 36 117 160
12.73 -2.02 -0.05 39 118 161
12.73 -2.13 -0.05 39 116 162
12.44 -2.26 0.16 39 114 156
12.44 -2.37 0.16 37 110 155
12.44 -2.48 0.16 33 107 152
12.44 -2.59 0.16 40 114 161
12.44 -2.70 0.16 44 117 162
12.19 -2.84 0.34 53 118 158
12.19 -2.95 0.34 71 124 155
14.38 22.00 -1.33 61 62 57
14.09 21.73 -1.13 61 61 61
14.09 21.62 -1.13 74 74 76
14.09 21.51 -1.13 110 109 115
14.38 21.55 -1.33 139 139 147
14.38 21.43 -1.33 132 133 138
14.38 21.32 -1.33 130 132 127
14.38 21.20 -1.33 129 132 123
14.38 21.09 -1.33 129 132 121
14.38 20.98 -1.33 131 134 123
14.38 20.86 -1.33 133 135 124
14.38 20.75 -1.33 135 135 125
14.38 20.63 -1.33 137 137 127
14.38 20.52 -1.33 137 137 129
14.38 20.40 -1.33 136 136 128
14.38 20.29 -1.33 136 135 130
14.38 20.18 -1.33 136 135 130
14.38 20.06 -1.33 136 135 131
14.38 19.95 -1.33 136 135 131
14.38 19.83 -1.33 135 135 133
14.38 19.72 -1.33 135 135 133
14.38 19.61 -1.33 137 137 135
14.38 19.49 -1.33 137 137 135
14.38 19.38 -1.33 138 139 134
14.38 19.26 -1.33 138 139 134
14.38 19.15 -1.33 139 138 133
14.38 19.04 -1.33 138 137 132
14.38 18.92 -1.33 138 138 130
14.38 18.81 -1.33 138 138 130
14.38 18.69 -1.33 139 139 131
14.38 18.58 -1.33 138 138 130
14.38 18.47 -1.33 137 138 132
14.38 18.35 -1.33 138 139 133
14.38 18.24 -1.33 139 141 136
14.38 18.12 -1.33 139 141 136
14.38 18.01 -1.33 137 139 136
14.38 17.90 -1.33 138 140 139
14.38 17.78 -1.33 139 139 139
14.09 17.53 -1.13 139 139 137
14.09 17.42 -1.13 139 139 137
14.38 17.44 -1.33 139 138 134
14.38 17.32 -1.33 139 138 134
14.38 17.21 -1.33 139 138 133
14.38 17.10 -1.33 139 138 133
14.38 16.98 -1.33 140 139 134
14.38 16.87 -1.33 140 139 134
14.38 16.75 -1.33 139 140 134
14.38 16.64 -1.33 139 140 134
14.38 16.53 -1.33 140 143 136
14.38 16.41 -1.33 140 143 136
14.38 16.30 -1.33 140 143 136
14.38 16.18 -1.33 139 141 136
14.38 16.07 -1.33 141 142 137
14.38 15.96 -1.33 139 139 137
14.38 15.84 -1.33 138 139 134
14.38 15.73 -1.33 139 140 135
14.38 15.61 -1.33 140 141 135
14.38 15.50 -1.33 141 142 136
14.38 15.39 -1.33 141 142 134
14.38 15.27 -1.33 140 141 133
14.38 15.16 -1.33 141 142 134
14.09 14.92 -1.13 140 141 133
14.09 14.81 -1.13 138 139 131
14.09 14.70 -1.13 138 139 131
14.09 14.58 -1.13 138 139 131
14.09 14.47 -1.13 138 139 131
14.09 14.36 -1.13 137 138 130
14.09 14.24 -1.13 140 142 129
14.09 14.13 -1.13 139 141 128
14.09 14.02 -1.13 139 141 128
14.09 13.90 -1.13 139 141 128
14.09 13.79 -1.13 139 141 130
14.09 13.68 -1.13 139 141 130
14.09 13.56 -1.13 139 142 133
14.09 13.45 -1.13 139 142 133
14.09 13.34 -1.13 140 143 134
14.09 13.22 -1.13 139 142 133
14.09 13.11 -1.13 139 142 133
14.09 12.99 -1.13 140 143 134
14.09 12.88 -1.13 142 145 136
14.38 12.88 -1.33 143 146 137
14.38 12.76 -1.33 141 147 137
14.38 12.65 -1.33 143 146 137
14.38 12.53 -1.33 144 146 135
14.38 12.42 -1.33 145 146 138
14.69 12.42 -1.55 146 147 139
14.69 12.31 -1.55 144 145 137
14.98 12.29 -1.75 144 145 137
14.98 12.18 -1.75 144 147 140
14.98 12.06 -1.75 145 148 141
15.30 12.06 -1.97 144 146 141
15.30 11.94 -1.97 144 146 141
15.30 11.83 -1.97 142 148 144
15.30 11.71 -1.97 143 149 145
15.30 11.60 -1.97 143 152 147
15.30 11.48 -1.97 145 154 149
15.30 11.36 -1.97 145 156 152
15.30 11.25 -1.97 146 155 152
15.30 11.13 -1.97 138 147 142
15.30 11.02 -1.97 145 151 147
15.30 10.90 -1.97 147 156 151
15.30 10.78 -1.97 149 158 155
15.30 10.67 -1.97 153 164 160
15.30 10.55 -1.97 160 170 169
15.30 10.44 -1.97 159 173 173
15.30 10.32 -1.97 157 171 171
15.30 10.20 -1.97 167 183 183
15.30 10.09 -1.97 155 171 171
15.59 10.06 -2.17 144 160 160
15.59 9.95 -2.17 128 144 144
15.59 9.83 -2.17 107 123 123
15.59 9.71 -2.17 86 102 101
15.59 9.60 -2.17 67 88 91
15.59 9.48 -2.17 39 69 80
15.59 9.36 -2.17 32 69 88
15.59 9.25 -2.17 28 65 91
15.59 9.13 -2.17 23 64 96
15.59 9.01 -2.17 22 66 105
15.59 8.90 -2.17 25 72 116
15.59 8.78 -2.17 29 78 121
15.59 8.66 -2.17 29 80 125
15.59 8.55 -2.17 26 79 119
15.59 8.43 -2.17 32 85 125
15.59 8.31 -2.17 36 91 132
15.59 8.20 -2.17 38 92 138
15.30 8.00 -1.97 35 93 141
15.30 7.88 -1.97 36 93 148
15.30 7.77 -1.97 32 92 152
15.30 7.65 -1.97 34 90 151
15.30 7.54 -1.97 40 92 150
15.59 7.50 -2.17 40 91 148
15.59 7.38 -2.17 38 90 148
15.59 7.26 -2.17 29 88 144
15.30 7.07 -1.97 30 89 145
15.30 6.96 -1.97 33 92 148
15.30 6.84 -1.97 37 93 150
15.30 6.72 -1.97 35 91 148
15.30 6.61 -1.97 37 89 147
15.30 6.49 -1.97 35 87 144
15.30 6.37 -1.97 36 87 144
15.30 6.26 -1.97 39 91 148
15.30 6.14 -1.97 42 94 151
15.30 5.79 -1.97 33 93 143
15.30 5.68 -1.97 35 96 143
15.30 5.56 -1.97 35 96 143
15.30 5.45 -1.97 35 96 143
15.30 5.33 -1.97 37 95 145
15.30 5.21 -1.97 38 96 146
15.30 5.10 -1.97 37 93 144
15.30 4.98 -1.97 34 90 141
15.30 4.87 -1.97 35 90 144
14.98 4.68 -1.75 35 90 144
14.98 4.57 -1.75 34 91 144
14.98 4.45 -1.75 34 91 144
14.98 4.33 -1.75 36 96 148
14.98 4.22 -1.75 40 100 154
14.98 4.10 -1.75 43 103 157
14.98 3.99 -1.75 38 98 148
14.98 3.87 -1.75 38 98 148
14.98 3.76 -1.75 39 99 149
14.98 3.64 -1.75 38 98 148
14.69 3.47 -1.55 37 97 149
14.69 3.36 -1.55 37 97 149
14.69 3.24 -1.55 37 97 149
14.69 3.13 -1.55 38 98 150
14.69 3.01 -1.55 34 96 147
14.69 2.90 -1.55 34 96 147
14.69 2.78 -1.55 36 99 150
14.38 2.61 -1.33 38 101 152
14.38 2.49 -1.33 35 101 153
14.38 2.38 -1.33 39 105 157
14.38 2.27 -1.33 40 107 159
14.38 2.15 -1.33 35 102 154
14.38 2.04 -1.33 38 103 157
14.38 1.92 -1.33 37 102 156
14.38 1.81 -1.33 35 102 155
14.38 1.70 -1.33 35 102 155
14.38 1.58 -1.33 36 103 156
14.38 1.47 -1.33 37 107 158
14.09 1.31 -1.13 38 108 159
14.09 1.19 -1.13 36 108 158
14.09 1.08 -1.13 37 109 159
14.09 0.97 -1.13 37 111 158
14.09 0.85 -1.13 38 112 159
14.09 0.74 -1.13 37 111 158
14.09 0.63 -1.13 37 111 158
13.80 0.47 -0.93 38 112 157
13.80 0.36 -0.93 39 113 158
13.51 0.20 -0.72 41 116 158
13.51 0.09 -0.72 41 116 158
13.51 -0.02 -0.72 41 115 160
13.51 -0.13 -0.72 40 114 161
13.51 -0.25 -0.72 40 114 161
13.23 -0.40 -0.52 41 115 164
13.23 -0.51 -0.52 43 116 167
13.23 -0.62 -0.52 44 117 168
13.23 -0.73 -0.52 40 113 164
13.23 -0.84 -0.52 41 114 165
13.23 -0.95 -0.52 42 116 165
12.97 -1.10 -0.34 44 118 167
13.23 -1.18 -0.52 45 119 166
13.23 -1.29 -0.52 45 119 166
12.97 -1.43 -0.34 41 116 158
12.97 -1.54 -0.34 43 117 156
12.97 -1.65 -0.34 42 117 156
12.68 -1.79 -0.14 39 116 160
12.68 -1.90 -0.14 36 114 160
12.68 -2.02 -0.14 36 114 160
12.68 -2.13 -0.14 36 113 159
12.39 -2.26 0.06 38 112 157
12.39 -2.37 0.06 39 112 157
12.39 -2.48 0.06 36 110 157
12.39 -2.59 0.06 42 116 163
12.39 -2.70 0.06 46 119 162
12.13 -2.84 0.24 57 122 160
12.13 -2.95 0.24 73 127 155
14.03 21.85 -1.23 55 54 52
14.03 21.73 -1.23 80 79 77
14.03 21.62 -1.23 111 111 111
14.03 21.51 -1.23 131 131 131
14.03 21.39 -1.23 137 137 137
14.03 21.28 -1.23 126 126 124
14.03 21.17 -1.23 128 131 122
14.03 21.05 -1.23 128 131 120
14.03 20.94 -1.23 132 134 123
14.03 20.82 -1.23 133 135 124
14.03 20.71 -1.23 134 134 124
14.03 20.60 -1.23 136 136 126
14.32 20.63 -1.43 139 139 129
14.32 20.52 -1.43 139 136 129
14.03 20.26 -1.23 139 136 131
14.03 20.14 -1.23 137 136 131
14.03 20.03 -1.23 137 136 132
14.03 19.92 -1.23 137 136 134
14.03 19.80 -1.23 137 136 134
14.03 19.69 -1.23 136 136 136
14.03 19.58 -1.23 136 136 136
14.32 19.61 -1.43 137 139 136
14.32 19.49 -1.43 137 139 136
14.32 19.38 -1.43 138 139 134
14.32 19.26 -1.43 138 139 134
14.32 19.15 -1.43 138 139 133
14.32 19.04 -1.43 138 139 133
14.32 18.92 -1.43 137 138 130
14.32 18.81 -1.43 137 138 130
14.32 18.69 -1.43 139 140 132
14.03 18.44 -1.23 137 138 130
14.03 18.33 -1.23 136 137 131
14.03 18.21 -1.23 137 138 132
14.03 18.10 -1.23 139 141 136
14.03 17.99 -1.23 140 142 137
14.03 17.87 -1.23 137 139 136
14.03 17.76 -1.23 138 140 137
14.03 17.65 -1.23 140 140 138
14.03 17.53 -1.23 141 140 138
14.03 17.42 -1.23 141 140 138
14.03 17.31 -1.23 141 140 136
14.03 17.19 -1.23 140 139 135
14.03 17.08 -1.23 139 139 131
14.03 16.97 -1.23 139 139 131
14.03 16.85 -1.23 140 140 132
14.03 16.74 -1.23 140 140 132
14.03 16.63 -1.23 139 140 132
14.03 16.51 -1.23 140 141 133
14.03 16.40 -1.23 140 143 134
14.32 16.41 -1.43 140 143 134
14.32 16.30 -1.43 140 143 134
14.32 16.18 -1.43 139 142 133
14.32 16.07 -1.43 144 145 139
14.32 15.96 -1.43 143 144 138
14.32 15.84 -1.43 142 143 137
14.32 15.73 -1.43 141 142 136
14.03 15.49 -1.23 142 143 135
14.03 15.38 -1.23 143 144 136
14.03 15.26 -1.23 143 144 136
14.03 15.15 -1.23 141 142 134
14.03 15.04 -1.23 142 143 135
14.03 14.92 -1.23 141 142 134
14.03 14.81 -1.23 140 141 133
14.03 14.70 -1.23 139 140 134
14.03 14.58 -1.23 140 141 135
14.03 14.47 -1.23 140 141 135
14.03 14.36 -1.23 138 139 133
14.03 14.24 -1.23 141 143 132
14.03 14.13 -1.23 140 142 131
14.03 14.02 -1.23 139 140 132
14.03 13.90 -1.23 139 140 132
14.03 13.79 -1.23 140 141 135
14.03 13.68 -1.23 141 142 136
14.03 13.56 -1.23 142 145 138
14.03 13.45 -1.23 143 146 139
14.03 13.34 -1.23 142 145 138
14.03 13.22 -1.23 142 145 138
14.03 13.11 -1.23 142 145 138
14.03 12.99 -1.23 142 145 138
14.03 12.88 -1.23 143 146 137
14.03 12.77 -1.23 145 148 139
14.03 12.65 -1.23 143 149 139
14.03 12.54 -1.23 144 150 140
14.03 12.43 -1.23 144 147 136
14.32 12.42 -1.43 147 148 140
14.32 12.31 -1.43 147 148 140
14.32 12.19 -1.43 146 147 139
14.64 12.19 -1.65 146 147 139
14.64 12.08 -1.65 147 148 142
14.64 11.96 -1.65 148 149 143
14.92 11.95 -1.85 145 147 142
14.92 11.83 -1.85 145 147 142
15.24 11.83 -2.07 143 148 142
15.24 11.71 -2.07 144 149 143
15.24 11.60 -2.07 141 150 145
15.24 11.48 -2.07 142 151 146
15.24 11.36 -2.07 142 151 146
15.24 11.25 -2.07 143 152 147
15.24 11.13 -2.07 153 159 155
15.24 11.02 -2.07 151 157 153
15.24 10.90 -2.07 149 158 153
15.24 10.78 -2.07 149 158 153
15.24 10.67 -2.07 144 155 151
15.24 10.55 -2.07 140 151 147
15.24 10.44 -2.07 141 153 151
15.24 10.32 -2.07 146 158 156
15.24 10.20 -2.07 140 155 152
15.24 10.09 -2.07 144 159 156
15.24 9.97 -2.07 150 165 162
15.53 9.95 -2.27 159 171 169
15.53 9.83 -2.27 164 176 174
15.53 9.71 -2.27 168 180 176
15.53 9.60 -2.27 171 181 173
15.53 9.48 -2.27 168 168 158
15.53 9.36 -2.27 162 160 148
15.53 9.25 -2.27 143 143 135
15.53 9.13 -2.27 121 123 118
15.53 9.01 -2.27 99 103 104
15.53 8.90 -2.27 81 86 90
15.53 8.78 -2.27 63 73 75
15.24 8.58 -2.07 54 63 68
15.24 8.46 -2.07 40 54 57
15.24 8.35 -2.07 43 58 63
15.24 8.23 -2.07 45 62 69
15.24 8.12 -2.07 47 67 78
15.24 8.00 -2.07 47 73 88
15.24 7.88 -2.07 50 78 100
15.24 7.77 -2.07 50 82 107
15.24 7.65 -2.07 45 83 120
15.24 7.54 -2.07 37 83 133
15.53 7.50 -2.27 34 84 143
15.53 7.38 -2.27 35 87 144
15.24 7.19 -2.07 34 90 141
15.24 7.07 -2.07 36 89 141
15.24 6.96 -2.07 38 92 139
15.24 6.84 -2.07 42 92 141
15.24 6.72 -2.07 36 86 135
15.53 6.68 -2.27 38 86 135
15.53 6.56 -2.27 37 87 138
15.53 6.45 -2.27 39 89 140
15.53 6.33 -2.27 41 94 146
15.53 6.21 -2.27 39 94 148
15.24 5.79 -2.07 35 95 145
15.24 5.68 -2.07 34 94 144
15.24 5.56 -2.07 33 90 143
15.24 5.45 -2.07 31 88 143
15.24 5.33 -2.07 34 89 145
15.24 5.21 -2.07 39 94 151
15.24 5.10 -2.07 42 94 154
15.24 4.98 -2.07 41 93 153
15.24 4.87 -2.07 41 91 154
14.92 4.68 -1.85 41 91 154
14.92 4.57 -1.85 42 92 155
14.92 4.45 -1.85 41 91 154
14.92 4.33 -1.85 39 91 151
14.92 4.22 -1.85 39 91 149
14.92 4.10 -1.85 37 92 149
14.92 3.99 -1.85 35 95 147
14.92 3.87 -1.85 35 97 148
14.92 3.76 -1.85 37 97 149
14.92 3.64 -1.85 37 97 149
14.92 3.53 -1.85 37 97 149
14.64 3.36 -1.65 36 96 148
14.64 3.24 -1.65 36 96 148
14.64 3.13 -1.65 36 96 148
14.64 3.01 -1.65 36 96 148
14.64 2.90 -1.65 35 95 147
14.64 2.78 -1.65 37 98 152
14.32 2.61 -1.43 38 99 153
14.32 2.49 -1.43 36 99 152
14.32 2.38 -1.43 38 101 154
14.32 2.27 -1.43 40 103 156
14.32 2.15 -1.43 35 98 151
14.32 2.04 -1.43 38 101 155
14.32 1.92 -1.43 36 99 153
14.32 1.81 -1.43 33 99 151
14.32 1.70 -1.43 33 99 151
14.32 1.58 -1.43 35 101 153
14.32 1.47 -1.43 36 103 155
14.03 1.31 -1.23 36 103 155
14.03 1.19 -1.23 36 106 155
14.03 1.08 -1.23 37 107 156
14.03 0.97 -1.23 37 109 157
14.03 0.85 -1.23 37 109 157
14.03 0.74 -1.23 38 111 156
14.03 0.63 -1.23 38 111 156
13.74 0.47 -1.02 39 112 157
13.74 0.36 -1.02 40 113 158
13.74 0.24 -1.02 40 113 158
13.46 0.09 -0.82 40 113 158
13.46 -0.02 -0.82 40 112 160
13.46 -0.13 -0.82 39 111 159
13.46 -0.25 -0.82 39 111 161
13.17 -0.40 -0.62 39 111 161
13.17 -0.51 -0.62 41 112 164
13.17 -0.62 -0.62 42 113 165
13.17 -0.73 -0.62 40 111 163
13.17 -0.84 -0.62 40 111 163
13.17 -0.95 -0.62 41 113 163
13.17 -1.07 -0.62 43 115 165
13.17 -1.18 -0.62 44 116 164
13.17 -1.29 -0.62 44 116 164
12.91 -1.43 -0.44 42 115 160
12.91 -1.54 -0.44 42 115 156
12.91 -1.65 -0.44 41 116 158
12.62 -1.79 -0.24 38 115 161
12.62 -1.90 -0.24 34 112 160
12.62 -2.02 -0.24 33 109 159
12.62 -2.13 -0.24 35 108 159
12.34 -2.26 -0.03 38 110 158
12.34 -2.37 -0.03 41 111 160
12.34 -2.48 -0.03 37 111 160
12.34 -2.59 -0.03 42 114 162
12.34 -2.70 -0.03 45 118 163
12.08 -2.84 0.15 57 121 159
12.08 -2.95 0.15 70 124 150
13.69 21.92 -1.12 56 55 53
13.98 21.96 -1.32 61 60 58
13.69 21.69 -1.12 76 75 71
13.69 21.58 -1.12 116 115 111
13.69 21.46 -1.12 141 140 135
13.98 21.51 -1.32 132 131 126
13.98 21.39 -1.32 128 129 121
13.98 21.28 -1.32 135 136 128
13.98 21.17 -1.32 131 133 122
13.98 21.05 -1.32 132 134 123
13.98 20.94 -1.32 134 136 125
13.98 20.82 -1.32 135 137 126
13.98 20.71 -1.32 135 135 125
13.98 20.60 -1.32 138 135 126
13.98 20.48 -1.32 140 137 128
13.98 20.37 -1.32 139 136 129
13.98 20.26 -1.32 139 136 131
13.98 20.14 -1.32 137 136 131
13.98 20.03 -1.32 138 137 133
13.98 19.92 -1.32 138 137 135
13.98 19.80 -1.32 138 137 135
13.98 19.69 -1.32 137 137 137
13.98 19.58 -1.32 137 137 137
13.98 19.46 -1.32 136 138 135
13.98 19.35 -1.32 136 138 135
13.98 19.24 -1.32 137 139 134
13.98 19.12 -1.32 137 139 134
13.98 19.01 -1.32 138 139 133
13.98 18.90 -1.32 138 139 133
13.98 18.78 -1.32 137 138 130
13.98 18.67 -1.32 137 138 130
13.98 18.56 -1.32 139 140 132
13.98 18.44 -1.32 138 139 131
13.98 18.33 -1.32 136 139 132
13.98 18.21 -1.32 137 140 133
13.98 18.10 -1.32 138 140 135
13.98 17.99 -1.32 139 141 136
13.98 17.87 -1.32 137 137 135
13.98 17.76 -1.32 139 139 137
13.98 17.65 -1.32 141 140 138
13.98 17.53 -1.32 141 140 136
13.98 17.42 -1.32 142 141 137
13.98 17.31 -1.32 141 140 135
13.98 17.19 -1.32 141 140 135
13.98 17.08 -1.32 140 140 132
13.98 16.97 -1.32 139 139 131
13.98 16.85 -1.32 139 141 130
13.98 16.74 -1.32 139 141 130
13.98 16.63 -1.32 140 142 131
13.98 16.51 -1.32 140 142 131
13.98 16.40 -1.32 141 143 132
13.98 16.29 -1.32 142 144 133
13.98 16.17 -1.32 140 143 132
14.26 16.18 -1.53 140 143 132
14.26 16.07 -1.53 144 145 137
13.98 15.83 -1.32 144 145 137
13.98 15.72 -1.32 144 145 137
13.98 15.60 -1.32 144 145 137
13.98 15.49 -1.32 144 146 135
13.98 15.38 -1.32 144 146 135
13.98 15.26 -1.32 144 146 135
13.98 15.15 -1.32 141 142 134
13.98 15.04 -1.32 142 143 135
13.98 14.92 -1.32 142 143 135
13.98 14.81 -1.32 141 142 134
13.98 14.70 -1.32 141 142 136
13.98 14.58 -1.32 142 143 137
13.98 14.47 -1.32 142 143 138
13.98 14.36 -1.32 140 141 136
13.98 14.24 -1.32 141 142 136
13.98 14.13 -1.32 140 141 135
13.98 14.02 -1.32 140 141 135
13.98 13.90 -1.32 141 142 136
13.98 13.79 -1.32 142 143 138
13.98 13.68 -1.32 143 144 139
13.98 13.56 -1.32 144 146 141
13.69 13.34 -1.12 145 147 142
13.69 13.22 -1.12 145 147 142
13.69 13.11 -1.12 145 147 142
13.69 13.00 -1.12 144 146 141
13.69 12.89 -1.12 143 145 140
13.69 12.77 -1.12 144 147 140
13.98 12.77 -1.32 145 148 141
13.98 12.65 -1.32 143 149 139
13.98 12.54 -1.32 144 150 140
13.98 12.43 -1.32 145 148 137
13.98 12.31 -1.32 147 148 140
13.98 12.20 -1.32 147 148 140
14.26 12.19 -1.53 147 148 140
14.26 12.08 -1.53 147 148 140
14.26 11.96 -1.53 148 149 143
14.26 11.85 -1.53 148 149 143
14.26 11.73 -1.53 146 149 142
14.26 11.62 -1.53 147 150 143
14.26 11.51 -1.53 146 151 145
14.87 11.60 -1.95 146 151 145
14.87 11.49 -1.95 146 153 146
14.87 11.37 -1.95 146 153 146
14.87 11.26 -1.95 144 153 148
14.87 11.14 -1.95 144 153 148
14.87 11.03 -1.95 145 152 145
14.87 10.91 -1.95 142 149 142
14.87 10.79 -1.95 141 150 145
14.87 10.68 -1.95 146 155 150
14.87 10.56 -1.95 148 157 154
15.18 10.55 -2.17 145 154 151
15.18 10.44 -2.17 143 154 150
15.18 10.32 -2.17 145 156 152
15.18 10.20 -2.17 148 159 155
15.18 10.09 -2.17 145 156 152
15.18 9.97 -2.17 143 154 150
15.18 9.86 -2.17 143 154 148
15.18 9.74 -2.17 143 154 148
15.18 9.62 -2.17 145 154 149
15.18 9.51 -2.17 144 155 151
15.18 9.39 -2.17 153 165 163
15.18 9.28 -2.17 155 169 170
15.18 9.16 -2.17 160 176 176
15.47 9.13 -2.38 167 182 187
15.47 9.01 -2.38 173 191 195
15.47 8.90 -2.38 177 194 201
15.18 8.70 -2.17 175 194 198
15.18 8.58 -2.17 172 191 195
15.18 8.46 -2.17 155 176 181
15.18 8.35 -2.17 136 159 165
15.18 8.23 -2.17 106 131 138
15.18 8.12 -2.17 71 99 111
15.18 8.00 -2.17 41 77 93
15.18 7.88 -2.17 25 63 84
15.18 7.77 -2.17 15 57 82
15.18 7.65 -2.17 6 52 86
15.18 7.54 -2.17 0 49 96
15.18 7.42 -2.17 0 52 106
15.18 7.30 -2.17 5 61 110
15.18 7.19 -2.17 25 82 127
15.18 7.07 -2.17 34 91 136
15.18 6.96 -2.17 41 96 137
15.18 6.84 -2.17 44 98 142
15.18 6.72 -2.17 34 88 132
15.47 6.68 -2.38 38 92 139
15.47 6.56 -2.38 37 95 143
15.47 6.45 -2.38 32 92 144
15.47 6.33 -2.38 24 91 144
15.47 6.21 -2.38 21 92 148
15.47 6.10 -2.38 20 95 152
15.47 5.98 -2.38 24 97 150
15.47 5.86 -2.38 25 92 137
15.47 5.75 -2.38 30 93 134
15.18 5.56 -2.17 33 94 138
15.18 5.45 -2.17 34 95 140
15.18 5.33 -2.17 37 95 141
15.18 5.21 -2.17 37 95 143
15.18 5.10 -2.17 35 91 142
15.18 4.98 -2.17 32 88 139
15.18 4.87 -2.17 36 89 141
14.87 4.68 -1.95 37 90 142
14.87 4.57 -1.95 39 93 140
14.87 4.45 -1.95 40 94 141
14.87 4.33 -1.95 41 95 139
14.87 4.22 -1.95 39 97 137
14.87 4.10 -1.95 38 97 141
14.87 3.99 -1.95 34 95 142
14.87 3.87 -1.95 34 96 147
14.87 3.76 -1.95 36 96 148
14.87 3.64 -1.95 36 96 148
14.87 3.53 -1.95 37 97 149
14.87 3.41 -1.95 36 96 148
14.58 3.24 -1.75 38 95 148
14.58 3.13 -1.75 38 95 148
14.58 3.01 -1.75 39 96 151
14.58 2.90 -1.75 36 93 148
14.58 2.78 -1.75 38 95 150
14.26 2.61 -1.53 39 96 151
14.26 2.49 -1.53 35 95 149
14.26 2.38 -1.53 37 97 151
14.26 2.27 -1.53 38 98 152
14.26 2.15 -1.53 34 94 148
14.26 2.04 -1.53 37 98 152
14.26 1.92 -1.53 36 97 151
14.26 1.81 -1.53 36 97 151
14.26 1.70 -1.53 37 98 152
14.26 1.58 -1.53 38 101 152
13.98 1.42 -1.32 35 101 151
13.98 1.31 -1.32 34 100 150
13.98 1.19 -1.32 35 103 152
13.98 1.08 -1.32 36 104 153
13.98 0.97 -1.32 38 106 153
13.98 0.85 -1.32 39 107 154
13.98 0.74 -1.32 38 109 155
13.98 0.63 -1.32 39 110 156
13.69 0.47 -1.12 39 110 156
13.69 0.36 -1.12 39 110 156
13.69 0.24 -1.12 39 109 158
13.40 0.09 -0.92 39 109 158
13.40 -0.02 -0.92 40 110 159
13.40 -0.13 -0.92 40 110 159
13.40 -0.25 -0.92 39 109 160
13.40 -0.36 -0.92 39 109 160
13.11 -0.51 -0.72 39 111 161
13.11 -0.62 -0.72 39 111 161
13.11 -0.73 -0.72 40 112 162
13.11 -0.84 -0.72 40 112 162
13.11 -0.95 -0.72 40 112 160
13.11 -1.07 -0.72 40 112 160
13.11 -1.18 -0.72 40 113 158
13.11 -1.29 -0.72 40 113 158
12.85 -1.43 -0.53 40 113 158
12.85 -1.54 -0.53 41 112 158
12.85 -1.65 -0.53 40 112 160
12.85 -1.76 -0.53 38 111 162
12.57 -1.90 -0.33 34 110 162
12.57 -2.02 -0.33 34 107 160
12.57 -2.13 -0.33 35 106 158
12.28 -2.26 -0.13 37 109 159
12.28 -2.37 -0.13 40 110 159
12.28 -2.48 -0.13 38 110 160
12.28 -2.59 -0.13 39 111 159
12.28 -2.70 -0.13 44 115 161
12.02 -2.84 0.05 56 120 158
12.02 -2.95 0.05 67 121 145
13.92 22.07 -1.42 114 111 106
13.63 21.80 -1.22 142 139 134
13.63 21.69 -1.22 146 143 136
13.63 21.58 -1.22 137 134 127
13.63 21.46 -1.22 133 130 121
13.63 21.35 -1.22 131 128 119
13.63 21.24 -1.22 132 132 120
13.92 21.28 -1.42 132 132 122
13.92 21.17 -1.42 133 133 123
13.92 21.05 -1.42 134 134 126
13.92 20.94 -1.42 136 133 126
13.92 20.82 -1.42 136 133 126
13.92 20.71 -1.42 137 134 125
13.92 20.60 -1.42 139 136 127
13.92 20.48 -1.42 138 135 126
13.92 20.37 -1.42 138 135 128
13.92 20.26 -1.42 138 135 128
13.92 20.14 -1.42 137 136 131
13.92 20.03 -1.42 138 137 132
13.92 19.92 -1.42 139 138 134
13.92 19.80 -1.42 139 138 134
13.92 19.69 -1.42 138 138 136
13.92 19.58 -1.42 137 137 135
13.92 19.46 -1.42 136 136 134
13.92 19.35 -1.42 136 136 134
13.92 19.24 -1.42 137 138 133
13.92 19.12 -1.42 137 138 133
13.92 19.01 -1.42 137 138 132
13.92 18.90 -1.42 137 138 132
13.92 18.78 -1.42 137 138 130
13.92 18.67 -1.42 137 138 130
13.92 18.56 -1.42 134 135 127
13.63 18.30 -1.22 137 138 130
13.63 18.19 -1.22 139 140 134
13.63 18.08 -1.22 139 140 134
13.63 17.97 -1.22 139 138 134
13.63 17.85 -1.22 139 138 134
13.63 17.74 -1.22 145 141 140
13.63 17.63 -1.22 143 139 140
13.63 17.51 -1.22 143 139 140
13.63 17.40 -1.22 141 140 138
13.63 17.29 -1.22 141 140 138
13.63 17.17 -1.22 140 141 136
13.92 17.19 -1.42 140 141 136
13.92 17.08 -1.42 139 140 134
13.92 16.97 -1.42 139 140 134
13.63 16.72 -1.22 139 140 132
13.63 16.61 -1.22 140 141 133
13.63 16.50 -1.22 141 143 132
13.63 16.38 -1.22 141 143 132
13.63 16.27 -1.22 142 144 133
13.92 16.29 -1.42 142 144 133
13.92 16.17 -1.42 142 144 133
13.92 16.06 -1.42 143 145 134
13.92 15.95 -1.42 141 142 134
13.92 15.83 -1.42 142 143 135
13.92 15.72 -1.42 143 145 134
13.92 15.60 -1.42 144 146 135
13.92 15.49 -1.42 143 145 134
13.92 15.38 -1.42 143 145 134
13.92 15.26 -1.42 143 145 134
13.92 15.15 -1.42 142 144 133
13.92 15.04 -1.42 144 146 135
13.63 14.80 -1.22 144 145 137
13.63 14.69 -1.22 143 144 136
13.63 14.58 -1.22 143 144 138
13.63 14.47 -1.22 144 145 139
13.63 14.35 -1.22 143 144 139
13.63 14.24 -1.22 141 142 137
13.92 14.24 -1.42 144 144 142
13.92 14.13 -1.42 145 145 143
13.92 14.02 -1.42 145 145 143
13.92 13.90 -1.42 145 145 143
13.63 13.68 -1.22 145 145 143
13.63 13.56 -1.22 145 145 143
13.63 13.45 -1.22 143 145 142
13.63 13.34 -1.22 143 145 142
13.63 13.22 -1.22 144 146 141
13.63 13.11 -1.22 144 146 141
13.63 13.00 -1.22 145 148 141
13.63 12.89 -1.22 144 147 140
13.63 12.77 -1.22 144 147 138
13.63 12.66 -1.22 145 148 139
13.63 12.55 -1.22 144 150 138
13.63 12.43 -1.22 146 152 140
13.63 12.32 -1.22 146 149 140
13.92 12.31 -1.42 147 148 140
13.92 12.20 -1.42 147 148 140
13.92 12.09 -1.42 148 149 141
13.92 11.97 -1.42 149 150 142
13.92 11.86 -1.42 150 151 143
13.92 11.75 -1.42 150 151 143
13.92 11.63 -1.42 147 148 142
13.92 11.52 -1.42 148 149 143
13.92 11.41 -1.42 148 151 144
13.92 11.29 -1.42 148 151 144
14.52 11.39 -1.85 145 150 143
14.52 11.27 -1.85 144 149 142
14.21 11.05 -1.62 145 150 143
14.21 10.94 -1.62 146 151 144
14.21 10.82 -1.62 144 151 143
14.52 10.81 -1.85 148 155 147
14.52 10.70 -1.85 149 156 149
14.52 10.58 -1.85 145 152 145
14.52 10.47 -1.85 141 150 145
14.81 10.45 -2.05 144 153 148
14.81 10.33 -2.05 145 156 150
14.81 10.22 -2.05 144 155 149
14.81 10.10 -2.05 147 158 154
14.81 9.99 -2.05 144 153 150
15.12 9.97 -2.27 143 152 149
15.12 9.86 -2.27 144 153 148
15.12 9.74 -2.27 146 155 150
15.12 9.62 -2.27 150 156 152
15.12 9.51 -2.27 150 159 158
15.12 9.39 -2.27 146 156 158
15.12 9.28 -2.27 146 157 161
15.12 9.16 -2.27 144 158 159
15.12 9.04 -2.27 143 157 157
15.12 8.93 -2.27 145 160 155
15.12 8.81 -2.27 148 161 154
15.12 8.70 -2.27 147 160 151
15.12 8.58 -2.27 147 157 148
15.12 8.46 -2.27 152 160 149
15.12 8.35 -2.27 153 159 149
15.12 8.23 -2.27 155 158 151
15.12 8.12 -2.27 154 157 150
15.12 8.00 -2.27 152 159 152
15.12 7.88 -2.27 154 161 154
15.12 7.77 -2.27 150 161 155
15.12 7.65 -2.27 148 157 152
15.12 7.54 -2.27 161 167 165
15.12 7.42 -2.27 165 169 168
15.12 7.30 -2.27 167 176 171
15.12 7.19 -2.27 175 188 181
15.12 7.07 -2.27 170 183 176
15.12 6.96 -2.27 158 173 168
15.12 6.84 -2.27 149 164 161
15.12 6.72 -2.27 117 136 134
15.41 6.68 -2.48 103 123 124
15.41 6.56 -2.48 78 101 107
15.41 6.45 -2.48 51 78 87
15.41 6.33 -2.48 29 63 75
15.41 6.21 -2.48 18 55 71
15.41 6.10 -2.48 11 54 70
15.41 5.98 -2.48 8 52 79
15.41 5.86 -2.48 12 57 99
15.41 5.75 -2.48 17 60 113
15.41 5.63 -2.48 24 67 120
15.12 5.45 -2.27 32 75 128
15.12 5.33 -2.27 40 83 136
15.12 5.21 -2.27 46 89 142
15.12 5.10 -2.27 46 91 146
15.12 4.98 -2.27 44 89 144
15.12 4.87 -2.27 39 88 144
15.12 4.75 -2.27 39 88 146
14.81 4.57 -2.05 38 90 147
14.81 4.45 -2.05 39 91 151
14.81 4.33 -2.05 37 93 154
14.81 4.22 -2.05 33 91 154
14.81 4.10 -2.05 32 91 151
14.81 3.99 -2.05 38 95 150
14.81 3.87 -2.05 36 93 146
14.81 3.76 -2.05 34 91 144
14.81 3.64 -2.05 33 90 143
14.81 3.53 -2.05 34 89 145
14.81 3.41 -2.05 34 89 145
14.81 3.30 -2.05 34 89 145
14.52 3.13 -1.85 33 88 144
14.52 3.01 -1.85 43 95 152
14.52 2.90 -1.85 38 90 147
14.52 2.78 -1.85 37 92 148
14.52 2.67 -1.85 39 94 150
14.52 2.55 -1.85 37 92 149
14.21 2.38 -1.62 38 93 150
14.21 2.27 -1.62 39 95 152
14.21 2.15 -1.62 37 93 150
14.21 2.04 -1.62 40 95 149
14.21 1.92 -1.62 40 95 149
14.21 1.81 -1.62 38 95 148
14.21 1.70 -1.62 37 94 147
14.21 1.58 -1.62 38 95 148
13.92 1.42 -1.42 39 99 151
13.92 1.31 -1.42 40 100 152
13.92 1.19 -1.42 38 100 151
13.92 1.08 -1.42 38 100 151
13.92 0.97 -1.42 38 101 152
13.92 0.85 -1.42 40 103 154
13.92 0.74 -1.42 40 103 154
13.63 0.58 -1.22 39 102 153
13.63 0.47 -1.22 35 101 151
13.63 0.36 -1.22 34 100 150
13.63 0.24 -1.22 34 100 152
13.34 0.09 -1.02 36 102 154
13.34 -0.02 -1.02 38 105 157
13.34 -0.13 -1.02 40 107 159
13.34 -0.25 -1.02 41 108 160
13.34 -0.36 -1.02 41 108 160
13.06 -0.51 -0.81 42 109 161
13.06 -0.62 -0.81 42 109 161
13.06 -0.73 -0.81 41 111 160
13.06 -0.84 -0.81 41 111 160
13.06 -0.95 -0.81 41 111 160
13.06 -1.07 -0.81 41 111 160
13.06 -1.18 -0.81 39 112 157
13.06 -1.29 -0.81 39 112 157
12.80 -1.43 -0.63 42 113 159
12.80 -1.54 -0.63 40 108 155
12.80 -1.65 -0.63 40 108 157
12.80 -1.76 -0.63 37 107 158
12.51 -1.90 -0.43 36 107 159
12.51 -2.02 -0.43 36 107 159
12.51 -2.13 -0.43 37 107 158
12.51 -2.24 -0.43 37 107 156
12.23 -2.37 -0.23 38 106 153
12.23 -2.48 -0.23 34 105 151
12.23 -2.59 -0.23 35 106 150
11.97 -2.73 -0.04 51 120 162
11.97 -2.84 -0.04 65 129 164
11.97 -2.95 -0.04 69 121 143
13.58 21.92 -1.32 135 132 125
13.58 21.80 -1.32 137 134 127
13.58 21.69 -1.32 129 126 117
13.58 21.58 -1.32 130 127 118
13.58 21.46 -1.32 136 133 124
13.58 21.35 -1.32 137 134 125
13.58 21.24 -1.32 139 136 127
13.58 21.13 -1.32 136 133 126
13.58 21.01 -1.32 134 131 124
13.86 21.05 -1.52 136 133 128
13.86 20.94 -1.52 137 134 129
13.86 20.82 -1.52 135 132 127
13.58 20.56 -1.32 135 132 125
13.58 20.45 -1.32 139 134 128
13.58 20.34 -1.32 139 134 128
13.86 20.37 -1.52 137 134 127
13.86 20.26 -1.52 138 135 128
13.86 20.14 -1.52 137 137 129
13.58 19.88 -1.32 138 138 130
13.58 19.77 -1.32 139 138 133
13.58 19.66 -1.32 139 138 133
13.58 19.55 -1.32 137 138 132
13.58 19.43 -1.32 137 138 133
13.58 19.32 -1.32 138 137 133
13.58 19.21 -1.32 138 137 135
13.58 19.09 -1.32 138 137 133
13.58 18.98 -1.32 138 137 133
13.58 18.87 -1.32 138 139 133
13.58 18.76 -1.32 138 139 133
13.58 18.64 -1.32 137 138 130
13.58 18.53 -1.32 137 138 130
13.58 18.42 -1.32 135 136 128
13.58 18.30 -1.32 136 137 129
13.29 18.05 -1.11 139 138 133
13.29 17.94 -1.11 140 139 134
13.58 17.97 -1.32 142 138 135
13.58 17.85 -1.32 142 138 135
13.58 17.74 -1.32 145 139 141
13.58 17.63 -1.32 144 140 141
13.58 17.51 -1.32 144 139 143
13.29 17.27 -1.11 142 140 141
13.29 17.16 -1.11 142 140 141
13.29 17.04 -1.11 141 141 139
13.58 17.06 -1.32 140 140 138
13.58 16.95 -1.32 139 142 135
13.58 16.84 -1.32 139 142 135
13.58 16.72 -1.32 138 141 132
13.58 16.61 -1.32 139 142 133
13.58 16.50 -1.32 140 143 134
13.58 16.38 -1.32 141 144 135
13.58 16.27 -1.32 142 144 133
13.58 16.16 -1.32 142 144 133
13.58 16.05 -1.32 144 144 134
13.58 15.93 -1.32 145 145 135
13.58 15.82 -1.32 143 144 136
13.58 15.71 -1.32 144 145 137
13.58 15.59 -1.32 145 146 138
13.58 15.48 -1.32 145 146 138
13.58 15.37 -1.32 144 146 135
13.58 15.26 -1.32 145 147 136
13.58 15.14 -1.32 146 148 137
13.58 15.03 -1.32 143 145 134
13.58 14.92 -1.32 145 147 136
13.58 14.80 -1.32 145 147 136
13.58 14.69 -1.32 144 146 135
13.58 14.58 -1.32 144 145 137
13.58 14.47 -1.32 144 145 137
13.58 14.35 -1.32 143 144 138
13.58 14.24 -1.32 141 142 137
13.58 14.13 -1.32 146 147 142
13.58 14.01 -1.32 145 145 143
13.58 13.90 -1.32 145 145 143
13.58 13.79 -1.32 145 145 143
13.58 13.68 -1.32 145 145 143
13.58 13.56 -1.32 145 145 143
13.58 13.45 -1.32 144 146 143
13.58 13.34 -1.32 145 147 144
13.29 13.11 -1.11 143 145 140
13.29 13.00 -1.11 144 146 141
13.29 12.89 -1.11 145 148 141
13.29 12.78 -1.11 145 148 141
13.29 12.66 -1.11 145 148 137
13.58 12.66 -1.32 145 148 137
13.58 12.55 -1.32 144 150 138
13.58 12.43 -1.32 145 151 139
13.58 12.32 -1.32 146 149 140
13.58 12.21 -1.32 146 149 140
13.58 12.10 -1.32 146 149 140
13.58 11.98 -1.32 148 149 141
13.86 11.97 -1.52 149 150 142
13.86 11.86 -1.52 150 151 143
13.86 11.75 -1.52 150 151 143
13.86 11.63 -1.52 149 150 142
13.86 11.52 -1.52 150 151 143
13.86 11.41 -1.52 149 152 145
13.86 11.29 -1.52 149 152 145
13.86 11.18 -1.52 147 150 143
14.15 11.16 -1.72 147 150 143
14.15 11.05 -1.72 146 151 144
13.86 10.84 -1.52 148 153 146
13.86 10.73 -1.52 143 149 139
13.86 10.61 -1.52 149 155 145
13.86 10.50 -1.52 151 158 150
13.86 10.38 -1.52 149 156 148
14.15 10.37 -1.72 145 155 147
14.15 10.25 -1.72 145 155 147
14.46 10.24 -1.95 145 156 150
14.46 10.13 -1.95 145 156 150
14.46 10.01 -1.95 145 156 152
14.46 9.90 -1.95 147 158 154
14.46 9.78 -1.95 149 160 156
14.46 9.67 -1.95 150 161 157
14.46 9.55 -1.95 149 160 156
14.46 9.44 -1.95 147 156 153
14.75 9.41 -2.15 145 154 153
14.75 9.30 -2.15 146 153 159
14.75 9.18 -2.15 148 157 164
14.75 9.06 -2.15 148 159 161
15.07 9.04 -2.37 146 160 161
15.07 8.93 -2.37 144 163 161
15.07 8.81 -2.37 144 163 161
15.07 8.70 -2.37 144 160 157
15.07 8.58 -2.37 142 157 154
15.07 8.46 -2.37 143 157 157
15.07 8.35 -2.37 146 156 157
15.07 8.23 -2.37 145 155 156
15.07 8.12 -2.37 144 152 154
15.07 8.00 -2.37 145 154 153
15.07 7.88 -2.37 147 156 155
15.07 7.77 -2.37 146 157 153
15.07 7.65 -2.37 146 155 152
15.07 7.54 -2.37 149 155 151
15.07 7.42 -2.37 149 154 150
15.07 7.30 -2.37 145 154 149
15.07 7.19 -2.37 149 162 153
15.07 7.07 -2.37 153 166 157
15.07 6.96 -2.37 155 168 161
15.07 6.84 -2.37 155 167 163
15.07 6.72 -2.37 167 179 175
15.35 6.68 -2.58 168 180 180
15.35 6.56 -2.58 167 181 181
15.35 6.45 -2.58 164 179 182
15.35 6.33 -2.58 157 175 179
15.35 6.21 -2.58 146 167 172
15.35 6.10 -2.58 130 153 159
15.35 5.98 -2.58 117 142 147
15.35 5.86 -2.58 87 113 114
15.35 5.75 -2.58 74 100 101
15.35 5.63 -2.58 52 80 81
15.07 5.45 -2.37 36 64 65
15.07 5.33 -2.37 29 61 60
15.07 5.21 -2.37 32 63 65
15.07 5.10 -2.37 31 66 68
15.07 4.98 -2.37 29 66 72
15.07 4.87 -2.37 37 75 86
15.07 4.75 -2.37 35 77 93
15.07 4.63 -2.37 36 81 102
15.07 4.52 -2.37 38 85 113
14.75 4.33 -2.15 43 92 132
14.75 4.22 -2.15 40 93 135
14.75 4.10 -2.15 40 92 140
14.75 3.99 -2.15 36 92 143
14.75 3.87 -2.15 35 90 146
14.75 3.76 -2.15 33 88 144
14.75 3.64 -2.15 33 88 144
14.75 3.53 -2.15 36 88 145
14.75 3.41 -2.15 37 89 146
14.75 3.30 -2.15 37 89 146
14.46 3.13 -1.95 36 88 145
14.46 3.01 -1.95 43 95 152
14.46 2.90 -1.95 39 91 148
14.46 2.78 -1.95 38 93 150
14.46 2.44 -1.95 36 91 148
14.46 2.32 -1.95 36 92 149
14.15 2.15 -1.72 35 90 147
14.15 2.04 -1.72 36 91 147
14.15 1.92 -1.72 38 90 147
14.15 1.81 -1.72 37 92 148
14.15 1.70 -1.72 36 91 147
14.15 1.58 -1.72 36 91 147
13.86 1.42 -1.52 38 95 150
13.86 1.31 -1.52 41 98 153
13.86 1.19 -1.52 39 99 153
13.86 1.08 -1.52 38 98 152
13.86 0.97 -1.52 37 98 152
13.86 0.85 -1.52 38 99 153
13.86 0.74 -1.52 40 101 155
13.58 0.58 -1.32 40 101 155
13.58 0.47 -1.32 38 101 154
13.58 0.36 -1.32 37 100 153
13.58 0.24 -1.32 35 100 154
13.29 0.09 -1.11 36 101 155
13.29 -0.02 -1.11 38 103 157
13.29 -0.13 -1.11 38 103 157
13.29 -0.25 -1.11 39 105 157
13.29 -0.36 -1.11 39 105 157
13.00 -0.51 -0.91 39 107 156
13.00 -0.62 -0.91 40 108 157
13.00 -0.73 -0.91 39 109 158
13.00 -0.84 -0.91 40 110 159
13.00 -0.95 -0.91 41 112 158
13.00 -1.07 -0.91 40 111 157
13.00 -1.18 -0.91 39 112 157
13.00 -1.29 -0.91 39 112 157
13.00 -1.40 -0.91 42 113 159
12.74 -1.54 -0.73 39 106 151
12.74 -1.65 -0.73 40 106 154
12.74 -1.76 -0.73 37 107 156
12.74 -1.87 -0.73 35 107 157
12.46 -2.02 -0.52 35 105 156
12.46 -2.13 -0.52 37 105 154
12.46 -2.24 -0.52 37 105 152
12.17 -2.37 -0.32 39 106 151
12.17 -2.48 -0.32 33 104 150
12.17 -2.59 -0.32 34 105 149
11.91 -2.73 -0.14 52 121 162
11.91 -2.84 -0.14 67 130 163
11.91 -2.95 -0.14 64 116 137
13.23 21.76 -1.21 133 130 121
13.23 21.65 -1.21 137 134 125
13.23 21.53 -1.21 135 131 122
13.23 21.42 -1.21 137 133 124
13.52 21.46 -1.41 137 134 125
13.52 21.35 -1.41 134 131 122
13.52 21.24 -1.41 137 134 127
13.52 21.13 -1.41 135 132 127
13.52 21.01 -1.41 134 131 126
13.52 20.90 -1.41 138 134 131
13.52 20.79 -1.41 140 137 132
13.52 20.67 -1.41 136 133 128
13.52 20.56 -1.41 134 129 125
13.52 20.45 -1.41 138 133 127
13.52 20.34 -1.41 140 135 129
13.52 20.22 -1.41 137 134 127
13.52 20.11 -1.41 137 134 127
13.52 20.00 -1.41 139 136 129
13.52 19.88 -1.41 140 137 130
13.52 19.77 -1.41 139 139 131
13.52 19.66 -1.41 139 139 131
13.23 19.40 -1.21 137 138 132
13.23 19.29 -1.21 138 137 133
13.23 19.18 -1.21 138 137 133
13.23 19.06 -1.21 140 136 135
13.23 18.95 -1.21 139 138 134
13.23 18.84 -1.21 139 138 134
13.23 18.73 -1.21 139 138 133
13.23 18.61 -1.21 139 138 133
13.23 18.50 -1.21 138 139 131
13.23 18.39 -1.21 138 139 131
13.23 18.28 -1.21 138 138 130
13.23 18.17 -1.21 138 138 130
13.23 18.05 -1.21 141 138 133
13.23 17.94 -1.21 141 138 133
13.23 17.83 -1.21 143 138 135
13.23 17.72 -1.21 144 139 136
13.23 17.60 -1.21 145 136 139
13.23 17.49 -1.21 145 140 144
13.23 17.38 -1.21 145 140 146
13.23 17.27 -1.21 143 141 144
13.23 17.16 -1.21 142 140 143
13.23 17.04 -1.21 141 141 139
13.23 16.93 -1.21 141 141 139
13.52 16.95 -1.41 140 142 137
13.52 16.84 -1.41 140 142 137
13.52 16.72 -1.41 138 141 134
13.23 16.48 -1.21 139 142 135
13.23 16.37 -1.21 141 144 135
13.23 16.26 -1.21 141 144 135
13.23 16.14 -1.21 142 143 135
13.23 16.03 -1.21 142 143 135
13.23 15.92 -1.21 144 144 136
13.23 15.81 -1.21 145 145 137
13.52 15.82 -1.41 144 145 137
13.52 15.71 -1.41 144 145 137
13.52 15.59 -1.41 144 145 137
13.23 15.36 -1.21 143 144 136
13.23 15.25 -1.21 143 145 134
13.23 15.13 -1.21 144 146 135
13.52 15.14 -1.41 147 149 138
13.52 15.03 -1.41 143 145 134
13.52 14.92 -1.41 145 147 136
13.52 14.80 -1.41 145 147 136
13.52 14.69 -1.41 144 146 135
13.23 14.46 -1.21 144 145 137
13.23 14.35 -1.21 144 145 137
13.23 14.24 -1.21 143 144 136
13.23 14.12 -1.21 141 142 136
13.52 14.13 -1.41 145 146 141
13.52 14.01 -1.41 145 145 143
13.52 13.90 -1.41 144 144 142
13.52 13.79 -1.41 144 144 142
13.52 13.68 -1.41 144 144 142
13.23 13.45 -1.21 146 146 144
13.23 13.34 -1.21 146 148 145
13.23 13.23 -1.21 148 150 147
13.23 13.11 -1.21 145 147 142
13.23 13.00 -1.21 146 148 143
13.23 12.89 -1.21 147 150 141
13.23 12.78 -1.21 146 149 140
13.23 12.66 -1.21 145 148 137
13.23 12.55 -1.21 145 148 137
13.23 12.44 -1.21 143 149 135
13.23 12.33 -1.21 144 150 138
13.23 12.22 -1.21 145 148 139
13.23 12.10 -1.21 145 148 139
13.23 11.99 -1.21 145 148 139
13.52 11.98 -1.41 148 149 141
13.52 11.87 -1.41 149 150 142
13.52 11.76 -1.41 150 151 143
13.52 11.64 -1.41 150 151 143
13.52 11.53 -1.41 148 149 141
13.52 11.42 -1.41 149 150 142
13.52 11.31 -1.41 150 151 143
13.52 11.19 -1.41 149 150 142
13.52 11.08 -1.41 147 150 143
13.81 11.07 -1.62 147 150 143
13.81 10.95 -1.62 148 153 146
13.81 10.84 -1.62 150 155 148
13.81 10.73 -1.62 151 157 147
13.81 10.61 -1.62 148 154 144
13.81 10.50 -1.62 145 152 144
13.81 10.38 -1.62 145 152 144
13.81 10.27 -1.62 144 154 146
13.81 10.16 -1.62 145 154 149
14.09 10.14 -1.82 145 156 150
14.09 10.02 -1.82 147 158 154
14.09 9.91 -1.82 145 157 155
14.09 9.80 -1.82 141 153 151
14.09 9.68 -1.82 141 153 151
14.09 9.57 -1.82 143 153 152
14.09 9.45 -1.82 145 155 154
14.09 9.34 -1.82 146 156 155
14.09 9.22 -1.82 149 155 155
14.09 9.11 -1.82 154 154 154
14.09 9.00 -1.82 156 154 155
14.09 8.88 -1.82 154 154 152
14.41 8.86 -2.05 149 154 150
14.69 8.83 -2.25 145 155 147
14.69 8.72 -2.25 146 157 151
15.01 8.70 -2.47 147 160 153
14.69 8.49 -2.25 147 159 157
14.69 8.37 -2.25 149 159 158
14.69 8.26 -2.25 151 159 161
14.69 8.14 -2.25 150 158 161
14.69 8.03 -2.25 150 155 159
15.01 8.00 -2.47 149 155 155
15.01 7.88 -2.47 151 157 157
15.01 7.77 -2.47 152 158 154
15.01 7.65 -2.47 152 158 156
15.01 7.54 -2.47 153 159 157
15.01 7.42 -2.47 152 158 158
15.01 7.30 -2.47 149 160 156
15.01 7.19 -2.47 143 158 153
15.01 7.07 -2.47 144 159 154
15.01 6.96 -2.47 148 160 156
15.01 6.84 -2.47 151 162 158
15.29 6.80 -2.68 147 158 154
15.29 6.68 -2.68 151 157 155
15.29 6.56 -2.68 153 159 157
15.29 6.45 -2.68 155 159 158
15.29 6.33 -2.68 157 163 161
15.29 6.21 -2.68 162 168 166
15.29 6.10 -2.68 163 172 169
15.29 5.98 -2.68 163 172 169
15.29 5.86 -2.68 174 180 180
15.29 5.75 -2.68 173 179 179
15.29 5.63 -2.68 170 179 178
15.01 5.45 -2.47 168 178 177
15.01 5.33 -2.47 161 173 173
15.01 5.21 -2.47 142 158 158
15.01 5.10 -2.47 115 133 137
15.01 4.98 -2.47 93 113 122
15.01 4.87 -2.47 55 81 98
15.01 4.75 -2.47 47 74 101
15.01 4.63 -2.47 37 67 103
14.69 4.45 -2.25 29 61 108
14.69 4.33 -2.25 30 65 129
14.69 4.22 -2.25 33 72 141
14.69 4.10 -2.25 35 75 145
14.69 3.99 -2.25 36 86 145
14.69 3.87 -2.25 34 86 143
14.69 3.76 -2.25 34 86 143
14.69 3.64 -2.25 36 88 145
14.69 3.53 -2.25 38 90 147
14.69 3.41 -2.25 40 92 149
14.69 3.30 -2.25 41 92 149
14.41 3.13 -2.05 41 92 149
14.41 3.01 -2.05 37 89 146
14.41 2.90 -2.05 34 86 143
14.41 2.78 -2.05 35 90 147
14.41 2.44 -2.05 38 93 150
14.41 2.32 -2.05 37 93 150
14.09 2.15 -1.82 36 91 148
14.09 2.04 -1.82 33 88 144
14.09 1.92 -1.82 38 90 147
14.09 1.81 -1.82 41 93 150
14.09 1.70 -1.82 42 94 151
14.09 1.58 -1.82 38 93 149
14.09 1.47 -1.82 38 95 150
13.81 1.31 -1.62 40 97 152
13.81 1.19 -1.62 39 95 152
13.81 1.08 -1.62 38 94 151
13.81 0.97 -1.62 36 95 151
13.81 0.85 -1.62 37 96 152
13.81 0.74 -1.62 39 100 155
13.52 0.58 -1.41 41 102 157
13.52 0.47 -1.41 42 103 158
13.52 0.36 -1.41 43 104 159
13.52 0.24 -1.41 43 106 160
13.52 0.13 -1.41 43 106 160
13.23 -0.02 -1.21 41 106 160
13.23 -0.13 -1.21 40 105 159
13.23 -0.25 -1.21 39 105 157
13.23 -0.36 -1.21 39 105 157
12.95 -0.51 -1.01 39 107 156
12.95 -0.62 -1.01 40 108 157
12.95 -0.73 -1.01 40 108 157
12.95 -0.84 -1.01 41 109 158
12.95 -0.95 -1.01 39 110 156
12.95 -1.07 -1.01 39 110 156
12.95 -1.18 -1.01 38 109 155
12.95 -1.29 -1.01 38 109 155
12.95 -1.40 -1.01 40 111 157
12.69 -1.54 -0.82 37 104 147
12.69 -1.65 -0.82 39 106 151
12.69 -1.76 -0.82 40 108 155
12.69 -1.87 -0.82 36 106 155
12.69 -1.99 -0.82 33 103 152
12.40 -2.13 -0.62 34 102 151
12.40 -2.24 -0.62 36 104 149
12.40 -2.35 -0.62 41 108 153
12.12 -2.48 -0.42 36 107 151
12.12 -2.59 -0.42 35 106 148
11.86 -2.73 -0.23 53 122 163
11.86 -2.84 -0.23 66 129 162
11.86 -2.95 -0.23 61 113 134
12.89 21.82 -1.10 139 135 132
12.89 21.71 -1.10 134 130 127
12.89 21.60 -1.10 136 131 125
13.18 21.65 -1.31 135 130 124
13.18 21.53 -1.31 135 130 124
13.18 21.42 -1.31 136 131 125
13.18 21.31 -1.31 136 133 126
13.18 21.20 -1.31 137 134 127
13.18 21.08 -1.31 137 134 129
13.18 20.97 -1.31 136 132 129
13.18 20.86 -1.31 132 133 128
13.18 20.75 -1.31 132 132 130
13.18 20.64 -1.31 133 134 129
13.18 20.52 -1.31 133 134 129
13.18 20.41 -1.31 136 135 130
13.18 20.30 -1.31 136 136 128
13.18 20.19 -1.31 135 135 127
13.18 20.07 -1.31 136 136 126
13.46 20.11 -1.51 136 136 126
13.46 20.00 -1.51 136 136 126
13.46 19.88 -1.51 136 136 126
13.18 19.63 -1.31 139 136 129
13.18 19.51 -1.31 139 136 129
13.18 19.40 -1.31 140 137 130
13.18 19.29 -1.31 140 137 130
13.18 19.18 -1.31 140 137 132
13.18 19.06 -1.31 140 137 132
13.18 18.95 -1.31 139 139 131
13.18 18.84 -1.31 139 139 131
13.18 18.73 -1.31 139 139 131
12.89 18.47 -1.10 139 139 131
12.89 18.36 -1.10 138 138 128
12.89 18.25 -1.10 138 138 128
12.89 18.14 -1.10 139 141 130
12.89 18.03 -1.10 140 142 131
12.89 17.92 -1.10 140 143 134
12.89 17.80 -1.10 139 142 133
12.89 17.69 -1.10 138 141 134
12.89 17.58 -1.10 138 141 134
12.89 17.47 -1.10 140 143 136
12.89 17.36 -1.10 142 143 137
12.89 17.25 -1.10 141 142 136
12.89 17.13 -1.10 141 142 136
12.89 17.02 -1.10 140 141 135
12.89 16.91 -1.10 140 141 136
12.89 16.80 -1.10 140 141 136
13.18 16.82 -1.31 140 141 136
13.18 16.71 -1.31 140 141 136
13.18 16.59 -1.31 141 142 137
12.89 16.35 -1.10 140 141 136
12.89 16.24 -1.10 140 141 135
12.89 16.13 -1.10 141 142 136
12.89 16.02 -1.10 141 142 134
12.89 15.91 -1.10 142 143 135
12.89 15.79 -1.10 142 144 133
13.18 15.81 -1.31 141 143 132
13.18 15.70 -1.31 143 146 135
13.18 15.58 -1.31 142 145 134
13.18 15.47 -1.31 142 145 136
13.18 15.36 -1.31 142 145 136
13.18 15.25 -1.31 142 145 136
13.18 15.13 -1.31 143 146 137
13.18 15.02 -1.31 144 147 140
13.18 14.91 -1.31 142 143 137
13.18 14.80 -1.31 145 146 140
13.18 14.69 -1.31 146 147 142
13.18 14.57 -1.31 145 146 141
13.18 14.46 -1.31 145 146 141
13.18 14.35 -1.31 146 147 142
13.18 14.24 -1.31 145 145 143
13.18 14.12 -1.31 144 144 142
13.18 14.01 -1.31 147 149 144
13.18 13.90 -1.31 146 148 143
13.18 13.79 -1.31 146 147 141
13.18 13.68 -1.31 145 146 140
13.18 13.56 -1.31 145 146 141
13.18 13.45 -1.31 145 145 143
13.18 13.34 -1.31 142 146 145
13.18 13.23 -1.31 141 145 148
13.18 13.11 -1.31 142 150 152
13.18 13.00 -1.31 142 150 153
13.18 12.89 -1.31 144 149 152
13.18 12.78 -1.31 145 149 150
13.18 12.66 -1.31 145 149 148
13.18 12.55 -1.31 148 149 144
13.18 12.44 -1.31 149 148 143
13.18 12.33 -1.31 149 149 141
13.18 12.22 -1.31 143 149 135
13.18 12.10 -1.31 143 149 135
13.18 11.99 -1.31 143 149 135
13.18 11.88 -1.31 146 149 138
13.18 11.77 -1.31 148 151 140
13.18 11.65 -1.31 149 152 141
13.18 11.54 -1.31 150 153 142
13.18 11.43 -1.31 147 150 141
13.18 11.32 -1.31 147 150 141
13.18 11.21 -1.31 144 149 142
13.18 11.09 -1.31 144 149 142
13.18 10.98 -1.31 145 152 144
13.46 10.97 -1.51 146 153 145
13.46 10.85 -1.51 147 154 147
13.46 10.74 -1.51 147 154 146
13.46 10.63 -1.51 148 154 142
13.46 10.52 -1.51 148 154 140
13.46 10.40 -1.51 146 154 141
13.46 10.29 -1.51 146 154 141
13.46 10.18 -1.51 146 154 143
13.46 10.06 -1.51 147 155 144
13.75 10.04 -1.72 146 156 147
13.75 9.93 -1.72 147 157 148
13.75 9.82 -1.72 146 156 148
13.75 9.70 -1.72 146 157 149
13.75 9.59 -1.72 146 157 149
13.75 9.48 -1.72 146 157 149
13.75 9.36 -1.72 145 156 148
13.75 9.25 -1.72 143 156 146
13.75 9.14 -1.72 144 156 146
13.75 9.02 -1.72 145 156 148
13.75 8.91 -1.72 147 157 149
13.75 8.80 -1.72 149 158 153
