ply
format ascii 1.0
element vertex 1779
property float x
property float y
property float z
property uchar red
property uchar green
property uchar blue
end_header
2.71 6.46 29.70 205 200 160
2.71 6.39 29.70 145 136 77
2.71 6.32 29.70 193 187 109
2.71 6.25 29.70 255 255 180
2.71 6.18 29.70 99 96 29
2.68 6.53 29.64 9 4 0
2.68 6.46 29.64 255 245 213
2.68 6.39 29.64 204 194 141
2.68 6.32 29.64 157 149 77
2.68 6.25 29.64 205 199 123
2.68 6.18 29.64 255 255 194
2.64 6.53 29.58 6 0 0
2.64 6.46 29.58 181 169 145
2.64 6.39 29.58 251 239 197
2.64 6.32 29.58 188 178 117
2.64 6.25 29.58 158 149 80
2.64 6.18 29.58 238 233 169
2.64 6.11 29.58 255 255 204
2.64 6.04 29.58 44 38 2
2.79 6.01 29.56 5 4 0
2.64 5.90 29.58 104 117 107
2.61 6.53 29.52 97 92 96
2.61 6.46 29.52 51 45 29
2.61 6.39 29.52 199 192 163
2.61 6.32 29.52 237 233 185
2.61 6.25 29.52 167 162 104
2.61 6.18 29.52 150 146 85
2.61 6.11 29.52 254 249 191
2.61 6.04 29.52 212 208 160
2.61 5.97 29.52 20 20 0
2.61 5.90 29.52 1 14 0
2.57 6.39 29.46 102 104 83
2.57 6.32 29.46 245 247 210
2.57 6.25 29.46 246 248 201
2.57 6.18 29.46 150 153 98
2.57 6.11 29.46 142 141 84
2.57 6.04 29.46 251 250 193
2.57 5.97 29.46 191 190 142
2.57 5.90 29.46 0 7 0
2.57 5.83 29.46 0 6 0
2.57 5.76 29.46 16 29 22
2.57 5.69 29.46 5 20 25
2.57 5.62 29.46 8 24 37
2.68 6.43 29.38 0 4 0
2.54 6.32 29.40 50 58 35
2.54 6.25 29.40 238 243 211
2.54 6.18 29.40 241 243 203
2.54 6.11 29.40 135 135 85
2.54 6.04 29.40 169 167 110
2.54 5.97 29.40 255 255 204
2.54 5.90 29.40 193 197 147
2.54 5.83 29.40 4 10 0
2.54 5.76 29.40 0 5 0
2.54 5.69 29.40 12 23 19
2.54 5.62 29.40 11 26 33
2.65 6.43 29.32 0 4 0
2.65 6.36 29.32 1 7 0
2.65 6.29 29.32 73 76 59
2.65 6.22 29.32 255 255 228
2.50 6.11 29.34 242 239 198
2.50 6.04 29.34 149 142 90
2.50 5.97 29.34 184 175 118
2.50 5.90 29.34 255 254 191
2.50 5.83 29.34 160 158 107
2.50 5.76 29.34 3 4 0
2.50 5.69 29.34 0 3 0
2.50 5.62 29.34 35 45 47
2.61 6.43 29.26 5 9 8
2.61 6.36 29.26 2 4 0
2.61 6.29 29.26 1 1 0
2.61 6.22 29.26 89 84 64
2.61 6.15 29.26 255 249 217
2.47 6.04 29.28 216 203 158
2.47 5.97 29.28 164 149 92
2.47 5.90 29.28 207 198 129
2.47 5.83 29.28 255 250 188
2.47 5.76 29.28 138 136 97
2.47 5.69 29.28 2 5 0
2.47 5.62 29.28 0 2 4
2.58 6.29 29.20 5 6 8
2.58 6.22 29.20 0 1 0
2.58 6.15 29.20 147 149 136
2.58 6.08 29.20 255 255 239
2.43 5.97 29.22 197 194 163
2.43 5.90 29.22 155 145 96
2.43 5.83 29.22 223 209 164
2.43 5.76 29.22 255 247 221
2.43 5.69 29.22 93 81 65
2.43 5.62 29.22 6 2 0
2.54 6.29 29.13 8 11 16
2.54 6.22 29.13 0 1 0
2.54 6.15 29.13 0 1 0
2.54 6.08 29.13 0 2 0
2.40 5.97 29.16 211 210 192
2.40 5.90 29.16 255 255 228
2.40 5.83 29.16 193 181 141
2.40 5.76 29.16 165 159 101
2.40 5.69 29.16 255 255 194
2.40 5.62 29.16 231 229 172
2.51 6.15 29.07 0 3 0
2.51 6.08 29.07 0 2 0
2.51 6.01 29.07 46 47 29
2.51 5.94 29.07 255 250 218
2.36 5.83 29.10 240 234 182
2.36 5.76 29.10 177 174 93
2.36 5.69 29.10 178 176 91
2.36 5.62 29.10 254 251 182
2.36 5.55 29.10 208 202 150
2.36 5.48 29.10 23 20 0
2.47 6.15 29.01 4 10 0
2.47 6.08 29.01 0 3 0
2.47 6.01 29.01 0 3 0
2.47 5.94 29.01 112 109 102
2.33 5.83 29.04 255 254 229
2.33 5.76 29.04 226 227 161
2.33 5.69 29.04 175 174 91
2.33 5.62 29.04 186 183 102
2.33 5.55 29.04 255 250 174
2.33 5.48 29.04 205 201 128
2.29 5.83 28.98 107 110 81
2.29 5.76 28.98 255 255 205
2.29 5.69 28.98 209 209 137
2.29 5.62 28.98 171 165 91
2.29 5.55 28.98 190 182 110
2.29 5.48 28.98 243 235 173
2.29 5.41 28.98 188 180 134
2.29 5.34 28.98 29 23 1
2.26 5.83 28.92 7 12 8
2.26 5.76 28.92 139 141 120
2.26 5.69 28.92 255 255 216
2.26 5.62 28.92 222 215 145
2.26 5.55 28.92 181 172 93
2.26 5.48 28.92 198 189 114
2.26 5.41 28.92 253 244 179
2.26 5.34 28.92 128 126 69
2.22 5.83 28.86 0 3 0
2.22 5.76 28.86 0 1 0
2.22 5.69 28.86 193 189 162
2.22 5.62 28.86 255 250 188
2.22 5.55 28.86 209 200 125
2.22 5.48 28.86 172 158 95
2.22 5.41 28.86 210 200 141
2.22 5.34 28.86 255 255 200
2.19 5.83 28.80 9 26 8
2.19 5.76 28.80 0 6 0
2.19 5.69 28.80 3 7 0
2.19 5.62 28.80 221 220 200
2.19 5.55 28.80 255 251 225
2.19 5.48 28.80 203 198 160
2.19 5.41 28.80 154 148 100
2.19 5.34 28.80 230 227 172
2.15 5.69 28.74 0 4 0
2.15 5.62 28.74 37 45 22
2.15 5.55 28.74 232 238 204
2.15 5.48 28.74 255 255 212
2.15 5.41 28.74 203 201 150
2.15 5.34 28.74 160 157 102
2.15 5.27 28.74 255 255 205
2.15 5.20 28.74 231 227 180
2.12 5.69 28.68 6 17 19
2.12 5.62 28.68 0 5 13
2.12 5.55 28.68 79 88 95
2.12 5.48 28.68 226 232 228
2.12 5.41 28.68 250 251 233
2.12 5.34 28.68 190 185 145
2.12 5.27 28.68 169 159 106
2.12 5.20 28.68 255 255 192
2.08 5.55 28.62 0 7 0
2.08 5.48 28.62 108 125 107
2.08 5.41 28.62 244 253 222
2.08 5.34 28.62 230 229 181
2.08 5.27 28.62 192 184 122
2.08 5.20 28.62 206 196 125
2.08 5.13 28.62 255 248 178
2.08 5.06 28.62 203 197 135
2.05 5.55 28.56 0 5 16
2.05 5.48 28.56 0 5 12
2.05 5.41 28.56 140 150 151
2.05 5.34 28.56 255 255 239
2.05 5.27 28.56 220 215 177
2.05 5.20 28.56 191 181 120
2.05 5.13 28.56 208 198 126
2.05 5.06 28.56 255 255 178
2.16 5.45 28.47 0 4 4
2.16 5.38 28.47 156 165 138
2.16 5.31 28.47 255 255 212
2.16 5.24 28.47 214 215 139
2.01 5.13 28.50 180 178 93
2.01 5.06 28.50 202 199 120
2.01 4.99 28.50 255 255 193
2.16 4.96 28.47 128 124 79
2.12 5.45 28.41 0 1 25
2.12 5.38 28.41 0 6 19
2.12 5.31 28.41 202 207 203
2.12 5.24 28.41 253 255 228
2.12 5.17 28.41 226 226 176
1.98 5.06 28.44 169 168 104
1.98 4.99 28.44 220 213 145
2.12 4.96 28.41 255 255 197
2.09 5.45 28.35 14 25 55
2.09 5.38 28.35 0 2 16
2.09 5.31 28.35 0 4 0
2.09 5.24 28.35 216 227 193
2.09 5.17 28.35 255 255 212
2.09 5.10 28.35 209 209 149
2.09 5.03 28.35 186 177 122
2.09 4.96 28.35 225 210 167
2.09 4.89 28.35 255 250 221
2.09 4.82 28.35 5 5 0
2.05 5.45 28.29 9 25 48
2.05 5.38 28.29 1 18 38
2.05 5.31 28.29 0 11 25
2.05 5.24 28.29 36 46 47
2.05 5.17 28.29 224 228 214
1.91 5.06 28.32 255 255 227
2.05 5.03 28.29 205 201 153
2.05 4.96 28.29 179 171 109
2.05 4.89 28.29 255 251 186
2.05 4.82 28.29 62 56 6
2.02 5.31 28.23 0 8 24
2.02 5.24 28.23 0 9 14
2.02 5.17 28.23 97 102 95
2.02 5.10 28.23 233 236 209
2.02 5.03 28.23 255 255 216
2.02 4.96 28.23 209 204 149
2.02 4.89 28.23 177 171 111
2.02 4.82 28.23 216 211 156
1.98 5.31 28.17 9 24 43
1.98 5.24 28.17 0 2 11
1.98 5.17 28.17 0 5 3
1.98 5.10 28.17 119 123 108
1.98 5.03 28.17 252 252 224
1.98 4.96 28.17 252 250 212
1.98 4.89 28.17 195 191 143
1.98 4.82 28.17 255 255 195
1.95 5.17 28.11 0 5 7
1.95 5.10 28.11 0 3 0
1.95 5.03 28.11 145 147 133
1.95 4.96 28.11 253 255 231
1.95 4.89 28.11 232 230 191
1.95 4.82 28.11 213 208 142
1.95 4.75 28.11 255 255 202
2.09 4.73 28.08 162 160 112
1.91 5.17 28.04 3 16 22
1.91 5.10 28.04 0 7 6
1.91 5.03 28.04 0 2 0
1.91 4.96 28.04 156 159 148
1.91 4.89 28.04 255 255 232
1.91 4.82 28.04 195 192 123
1.91 4.75 28.04 214 210 146
2.06 4.73 28.02 255 255 204
1.88 5.17 27.98 9 24 29
1.88 5.10 27.98 0 8 9
1.88 5.03 27.98 0 2 0
1.88 4.96 27.98 0 3 0
1.88 4.89 27.98 199 202 181
1.88 4.82 27.98 224 220 156
1.88 4.75 27.98 196 191 125
1.88 4.68 27.98 219 213 151
1.84 5.17 27.92 0 12 12
1.84 5.10 27.92 4 16 16
1.84 5.03 27.92 0 3 2
1.84 4.96 27.92 2 8 6
1.84 4.89 27.92 15 17 3
1.84 4.82 27.92 255 253 195
1.84 4.75 27.92 217 212 146
1.84 4.68 27.92 199 191 126
1.81 5.03 27.86 2 11 8
1.81 4.96 27.86 0 4 1
1.81 4.89 27.86 0 2 0
1.81 4.82 27.86 249 242 188
1.81 4.75 27.86 255 255 194
1.81 4.68 27.86 231 224 156
1.81 4.62 27.86 194 185 120
1.81 4.55 27.86 246 237 180
1.81 4.48 27.86 241 233 187
1.81 4.41 27.86 66 61 29
1.92 5.08 27.77 4 13 12
1.92 5.01 27.77 2 11 8
1.92 4.94 27.77 0 3 0
1.92 4.87 27.77 95 100 80
1.77 4.75 27.80 251 251 223
1.77 4.68 27.80 255 254 213
1.77 4.62 27.80 216 211 156
1.77 4.55 27.80 182 177 113
1.77 4.48 27.80 255 253 182
1.77 4.41 27.80 210 206 142
1.88 4.94 27.71 1 11 0
1.88 4.87 27.71 0 5 0
1.88 4.80 27.71 135 140 110
1.88 4.73 27.71 255 255 221
1.88 4.66 27.71 255 255 207
1.74 4.55 27.74 201 195 133
1.74 4.48 27.74 204 197 127
1.74 4.41 27.74 255 251 183
1.74 4.34 27.74 198 194 133
1.74 4.27 27.74 18 15 0
1.99 4.98 27.62 2 15 0
1.85 4.87 27.65 0 8 0
1.85 4.80 27.65 0 6 0
1.85 4.73 27.65 5 10 0
1.85 4.66 27.65 168 169 138
1.85 4.59 27.65 252 249 208
1.70 4.48 27.68 244 238 180
1.70 4.41 27.68 214 207 139
1.70 4.34 27.68 211 205 131
1.70 4.27 27.68 251 246 178
1.81 4.66 27.59 3 5 0
1.81 4.59 27.59 216 214 189
1.81 4.52 27.59 255 255 216
1.81 4.45 27.59 221 214 159
1.67 4.34 27.62 201 196 130
1.67 4.27 27.62 233 225 162
1.81 4.24 27.59 255 251 195
1.81 4.17 27.59 133 128 88
1.81 4.10 27.59 44 42 19
1.81 4.02 27.59 49 49 41
1.78 4.66 27.53 3 8 2
1.78 4.59 27.53 10 12 0
1.78 4.52 27.53 228 229 198
1.78 4.45 27.53 255 255 218
1.78 4.38 27.53 226 223 170
1.78 4.31 27.53 202 196 144
1.78 4.24 27.53 219 213 165
1.78 4.17 27.53 255 249 213
1.78 4.10 27.53 122 116 92
1.78 4.02 27.53 38 34 22
1.74 4.52 27.47 63 68 45
1.74 4.45 27.47 252 255 223
1.74 4.38 27.47 255 255 216
1.74 4.31 27.47 218 213 171
1.74 4.24 27.47 200 195 157
1.74 4.17 27.47 242 233 202
1.74 4.10 27.47 220 215 186
1.74 4.02 27.47 97 92 70
1.71 4.52 27.41 5 14 0
1.71 4.45 27.41 88 95 64
1.71 4.38 27.41 254 255 221
1.71 4.31 27.41 255 255 223
1.71 4.24 27.41 212 208 173
1.71 4.17 27.41 201 195 163
1.71 4.10 27.41 255 250 220
1.71 4.02 27.41 207 202 170
1.82 4.42 27.31 143 138 134
1.67 4.31 27.35 255 249 238
1.82 4.28 27.31 255 255 219
1.67 4.17 27.35 222 212 159
1.82 4.13 27.31 212 205 133
1.67 4.02 27.35 253 245 172
1.67 3.95 27.35 213 202 138
1.67 3.88 27.35 78 70 23
1.78 4.42 27.25 6 2 0
1.78 4.35 27.25 146 139 129
1.78 4.28 27.25 255 255 227
1.78 4.21 27.25 255 250 203
1.78 4.13 27.25 212 207 141
1.78 4.06 27.25 224 217 145
1.64 3.95 27.29 247 238 173
1.64 3.88 27.29 185 178 126
1.74 4.28 27.19 178 174 149
1.74 4.21 27.19 255 255 215
1.74 4.13 27.19 247 245 186
1.74 4.06 27.19 208 203 137
1.74 3.99 27.19 222 217 151
1.60 3.88 27.22 247 242 186
1.74 3.85 27.19 173 174 134
1.74 3.78 27.19 43 46 19
1.71 4.28 27.13 10 11 0
1.71 4.21 27.13 220 219 189
1.71 4.13 27.13 255 255 214
1.71 4.06 27.13 240 235 179
1.71 3.99 27.13 212 208 144
1.71 3.92 27.13 210 206 145
1.71 3.85 27.13 246 245 197
1.71 3.78 27.13 138 138 102
1.82 4.32 27.04 0 2 0
1.82 4.25 27.04 33 34 16
1.67 4.13 27.07 224 224 190
1.67 4.06 27.07 255 255 208
1.67 3.99 27.07 244 240 179
1.67 3.92 27.07 207 203 139
1.67 3.85 27.07 223 220 165
1.67 3.78 27.07 243 241 193
1.67 3.71 27.07 122 123 79
1.82 3.68 27.04 42 42 8
1.78 4.32 26.98 0 2 0
1.78 4.25 26.98 3 6 0
1.78 4.17 26.98 87 86 66
1.78 4.10 26.98 247 242 210
1.64 3.99 27.01 255 255 205
1.64 3.92 27.01 234 226 164
1.64 3.85 27.01 216 210 148
1.64 3.78 27.01 245 240 182
1.64 3.71 27.01 229 226 173
1.78 3.68 26.98 100 99 53
1.75 4.17 26.92 1 1 0
1.75 4.10 26.92 128 122 100
1.75 4.03 26.92 253 246 200
1.60 3.92 26.95 255 255 198
1.60 3.85 26.95 221 212 147
1.60 3.78 26.95 216 207 142
1.60 3.71 26.95 247 241 179
1.60 3.64 26.95 218 212 160
1.71 4.17 26.85 10 9 7
1.71 4.10 26.85 43 36 20
1.71 4.03 26.85 146 137 96
1.57 3.92 26.89 255 251 192
1.57 3.85 26.89 255 255 192
1.57 3.78 26.89 231 221 152
1.57 3.71 26.89 211 204 136
1.57 3.64 26.89 246 240 182
1.53 3.99 26.83 57 60 43
1.53 3.92 26.83 150 152 130
1.53 3.85 26.83 255 255 218
1.53 3.78 26.83 255 252 204
1.53 3.71 26.83 216 214 153
1.53 3.64 26.83 227 222 156
1.68 3.61 26.79 235 230 164
1.68 3.54 26.79 187 180 125
1.50 3.99 26.77 59 61 47
1.50 3.92 26.77 73 75 54
1.50 3.85 26.77 179 179 145
1.50 3.78 26.77 254 251 206
1.64 3.75 26.73 251 249 192
1.64 3.68 26.73 222 216 154
1.64 3.61 26.73 229 224 160
1.64 3.54 26.73 255 250 195
1.46 3.85 26.70 71 69 44
1.46 3.78 26.70 198 194 159
1.61 3.75 26.67 255 255 212
1.61 3.68 26.67 239 233 181
1.61 3.61 26.67 218 213 155
1.61 3.54 26.67 220 213 158
1.61 3.47 26.67 245 241 194
1.61 3.40 26.67 124 120 83
1.57 3.89 26.61 46 45 27
1.43 3.78 26.64 80 78 53
1.57 3.75 26.61 229 226 191
1.57 3.68 26.61 255 255 216
1.57 3.61 26.61 241 239 190
1.57 3.54 26.61 209 206 153
1.57 3.47 26.61 249 246 195
1.57 3.40 26.61 240 236 189
1.53 3.61 26.55 254 255 215
1.53 3.54 26.55 232 230 182
1.53 3.47 26.55 205 204 150
1.53 3.40 26.55 248 245 190
1.53 3.33 26.55 210 207 152
1.53 3.26 26.55 56 53 18
1.50 3.61 26.49 234 237 208
1.50 3.54 26.49 255 255 220
1.50 3.47 26.49 227 226 172
1.50 3.40 26.49 219 215 154
1.50 3.33 26.49 248 244 180
1.50 3.26 26.49 100 96 51
1.61 3.65 26.39 148 153 133
1.46 3.54 26.43 249 250 218
1.46 3.47 26.43 255 255 203
1.46 3.40 26.43 229 225 162
1.46 3.33 26.43 218 211 143
1.46 3.26 26.43 192 182 131
1.46 3.18 26.43 101 93 56
1.46 3.11 26.43 103 99 74
1.57 3.65 26.33 54 60 46
1.57 3.58 26.33 165 168 139
1.57 3.50 26.33 254 254 204
1.57 3.43 26.33 252 248 185
1.57 3.36 26.33 225 216 147
1.43 3.26 26.36 245 234 180
1.43 3.18 26.36 171 162 121
1.43 3.11 26.36 81 76 46
1.53 3.50 26.27 176 180 147
1.53 3.43 26.27 255 255 214
1.53 3.36 26.27 234 231 176
1.39 3.26 26.30 226 219 167
1.39 3.18 26.30 235 228 182
1.39 3.11 26.30 137 134 91
1.39 3.04 26.30 106 107 67
1.39 2.97 26.30 122 127 86
1.50 3.50 26.21 43 46 19
1.50 3.43 26.21 216 216 180
1.50 3.36 26.21 255 255 212
1.50 3.29 26.21 213 207 155
1.36 3.18 26.24 233 230 179
1.36 3.11 26.24 231 229 181
1.36 3.04 26.24 122 123 79
1.36 2.97 26.24 115 118 73
1.60 3.54 26.11 47 48 32
1.46 3.43 26.15 84 82 61
1.46 3.36 26.15 234 231 200
1.46 3.29 26.15 249 245 197
1.46 3.22 26.15 218 215 162
1.32 3.11 26.18 221 220 166
1.32 3.04 26.18 229 229 177
1.46 3.01 26.15 129 131 84
1.46 2.94 26.15 111 115 78
1.46 2.87 26.15 115 121 95
1.57 3.54 26.05 78 77 73
1.57 3.47 26.05 60 59 57
1.43 3.36 26.08 61 58 49
1.43 3.29 26.08 243 243 209
1.43 3.22 26.08 255 255 214
1.43 3.15 26.08 232 232 180
1.43 3.08 26.08 217 216 162
1.43 3.01 26.08 238 235 184
1.43 2.94 26.08 200 197 154
1.43 2.87 26.08 125 127 90
1.39 3.36 26.02 61 62 54
1.39 3.29 26.02 147 150 123
1.39 3.22 26.02 254 255 221
1.39 3.15 26.02 255 255 217
1.39 3.08 26.02 230 226 181
1.39 3.01 26.02 230 224 176
1.39 2.94 26.02 236 229 183
1.39 2.87 26.02 193 192 148
1.39 2.80 26.02 109 110 76
1.39 2.72 26.02 99 101 79
1.36 3.36 25.96 80 83 72
1.36 3.29 25.96 77 80 63
1.36 3.22 25.96 173 175 154
1.36 3.15 25.96 255 255 230
1.36 3.08 25.96 247 241 207
1.36 3.01 25.96 229 217 175
1.36 2.94 25.96 229 218 172
1.36 2.87 25.96 237 231 181
1.36 2.80 25.96 168 165 122
1.36 2.72 25.96 106 105 75
1.32 3.22 25.90 56 56 44
1.32 3.15 25.90 175 172 153
1.32 2.80 25.90 246 242 194
1.32 2.72 25.90 152 149 114
1.29 3.22 25.84 66 70 53
1.29 3.15 25.84 61 64 37
1.29 2.80 25.84 218 221 166
1.29 2.72 25.84 237 237 185
1.25 3.22 25.78 76 83 67
1.25 3.15 25.78 65 68 47
1.25 3.08 25.78 98 98 72
1.39 3.04 25.74 223 223 189
1.39 2.97 25.74 255 255 216
1.25 2.87 25.78 245 243 192
1.25 2.80 25.78 218 217 160
1.25 2.72 25.78 234 233 176
1.39 2.69 25.74 218 218 166
1.39 2.62 25.74 117 118 74
1.22 3.22 25.72 72 79 71
1.22 3.15 25.72 69 75 61
1.22 3.08 25.72 51 54 37
1.36 3.04 25.68 133 135 114
1.36 2.97 25.68 240 239 209
1.36 2.90 25.68 255 255 214
1.22 2.80 25.72 246 241 186
1.22 2.72 25.72 219 215 152
1.36 2.69 25.68 245 243 182
1.36 2.62 25.68 192 193 135
1.32 2.97 25.62 163 164 148
1.32 2.90 25.62 254 249 217
1.32 2.83 25.62 255 255 212
1.32 2.76 25.62 237 232 174
1.32 2.69 25.62 226 225 160
1.32 2.62 25.62 249 250 184
1.32 2.55 25.62 175 180 122
1.32 2.47 25.62 72 80 41
1.28 2.97 25.56 82 82 80
1.28 2.90 25.56 178 175 160
1.28 2.83 25.56 255 255 228
1.28 2.76 25.56 255 255 214
1.28 2.69 25.56 230 227 172
1.28 2.62 25.56 233 233 169
1.28 2.55 25.56 239 240 182
1.28 2.47 25.56 163 170 128
1.25 2.83 25.49 177 177 165
1.25 2.76 25.49 255 255 228
1.25 2.69 25.49 255 252 209
1.25 2.62 25.49 225 224 170
1.25 2.55 25.49 240 238 187
1.25 2.47 25.49 243 244 202
1.21 2.83 25.43 66 72 72
1.21 2.76 25.43 195 199 182
1.21 2.69 25.43 255 255 227
1.21 2.62 25.43 248 245 200
1.21 2.55 25.43 224 220 172
1.21 2.47 25.43 223 220 177
1.18 2.83 25.37 62 76 79
1.18 2.76 25.37 81 89 76
1.18 2.69 25.37 226 229 202
1.18 2.62 25.37 255 254 213
1.18 2.55 25.37 242 238 191
1.18 2.47 25.37 227 220 176
1.32 2.44 25.33 224 221 180
1.32 2.37 25.33 241 242 208
1.14 2.83 25.31 69 85 82
1.14 2.76 25.31 49 64 57
1.14 2.69 25.31 96 108 96
1.28 2.65 25.27 235 243 220
1.28 2.58 25.27 251 255 226
1.28 2.51 25.27 254 255 215
1.28 2.44 25.27 217 216 170
1.28 2.37 25.27 238 236 185
1.25 2.72 25.21 63 74 68
1.25 2.65 25.21 140 146 132
1.25 2.58 25.21 241 245 222
1.25 2.51 25.21 255 255 225
1.25 2.44 25.21 237 236 192
1.25 2.37 25.21 214 212 163
1.25 2.29 25.21 255 255 209
1.25 2.22 25.21 171 175 125
1.21 2.72 25.15 81 93 93
1.21 2.65 25.15 71 78 70
1.21 2.58 25.15 164 168 151
1.21 2.51 25.15 246 249 220
1.21 2.44 25.15 253 253 215
1.21 2.37 25.15 240 239 193
1.21 2.29 25.15 232 232 182
1.21 2.22 25.15 238 240 190
1.31 2.61 25.05 74 82 69
1.17 2.51 25.08 181 185 162
1.17 2.44 25.08 255 255 228
1.17 2.37 25.08 252 253 213
1.17 2.29 25.08 230 229 183
1.17 2.22 25.08 252 251 203
1.31 2.18 25.05 246 248 199
1.31 2.11 25.05 134 140 96
1.28 2.61 24.98 15 27 17
1.28 2.54 24.98 71 80 63
1.28 2.47 24.98 182 187 164
1.28 2.40 24.98 255 255 227
1.28 2.33 24.98 255 255 221
1.28 2.26 24.98 221 222 180
1.28 2.18 24.98 228 226 185
1.28 2.11 24.98 242 245 202
1.24 2.47 24.92 80 89 72
1.24 2.40 24.92 209 215 189
1.24 2.33 24.92 250 253 222
1.24 2.26 24.92 254 254 216
1.24 2.18 24.92 229 227 188
1.24 2.11 24.92 241 239 200
1.24 2.04 24.92 231 229 190
1.38 2.00 24.88 99 99 61
1.21 2.47 24.86 45 57 47
1.21 2.40 24.86 102 111 90
1.21 2.33 24.86 237 243 215
1.21 2.26 24.86 255 255 225
1.21 2.18 24.86 246 244 205
1.21 2.11 24.86 226 225 181
1.35 2.07 24.82 234 231 186
1.35 2.00 24.82 230 228 180
1.31 2.50 24.76 79 94 87
1.17 2.40 24.80 53 64 48
1.17 2.33 24.80 119 128 101
1.17 2.26 24.80 254 255 223
1.17 2.18 24.80 253 254 212
1.17 2.11 24.80 245 245 195
1.31 2.07 24.76 227 225 174
1.31 2.00 24.76 238 237 181
1.27 2.50 24.70 74 94 92
1.27 2.43 24.70 64 85 80
1.13 2.33 24.74 30 49 45
1.13 2.26 24.74 139 156 148
1.13 2.18 24.74 245 255 245
1.27 2.14 24.70 247 255 231
1.27 2.07 24.70 239 243 206
1.27 2.00 24.70 226 226 176
1.10 2.33 24.67 34 54 53
1.10 2.26 24.67 59 78 74
1.10 2.18 24.67 160 173 164
1.24 2.14 24.63 248 255 238
1.24 2.07 24.63 247 254 220
1.24 2.00 24.63 240 244 194
1.24 1.93 24.63 217 220 165
1.24 1.86 24.63 254 254 204
1.06 2.33 24.61 63 84 87
1.06 2.26 24.61 52 72 73
1.06 2.18 24.61 89 106 100
1.20 2.14 24.57 172 185 167
1.20 2.07 24.57 248 255 227
1.20 2.00 24.57 255 255 216
1.20 1.93 24.57 219 223 172
1.20 1.86 24.57 240 242 192
1.17 2.22 24.51 50 70 71
1.17 2.14 24.51 94 112 100
1.17 2.07 24.51 191 207 181
1.17 2.00 24.51 239 251 211
1.17 1.93 24.51 253 255 214
1.17 1.86 24.51 221 223 174
1.13 2.22 24.45 58 82 92
1.13 2.14 24.45 66 87 92
1.13 2.07 24.45 48 67 63
1.13 2.00 24.45 104 122 106
1.13 1.93 24.45 249 255 234
1.13 1.86 24.45 251 255 216
1.09 2.07 24.38 61 80 87
1.09 2.00 24.38 39 58 54
1.09 1.93 24.38 139 152 134
1.09 1.86 24.38 245 251 213
1.09 1.78 24.38 255 255 214
1.09 1.71 24.38 240 239 193
1.06 2.07 24.32 54 74 85
1.06 2.00 24.32 49 68 72
1.06 1.93 24.32 39 53 40
1.06 1.86 24.32 170 178 141
1.06 1.78 24.32 249 251 202
1.06 1.71 24.32 255 255 210
1.02 2.07 24.26 65 89 93
1.02 2.00 24.26 63 88 92
1.02 1.93 24.26 41 65 67
1.02 1.86 24.26 61 83 80
1.02 1.78 24.26 184 201 191
1.02 1.71 24.26 247 255 235
1.16 1.67 24.22 233 232 184
1.16 1.60 24.22 238 235 182
1.16 1.53 24.22 239 236 183
1.16 1.46 24.22 139 137 89
0.99 2.07 24.20 65 89 93
0.99 2.00 24.20 69 94 98
0.99 1.93 24.20 55 79 83
0.99 1.86 24.20 49 70 73
0.99 1.78 24.20 101 117 116
0.99 1.71 24.20 202 215 198
1.12 1.67 24.16 255 255 220
1.12 1.60 24.16 226 223 178
1.12 1.53 24.16 234 230 182
1.12 1.46 24.16 235 232 189
0.95 1.93 24.14 65 90 95
0.95 1.86 24.14 53 75 86
0.95 1.78 24.14 66 83 91
1.09 1.74 24.09 121 134 127
1.09 1.67 24.09 254 255 226
1.09 1.60 24.09 255 255 221
1.09 1.53 24.09 218 217 173
1.09 1.46 24.09 235 233 192
1.09 1.38 24.09 209 209 173
1.09 1.31 24.09 96 99 72
0.91 1.93 24.07 65 90 97
0.91 1.86 24.07 57 79 93
0.91 1.78 24.07 77 95 107
1.05 1.74 24.03 90 104 105
1.05 1.67 24.03 243 248 225
1.05 1.60 24.03 252 253 219
1.05 1.53 24.03 253 254 212
1.05 1.46 24.03 220 219 175
1.05 1.38 24.03 230 233 190
1.05 1.31 24.03 201 203 166
1.15 1.70 23.93 132 140 119
1.02 1.60 23.97 255 255 230
1.02 1.53 23.97 252 254 214
1.02 1.46 23.97 250 251 207
1.02 1.38 23.97 217 219 172
1.15 1.34 23.93 244 245 203
1.15 1.27 23.93 161 166 126
1.15 1.20 23.93 84 87 56
1.12 1.70 23.86 78 86 71
1.12 1.63 23.86 167 172 149
1.12 1.56 23.86 255 255 227
1.12 1.48 23.86 255 255 218
1.12 1.41 23.86 241 243 194
1.12 1.34 23.86 219 218 170
1.12 1.27 23.86 252 254 207
1.12 1.20 23.86 138 140 100
1.08 1.56 23.80 191 193 171
1.08 1.48 23.80 255 255 227
1.08 1.41 23.80 255 255 214
1.08 1.34 23.80 234 231 186
1.08 1.27 23.80 226 228 181
1.08 1.20 23.80 237 240 197
1.04 1.56 23.74 114 115 101
1.04 1.48 23.74 206 204 179
1.04 1.41 23.74 255 254 219
1.04 1.34 23.74 255 255 215
1.04 1.27 23.74 228 227 181
1.04 1.20 23.74 255 255 216
1.01 1.56 23.68 93 100 84
1.01 1.48 23.68 120 125 103
1.01 1.41 23.68 225 230 200
1.01 1.34 23.68 246 251 219
1.01 1.27 23.68 252 255 221
1.01 1.20 23.68 224 228 193
1.01 1.12 23.68 248 250 213
1.14 1.08 23.63 199 199 163
0.97 1.56 23.61 98 106 91
0.97 1.48 23.61 96 100 83
0.97 1.41 23.61 135 140 117
0.97 1.34 23.61 251 255 228
0.97 1.27 23.61 243 246 215
0.97 1.20 23.61 253 255 222
0.97 1.12 23.61 229 231 194
0.97 1.05 23.61 241 241 203
0.94 1.41 23.55 87 93 79
0.94 1.34 23.55 144 148 131
0.94 1.27 23.55 255 255 234
0.94 1.20 23.55 246 249 220
0.94 1.12 23.55 247 251 214
0.94 1.05 23.55 230 231 191
0.94 0.98 23.55 253 255 208
1.07 0.93 23.51 160 161 119
0.90 1.41 23.49 77 83 79
0.90 1.34 23.49 58 64 54
0.90 1.27 23.49 166 170 155
0.90 1.20 23.49 250 254 231
0.90 1.12 23.49 249 253 218
0.90 1.05 23.49 238 239 197
0.90 0.98 23.49 230 232 182
1.04 0.93 23.44 255 255 212
0.86 1.27 23.42 50 57 49
0.86 1.20 23.42 193 197 180
0.86 1.12 23.42 254 255 230
1.00 1.08 23.38 255 255 221
1.00 1.01 23.38 231 235 184
1.00 0.93 23.38 237 239 189
1.00 0.86 23.38 251 253 206
1.14 0.82 23.34 37 39 0
0.83 1.27 23.36 37 46 41
0.83 1.20 23.36 82 90 77
0.96 1.15 23.32 210 219 192
0.96 1.08 23.32 250 255 220
0.96 1.01 23.32 255 255 214
0.96 0.93 23.32 230 234 183
0.96 0.86 23.32 250 252 202
1.10 0.82 23.27 210 212 165
0.93 1.15 23.26 125 137 115
0.93 1.08 23.26 242 252 218
0.93 1.01 23.26 248 255 216
0.93 0.93 23.26 250 255 206
1.06 0.89 23.21 239 242 187
1.06 0.82 23.21 255 255 208
1.06 0.74 23.21 166 169 122
1.06 0.67 23.21 5 12 0
1.03 1.18 23.15 0 6 0
1.03 1.11 23.15 137 148 118
0.89 1.01 23.19 250 255 222
1.03 0.96 23.15 251 255 210
1.03 0.89 23.15 243 246 191
1.03 0.82 23.15 239 239 185
1.03 0.74 23.15 255 255 212
1.03 0.67 23.15 151 158 116
0.99 1.03 23.08 152 155 148
0.99 0.96 23.08 250 253 234
0.99 0.89 23.08 250 255 215
0.99 0.82 23.08 236 243 189
0.99 0.74 23.08 230 235 181
0.99 0.67 23.08 253 255 209
1.16 0.63 23.03 127 131 94
1.16 0.56 23.03 0 4 0
0.95 1.03 23.02 31 41 33
0.95 0.96 23.02 169 177 162
0.95 0.89 23.02 250 255 223
0.95 0.82 23.02 254 255 216
0.95 0.74 23.02 234 238 187
1.12 0.70 22.97 243 248 194
1.12 0.63 22.97 248 255 201
1.12 0.56 22.97 75 82 38
1.09 1.07 22.90 0 13 6
0.92 0.96 22.96 45 55 46
1.09 0.92 22.90 202 206 191
1.09 0.85 22.90 255 255 232
1.09 0.78 22.90 249 252 209
1.09 0.70 22.90 221 226 170
1.09 0.63 22.90 247 253 189
1.09 0.56 22.90 237 246 183
1.05 1.07 22.84 33 45 41
1.05 1.00 22.84 0 8 3
1.05 0.92 22.84 75 80 74
1.05 0.85 22.84 237 239 225
1.05 0.78 22.84 255 255 227
1.05 0.70 22.84 252 255 212
1.05 0.63 22.84 225 230 172
1.05 0.56 22.84 253 255 199
1.01 0.92 22.77 1 8 1
1.01 0.85 22.77 110 113 104
1.01 0.78 22.77 254 255 241
1.01 0.70 22.77 251 253 229
1.01 0.63 22.77 248 252 217
1.01 0.56 22.77 235 237 198
1.01 0.48 22.77 255 255 218
1.01 0.41 22.77 153 160 119
0.98 0.92 22.71 43 56 47
0.98 0.85 22.71 14 27 20
0.98 0.78 22.71 20 29 26
0.98 0.70 22.71 170 175 171
0.98 0.63 22.71 250 251 243
0.98 0.56 22.71 246 247 229
0.98 0.48 22.71 241 242 210
0.98 0.41 22.71 243 245 205
1.07 0.95 22.60 40 55 48
0.94 0.85 22.65 41 56 51
0.94 0.78 22.65 13 24 20
0.94 0.70 22.65 49 55 51
0.94 0.63 22.65 180 182 169
0.94 0.56 22.65 255 255 236
0.94 0.48 22.65 252 254 215
0.94 0.41 22.65 232 233 189
0.94 0.34 22.65 253 255 211
0.94 0.26 22.65 255 255 220
1.04 0.95 22.54 38 52 39
1.04 0.88 22.54 42 58 45
0.90 0.78 22.58 33 47 34
0.90 0.70 22.58 8 20 10
0.90 0.63 22.58 67 78 70
0.90 0.56 22.58 197 203 199
0.90 0.48 22.58 251 255 253
0.90 0.41 22.58 244 249 242
0.90 0.34 22.58 217 224 206
0.90 0.26 22.58 231 240 213
1.00 0.80 22.48 42 55 45
0.87 0.70 22.52 41 53 41
0.87 0.63 22.52 12 25 8
0.87 0.56 22.52 83 92 75
0.87 0.48 22.52 243 252 233
0.87 0.41 22.52 250 255 234
0.87 0.34 22.52 244 254 219
0.87 0.26 22.52 231 242 200
0.87 0.19 22.52 230 242 192
1.00 0.14 22.48 186 198 150
0.83 0.78 22.46 44 57 48
0.83 0.70 22.46 36 48 34
0.83 0.63 22.46 23 36 16
0.83 0.56 22.46 14 24 0
0.83 0.48 22.46 111 122 92
0.83 0.41 22.46 252 255 227
0.83 0.34 22.46 249 255 211
0.83 0.26 22.46 253 255 210
0.96 0.22 22.41 235 247 185
0.96 0.14 22.41 247 255 198
0.93 0.51 22.35 9 21 0
0.79 0.41 22.39 155 164 137
0.79 0.34 22.39 252 255 223
0.93 0.29 22.35 254 255 216
0.93 0.22 22.35 240 249 192
1.06 0.17 22.30 242 252 192
1.06 0.09 22.30 81 87 39
1.06 0.02 22.30 22 26 0
0.89 0.51 22.28 15 26 22
0.89 0.44 22.28 24 31 24
0.89 0.36 22.28 196 204 189
0.89 0.29 22.28 251 255 231
1.03 0.24 22.24 254 255 221
1.03 0.17 22.24 227 234 183
1.03 0.09 22.24 235 240 184
1.03 0.02 22.24 62 64 14
0.99 0.39 22.17 65 73 75
0.99 0.32 22.17 199 205 195
0.99 0.24 22.17 246 255 228
0.99 0.17 22.17 255 255 223
0.99 0.09 22.17 255 255 206
0.99 0.02 22.17 233 236 183
0.99 -0.05 22.17 64 66 26
0.99 -0.13 22.17 3 11 0
0.95 0.39 22.11 8 20 20
0.95 0.32 22.11 83 93 85
0.95 0.24 22.11 218 228 204
0.95 0.17 22.11 254 255 228
0.95 0.09 22.11 225 228 183
1.09 0.05 22.06 252 255 212
1.09 -0.03 22.06 199 201 164
1.09 -0.10 22.06 37 46 19
0.92 0.39 22.05 28 41 32
0.92 0.32 22.05 12 24 10
0.92 0.24 22.05 112 125 99
1.05 0.19 22.00 239 248 217
1.05 0.12 22.00 255 255 224
1.05 0.05 22.00 231 235 200
1.05 -0.03 22.00 243 246 215
1.05 -0.10 22.00 167 176 145
1.05 -0.18 22.00 14 24 0
1.05 -0.25 22.00 20 29 8
0.88 0.39 21.98 49 57 60
0.88 0.32 21.98 50 53 58
1.01 0.27 21.93 32 36 37
1.01 0.19 21.93 131 132 126
1.01 0.12 21.93 252 252 224
1.01 0.05 21.93 248 250 211
1.01 -0.03 21.93 225 226 182
1.01 -0.10 21.93 250 255 210
1.01 -0.18 21.93 134 140 96
1.01 -0.25 21.93 1 5 0
0.98 0.41 21.87 2 11 10
0.98 0.34 21.87 1 7 7
0.98 0.27 21.87 0 2 0
0.98 0.19 21.87 0 2 0
0.98 0.12 21.87 253 255 228
0.98 0.05 21.87 255 255 220
0.98 -0.03 21.87 229 235 191
0.98 -0.10 21.87 244 250 202
0.98 -0.18 21.87 251 255 211
0.98 -0.25 21.87 49 54 14
0.94 0.41 21.81 47 57 49
0.94 0.34 21.81 63 72 67
0.94 0.27 21.81 58 65 57
0.94 0.19 21.81 54 62 49
0.94 0.12 21.81 191 200 171
0.94 0.05 21.81 254 255 225
0.94 -0.03 21.81 251 255 216
1.11 -0.07 21.75 232 238 192
1.11 -0.15 21.75 255 255 214
1.11 -0.22 21.75 236 239 196
1.07 0.30 21.68 142 152 143
1.07 0.22 21.68 124 134 123
1.07 0.15 21.68 87 96 75
1.07 0.08 21.68 204 214 187
1.07 0.00 21.68 249 255 223
1.07 -0.07 21.68 255 255 220
1.07 -0.15 21.68 230 231 187
1.07 -0.22 21.68 255 255 218
1.03 0.30 21.62 128 137 132
1.03 0.22 21.62 139 149 141
1.03 0.15 21.62 99 110 96
1.03 0.08 21.62 113 124 108
1.03 0.00 21.62 252 255 237
1.03 -0.07 21.62 255 255 225
1.03 -0.15 21.62 249 251 211
1.03 -0.22 21.62 214 220 176
0.99 0.15 21.55 0 4 0
0.99 0.08 21.55 0 4 0
0.99 0.00 21.55 108 116 101
0.99 -0.07 21.55 255 255 232
0.99 -0.15 21.55 254 255 223
0.99 -0.22 21.55 246 252 214
0.99 -0.30 21.55 220 227 186
0.99 -0.37 21.55 235 244 201
1.09 0.17 21.44 0 3 0
0.96 0.08 21.49 0 7 0
0.96 0.00 21.49 1 7 0
0.96 -0.07 21.49 154 162 139
0.96 -0.15 21.49 254 255 232
0.96 -0.22 21.49 254 255 227
0.96 -0.30 21.49 236 244 207
0.96 -0.37 21.49 241 249 208
1.05 0.17 21.37 5 11 1
1.05 0.10 21.37 2 8 0
1.05 0.03 21.37 0 4 0
1.05 -0.05 21.37 16 23 5
1.05 -0.12 21.37 174 182 159
0.92 -0.22 21.42 250 255 228
0.92 -0.30 21.42 252 255 227
0.92 -0.37 21.42 235 246 206
1.02 0.17 21.31 6 12 0
1.02 0.10 21.31 4 10 0
1.02 0.03 21.31 1 7 0
1.02 -0.05 21.31 2 7 0
1.02 -0.12 21.31 1 7 0
0.88 -0.22 21.36 224 230 204
0.88 -0.30 21.36 250 255 219
0.88 -0.37 21.36 255 255 214
0.98 0.03 21.25 4 10 0
0.98 -0.05 21.25 0 3 0
0.98 -0.12 21.25 7 13 1
0.85 -0.22 21.30 46 54 30
0.85 -0.30 21.30 252 255 228
0.98 -0.35 21.25 245 254 209
0.98 -0.42 21.25 254 255 214
0.98 -0.50 21.25 216 224 175
0.94 0.03 21.18 7 13 0
0.94 -0.05 21.18 12 18 6
0.94 -0.12 21.18 0 3 0
0.94 -0.20 21.18 0 6 0
0.94 -0.27 21.18 89 98 71
0.94 -0.35 21.18 253 255 227
0.94 -0.42 21.18 252 255 221
0.94 -0.50 21.18 245 252 210
0.90 -0.12 21.12 6 14 1
0.90 -0.20 21.12 1 7 0
0.90 -0.27 21.12 0 4 0
0.90 -0.35 21.12 148 153 133
0.90 -0.42 21.12 254 255 234
0.90 -0.50 21.12 248 255 219
0.90 -0.72 21.12 255 255 211
0.90 -0.79 21.12 79 88 35
0.90 -0.87 21.12 4 11 0
0.90 -0.94 21.12 4 9 0
0.87 -0.12 21.05 2 12 1
0.87 -0.20 21.05 1 9 0
0.87 -0.27 21.05 0 3 0
0.87 -0.35 21.05 0 3 0
0.87 -0.42 21.05 184 191 175
0.87 -0.50 21.05 250 255 228
1.00 -0.70 21.00 254 255 208
0.87 -0.79 21.05 221 230 175
0.87 -0.87 21.05 70 78 29
0.87 -0.94 21.05 3 9 0
0.96 -0.70 20.94 225 232 188
0.96 -0.77 20.94 251 255 210
0.96 -0.85 20.94 213 220 178
0.96 -0.92 20.94 12 18 0
0.93 -0.70 20.87 246 251 229
0.93 -0.77 20.87 250 254 231
0.93 -0.85 20.87 231 235 212
0.93 -0.92 20.87 255 255 237
1.05 -0.67 20.74 254 255 221
0.89 -0.77 20.81 254 255 212
0.89 -0.85 20.81 243 250 196
0.89 -0.92 20.81 235 243 186
1.02 -0.67 20.68 146 153 122
1.02 -0.74 20.68 254 255 221
0.85 -0.85 20.74 255 255 216
0.85 -0.92 20.74 232 239 188
0.98 -0.67 20.61 8 12 0
0.98 -0.74 20.61 202 207 185
0.98 -0.82 20.61 255 255 229
0.98 -0.89 20.61 248 253 213
0.98 -0.97 20.61 234 237 190
1.11 -1.02 20.56 254 255 204
0.94 -0.67 20.55 2 4 3
0.94 -0.74 20.55 46 47 41
0.94 -0.82 20.55 229 231 217
0.94 -0.89 20.55 250 253 226
1.07 -0.95 20.50 255 255 221
1.07 -1.02 20.50 231 235 184
0.90 -0.82 20.48 78 79 73
1.03 -0.87 20.43 255 255 237
1.03 -0.95 20.43 244 248 215
1.03 -1.02 20.43 254 255 214
1.03 -1.10 20.43 227 234 183
1.03 -1.17 20.43 251 255 211
1.00 -0.80 20.37 0 1 0
1.00 -0.87 20.37 96 99 82
1.00 -0.95 20.37 255 255 234
1.00 -1.02 20.37 250 254 219
1.00 -1.10 20.37 251 255 215
1.00 -1.17 20.37 239 245 197
0.96 -0.80 20.30 0 2 0
0.96 -0.87 20.30 9 12 0
0.96 -0.95 20.30 144 147 126
0.96 -1.02 20.30 255 255 234
0.96 -1.10 20.30 252 255 224
0.96 -1.17 20.30 234 240 192
0.96 -1.25 20.30 227 234 180
1.12 -1.30 20.24 245 254 199
1.12 -1.38 20.24 66 74 23
1.12 -1.45 20.24 0 7 0
0.92 -0.80 20.24 0 2 0
0.92 -0.87 20.24 0 3 0
0.92 -0.95 20.24 22 25 8
0.92 -1.02 20.24 178 181 162
0.92 -1.10 20.24 253 255 228
0.92 -1.17 20.24 248 254 206
0.92 -1.25 20.24 222 230 171
1.09 -1.30 20.17 252 255 201
1.09 -1.38 20.17 230 239 184
1.09 -1.45 20.17 1 10 0
0.88 -0.80 20.17 11 13 0
0.88 -0.87 20.17 3 5 0
0.88 -0.95 20.17 0 2 0
0.88 -1.02 20.17 21 23 9
0.88 -1.10 20.17 226 228 204
0.88 -1.17 20.17 254 255 211
0.88 -1.25 20.17 255 255 204
1.05 -1.30 20.11 233 236 183
0.88 -1.40 20.17 253 255 206
1.05 -1.45 20.11 207 210 167
0.85 -0.80 20.11 7 9 0
0.85 -0.87 20.11 6 8 0
0.85 -0.95 20.11 4 6 0
0.85 -1.02 20.11 0 2 0
0.85 -1.10 20.11 81 83 62
0.85 -1.17 20.11 255 255 223
1.01 -1.23 20.04 255 255 215
1.01 -1.30 20.04 247 249 202
1.01 -1.38 20.04 226 228 181
1.01 -1.45 20.04 251 254 207
0.81 -0.95 20.04 12 14 3
0.81 -1.02 20.04 1 3 0
0.81 -1.10 20.04 1 2 0
0.97 -1.15 19.98 115 117 96
0.97 -1.23 19.98 255 255 230
0.97 -1.30 19.98 255 255 223
0.97 -1.38 19.98 246 249 206
0.97 -1.45 19.98 242 246 195
0.97 -1.53 19.98 116 122 76
0.97 -1.60 19.98 4 8 0
0.77 -0.95 19.98 7 8 0
0.77 -1.02 19.98 16 19 10
0.77 -1.10 19.98 0 1 0
0.94 -1.15 19.91 11 12 4
0.94 -1.23 19.91 149 150 136
0.94 -1.30 19.91 246 249 220
0.94 -1.38 19.91 255 255 220
0.94 -1.45 19.91 240 244 193
0.94 -1.53 19.91 239 244 190
0.94 -1.60 19.91 68 71 26
0.73 -0.95 19.91 6 9 0
0.73 -1.02 19.91 12 15 6
0.73 -1.10 19.91 4 7 0
0.90 -1.15 19.84 0 0 0
0.90 -1.23 19.84 26 27 21
0.90 -1.30 19.84 174 177 156
0.90 -1.38 19.84 255 255 227
0.90 -1.45 19.84 248 254 206
0.90 -1.53 19.84 255 255 207
0.90 -1.60 19.84 234 238 188
1.03 -1.66 19.79 35 37 0
1.03 -1.74 19.79 6 6 0
0.86 -0.92 19.78 9 12 3
0.86 -1.00 19.78 6 12 2
0.86 -1.07 19.78 4 9 2
0.86 -1.15 19.78 0 5 0
0.86 -1.23 19.78 6 9 2
0.86 -1.30 19.78 59 64 44
0.86 -1.38 19.78 193 198 168
0.86 -1.45 19.78 255 255 220
0.86 -1.53 19.78 221 225 174
0.99 -1.58 19.73 255 255 211
0.99 -1.66 19.73 195 198 153
0.99 -1.74 19.73 6 8 0
0.82 -1.07 19.71 6 12 0
0.82 -1.15 19.71 11 17 5
0.82 -1.23 19.71 0 5 0
0.82 -1.30 19.71 0 3 0
0.82 -1.38 19.71 67 71 48
0.82 -1.45 19.71 246 251 221
0.95 -1.51 19.66 247 250 207
0.95 -1.58 19.66 227 229 182
0.95 -1.66 19.66 249 251 202
0.95 -1.74 19.66 176 178 131
0.95 -1.81 19.66 3 5 0
0.95 -1.89 19.66 8 9 0
0.78 -1.07 19.65 4 10 0
0.78 -1.15 19.65 11 20 3
0.78 -1.23 19.65 15 22 4
0.78 -1.30 19.65 0 4 0
0.78 -1.38 19.65 4 7 0
0.91 -1.43 19.59 102 106 81
0.91 -1.51 19.59 254 255 217
0.91 -1.58 19.59 242 243 199
0.91 -1.66 19.59 234 236 186
0.91 -1.74 19.59 252 254 204
0.91 -1.81 19.59 127 131 81
0.91 -1.89 19.59 3 5 0
0.75 -1.23 19.58 13 14 6
0.75 -1.30 19.58 11 11 0
0.75 -1.38 19.58 2 2 0
0.88 -1.43 19.53 8 6 0
0.88 -1.51 19.53 253 252 231
0.88 -1.58 19.53 255 255 226
0.88 -1.66 19.53 232 233 191
0.88 -1.74 19.53 237 240 187
0.88 -1.81 19.53 253 255 199
1.04 -1.87 19.46 75 80 22
1.04 -1.94 19.46 5 11 0
1.04 -2.02 19.46 3 6 0
0.71 -1.23 19.52 9 12 3
0.71 -1.30 19.52 11 13 0
0.71 -1.38 19.52 12 14 1
0.84 -1.43 19.46 1 1 0
0.84 -1.51 19.46 200 199 181
0.84 -1.58 19.46 248 248 222
1.00 -1.64 19.39 255 255 223
1.00 -1.71 19.39 239 242 195
1.00 -1.79 19.39 255 255 205
1.00 -1.87 19.39 218 226 167
1.00 -1.94 19.39 46 53 2
1.00 -2.02 19.39 5 9 0
0.80 -1.51 19.40 39 41 28
0.96 -1.56 19.33 212 215 196
0.96 -1.64 19.33 253 255 227
0.96 -1.71 19.33 253 255 217
0.96 -1.79 19.33 238 245 193
0.96 -1.87 19.33 246 254 197
0.96 -1.94 19.33 201 210 155
0.96 -2.02 19.33 7 15 0
0.93 -1.48 19.26 0 2 0
0.93 -1.56 19.26 91 94 83
0.93 -1.64 19.26 242 245 224
0.93 -1.71 19.26 255 255 228
0.93 -1.79 19.26 254 255 215
0.93 -1.87 19.26 231 240 185
0.93 -1.94 19.26 239 248 191
0.93 -2.02 19.26 183 192 135
0.89 -1.94 19.20 233 242 185
0.89 -2.02 19.20 250 255 199
0.89 -2.09 19.20 150 158 99
0.89 -2.17 19.20 1 7 0
0.85 -1.94 19.13 233 240 188
0.85 -2.02 19.13 229 237 178
0.85 -2.09 19.13 245 251 191
0.85 -2.17 19.13 107 112 58
0.81 -1.48 19.06 9 14 8
0.81 -1.56 19.06 3 7 6
0.81 -1.64 19.06 4 6 3
0.94 -1.70 19.01 3 6 0
0.94 -1.77 19.01 182 185 164
0.94 -1.85 19.01 254 255 225
0.81 -1.94 19.06 248 254 208
0.81 -2.02 19.06 234 239 185
0.81 -2.09 19.06 241 244 187
0.81 -2.17 19.06 230 233 176
0.77 -1.48 19.00 2 9 2
0.77 -1.56 19.00 2 8 6
0.77 -1.64 19.00 3 9 7
0.90 -1.70 18.94 0 3 1
0.90 -1.77 18.94 0 2 0
0.90 -1.85 18.94 60 64 50
0.90 -1.92 18.94 227 232 209
0.90 -2.00 18.94 250 255 222
0.90 -2.08 18.94 251 255 211
0.90 -2.15 18.94 229 231 181
0.73 -1.48 18.93 3 10 2
0.73 -1.56 18.93 3 9 5
0.73 -1.64 18.93 7 13 11
0.86 -1.70 18.88 6 10 9
0.86 -1.77 18.88 0 5 0
0.86 -1.85 18.88 0 3 0
0.86 -1.92 18.88 115 119 96
0.86 -2.00 18.88 251 254 223
0.86 -2.08 18.88 250 255 214
0.86 -2.15 18.88 247 249 200
0.86 -2.23 18.88 239 237 180
0.86 -2.31 18.88 245 243 184
0.70 -1.48 18.87 4 12 1
0.70 -1.56 18.87 4 11 4
0.70 -1.64 18.87 12 17 11
0.83 -1.70 18.81 0 4 0
0.83 -1.77 18.81 9 12 5
0.83 -1.85 18.81 5 7 0
0.83 -1.92 18.81 0 3 0
0.83 -2.00 18.81 153 156 129
0.83 -2.08 18.81 253 254 222
0.83 -2.15 18.81 255 255 212
0.83 -2.23 18.81 247 246 189
0.83 -2.31 18.81 251 251 187
0.79 -1.62 18.74 2 7 0
0.79 -1.70 18.74 4 9 3
0.95 -1.75 18.67 16 19 12
0.95 -1.83 18.67 4 5 0
0.95 -1.90 18.67 0 3 0
0.95 -1.98 18.67 19 21 0
0.95 -2.06 18.67 169 169 145
0.95 -2.13 18.67 255 255 223
0.95 -2.21 18.67 252 252 200
0.95 -2.29 18.67 251 251 191
0.75 -1.62 18.68 0 3 0
0.75 -1.70 18.68 16 19 12
0.91 -1.75 18.61 0 2 0
0.91 -1.83 18.61 13 16 7
0.91 -1.90 18.61 6 8 0
0.91 -1.98 18.61 0 2 0
0.91 -2.06 18.61 38 39 23
0.91 -2.13 18.61 192 194 170
0.91 -2.21 18.61 255 255 221
0.91 -2.29 18.61 243 247 197
0.71 -1.62 18.61 5 8 1
0.71 -1.70 18.61 0 2 0
0.87 -1.75 18.54 13 16 7
0.87 -1.83 18.54 7 10 1
0.87 -1.90 18.54 11 14 5
0.87 -1.98 18.54 0 3 0
0.87 -2.06 18.54 3 4 0
0.87 -2.13 18.54 60 62 49
0.87 -2.21 18.54 231 235 210
1.03 -2.27 18.47 255 255 225
1.03 -2.34 18.47 255 255 211
1.16 -2.40 18.41 237 243 183
0.67 -1.62 18.55 0 2 0
0.67 -1.70 18.55 11 14 5
0.99 -1.73 18.40 8 11 2
0.83 -1.83 18.47 8 11 4
0.99 -1.88 18.40 6 11 4
0.99 -1.96 18.40 7 12 6
0.99 -2.03 18.40 0 2 0
0.99 -2.11 18.40 0 2 0
0.99 -2.19 18.40 94 102 87
0.99 -2.27 18.40 248 255 228
0.99 -2.34 18.40 246 254 207
1.12 -2.40 18.35 254 255 198
0.96 -1.88 18.34 1 8 0
0.96 -1.96 18.34 9 15 11
0.96 -2.03 18.34 3 9 7
0.96 -2.11 18.34 1 7 5
0.96 -2.19 18.34 0 4 0
0.96 -2.27 18.34 130 140 116
0.96 -2.34 18.34 254 255 216
1.08 -2.40 18.28 248 255 192
1.08 -2.48 18.28 248 255 177
1.08 -2.56 18.28 244 249 167
0.92 -1.88 18.27 0 4 0
0.92 -1.96 18.27 0 6 0
0.92 -2.03 18.27 0 6 0
0.92 -2.11 18.27 0 5 0
0.92 -2.19 18.27 0 7 0
0.92 -2.27 18.27 17 36 17
0.92 -2.34 18.27 154 170 144
1.05 -2.40 18.21 240 255 216
1.05 -2.48 18.21 253 255 204
1.05 -2.56 18.21 238 248 179
1.01 -1.86 18.15 34 46 34
0.88 -1.96 18.20 43 55 43
0.88 -2.03 18.20 51 63 49
0.88 -2.11 18.20 53 67 52
0.88 -2.19 18.20 47 66 47
0.88 -2.27 18.20 30 49 29
1.01 -2.33 18.15 94 109 86
1.01 -2.40 18.15 190 204 169
1.01 -2.48 18.15 249 255 206
1.01 -2.56 18.15 255 255 202
1.01 -2.63 18.15 248 254 192
1.01 -2.71 18.15 227 231 172
1.01 -2.79 18.15 213 216 159
1.01 -2.87 18.15 126 131 77
0.97 -1.86 18.08 129 140 126
0.97 -1.94 18.08 133 144 130
0.97 -2.02 18.08 134 145 129
0.97 -2.09 18.08 129 142 125
0.97 -2.17 18.08 103 120 101
0.97 -2.25 18.08 69 86 67
0.97 -2.33 18.08 58 73 54
0.97 -2.40 18.08 119 129 104
0.97 -2.48 18.08 199 207 168
0.97 -2.56 18.08 252 255 208
0.97 -2.63 18.08 255 255 205
0.97 -2.71 18.08 244 245 187
0.97 -2.79 18.08 230 231 171
0.97 -2.87 18.08 186 190 129
0.93 -2.02 18.01 79 90 76
0.93 -2.09 18.01 70 82 68
0.93 -2.17 18.01 50 67 48
0.93 -2.25 18.01 54 71 52
0.93 -2.33 18.01 46 60 43
0.93 -2.40 18.01 66 78 58
0.93 -2.48 18.01 130 136 110
0.93 -2.56 18.01 221 225 190
0.93 -2.63 18.01 255 255 216
0.93 -2.71 18.01 246 245 191
0.93 -2.79 18.01 238 237 172
0.93 -2.87 18.01 217 218 150
0.89 -2.02 17.95 35 46 38
0.89 -2.09 17.95 34 46 36
0.89 -2.17 17.95 10 24 9
0.89 -2.25 17.95 15 29 12
0.89 -2.33 17.95 27 39 25
0.89 -2.40 17.95 23 34 18
0.89 -2.48 17.95 49 58 41
0.89 -2.56 17.95 143 149 123
0.89 -2.63 17.95 243 245 206
0.89 -2.71 17.95 255 255 209
0.89 -2.79 17.95 253 254 188
0.89 -2.87 17.95 240 241 171
0.85 -2.17 17.88 13 24 16
0.85 -2.25 17.88 0 11 0
1.01 -2.31 17.81 29 43 28
1.01 -2.38 17.81 39 53 36
1.01 -2.46 17.81 29 41 27
1.01 -2.54 17.81 62 74 52
1.01 -2.62 17.81 161 171 134
0.85 -2.71 17.88 246 254 203
0.85 -2.79 17.88 252 255 193
0.85 -2.87 17.88 246 249 180
0.97 -2.15 17.74 40 51 45
0.97 -2.23 17.74 14 25 17
0.97 -2.31 17.74 21 35 18
0.97 -2.38 17.74 36 53 35
0.97 -2.46 17.74 27 48 31
0.97 -2.54 17.74 27 46 24
0.97 -2.62 17.74 77 93 56
0.97 -2.69 17.74 191 203 153
0.97 -2.77 17.74 249 255 198
0.97 -2.85 17.74 255 255 194
0.94 -2.31 17.67 6 23 5
0.94 -2.38 17.67 19 41 20
0.94 -2.46 17.67 43 66 48
0.94 -2.54 17.67 36 60 36
0.94 -2.62 17.67 9 31 0
0.94 -2.69 17.67 93 111 61
0.94 -2.77 17.67 208 219 161
0.94 -2.85 17.67 255 255 203
0.94 -2.93 17.67 255 254 198
0.94 -3.00 17.67 238 236 175
1.06 -2.29 17.53 18 24 22
1.06 -2.36 17.53 11 17 15
0.90 -2.46 17.60 34 43 40
1.06 -2.52 17.53 46 54 56
1.06 -2.60 17.53 33 41 43
1.06 -2.68 17.53 11 17 15
1.06 -2.75 17.53 124 133 116
0.90 -2.85 17.60 208 215 184
0.90 -2.93 17.60 254 255 211
1.06 -2.99 17.53 254 255 200
1.02 -2.44 17.46 18 27 26
1.02 -2.52 17.46 24 32 34
1.02 -2.60 17.46 23 31 34
1.02 -2.68 17.46 16 22 20
1.02 -2.75 17.46 46 54 41
1.02 -2.83 17.46 150 156 130
1.02 -2.91 17.46 235 243 196
1.02 -2.99 17.46 251 255 200
1.02 -3.06 17.46 255 255 198
1.14 -3.13 17.40 233 233 171
1.11 -2.43 17.34 17 25 27
1.11 -2.50 17.34 18 26 29
1.11 -2.58 17.34 26 33 39
1.11 -2.66 17.34 24 32 34
1.11 -2.74 17.34 18 25 17
1.11 -2.82 17.34 67 75 54
1.11 -2.89 17.34 156 164 127
1.11 -2.97 17.34 242 248 200
1.11 -3.05 17.34 255 255 203
1.11 -3.13 17.34 254 255 195
1.07 -2.58 17.27 27 36 41
1.07 -2.66 17.27 17 27 29
1.07 -2.74 17.27 20 29 24
1.07 -2.82 17.27 4 12 0
1.07 -2.89 17.27 82 90 66
1.07 -2.97 17.27 178 184 148
1.07 -3.05 17.27 255 255 211
1.07 -3.13 17.27 255 255 205
1.07 -3.21 17.27 227 232 166
1.23 -3.27 17.19 189 195 133
1.19 -2.56 17.13 39 51 51
1.03 -2.66 17.20 25 37 37
1.19 -2.72 17.13 26 37 33
1.19 -2.80 17.13 14 24 16
1.19 -2.88 17.13 13 21 6
1.03 -2.97 17.20 89 94 71
1.03 -3.05 17.20 193 199 161
1.03 -3.13 17.20 255 255 212
1.19 -3.19 17.13 251 255 189
1.19 -3.27 17.13 216 223 156
1.15 -2.72 17.06 46 59 52
1.15 -2.80 17.06 39 48 45
1.15 -2.88 17.06 21 31 23
1.15 -2.96 17.06 18 24 12
1.15 -3.03 17.06 114 120 92
1.15 -3.11 17.06 215 220 179
1.15 -3.19 17.06 253 255 192
1.15 -3.27 17.06 242 247 181
1.15 -3.35 17.06 217 220 153
1.15 -3.43 17.06 183 191 118
1.11 -2.72 16.99 48 61 54
1.11 -2.80 16.99 54 64 63
1.11 -2.88 16.99 49 59 60
1.11 -2.96 16.99 44 50 48
1.11 -3.03 16.99 44 51 35
1.11 -3.11 16.99 142 147 115
1.11 -3.19 16.99 255 255 204
1.11 -3.27 16.99 244 245 185
1.11 -3.35 16.99 243 243 179
1.11 -3.43 16.99 210 217 139
1.07 -2.88 16.92 51 61 63
1.07 -2.96 16.92 56 61 64
1.07 -3.03 16.92 43 49 39
1.07 -3.11 16.92 82 88 62
1.07 -3.19 16.92 230 235 179
1.07 -3.27 16.92 255 255 202
1.07 -3.35 16.92 255 255 197
1.07 -3.43 16.92 229 233 156
1.07 -3.50 16.92 203 210 133
1.23 -3.57 16.85 163 169 107
1.19 -2.86 16.78 72 88 78
1.19 -2.94 16.78 81 97 87
1.19 -3.02 16.78 79 97 83
1.19 -3.10 16.78 76 94 80
1.03 -3.19 16.85 108 124 97
1.03 -3.27 16.85 191 200 153
1.03 -3.35 16.85 252 255 201
1.03 -3.43 16.85 242 247 189
1.19 -3.49 16.78 247 251 192
1.19 -3.57 16.78 224 228 167
1.31 -2.84 16.63 74 90 77
1.15 -2.94 16.71 77 93 80
1.15 -3.02 16.71 78 96 84
1.15 -3.10 16.71 81 99 87
1.15 -3.17 16.71 70 85 66
1.15 -3.25 16.71 125 135 101
1.15 -3.33 16.71 212 218 174
1.15 -3.41 16.71 243 251 194
1.15 -3.49 16.71 255 255 198
1.15 -3.57 16.71 234 239 175
1.27 -2.84 16.56 77 94 78
1.27 -2.92 16.56 80 96 83
1.27 -3.00 16.56 77 95 81
1.27 -3.08 16.56 80 97 87
1.11 -3.17 16.64 56 70 57
1.11 -3.25 16.64 85 97 75
1.11 -3.33 16.64 145 152 118
1.11 -3.41 16.64 220 228 177
1.11 -3.49 16.64 246 252 192
1.11 -3.57 16.64 243 247 186
1.23 -3.00 16.50 48 66 54
1.23 -3.08 16.50 51 68 60
1.23 -3.16 16.50 54 69 62
1.07 -3.25 16.57 56 68 54
1.07 -3.33 16.57 82 92 68
1.07 -3.41 16.57 160 169 126
1.07 -3.49 16.57 228 235 183
1.07 -3.57 16.57 243 247 188
1.07 -3.65 16.57 246 247 187
1.23 -3.71 16.50 240 240 176
1.19 -3.00 16.43 63 80 70
1.19 -3.08 16.43 56 73 65
1.19 -3.16 16.43 48 65 59
1.19 -3.24 16.43 47 63 53
1.19 -3.32 16.43 46 60 45
1.19 -3.39 16.43 94 105 75
1.19 -3.47 16.43 178 185 144
1.19 -3.55 16.43 235 239 188
1.03 -3.65 16.51 247 247 187
1.19 -3.71 16.43 251 252 186
1.15 -3.16 16.36 55 72 66
1.15 -3.24 16.36 65 86 77
1.15 -3.32 16.36 44 62 50
1.15 -3.39 16.36 47 61 44
1.15 -3.47 16.36 102 111 84
1.15 -3.55 16.36 197 203 157
1.15 -3.63 16.36 241 242 184
1.15 -3.71 16.36 245 246 178
1.31 -3.78 16.28 248 248 176
1.31 -3.85 16.28 217 218 148
1.11 -3.16 16.29 51 71 62
1.11 -3.24 16.29 53 76 66
1.11 -3.32 16.29 50 71 62
1.11 -3.39 16.29 36 52 41
1.11 -3.47 16.29 53 62 43
1.11 -3.55 16.29 122 127 87
1.11 -3.63 16.29 196 197 140
1.11 -3.71 16.29 253 253 183
1.27 -3.78 16.21 244 242 168
1.27 -3.85 16.21 241 242 174
1.23 -3.14 16.14 47 66 60
1.23 -3.22 16.14 52 72 61
1.07 -3.32 16.22 49 69 60
1.07 -3.39 16.22 47 63 62
1.07 -3.47 16.22 41 56 53
1.07 -3.55 16.22 65 78 60
1.07 -3.63 16.22 140 151 117
1.23 -3.70 16.14 211 221 169
1.23 -3.78 16.14 234 243 180
1.23 -3.85 16.14 239 244 177
1.19 -3.14 16.08 52 69 63
1.19 -3.22 16.08 50 70 61
1.19 -3.30 16.08 53 72 66
1.19 -3.38 16.08 54 70 67
1.19 -3.46 16.08 48 63 58
1.19 -3.54 16.08 49 63 48
1.19 -3.62 16.08 77 90 64
1.19 -3.70 16.08 151 159 118
1.19 -3.78 16.08 223 230 178
1.19 -3.85 16.08 253 255 194
1.30 -3.13 15.93 48 64 61
1.15 -3.22 16.01 49 68 64
1.15 -3.30 16.01 51 71 69
1.15 -3.38 16.01 49 68 62
1.15 -3.46 16.01 55 72 66
1.15 -3.54 16.01 54 70 60
1.15 -3.62 16.01 46 58 44
1.15 -3.70 16.01 89 99 75
1.15 -3.78 16.01 170 178 141
1.15 -3.85 16.01 234 239 183
1.30 -3.92 15.93 242 247 181
1.30 -4.00 15.93 244 247 176
1.26 -3.13 15.86 52 68 65
1.26 -3.20 15.86 51 70 68
1.26 -3.28 15.86 52 72 70
1.26 -3.36 15.86 45 66 57
1.11 -3.46 15.94 53 73 64
1.11 -3.54 15.94 64 83 81
1.11 -3.62 15.94 55 70 67
1.11 -3.70 15.94 62 73 65
1.26 -3.76 15.86 99 109 85
1.26 -3.84 15.86 181 189 142
1.26 -3.92 15.86 226 232 172
1.26 -4.00 15.86 246 251 184
1.22 -3.13 15.79 65 80 75
1.22 -3.20 15.79 57 73 70
1.22 -3.28 15.79 56 75 71
1.22 -3.36 15.79 51 72 63
1.22 -3.44 15.79 51 72 65
1.22 -3.52 15.79 57 75 75
1.22 -3.60 15.79 60 75 78
1.22 -3.68 15.79 57 69 69
1.22 -3.76 15.79 57 67 56
1.22 -3.84 15.79 130 137 103
1.22 -3.92 15.79 198 204 156
1.22 -4.00 15.79 228 233 175
1.22 -4.08 15.79 235 239 178
1.22 -4.16 15.79 242 243 183
1.22 -4.24 15.79 207 209 144
1.22 -4.32 15.79 185 192 115
1.18 -3.13 15.72 62 77 70
1.18 -3.20 15.72 58 75 67
1.18 -3.28 15.72 56 73 65
1.18 -3.36 15.72 56 75 69
1.18 -3.44 15.72 58 77 73
1.18 -3.52 15.72 58 76 78
1.18 -3.60 15.72 62 77 80
1.18 -3.68 15.72 57 73 73
1.18 -3.76 15.72 48 61 52
1.18 -3.84 15.72 81 90 69
1.18 -3.92 15.72 139 146 112
1.18 -4.00 15.72 200 206 160
1.18 -4.08 15.72 232 235 182
1.18 -4.16 15.72 240 244 183
1.18 -4.24 15.72 240 242 177
1.18 -4.32 15.72 198 202 128
1.15 -3.28 15.65 59 72 63
1.15 -3.36 15.65 59 75 72
1.15 -3.44 15.65 64 80 80
1.15 -3.52 15.65 63 83 84
1.15 -3.60 15.65 61 79 79
1.15 -3.68 15.65 56 75 71
1.15 -3.76 15.65 55 70 63
1.15 -3.84 15.65 57 68 54
1.15 -3.92 15.65 82 90 69
1.15 -4.00 15.65 159 165 131
1.15 -4.08 15.65 205 208 163
1.15 -4.16 15.65 218 223 165
1.15 -4.24 15.65 251 255 192
1.15 -4.32 15.65 225 227 162
1.15 -4.40 15.65 201 203 138
1.15 -4.48 15.65 175 180 114
1.11 -3.28 15.58 68 82 69
1.11 -3.36 15.58 64 78 78
1.11 -3.44 15.58 60 75 80
1.11 -3.52 15.58 58 78 77
1.11 -3.60 15.58 54 73 71
1.11 -3.68 15.58 54 74 65
1.11 -3.76 15.58 67 83 73
1.11 -3.84 15.58 64 75 67
1.26 -3.91 15.50 65 73 60
1.26 -3.99 15.50 115 119 92
1.26 -4.07 15.50 164 166 126
1.26 -4.15 15.50 210 215 159
1.26 -4.23 15.50 232 236 175
1.11 -4.32 15.58 238 239 181
1.11 -4.40 15.58 228 229 169
1.11 -4.48 15.58 192 200 125
1.07 -3.60 15.52 64 79 76
1.07 -3.68 15.52 64 80 79
1.22 -3.75 15.44 62 78 77
1.22 -3.83 15.44 62 79 73
1.22 -3.91 15.44 58 74 64
1.22 -3.99 15.44 63 77 60
1.22 -4.07 15.44 106 116 91
1.22 -4.15 15.44 174 182 143
1.22 -4.23 15.44 213 217 167
1.22 -4.31 15.44 244 243 186
1.07 -4.40 15.52 239 239 177
1.07 -4.48 15.52 218 220 157
1.18 -3.59 15.37 63 78 75
1.18 -3.67 15.37 61 77 76
1.18 -3.75 15.37 59 75 74
1.18 -3.83 15.37 60 79 75
1.18 -3.91 15.37 69 86 78
1.18 -3.99 15.37 58 75 59
1.18 -4.07 15.37 68 80 56
1.18 -4.15 15.37 125 135 98
1.18 -4.23 15.37 182 188 142
1.18 -4.31 15.37 220 223 166
1.18 -4.39 15.37 233 235 172
1.18 -4.47 15.37 234 239 172
1.30 -3.57 15.22 63 78 75
1.14 -3.67 15.30 58 77 75
1.30 -3.73 15.22 59 78 76
1.30 -3.81 15.22 60 80 78
1.30 -3.89 15.22 59 78 72
1.30 -3.97 15.22 65 83 71
1.30 -4.05 15.22 63 78 57
1.14 -4.15 15.30 74 88 55
1.14 -4.23 15.30 138 149 107
1.14 -4.31 15.30 196 204 153
1.14 -4.39 15.30 219 225 165
1.14 -4.47 15.30 234 242 169
1.14 -4.55 15.30 235 241 167
1.14 -4.63 15.30 210 215 148
1.26 -3.57 15.15 62 77 74
1.26 -3.65 15.15 60 79 77
1.26 -3.73 15.15 63 82 80
1.26 -3.81 15.15 60 80 79
1.26 -3.89 15.15 53 73 71
1.26 -3.97 15.15 70 90 79
1.26 -4.05 15.15 74 92 76
1.26 -4.13 15.15 57 73 47
1.26 -4.21 15.15 96 110 77
1.26 -4.29 15.15 151 164 121
1.26 -4.37 15.15 200 210 157
1.10 -4.47 15.23 219 227 154
1.10 -4.55 15.23 236 243 166
1.26 -4.62 15.15 241 243 178
1.37 -3.88 15.00 66 88 85
1.37 -3.96 15.00 65 86 81
1.37 -4.04 15.00 64 84 73
1.37 -4.12 15.00 63 82 63
