ply
format ascii 1.0
element vertex 1738
property float x
property float y
property float z
property uchar red
property uchar green
property uchar blue
end_header
2.06 5.36 28.02 0 5 18
2.06 5.29 28.02 0 9 17
2.06 5.22 28.02 184 189 192
2.06 5.15 28.02 214 217 208
2.02 5.36 27.95 2 20 34
2.02 5.29 27.95 0 2 16
2.02 5.22 27.95 16 23 31
2.02 5.15 27.95 196 200 199
2.02 5.08 27.95 200 200 188
2.02 5.01 27.95 142 138 111
1.99 5.36 27.89 3 19 32
1.99 5.29 27.89 0 13 29
1.99 5.22 27.89 0 5 16
1.99 5.15 27.89 78 82 83
1.99 5.08 27.89 216 216 204
1.99 5.01 27.89 188 184 157
1.95 5.36 27.83 6 23 33
1.95 5.29 27.83 18 31 47
1.95 5.22 27.83 0 1 14
1.95 5.15 27.83 0 1 4
1.95 5.08 27.83 113 115 104
1.95 5.01 27.83 253 252 222
1.95 4.94 27.83 154 150 112
2.10 4.91 27.80 255 250 214
1.92 5.36 27.77 8 15 21
1.92 5.29 27.77 0 6 8
1.92 5.22 27.77 5 9 12
1.92 5.15 27.77 2 6 5
1.92 5.08 27.77 0 1 0
1.92 5.01 27.77 133 133 131
1.92 4.94 27.77 255 255 234
1.92 4.87 27.77 215 212 141
1.88 5.08 27.71 0 2 1
1.88 5.01 27.71 0 1 0
1.88 4.94 27.71 232 233 215
1.88 4.87 27.71 122 120 63
1.85 5.08 27.65 12 21 18
1.85 5.01 27.65 4 11 4
1.85 4.94 27.65 0 4 0
1.85 4.87 27.65 247 247 221
1.96 5.12 27.56 0 11 7
1.96 5.05 27.56 6 16 8
1.96 4.98 27.56 0 3 0
1.96 4.91 27.56 150 151 135
1.81 4.80 27.59 238 242 205
1.81 4.73 27.59 160 164 114
1.81 4.66 27.59 174 178 119
1.81 4.59 27.59 255 255 205
1.92 5.12 27.50 0 6 5
1.92 5.05 27.50 1 10 5
1.92 4.98 27.50 20 26 22
1.92 4.91 27.50 5 7 0
1.78 4.80 27.53 209 213 186
1.78 4.73 27.53 255 255 221
1.78 4.66 27.53 140 144 94
1.78 4.59 27.53 220 222 172
1.89 4.98 27.44 0 4 2
1.74 4.87 27.47 5 7 2
1.74 4.80 27.47 0 2 0
1.74 4.73 27.47 211 210 192
1.74 4.66 27.47 223 222 194
1.74 4.59 27.47 124 121 88
1.60 4.48 27.50 255 254 215
1.60 4.41 27.50 255 255 221
1.71 4.94 27.41 7 13 11
1.71 4.87 27.41 1 3 0
1.71 4.80 27.41 5 5 5
1.71 4.73 27.41 49 45 42
1.56 4.62 27.44 255 252 241
1.56 4.55 27.44 184 179 159
1.56 4.48 27.44 129 126 95
1.56 4.41 27.44 252 249 214
1.67 4.94 27.35 6 11 14
1.67 4.87 27.35 6 15 12
1.67 4.80 27.35 1 7 3
1.67 4.73 27.35 0 3 0
1.53 4.62 27.38 45 44 23
1.53 4.55 27.38 255 255 219
1.53 4.48 27.38 157 154 99
1.53 4.41 27.38 155 152 85
1.53 4.34 27.38 255 255 189
1.53 4.27 27.38 214 210 147
1.64 4.94 27.29 3 12 11
1.64 4.87 27.29 4 13 8
1.64 4.80 27.29 1 7 3
1.49 4.68 27.32 0 2 0
1.49 4.62 27.32 1 2 0
1.49 4.55 27.32 174 173 142
1.49 4.48 27.32 255 252 207
1.49 4.41 27.32 152 149 94
1.49 4.34 27.32 183 181 124
1.49 4.27 27.32 255 255 202
1.60 4.80 27.22 6 13 6
1.60 4.73 27.22 8 11 4
1.46 4.62 27.26 4 5 0
1.46 4.55 27.26 4 2 0
1.46 4.48 27.26 225 224 193
1.46 4.41 27.26 242 240 202
1.46 4.34 27.26 151 148 107
1.46 4.27 27.26 204 200 163
1.46 4.20 27.26 255 255 228
1.60 4.17 27.22 75 74 53
1.57 4.80 27.16 0 7 0
1.57 4.73 27.16 12 15 8
1.57 4.66 27.16 4 7 0
1.42 4.55 27.20 1 1 0
1.42 4.48 27.20 12 13 0
1.42 4.41 27.20 252 251 231
1.42 4.34 27.20 221 221 197
1.57 4.31 27.16 144 143 122
1.57 4.24 27.16 225 224 203
1.57 4.17 27.16 255 255 238
1.53 4.52 27.10 0 1 0
1.53 4.45 27.10 53 55 44
1.53 4.38 27.10 253 253 241
1.53 4.31 27.10 197 198 182
1.53 4.24 27.10 145 147 126
1.53 4.17 27.10 254 255 234
1.53 4.10 27.10 226 228 206
1.39 3.99 27.14 76 78 57
1.64 4.56 27.01 0 1 0
1.50 4.45 27.04 0 1 0
1.64 4.42 27.01 136 138 127
1.50 4.31 27.04 251 252 236
1.50 4.24 27.04 151 154 127
1.50 4.17 27.04 153 154 123
1.50 4.10 27.04 255 255 225
1.35 3.99 27.08 186 185 154
1.60 4.42 26.95 0 3 0
1.60 4.35 26.95 169 171 150
1.46 4.24 26.98 255 255 223
1.46 4.17 26.98 134 132 91
1.46 4.10 26.98 185 184 138
1.32 3.99 27.01 244 241 196
1.32 3.92 27.01 174 169 131
1.32 3.85 27.01 45 41 14
1.57 4.42 26.89 2 6 0
1.57 4.35 26.89 9 11 0
1.43 4.24 26.92 232 234 195
1.43 4.17 26.92 255 255 208
1.43 4.10 26.92 148 147 93
1.28 3.99 26.95 212 206 154
1.28 3.92 26.95 255 255 210
1.28 3.85 26.95 139 133 101
1.39 4.24 26.86 13 17 0
1.39 4.17 26.86 255 255 228
1.39 4.10 26.86 207 209 169
1.39 4.02 26.86 155 154 108
1.25 3.92 26.89 219 218 164
1.25 3.85 26.89 255 255 206
1.25 3.78 26.89 101 102 62
1.25 3.71 26.89 31 31 7
1.50 4.28 26.77 0 4 0
1.36 4.17 26.80 58 61 32
1.36 4.10 26.80 255 255 223
1.36 4.02 26.80 185 183 142
1.21 3.92 26.83 145 143 94
1.21 3.85 26.83 247 245 196
1.21 3.78 26.83 240 242 195
1.21 3.71 26.83 62 64 27
1.32 4.10 26.74 142 143 112
1.32 4.02 26.74 255 255 222
1.32 3.95 26.74 172 171 127
1.18 3.85 26.77 165 164 116
1.18 3.78 26.77 255 255 211
1.18 3.71 26.77 202 205 160
1.32 3.67 26.74 64 68 35
1.32 3.60 26.74 48 51 32
1.29 4.10 26.68 5 8 0
1.29 4.02 26.68 228 227 197
1.29 3.95 26.68 240 237 204
1.29 3.88 26.68 151 147 109
1.29 3.81 26.68 179 181 134
1.29 3.74 26.68 255 255 212
1.29 3.67 26.68 154 158 121
1.29 3.60 26.68 60 63 36
1.39 4.13 26.58 4 7 0
1.25 4.02 26.62 61 60 39
1.25 3.95 26.62 245 245 221
1.25 3.88 26.62 233 229 200
1.25 3.81 26.62 128 126 87
1.25 3.74 26.62 210 207 166
1.25 3.67 26.62 251 251 213
1.25 3.60 26.62 143 144 112
1.25 3.53 26.62 52 54 30
1.25 3.46 26.62 57 60 43
1.22 4.10 26.56 3 6 0
1.22 4.02 26.56 0 2 0
1.22 3.95 26.56 113 114 98
1.22 3.88 26.56 251 249 224
1.22 3.81 26.56 219 215 177
1.22 3.74 26.56 150 143 97
1.22 3.67 26.56 236 234 185
1.22 3.60 26.56 255 255 210
1.22 3.53 26.56 115 116 76
1.22 3.46 26.56 30 33 2
1.18 3.95 26.50 24 27 16
1.18 3.88 26.50 134 134 110
1.18 3.81 26.50 255 255 211
1.18 3.74 26.50 187 179 116
1.18 3.67 26.50 167 164 95
1.18 3.60 26.50 238 237 170
1.18 3.53 26.50 246 248 185
1.18 3.46 26.50 87 91 41
1.15 3.95 26.43 41 46 39
1.15 3.88 26.43 34 34 10
1.15 3.81 26.43 164 160 99
1.15 3.74 26.43 255 255 182
1.15 3.67 26.43 177 176 86
1.29 3.64 26.40 175 175 87
1.15 3.53 26.43 255 255 177
1.15 3.46 26.43 218 223 157
1.25 3.71 26.34 245 250 194
1.25 3.64 26.34 154 157 86
1.25 3.57 26.34 197 196 129
1.11 3.46 26.37 255 255 203
1.11 3.39 26.37 201 196 158
1.11 3.32 26.37 58 51 35
1.22 3.71 26.28 250 254 204
1.22 3.64 26.28 244 246 183
1.22 3.57 26.28 149 150 82
1.22 3.50 26.28 208 206 147
1.22 3.43 26.28 255 255 221
1.08 3.32 26.31 124 119 97
1.18 3.57 26.22 213 214 154
1.18 3.50 26.22 142 141 84
1.18 3.43 26.22 220 218 179
1.18 3.36 26.22 255 255 225
1.18 3.29 26.22 116 118 78
1.18 3.22 26.22 80 83 72
1.15 3.57 26.16 164 165 151
1.15 3.50 26.16 255 255 236
1.15 3.43 26.16 177 180 137
1.15 3.36 26.16 166 168 118
1.15 3.29 26.16 255 255 210
1.15 3.22 26.16 82 81 50
1.11 3.57 26.09 59 59 57
1.11 3.50 26.09 189 189 179
1.11 3.43 26.09 255 255 225
1.11 3.36 26.09 160 159 113
1.11 3.29 26.09 188 186 138
1.11 3.22 26.09 200 197 154
1.22 3.61 26.00 47 48 43
1.22 3.54 26.00 93 93 85
1.08 3.43 26.03 233 233 209
1.08 3.36 26.03 232 229 194
1.08 3.29 26.03 150 147 96
1.08 3.22 26.03 255 255 210
1.18 3.61 25.94 71 73 62
1.18 3.54 25.94 42 42 30
1.18 3.47 25.94 81 77 65
1.04 3.36 25.97 255 255 230
1.04 3.29 25.97 220 215 160
1.18 3.26 25.94 224 214 161
1.15 3.61 25.87 76 80 63
1.15 3.54 25.87 67 70 59
1.01 3.43 25.91 31 32 27
1.01 3.36 25.91 129 128 123
1.01 3.29 25.91 253 254 238
1.15 3.26 25.87 174 176 126
0.97 3.43 25.85 55 56 51
0.97 3.36 25.85 42 43 35
0.97 3.29 25.85 193 194 176
1.11 3.26 25.81 189 192 135
1.11 3.18 25.81 175 176 110
1.11 3.11 25.81 241 240 173
1.11 3.04 25.81 224 219 161
1.11 2.97 25.81 125 116 73
0.93 3.43 25.79 87 89 86
0.93 3.36 25.79 40 41 35
0.93 3.29 25.79 60 63 44
1.08 3.26 25.75 234 238 179
1.08 3.18 25.75 192 193 123
1.08 3.11 25.75 182 183 105
1.08 3.04 25.75 255 255 180
1.08 2.97 25.75 211 206 140
1.04 3.18 25.69 249 250 190
1.04 3.11 25.69 169 170 100
1.04 3.04 25.69 210 208 133
1.04 2.97 25.69 255 255 181
1.00 3.18 25.63 235 235 199
1.00 3.11 25.63 226 225 177
1.00 3.04 25.63 170 167 112
1.00 2.97 25.63 210 208 147
0.97 3.04 25.57 197 195 157
0.97 2.97 25.57 173 172 124
0.97 2.90 25.57 227 225 174
0.97 2.83 25.57 239 236 183
0.97 2.76 25.57 157 154 109
0.97 2.69 25.57 51 50 22
0.93 3.04 25.51 255 255 230
0.93 2.97 25.51 178 179 139
0.93 2.90 25.51 186 184 136
0.93 2.83 25.51 243 237 189
0.93 2.76 25.51 248 240 194
0.93 2.69 25.51 116 113 72
0.90 3.04 25.45 192 194 170
0.90 2.97 25.45 254 255 216
0.90 2.90 25.45 183 182 136
0.90 2.83 25.45 192 184 138
0.90 2.76 25.45 247 236 191
0.90 2.69 25.45 225 221 173
0.90 2.62 25.45 116 117 73
0.90 2.55 25.45 56 63 29
0.86 3.04 25.39 51 49 52
0.86 2.97 25.39 213 208 212
0.86 2.90 25.39 239 236 231
0.86 2.83 25.39 178 176 151
0.86 2.76 25.39 198 194 156
0.86 2.69 25.39 241 231 182
0.86 2.62 25.39 218 206 154
0.86 2.55 25.39 96 85 39
0.83 2.76 25.32 186 184 136
0.83 2.69 25.32 213 207 147
0.83 2.62 25.32 255 247 185
0.83 2.55 25.32 195 189 131
0.83 2.48 25.32 98 97 53
0.83 2.41 25.32 47 59 37
0.79 2.76 25.26 229 226 191
0.79 2.69 25.26 175 170 115
0.79 2.62 25.26 222 217 151
0.79 2.55 25.26 241 239 164
0.79 2.48 25.26 167 170 101
0.79 2.41 25.26 77 89 39
0.76 2.62 25.20 180 180 110
0.76 2.55 25.20 226 228 155
0.76 2.48 25.20 230 232 167
0.76 2.41 25.20 152 159 115
0.90 2.37 25.16 48 58 34
0.90 2.30 25.16 53 65 63
0.86 2.65 25.10 192 197 141
0.86 2.58 25.10 184 190 120
0.86 2.51 25.10 238 244 170
0.86 2.44 25.10 232 237 171
0.86 2.37 25.10 150 154 103
0.86 2.30 25.10 33 40 7
0.96 2.69 25.00 253 255 220
0.83 2.58 25.04 182 191 138
0.83 2.51 25.04 200 205 151
0.83 2.44 25.04 225 223 175
0.83 2.37 25.04 223 218 180
0.83 2.30 25.04 127 123 98
0.93 2.69 24.94 216 229 203
0.93 2.62 24.94 216 227 185
0.79 2.51 24.98 193 197 146
0.79 2.44 24.98 202 200 141
0.79 2.37 24.98 231 222 163
0.79 2.30 24.98 203 196 142
0.89 2.55 24.88 212 218 174
0.75 2.44 24.92 198 192 140
0.75 2.37 24.92 213 202 146
0.75 2.30 24.92 248 235 180
0.75 2.23 24.92 192 184 135
0.75 2.16 24.92 85 92 50
0.72 2.51 24.86 239 252 232
0.72 2.44 24.86 210 217 184
0.72 2.37 24.86 190 191 147
0.72 2.30 24.86 222 215 160
0.72 2.23 24.86 237 227 168
0.72 2.16 24.86 175 166 109
0.68 2.37 24.79 213 217 166
0.68 2.30 24.79 189 185 121
0.68 2.23 24.79 231 224 154
0.68 2.16 24.79 235 228 160
0.68 2.09 24.79 162 157 102
0.68 2.02 24.79 68 72 37
0.79 2.40 24.69 242 245 214
0.65 2.30 24.73 215 213 162
0.65 2.23 24.73 200 196 133
0.65 2.16 24.73 234 229 163
0.65 2.09 24.73 224 222 161
0.65 2.02 24.73 146 149 102
0.75 2.40 24.63 192 199 155
0.75 2.33 24.63 244 249 183
0.75 2.26 24.63 207 208 130
0.75 2.19 24.63 208 209 129
0.75 2.12 24.63 227 227 155
0.61 2.02 24.67 217 219 169
0.61 1.94 24.67 123 126 97
0.75 1.91 24.63 56 64 53
0.72 2.40 24.57 52 64 40
0.72 2.33 24.57 131 139 102
0.72 2.26 24.57 226 232 184
0.72 2.19 24.57 213 218 162
0.72 2.12 24.57 195 198 141
0.72 2.05 24.57 213 213 159
0.72 1.98 24.57 223 222 174
0.72 1.91 24.57 201 202 158
0.68 2.26 24.51 152 156 142
0.68 2.19 24.51 227 231 204
0.68 2.12 24.51 211 213 174
0.68 2.05 24.51 187 190 137
0.68 1.98 24.51 210 212 149
0.68 1.91 24.51 241 242 172
0.78 2.29 24.40 44 50 40
0.64 2.19 24.45 169 174 154
0.64 2.12 24.45 221 225 192
0.64 2.05 24.45 218 220 171
0.64 1.98 24.45 199 201 138
0.64 1.91 24.45 210 212 139
0.61 2.12 24.38 165 188 168
0.61 2.05 24.38 218 234 198
0.61 1.98 24.38 207 214 162
0.61 1.91 24.38 199 199 127
0.61 1.83 24.38 224 221 144
0.61 1.76 24.38 222 224 149
0.61 1.69 24.38 162 164 99
0.61 1.62 24.38 115 119 68
0.57 2.12 24.32 92 114 101
0.57 2.05 24.32 187 202 173
0.57 1.98 24.32 224 230 186
0.57 1.91 24.32 204 204 142
0.57 1.83 24.32 213 209 138
0.57 1.76 24.32 224 224 154
0.57 1.69 24.32 214 214 150
0.57 1.62 24.32 159 159 105
0.54 1.98 24.26 201 210 181
0.54 1.91 24.26 232 234 187
0.54 1.83 24.26 200 198 141
0.54 1.76 24.26 211 207 144
0.54 1.69 24.26 228 222 160
0.54 1.62 24.26 209 206 151
0.54 1.55 24.26 92 92 56
0.54 1.48 24.26 109 112 85
0.50 1.98 24.20 128 139 123
0.50 1.91 24.20 220 224 197
0.50 1.83 24.20 224 222 183
0.50 1.76 24.20 205 202 147
0.50 1.69 24.20 205 199 141
0.50 1.62 24.20 230 225 169
0.50 1.55 24.20 130 127 82
0.50 1.48 24.20 103 103 65
0.47 1.83 24.14 231 235 212
0.47 1.76 24.14 222 220 181
0.47 1.69 24.14 203 199 151
0.47 1.62 24.14 214 208 156
0.47 1.55 24.14 206 203 148
0.47 1.48 24.14 131 129 78
0.60 1.44 24.10 101 102 58
0.47 1.34 24.14 114 118 83
0.47 1.26 24.14 108 116 93
0.47 1.19 24.14 107 115 102
0.57 1.87 24.03 154 164 153
0.43 1.76 24.08 222 227 204
0.43 1.69 24.08 220 222 185
0.43 1.62 24.08 205 204 158
0.57 1.58 24.03 238 234 173
0.43 1.48 24.08 185 181 120
0.43 1.41 24.08 127 125 68
0.43 1.34 24.08 99 98 52
0.43 1.26 24.08 107 112 80
0.43 1.19 24.08 106 113 95
0.39 1.83 24.01 68 84 81
0.39 1.76 24.01 169 183 170
0.53 1.72 23.97 209 219 194
0.53 1.65 23.97 216 223 181
0.39 1.26 24.01 108 108 70
0.39 1.19 24.01 103 106 85
0.36 1.83 23.95 50 70 71
0.36 1.76 23.95 89 108 102
0.50 1.72 23.91 171 188 169
0.50 1.65 23.91 213 223 186
0.50 1.29 23.91 108 105 62
0.50 1.22 23.91 97 99 75
0.32 1.83 23.89 58 80 91
0.32 1.76 23.89 53 75 88
0.46 1.72 23.85 105 123 125
0.46 1.65 23.85 193 207 182
0.46 1.58 23.85 208 215 138
0.46 1.51 23.85 208 210 127
0.46 1.44 23.85 221 219 145
0.46 1.37 23.85 208 204 143
0.46 1.29 23.85 174 171 120
0.46 1.22 23.85 104 101 66
0.46 1.15 23.85 105 107 93
0.46 1.08 23.85 100 105 101
0.42 1.87 23.79 65 87 98
0.42 1.79 23.79 59 81 92
0.42 1.72 23.79 54 72 74
0.42 1.65 23.79 141 156 137
0.42 1.58 23.79 221 228 161
0.42 1.51 23.79 204 206 131
0.42 1.44 23.79 208 207 142
0.42 1.37 23.79 218 213 155
0.42 1.29 23.79 200 199 145
0.42 1.22 23.79 157 155 114
0.42 1.15 23.79 94 97 70
0.42 1.08 23.79 71 75 60
0.39 1.72 23.72 44 58 84
0.39 1.65 23.72 87 100 108
0.53 1.61 23.68 214 220 184
0.53 1.54 23.68 221 223 176
0.53 1.47 23.68 200 198 150
0.39 1.37 23.72 219 216 165
0.39 1.29 23.72 227 227 165
0.39 1.22 23.72 206 208 145
0.39 1.15 23.72 129 134 80
0.39 1.08 23.72 53 59 13
0.25 0.98 23.77 67 76 33
0.25 0.91 23.77 68 75 44
0.39 0.87 23.72 73 82 65
0.39 0.79 23.72 83 89 85
0.49 1.75 23.62 65 86 91
0.49 1.68 23.62 69 85 82
0.49 1.61 23.62 159 170 138
0.49 1.54 23.62 225 231 193
0.49 1.47 23.62 211 212 172
0.49 1.40 23.62 206 205 157
0.35 1.29 23.66 220 220 158
0.35 1.22 23.66 222 223 157
0.35 1.15 23.66 195 199 140
0.35 1.08 23.66 101 105 55
0.35 1.01 23.66 56 61 21
0.35 0.94 23.66 76 79 58
0.35 0.87 23.66 92 94 93
0.35 0.79 23.66 88 91 100
0.45 1.61 23.56 98 109 103
0.45 1.54 23.56 168 177 160
0.45 1.47 23.56 215 218 197
0.45 1.40 23.56 205 207 170
0.45 1.32 23.56 204 206 143
0.45 1.25 23.56 217 219 144
0.32 1.15 23.60 228 231 154
0.32 1.08 23.60 186 190 116
0.32 1.01 23.60 98 103 37
0.32 0.94 23.60 88 92 42
0.32 0.87 23.60 91 95 68
0.32 0.79 23.60 53 56 45
0.32 0.72 23.60 16 23 15
0.32 0.65 23.60 17 26 21
0.42 1.61 23.49 88 106 92
0.42 1.54 23.49 92 105 88
0.42 1.47 23.49 170 179 160
0.42 1.40 23.49 220 223 194
0.42 1.32 23.49 211 213 163
0.42 1.25 23.49 212 212 150
0.42 1.18 23.49 219 218 153
0.28 1.08 23.54 223 221 160
0.28 1.01 23.54 178 179 121
0.28 0.94 23.54 108 109 67
0.28 0.87 23.54 20 19 0
0.28 0.79 23.54 10 11 3
0.28 0.72 23.54 23 31 20
0.28 0.65 23.54 29 39 30
0.52 1.50 23.39 105 114 109
0.38 1.40 23.43 188 191 172
0.38 1.32 23.43 214 215 171
0.38 1.25 23.43 215 213 152
0.38 1.18 23.43 214 211 140
0.38 1.11 23.43 219 215 141
0.38 1.04 23.43 224 225 145
0.38 0.97 23.43 159 161 88
0.38 0.89 23.43 29 32 0
0.38 0.82 23.43 10 15 0
0.25 0.72 23.48 38 48 24
0.25 0.65 23.48 34 45 31
0.62 1.53 23.28 68 78 77
0.48 1.43 23.33 120 124 110
0.35 1.32 23.37 192 192 154
0.35 1.25 23.37 221 218 163
0.35 1.18 23.37 221 218 151
0.35 1.11 23.37 217 213 140
0.35 1.04 23.37 216 218 135
0.35 0.97 23.37 213 216 137
0.35 0.89 23.37 153 155 90
0.35 0.82 23.37 39 45 0
0.35 0.75 23.37 15 24 0
0.35 0.68 23.37 30 41 25
0.45 1.35 23.26 143 146 127
0.31 1.25 23.31 206 206 170
0.31 1.18 23.31 228 225 170
0.31 1.11 23.31 226 223 156
0.31 1.04 23.31 218 214 141
0.31 0.97 23.31 219 215 144
0.31 0.89 23.31 205 204 140
0.31 0.82 23.31 140 138 87
0.31 0.75 23.31 25 25 0
0.31 0.68 23.31 28 30 9
0.31 0.61 23.31 42 44 33
0.31 0.54 23.31 54 59 55
0.27 1.32 23.25 63 67 52
0.27 1.25 23.25 123 124 93
0.27 1.18 23.25 214 212 164
0.27 1.11 23.25 224 222 161
0.27 1.04 23.25 224 221 154
0.27 0.97 23.25 214 211 142
0.27 0.89 23.25 225 224 160
0.27 0.82 23.25 210 209 153
0.27 0.75 23.25 118 117 71
0.27 0.68 23.25 14 15 0
0.27 0.61 23.25 22 25 4
0.27 0.54 23.25 34 40 28
0.24 1.18 23.18 137 137 101
0.24 1.11 23.18 219 218 170
0.24 1.04 23.18 225 224 167
0.24 0.97 23.18 215 215 153
0.24 0.89 23.18 219 219 155
0.24 0.82 23.18 216 216 152
0.24 0.75 23.18 208 210 147
0.24 0.68 23.18 95 98 43
0.24 0.61 23.18 15 19 0
0.24 0.54 23.18 30 35 13
0.20 1.18 23.12 39 43 20
0.20 1.11 23.12 150 151 117
0.20 1.04 23.12 211 214 169
0.20 0.97 23.12 222 225 172
0.20 0.89 23.12 219 220 160
0.20 0.82 23.12 214 217 150
0.20 0.75 23.12 229 232 155
0.20 0.68 23.12 190 194 120
0.20 0.61 23.12 93 98 42
0.20 0.54 23.12 21 27 0
0.17 1.04 23.06 164 169 137
0.17 0.97 23.06 209 212 169
0.30 0.92 23.01 216 221 165
0.30 0.85 23.01 218 221 154
0.30 0.78 23.01 212 215 134
0.17 0.68 23.06 221 224 143
0.17 0.61 23.06 191 194 127
0.17 0.54 23.06 80 85 31
0.30 0.49 23.01 8 14 0
0.30 0.42 23.01 36 41 19
0.27 1.07 22.95 11 18 11
0.27 0.99 22.95 105 110 90
0.27 0.92 22.95 174 179 139
0.27 0.85 22.95 226 226 174
0.27 0.78 22.95 218 217 153
0.27 0.71 22.95 219 216 145
0.27 0.63 22.95 211 212 136
0.27 0.56 22.95 209 213 137
0.27 0.49 22.95 179 186 118
0.27 0.42 22.95 46 53 0
0.23 0.92 22.89 96 102 68
0.23 0.85 22.89 197 199 152
0.23 0.78 22.89 231 226 170
0.23 0.71 22.89 219 214 150
0.23 0.63 22.89 219 217 142
0.23 0.56 22.89 210 213 134
0.23 0.49 22.89 213 220 143
0.23 0.42 22.89 163 169 105
0.23 0.35 22.89 18 25 0
0.23 0.28 22.89 18 22 0
0.19 0.92 22.83 25 36 32
0.19 0.85 22.83 96 104 89
0.19 0.78 22.83 199 201 164
0.19 0.71 22.83 224 223 166
0.19 0.63 22.83 221 224 145
0.19 0.56 22.83 214 217 130
0.19 0.49 22.83 217 217 131
0.19 0.42 22.83 216 217 141
0.19 0.35 22.83 154 156 93
0.19 0.28 22.83 33 41 0
0.16 0.78 22.77 130 136 100
0.16 0.71 22.77 208 211 158
0.16 0.63 22.77 218 221 150
0.16 0.56 22.77 217 218 138
0.16 0.49 22.77 220 223 134
0.16 0.42 22.77 218 220 136
0.16 0.35 22.77 206 207 137
0.16 0.28 22.77 142 147 81
0.16 0.20 22.77 42 53 0
0.16 0.13 22.77 28 41 0
0.12 0.78 22.70 41 47 37
0.12 0.71 22.70 143 146 129
0.12 0.63 22.70 203 204 172
0.12 0.56 22.70 220 219 171
0.12 0.49 22.70 217 218 148
0.12 0.42 22.70 217 218 140
0.12 0.35 22.70 228 228 156
0.12 0.28 22.70 208 210 137
0.12 0.20 22.70 130 137 60
0.12 0.13 22.70 30 40 0
0.09 0.78 22.64 7 18 1
0.09 0.71 22.64 52 60 36
0.09 0.63 22.64 150 157 124
0.09 0.56 22.64 206 212 164
0.09 0.49 22.64 217 221 145
0.09 0.42 22.64 220 222 138
0.09 0.35 22.64 213 215 131
0.09 0.28 22.64 215 214 134
0.09 0.20 22.64 192 195 118
0.09 0.13 22.64 117 120 51
0.09 0.06 22.64 38 43 0
0.22 0.01 22.59 37 43 5
0.36 -0.04 22.55 43 53 55
0.36 -0.11 22.55 37 48 50
0.05 0.78 22.58 31 38 44
0.05 0.71 22.58 10 15 21
0.05 0.63 22.58 70 76 76
0.05 0.56 22.58 153 157 140
0.05 0.49 22.58 207 210 163
0.19 0.45 22.53 228 230 165
0.05 0.35 22.58 217 220 143
0.05 0.28 22.58 223 224 146
0.05 0.20 22.58 215 213 138
0.05 0.13 22.58 194 194 122
0.05 0.06 22.58 104 105 35
0.19 0.01 22.53 28 31 0
0.19 -0.06 22.53 46 54 39
0.32 -0.11 22.48 48 60 50
0.15 0.66 22.47 20 28 13
0.15 0.59 22.47 71 79 55
0.15 0.52 22.47 157 166 121
0.15 0.45 22.47 213 221 161
0.15 0.37 22.47 234 238 161
0.15 0.30 22.47 227 228 150
0.15 0.23 22.47 225 225 155
0.15 0.16 22.47 210 206 145
0.15 0.08 22.47 189 187 126
0.15 0.01 22.47 91 89 41
0.15 -0.06 22.47 41 41 39
0.28 -0.11 22.42 50 54 63
0.42 -0.16 22.37 44 50 62
0.42 -0.23 22.37 41 48 54
0.25 0.69 22.36 22 27 30
0.25 0.62 22.36 24 31 24
0.25 0.54 22.36 82 89 71
0.25 0.47 22.36 159 167 130
0.25 0.40 22.36 212 222 153
0.25 0.33 22.36 213 220 142
0.11 0.23 22.41 218 218 148
0.11 0.16 22.41 221 218 151
0.11 0.08 22.41 220 217 148
0.25 0.04 22.36 194 193 128
0.25 -0.04 22.36 18 20 0
0.25 -0.11 22.36 47 52 30
0.25 -0.18 22.36 53 58 51
0.38 -0.23 22.31 45 51 49
0.21 0.54 22.30 32 40 25
0.21 0.47 22.30 98 108 74
0.21 0.40 22.30 174 185 116
0.21 0.33 22.30 214 223 142
0.21 0.25 22.30 220 221 151
0.21 0.18 22.30 219 218 153
0.21 0.11 22.30 212 209 140
0.21 0.04 22.30 220 220 150
0.21 -0.04 22.30 58 60 10
0.21 -0.11 22.30 24 27 0
0.35 -0.16 22.25 39 42 31
0.35 -0.23 22.25 49 53 52
0.35 -0.30 22.25 48 53 57
0.35 -0.37 22.25 46 54 56
0.31 0.57 22.19 36 47 39
0.18 0.47 22.23 42 53 37
0.18 0.40 22.23 105 118 90
0.18 0.33 22.23 182 193 151
0.18 0.25 22.23 212 223 167
0.18 0.18 22.23 217 226 159
0.18 0.11 22.23 204 213 134
0.18 0.04 22.23 222 227 147
0.18 -0.04 22.23 172 174 99
0.31 -0.08 22.19 69 68 1
0.31 -0.16 22.19 28 29 0
0.31 -0.23 22.19 49 53 18
0.31 -0.30 22.19 51 56 34
0.31 -0.37 22.19 47 55 42
0.27 0.57 22.12 8 19 15
0.27 0.50 22.12 0 3 0
0.14 0.40 22.17 14 23 4
0.14 0.33 22.17 108 115 84
0.14 0.25 22.17 175 184 137
0.14 0.18 22.17 205 213 156
0.14 0.11 22.17 222 229 161
0.14 0.04 22.17 211 214 143
0.14 -0.04 22.17 202 202 130
0.27 -0.08 22.12 148 148 78
0.27 -0.16 22.12 38 37 0
0.27 -0.23 22.12 2 8 0
0.27 -0.30 22.12 6 12 0
0.27 -0.37 22.12 0 5 0
0.24 0.57 22.06 32 41 40
0.24 0.50 22.06 27 33 29
0.24 0.43 22.06 16 24 13
0.24 0.35 22.06 58 63 43
0.24 0.28 22.06 136 143 110
0.24 0.21 22.06 186 192 148
0.10 0.11 22.11 209 214 160
0.10 0.04 22.11 221 222 162
0.24 -0.01 22.06 220 220 150
0.24 -0.08 22.06 209 206 135
0.24 -0.16 22.06 178 178 114
0.24 -0.23 22.06 101 106 52
0.24 -0.30 22.06 78 85 44
0.24 -0.37 22.06 112 122 88
0.20 0.43 22.00 148 153 147
0.20 0.35 22.00 121 124 113
0.20 0.28 22.00 113 118 95
0.20 0.21 22.00 156 160 127
0.20 0.13 22.00 209 212 169
0.20 0.06 22.00 212 212 160
0.20 -0.01 22.00 224 224 154
0.20 -0.08 22.00 217 215 140
0.20 -0.16 22.00 225 225 153
0.20 -0.23 22.00 172 177 111
0.20 -0.30 22.00 109 116 62
0.20 -0.37 22.00 136 144 97
0.20 -0.45 22.00 134 144 109
0.20 -0.52 22.00 134 144 119
0.16 0.43 21.93 141 147 137
0.16 0.35 21.93 126 129 118
0.16 0.28 21.93 123 127 110
0.16 0.21 21.93 126 128 104
0.16 0.13 21.93 184 188 153
0.16 0.06 21.93 213 215 168
0.16 -0.01 21.93 226 226 156
0.16 -0.08 21.93 217 218 138
0.16 -0.16 21.93 215 216 136
0.16 -0.23 21.93 196 198 123
0.16 -0.30 21.93 148 153 86
0.16 -0.37 21.93 86 91 33
0.16 -0.45 21.93 92 100 51
0.16 -0.52 21.93 103 113 78
0.26 0.31 21.82 5 12 0
0.13 0.21 21.87 5 8 0
0.13 0.13 21.87 53 57 30
0.13 0.06 21.87 151 153 114
0.13 -0.01 21.87 222 223 157
0.13 -0.08 21.87 213 216 139
0.13 -0.16 21.87 217 219 136
0.13 -0.23 21.87 207 208 128
0.13 -0.30 21.87 194 197 120
0.13 -0.37 21.87 92 95 28
0.13 -0.45 21.87 6 11 0
0.13 -0.52 21.87 0 7 0
0.22 0.31 21.76 0 8 0
0.22 0.23 21.76 0 2 0
0.22 0.16 21.76 4 8 0
0.09 0.06 21.81 36 39 12
0.09 -0.01 21.81 208 208 154
0.09 -0.08 21.81 224 227 158
0.09 -0.16 21.81 221 222 146
0.09 -0.23 21.81 215 214 131
0.09 -0.30 21.81 216 215 133
0.09 -0.37 21.81 181 181 109
0.09 -0.45 21.81 67 68 8
0.09 -0.52 21.81 5 12 0
0.35 0.19 21.63 2 5 0
0.19 0.09 21.70 1 2 0
0.06 -0.01 21.75 174 173 127
0.06 -0.08 21.75 203 204 144
0.06 -0.16 21.75 226 226 154
0.06 -0.23 21.75 227 224 143
0.06 -0.30 21.75 219 217 134
0.06 -0.37 21.75 224 222 148
0.06 -0.45 21.75 189 189 125
0.06 -0.52 21.75 58 62 11
0.06 -0.59 21.75 1 5 0
0.06 -0.66 21.75 0 6 0
0.32 0.19 21.57 6 10 0
0.15 0.09 21.63 0 4 0
0.02 -0.01 21.68 48 54 40
0.02 -0.08 21.68 162 168 154
0.02 -0.16 21.68 201 206 176
0.02 -0.23 21.68 223 227 168
0.02 -0.30 21.68 219 221 148
0.02 -0.37 21.68 225 225 155
0.02 -0.45 21.68 215 214 149
0.02 -0.52 21.68 183 182 118
0.02 -0.59 21.68 59 57 0
0.02 -0.66 21.68 6 7 0
0.12 0.01 21.57 0 4 0
-0.02 -0.08 21.62 70 76 62
-0.02 -0.16 21.62 171 175 148
-0.02 -0.23 21.62 206 211 153
-0.02 -0.30 21.62 221 222 152
-0.02 -0.37 21.62 215 217 144
-0.02 -0.45 21.62 213 213 141
-0.02 -0.52 21.62 214 214 142
-0.02 -0.59 21.62 179 179 109
-0.02 -0.66 21.62 51 54 0
-0.02 -0.74 21.62 9 11 0
-0.02 -0.81 21.62 1 2 0
0.28 -0.83 21.51 22 22 22
0.28 -0.91 21.51 0 1 0
0.08 0.01 21.51 0 4 0
-0.05 -0.08 21.56 0 4 0
-0.05 -0.16 21.56 80 86 60
-0.05 -0.23 21.56 176 180 130
-0.05 -0.30 21.56 217 217 153
-0.05 -0.37 21.56 231 233 158
-0.05 -0.45 21.56 220 221 141
-0.05 -0.52 21.56 215 214 131
-0.05 -0.59 21.56 212 211 128
-0.05 -0.66 21.56 177 181 96
-0.05 -0.74 21.56 33 36 0
-0.05 -0.81 21.56 3 4 0
0.08 -0.86 21.51 5 7 0
0.24 -0.91 21.44 8 11 2
0.04 0.01 21.44 12 20 7
-0.09 -0.08 21.49 0 4 0
-0.09 -0.16 21.49 1 6 0
-0.09 -0.23 21.49 107 112 72
-0.09 -0.30 21.49 172 172 118
-0.09 -0.37 21.49 224 227 156
-0.09 -0.45 21.49 223 225 142
-0.09 -0.52 21.49 218 221 132
-0.09 -0.59 21.49 224 225 132
-0.09 -0.66 21.49 213 217 122
-0.09 -0.74 21.49 156 159 80
0.04 -0.79 21.44 8 10 0
0.04 -0.86 21.44 1 4 0
0.04 -0.93 21.44 0 5 0
0.21 -0.98 21.38 13 19 5
0.21 -1.05 21.38 8 15 8
0.01 0.01 21.38 11 19 6
0.01 -0.06 21.38 2 10 0
-0.13 -0.16 21.43 0 4 0
-0.13 -0.23 21.43 9 13 0
-0.13 -0.30 21.43 96 98 58
-0.13 -0.37 21.43 188 192 131
-0.13 -0.45 21.43 218 220 145
-0.13 -0.52 21.43 230 231 151
-0.13 -0.59 21.43 219 219 133
-0.13 -0.66 21.43 213 217 123
0.01 -0.71 21.38 223 227 143
0.01 -0.79 21.38 159 161 98
0.01 -0.86 21.38 3 6 0
0.01 -0.93 21.38 4 10 0
0.17 -0.98 21.32 0 4 0
0.17 -1.05 21.32 4 12 0
-0.16 -0.16 21.37 6 14 1
-0.16 -0.23 21.37 0 4 0
-0.16 -0.30 21.37 4 10 0
-0.16 -0.37 21.37 121 127 83
-0.16 -0.45 21.37 185 188 133
-0.16 -0.52 21.37 217 217 157
-0.03 -0.57 21.32 229 228 163
-0.03 -0.64 21.32 221 219 142
-0.03 -0.71 21.32 210 211 133
-0.03 -0.79 21.32 217 218 150
-0.03 -0.86 21.32 136 140 79
0.14 -0.91 21.25 7 12 0
0.14 -0.98 21.25 1 6 0
0.14 -1.05 21.25 14 19 0
-0.20 -0.16 21.31 4 9 3
-0.20 -0.23 21.31 0 10 9
-0.20 -0.30 21.31 4 15 9
-0.20 -0.37 21.31 0 4 0
-0.20 -0.45 21.31 2 4 0
-0.07 -0.50 21.25 122 119 100
-0.07 -0.57 21.25 191 183 160
-0.07 -0.64 21.25 219 215 170
-0.07 -0.71 21.25 235 230 172
-0.07 -0.79 21.25 217 217 147
-0.07 -0.86 21.25 228 231 154
0.10 -0.91 21.19 198 202 126
0.10 -0.98 21.19 129 133 72
0.10 -1.05 21.19 9 13 0
-0.10 -0.28 21.19 4 12 0
-0.24 -0.37 21.24 5 15 0
-0.10 -0.42 21.19 0 4 0
-0.10 -0.50 21.19 14 16 3
-0.10 -0.57 21.19 131 130 110
-0.10 -0.64 21.19 193 195 148
-0.10 -0.71 21.19 212 215 146
-0.10 -0.79 21.19 228 232 147
0.06 -0.83 21.13 221 225 138
0.06 -0.91 21.13 209 211 136
0.06 -0.98 21.13 197 198 130
0.06 -1.05 21.13 121 124 53
0.06 -1.13 21.13 8 9 0
0.06 -1.20 21.13 4 2 0
-0.14 -0.28 21.13 7 14 6
-0.14 -0.35 21.13 4 11 0
-0.14 -0.42 21.13 2 6 0
-0.14 -0.50 21.13 5 7 0
-0.14 -0.57 21.13 34 33 12
0.03 -0.61 21.06 129 132 85
0.03 -0.69 21.06 205 208 141
0.03 -0.76 21.06 218 223 139
0.03 -0.83 21.06 216 220 133
0.03 -0.91 21.06 222 225 146
0.03 -0.98 21.06 219 221 148
0.03 -1.05 21.06 194 197 128
0.03 -1.13 21.06 103 103 49
0.03 -1.20 21.06 10 7 0
-0.01 -0.54 21.00 3 1 0
-0.01 -0.61 21.00 36 36 12
-0.01 -0.69 21.00 140 140 104
-0.01 -0.76 21.00 204 204 152
-0.01 -0.83 21.00 216 217 157
-0.01 -0.91 21.00 223 224 156
-0.01 -0.98 21.00 202 203 133
-0.01 -1.05 21.00 216 218 145
-0.01 -1.13 21.00 199 200 132
-0.01 -1.20 21.00 107 107 47
-0.01 -1.27 21.00 6 5 0
-0.01 -1.35 21.00 5 11 0
0.08 -0.52 20.89 9 10 0
0.08 -0.59 20.89 3 3 0
0.08 -0.66 20.89 45 45 7
-0.05 -0.76 20.94 161 164 111
-0.05 -0.83 20.94 202 204 141
-0.05 -0.91 20.94 224 225 155
-0.05 -0.98 20.94 226 228 155
-0.05 -1.05 20.94 214 215 147
-0.05 -1.13 20.94 210 210 146
-0.05 -1.20 20.94 209 209 147
-0.05 -1.27 20.94 63 63 9
-0.05 -1.35 20.94 1 7 0
0.05 -0.66 20.82 1 0 0
0.05 -0.74 20.82 41 40 22
0.05 -0.81 20.82 171 170 140
0.05 -0.88 20.82 195 197 150
0.05 -0.96 20.82 227 228 170
0.05 -1.03 20.82 223 224 154
0.05 -1.10 20.82 212 215 136
0.05 -1.18 20.82 216 219 130
-0.08 -1.27 20.87 192 196 112
-0.08 -1.35 20.87 61 66 0
0.05 -1.40 20.82 3 7 0
0.05 -1.47 20.82 6 10 0
0.01 -0.66 20.76 0 4 0
0.01 -0.74 20.76 0 4 0
0.01 -0.81 20.76 41 45 12
0.01 -0.88 20.76 156 161 121
0.01 -0.96 20.76 194 196 147
0.01 -1.03 20.76 223 227 166
0.01 -1.10 20.76 211 212 144
0.01 -1.18 20.76 234 236 163
0.01 -1.25 20.76 225 227 154
0.01 -1.33 20.76 182 186 112
0.01 -1.40 20.76 66 71 7
0.01 -1.47 20.76 5 8 0
-0.03 -0.81 20.70 0 2 0
-0.03 -0.88 20.70 57 59 45
-0.03 -0.96 20.70 165 166 135
-0.03 -1.03 20.70 198 202 143
-0.03 -1.10 20.70 225 229 153
-0.03 -1.18 20.70 210 213 132
-0.03 -1.25 20.70 210 214 130
-0.03 -1.33 20.70 215 220 138
-0.03 -1.40 20.70 184 187 116
-0.03 -1.47 20.70 33 36 0
-0.06 -0.81 20.63 5 8 0
-0.06 -0.88 20.63 0 2 0
-0.06 -0.96 20.63 56 58 34
-0.06 -1.03 20.63 158 163 107
-0.06 -1.10 20.63 197 200 129
-0.06 -1.18 20.63 232 235 166
-0.06 -1.25 20.63 215 217 144
-0.06 -1.33 20.63 212 216 131
-0.06 -1.40 20.63 214 217 138
-0.06 -1.47 20.63 181 185 126
-0.10 -0.81 20.57 9 12 5
-0.10 -0.88 20.57 3 4 0
-0.10 -0.96 20.57 0 2 0
-0.10 -1.03 20.57 60 62 40
-0.10 -1.10 20.57 159 164 124
-0.10 -1.18 20.57 202 207 149
-0.10 -1.25 20.57 221 227 157
-0.10 -1.33 20.57 214 218 142
-0.10 -1.40 20.57 214 217 138
-0.10 -1.47 20.57 216 219 138
-0.10 -1.55 20.57 184 187 110
-0.10 -1.62 20.57 19 21 0
-0.14 -0.81 20.50 3 4 0
-0.14 -0.88 20.50 8 9 4
-0.14 -0.96 20.50 6 5 0
-0.14 -1.03 20.50 6 5 0
-0.14 -1.10 20.50 74 75 44
-0.14 -1.18 20.50 171 174 127
-0.14 -1.25 20.50 207 212 145
-0.14 -1.33 20.50 226 231 141
-0.14 -1.40 20.50 208 212 117
-0.14 -1.47 20.50 208 209 129
-0.14 -1.55 20.50 218 218 148
-0.14 -1.62 20.50 169 172 105
-0.17 -1.10 20.44 3 2 0
-0.17 -1.18 20.44 82 83 52
-0.17 -1.25 20.44 171 173 124
-0.17 -1.33 20.44 214 218 142
-0.17 -1.40 20.44 233 237 153
-0.17 -1.47 20.44 217 216 149
-0.04 -1.53 20.39 219 218 153
-0.04 -1.60 20.39 226 228 153
-0.04 -1.67 20.39 22 27 0
-0.04 -1.75 20.39 1 8 0
0.09 -1.80 20.33 8 15 0
0.09 -1.88 20.33 13 21 0
-0.21 -1.10 20.38 1 1 0
-0.21 -1.18 20.38 3 1 0
-0.21 -1.25 20.38 91 90 60
-0.21 -1.33 20.38 180 182 119
-0.08 -1.38 20.32 217 220 141
-0.08 -1.45 20.32 224 225 145
-0.08 -1.53 20.32 211 212 134
-0.08 -1.60 20.32 222 223 145
-0.08 -1.67 20.32 165 167 104
-0.08 -1.75 20.32 6 8 0
0.05 -1.80 20.27 1 3 0
0.05 -1.88 20.27 0 2 0
-0.12 -1.23 20.26 8 4 1
-0.12 -1.31 20.26 92 89 80
-0.12 -1.38 20.26 178 174 145
-0.12 -1.45 20.26 211 214 145
-0.12 -1.53 20.26 240 243 156
-0.12 -1.60 20.26 207 209 125
-0.12 -1.67 20.26 225 230 140
0.02 -1.73 20.21 149 154 72
0.02 -1.80 20.21 8 12 0
0.02 -1.88 20.21 8 12 0
0.02 -1.95 20.21 0 1 0
0.02 -2.02 20.21 10 13 22
-0.15 -1.23 20.20 0 0 0
-0.15 -1.31 20.20 1 0 0
-0.15 -1.38 20.20 100 100 76
-0.15 -1.45 20.20 162 167 103
-0.15 -1.53 20.20 213 216 135
-0.15 -1.60 20.20 226 227 147
-0.15 -1.67 20.20 219 218 138
-0.02 -1.73 20.14 222 222 150
-0.02 -1.80 20.14 145 146 86
-0.02 -1.88 20.14 3 5 0
-0.02 -1.95 20.14 6 5 0
-0.02 -2.02 20.14 0 0 5
-0.19 -1.38 20.13 4 5 0
-0.19 -1.45 20.13 97 97 69
-0.19 -1.53 20.13 173 173 123
-0.19 -1.60 20.13 215 216 138
-0.06 -1.65 20.08 212 214 115
-0.06 -1.73 20.08 228 229 135
-0.06 -1.80 20.08 216 220 133
-0.06 -1.88 20.08 133 136 65
-0.06 -1.95 20.08 3 7 0
-0.06 -2.02 20.08 10 14 0
0.10 -2.08 20.01 0 4 0
0.10 -2.15 20.01 8 10 5
0.10 -2.22 20.01 0 4 0
0.10 -2.30 20.01 5 10 6
-0.23 -1.38 20.07 6 10 0
-0.23 -1.45 20.07 1 1 0
-0.23 -1.53 20.07 99 98 70
-0.10 -1.58 20.01 181 181 111
-0.10 -1.65 20.01 223 223 127
-0.10 -1.73 20.01 214 215 122
-0.10 -1.80 20.01 219 221 137
-0.10 -1.88 20.01 218 223 143
-0.10 -1.95 20.01 115 122 42
0.07 -2.00 19.95 1 10 0
0.07 -2.08 19.95 5 10 0
0.07 -2.15 19.95 0 3 0
0.07 -2.22 19.95 3 8 4
0.07 -2.30 19.95 9 15 13
-0.26 -1.53 20.00 4 8 0
-0.13 -1.58 19.95 102 104 90
-0.13 -1.65 19.95 216 225 144
-0.13 -1.73 19.95 218 225 129
-0.13 -1.80 19.95 210 216 126
-0.13 -1.88 19.95 217 220 139
-0.13 -1.95 19.95 222 224 151
0.03 -2.00 19.88 108 110 45
0.03 -2.08 19.88 4 7 0
0.03 -2.15 19.88 1 6 0
0.03 -2.22 19.88 19 23 0
0.03 -2.30 19.88 11 14 3
0.03 -2.37 19.88 9 12 5
0.03 -2.45 19.88 6 8 3
-0.17 -1.51 19.89 0 2 0
-0.17 -1.58 19.89 0 4 0
-0.17 -1.65 19.89 180 189 126
-0.17 -1.73 19.89 215 222 142
-0.17 -1.80 19.89 217 224 129
-0.17 -1.88 19.89 219 224 130
-0.17 -1.95 19.89 229 233 148
-0.17 -2.02 19.89 213 215 142
-0.01 -2.08 19.82 107 112 48
-0.01 -2.15 19.82 12 15 0
-0.01 -2.22 19.82 1 4 0
-0.01 -2.30 19.82 5 7 0
-0.01 -2.37 19.82 10 12 7
-0.01 -2.45 19.82 6 8 7
-0.21 -1.65 19.82 96 99 82
-0.21 -1.73 19.82 181 182 151
-0.21 -1.80 19.82 213 218 154
-0.21 -1.88 19.82 224 227 146
-0.21 -1.95 19.82 218 222 137
-0.21 -2.02 19.82 230 232 149
-0.04 -2.08 19.75 209 213 136
-0.04 -2.15 19.75 113 115 50
-0.04 -2.22 19.75 5 10 0
-0.04 -2.30 19.75 10 14 0
-0.04 -2.37 19.75 4 6 0
-0.04 -2.45 19.75 12 14 13
-0.24 -1.65 19.76 2 5 0
-0.24 -1.73 19.76 111 113 91
-0.24 -1.80 19.76 188 194 134
-0.24 -1.88 19.76 216 222 136
-0.24 -1.95 19.76 222 229 125
-0.24 -2.02 19.76 208 213 111
-0.24 -2.10 19.76 223 226 147
-0.08 -2.15 19.69 212 212 150
-0.08 -2.22 19.69 95 95 45
-0.08 -2.30 19.69 5 5 0
-0.08 -2.37 19.69 1 4 0
-0.24 -2.47 19.76 9 12 3
-0.28 -1.80 19.69 114 115 101
-0.28 -1.88 19.69 195 196 152
-0.28 -1.95 19.69 231 237 151
-0.28 -2.02 19.69 216 222 124
-0.28 -2.10 19.69 219 221 137
-0.12 -2.15 19.63 236 237 161
-0.12 -2.22 19.63 207 210 129
-0.12 -2.30 19.63 103 106 39
-0.12 -2.37 19.63 0 7 0
-0.12 -2.45 19.63 2 8 0
-0.12 -2.52 19.63 5 10 0
-0.12 -2.60 19.63 8 12 0
-0.32 -1.80 19.63 13 16 0
-0.32 -1.88 19.63 98 100 63
-0.32 -1.95 19.63 186 192 118
-0.32 -2.02 19.63 218 224 138
-0.16 -2.08 19.56 219 222 145
-0.16 -2.15 19.56 211 212 142
-0.16 -2.22 19.56 228 229 159
-0.16 -2.30 19.56 215 217 154
-0.16 -2.37 19.56 72 79 25
-0.16 -2.45 19.56 0 7 0
-0.16 -2.52 19.56 0 6 0
-0.16 -2.60 19.56 5 10 0
-0.19 -1.78 19.50 0 1 0
-0.19 -1.85 19.50 9 9 0
-0.19 -1.93 19.50 111 110 79
-0.19 -2.00 19.50 199 199 145
-0.19 -2.08 19.50 216 219 142
-0.19 -2.15 19.50 215 219 134
-0.19 -2.22 19.50 223 227 142
-0.19 -2.30 19.50 228 232 155
-0.06 -2.51 19.44 1 7 0
-0.06 -2.58 19.44 4 8 0
-0.19 -2.67 19.50 11 16 0
-0.19 -2.74 19.50 13 17 2
-0.23 -1.78 19.43 4 14 3
-0.23 -1.85 19.43 0 6 0
-0.23 -1.93 19.43 0 3 0
-0.23 -2.00 19.43 2 5 0
-0.23 -2.08 19.43 107 109 85
-0.23 -2.15 19.43 186 187 147
-0.23 -2.22 19.43 223 223 163
-0.23 -2.30 19.43 220 220 146
-0.10 -2.51 19.38 198 203 119
-0.10 -2.58 19.38 78 82 8
-0.23 -2.67 19.43 3 9 0
-0.23 -2.74 19.43 2 8 0
-0.27 -1.93 19.37 7 13 9
-0.27 -2.00 19.37 8 13 6
-0.27 -2.08 19.37 10 13 0
-0.27 -2.15 19.37 115 116 84
-0.27 -2.22 19.37 185 184 136
-0.14 -2.28 19.31 220 220 156
-0.14 -2.36 19.31 212 216 131
-0.14 -2.43 19.31 202 207 115
-0.14 -2.51 19.31 228 234 146
-0.14 -2.58 19.31 199 203 126
-0.27 -2.67 19.37 75 80 14
-0.27 -2.74 19.37 6 9 0
-0.14 -2.80 19.31 6 10 0
-0.14 -2.88 19.31 8 14 4
-0.30 -1.93 19.30 6 12 10
-0.30 -2.00 19.30 0 4 0
-0.30 -2.08 19.30 4 7 0
-0.30 -2.15 19.30 1 3 0
-0.30 -2.22 19.30 103 104 72
-0.17 -2.28 19.25 192 193 149
-0.17 -2.36 19.25 233 234 174
-0.17 -2.43 19.25 222 225 154
-0.17 -2.51 19.25 215 218 141
-0.17 -2.58 19.25 234 237 158
-0.17 -2.65 19.25 207 211 135
-0.17 -2.73 19.25 67 72 6
-0.17 -2.80 19.25 1 7 0
-0.17 -2.88 19.25 5 12 0
-0.21 -2.06 19.18 0 4 0
-0.21 -2.13 19.18 4 8 0
-0.21 -2.36 19.18 183 187 126
-0.08 -2.41 19.13 232 236 160
-0.21 -2.51 19.18 209 213 129
-0.21 -2.58 19.18 216 220 136
-0.21 -2.65 19.18 232 235 158
-0.21 -2.73 19.18 192 194 129
-0.21 -2.80 19.18 42 43 1
-0.21 -2.88 19.18 2 4 0
-0.12 -2.04 19.06 8 17 0
-0.12 -2.12 19.06 0 4 0
-0.12 -2.34 19.06 128 131 102
-0.12 -2.41 19.06 185 186 144
-0.12 -2.49 19.06 230 234 175
-0.12 -2.56 19.06 218 221 150
-0.12 -2.64 19.06 219 222 141
-0.12 -2.71 19.06 248 251 172
-0.12 -2.79 19.06 208 211 142
-0.12 -2.86 19.06 34 37 0
-0.16 -2.49 19.00 186 191 135
-0.16 -2.56 19.00 224 226 163
-0.16 -2.64 19.00 216 217 147
-0.16 -2.71 19.00 223 222 155
-0.16 -2.79 19.00 249 248 191
-0.16 -2.86 19.00 205 204 156
-0.19 -2.49 18.93 122 125 94
-0.19 -2.56 18.93 186 188 141
-0.19 -2.64 18.93 217 217 157
-0.19 -2.71 18.93 213 213 143
-0.19 -2.79 18.93 215 215 141
-0.19 -2.86 18.93 245 247 172
-0.23 -2.49 18.87 8 12 0
-0.23 -2.56 18.87 106 108 69
-0.23 -2.64 18.87 178 178 124
-0.23 -2.71 18.87 221 219 158
-0.23 -2.79 18.87 214 213 146
-0.23 -2.86 18.87 215 215 145
-0.07 -2.92 18.80 231 233 158
-0.07 -2.99 18.80 198 204 132
-0.27 -2.49 18.80 0 8 0
-0.27 -2.56 18.80 12 26 0
-0.27 -2.64 18.80 104 115 75
-0.27 -2.71 18.80 176 184 137
-0.27 -2.79 18.80 210 214 163
-0.27 -2.86 18.80 210 211 153
-0.11 -2.92 18.73 214 217 148
-0.11 -2.99 18.73 230 232 159
-0.31 -2.64 18.74 84 94 60
-0.31 -2.71 18.74 138 145 104
-0.31 -2.79 18.74 188 194 146
-0.15 -2.84 18.67 207 210 155
-0.15 -2.92 18.67 210 215 148
-0.15 -2.99 18.67 222 225 154
-0.15 -3.07 18.67 243 250 173
-0.15 -3.14 18.67 211 216 149
-0.15 -3.22 18.67 97 104 50
-0.15 -3.29 18.67 96 100 65
-0.18 -2.62 18.60 75 84 65
-0.34 -2.71 18.67 87 91 74
-0.34 -2.79 18.67 132 135 114
-0.18 -2.84 18.60 193 193 167
-0.18 -2.92 18.60 217 219 182
-0.18 -2.99 18.60 208 210 161
-0.18 -3.07 18.60 209 213 154
-0.18 -3.14 18.60 247 252 188
-0.18 -3.22 18.60 197 203 139
-0.18 -3.29 18.60 87 92 36
-0.22 -2.77 18.54 55 64 37
-0.22 -2.84 18.54 128 134 100
-0.22 -2.92 18.54 188 195 151
-0.22 -2.99 18.54 207 215 158
-0.22 -3.07 18.54 211 218 151
-0.22 -3.14 18.54 218 225 155
-0.22 -3.22 18.54 250 255 189
-0.22 -3.29 18.54 179 185 125
-0.22 -3.37 18.54 53 57 20
-0.22 -3.44 18.54 66 76 51
-0.26 -2.77 18.47 22 31 28
-0.26 -2.84 18.47 56 61 55
-0.26 -2.92 18.47 125 132 116
-0.26 -2.99 18.47 192 197 165
-0.26 -3.07 18.47 215 224 171
-0.26 -3.14 18.47 208 215 147
-0.26 -3.22 18.47 218 227 148
-0.26 -3.29 18.47 241 249 164
-0.26 -3.37 18.47 94 101 31
-0.26 -3.44 18.47 25 33 0
-0.30 -2.77 18.41 34 48 33
-0.30 -2.84 18.41 35 46 29
-0.30 -2.92 18.41 46 57 27
-0.30 -2.99 18.41 113 121 80
-0.30 -3.07 18.41 174 183 126
-0.30 -3.14 18.41 214 221 153
-0.30 -3.22 18.41 211 217 143
-0.30 -3.29 18.41 213 217 141
-0.30 -3.37 18.41 207 209 146
-0.30 -3.44 18.41 68 73 32
-0.17 -3.51 18.35 8 12 0
-0.17 -3.58 18.35 29 37 14
-0.33 -2.77 18.34 40 53 59
-0.33 -2.84 18.34 39 48 53
-0.33 -2.92 18.34 24 33 28
-0.33 -2.99 18.34 46 53 35
-0.33 -3.07 18.34 127 135 96
-0.33 -3.14 18.34 174 182 125
-0.33 -3.22 18.34 217 223 153
-0.33 -3.29 18.34 213 216 137
-0.33 -3.37 18.34 239 241 168
-0.33 -3.44 18.34 191 191 141
-0.21 -3.51 18.28 66 66 32
-0.21 -3.58 18.28 5 8 0
-0.37 -3.07 18.28 31 38 4
-0.37 -3.14 18.28 111 117 69
-0.37 -3.22 18.28 190 194 133
-0.37 -3.29 18.28 219 220 154
-0.24 -3.36 18.22 219 215 152
-0.24 -3.43 18.22 252 250 201
-0.24 -3.51 18.22 209 205 168
-0.24 -3.58 18.22 47 46 16
-0.24 -3.66 18.22 9 8 0
-0.08 -3.72 18.14 31 31 23
-0.41 -3.07 18.21 29 43 30
-0.41 -3.14 18.21 23 37 12
-0.41 -3.22 18.21 99 112 69
-0.28 -3.28 18.15 189 200 144
-0.28 -3.36 18.15 208 215 137
-0.28 -3.43 18.15 218 221 142
-0.28 -3.51 18.15 255 255 188
-0.28 -3.58 18.15 202 201 155
-0.12 -3.64 18.08 59 61 24
-0.12 -3.72 18.08 12 19 0
-0.32 -3.21 18.09 30 41 7
-0.32 -3.28 18.09 108 117 72
-0.32 -3.36 18.09 211 216 152
-0.32 -3.43 18.09 205 206 136
-0.16 -3.49 18.01 222 223 157
-0.16 -3.57 18.01 255 255 209
-0.16 -3.64 18.01 202 205 158
-0.16 -3.72 18.01 58 64 18
-0.03 -3.78 17.95 5 13 0
-0.03 -3.86 17.95 31 39 24
-0.36 -3.21 18.02 24 36 14
-0.36 -3.28 18.02 40 49 20
-0.36 -3.36 18.02 178 181 134
-0.20 -3.42 17.95 214 215 155
-0.20 -3.49 17.95 202 204 131
-0.20 -3.57 17.95 216 221 141
-0.20 -3.64 17.95 253 255 176
-0.20 -3.72 17.95 209 218 135
-0.07 -3.78 17.89 94 106 34
-0.07 -3.86 17.89 16 26 0
-0.24 -3.34 17.88 106 109 82
-0.24 -3.42 17.88 169 171 124
-0.24 -3.49 17.88 214 216 151
-0.24 -3.57 17.88 213 221 136
-0.11 -3.63 17.82 218 227 138
-0.11 -3.71 17.82 240 252 166
-0.11 -3.78 17.82 208 217 150
-0.11 -3.86 17.82 99 107 66
-0.11 -3.93 17.82 33 37 22
-0.11 -4.01 17.82 48 53 56
-0.15 -3.33 17.76 52 53 48
-0.15 -3.40 17.76 115 115 103
-0.15 -3.48 17.76 172 173 142
-0.15 -3.55 17.76 213 219 159
-0.15 -3.63 17.76 203 212 133
-0.15 -3.71 17.76 217 227 140
-0.15 -3.78 17.76 249 255 175
-0.15 -3.86 17.76 205 214 149
-0.15 -3.93 17.76 95 101 55
-0.15 -4.01 17.76 20 26 0
-0.18 -3.78 17.69 225 233 156
-0.18 -3.86 17.69 252 255 199
-0.18 -3.93 17.69 210 212 175
-0.18 -4.01 17.69 76 78 57
-0.18 -4.08 17.69 40 41 33
-0.18 -4.16 17.69 43 46 39
-0.22 -3.78 17.63 196 204 131
-0.22 -3.86 17.63 230 236 166
-0.22 -3.93 17.63 252 255 193
-0.22 -4.01 17.63 214 217 160
-0.22 -4.08 17.63 87 91 40
-0.22 -4.16 17.63 14 20 0
-0.26 -3.93 17.56 215 217 152
-0.26 -4.01 17.56 255 255 202
-0.26 -4.08 17.56 213 216 161
-0.26 -4.16 17.56 86 93 41
-0.26 -4.24 17.56 0 6 0
-0.26 -4.31 17.56 3 8 2
-0.30 -3.93 17.49 193 202 137
-0.30 -4.01 17.49 190 197 117
-0.30 -4.08 17.49 213 217 133
-0.30 -4.16 17.49 255 255 182
-0.30 -4.24 17.49 239 240 172
-0.30 -4.31 17.49 139 146 95
-0.34 -3.93 17.43 140 151 117
-0.34 -4.01 17.43 196 204 155
-0.34 -4.08 17.43 199 202 147
-0.34 -4.16 17.43 209 211 148
-0.34 -4.24 17.43 246 246 184
-0.34 -4.31 17.43 248 252 193
-0.18 -4.38 17.35 131 136 82
-0.18 -4.45 17.35 40 48 1
-0.18 -4.53 17.35 53 62 31
-0.18 -4.60 17.35 61 75 62
-0.37 -3.93 17.36 52 69 33
-0.37 -4.01 17.36 138 154 105
-0.37 -4.08 17.36 197 208 152
-0.37 -4.16 17.36 195 201 139
-0.37 -4.24 17.36 216 217 157
-0.37 -4.31 17.36 252 253 195
-0.22 -4.38 17.29 242 241 187
-0.22 -4.45 17.29 120 119 71
-0.22 -4.53 17.29 57 58 24
-0.22 -4.60 17.29 51 60 43
-0.54 -3.94 17.36 40 56 55
-0.41 -4.01 17.30 52 64 52
-0.41 -4.08 17.30 134 143 122
-0.41 -4.16 17.30 191 197 161
-0.41 -4.24 17.30 194 197 150
-0.41 -4.31 17.30 199 200 140
-0.25 -4.38 17.22 255 255 189
-0.25 -4.45 17.22 255 255 185
-0.25 -4.53 17.22 120 121 55
-0.25 -4.60 17.22 49 55 19
-0.58 -3.94 17.29 49 66 50
-0.58 -4.02 17.29 38 53 32
-0.58 -4.10 17.29 43 56 28
-0.45 -4.16 17.23 121 131 94
-0.45 -4.24 17.23 188 195 151
-0.45 -4.31 17.23 195 197 147
-0.29 -4.38 17.15 201 200 144
-0.29 -4.45 17.15 255 255 194
-0.29 -4.53 17.15 255 255 202
-0.29 -4.60 17.15 141 143 96
-0.33 -4.53 17.09 244 245 175
-0.33 -4.60 17.09 253 252 187
-0.37 -4.53 17.02 203 203 139
-0.37 -4.60 17.02 237 234 163
-0.41 -4.53 16.96 189 199 138
-0.41 -4.60 16.96 199 209 136
-0.28 -4.67 16.89 214 222 149
-0.12 -4.74 16.82 237 244 177
-0.44 -4.53 16.89 162 169 125
-0.44 -4.60 16.89 191 195 144
-0.32 -4.67 16.83 206 206 152
-0.32 -4.75 16.83 219 219 167
-0.36 -4.52 16.76 88 96 73
-0.36 -4.60 16.76 157 157 133
-0.36 -4.67 16.76 200 195 166
-0.20 -4.74 16.68 190 184 148
-0.20 -4.81 16.68 210 205 163
-0.04 -4.88 16.60 255 255 209
-0.40 -4.52 16.70 37 47 39
-0.40 -4.60 16.70 79 80 74
-0.24 -4.66 16.62 141 135 123
-0.24 -4.74 16.62 201 197 168
-0.24 -4.81 16.62 186 183 142
-0.08 -4.88 16.54 211 208 153
-0.07 -5.26 16.27 110 118 67
-0.07 -5.34 16.27 65 73 32
-0.11 -5.26 16.21 255 255 201
-0.11 -5.34 16.21 127 134 80
-0.15 -5.26 16.14 255 255 187
-0.15 -5.34 16.14 255 255 189
-0.15 -5.41 16.14 164 164 100
-0.15 -5.49 16.14 89 87 38
-0.19 -5.26 16.07 195 197 132
-0.19 -5.34 16.07 237 238 170
-0.19 -5.41 16.07 253 254 188
-0.19 -5.49 16.07 198 197 141
-0.23 -5.41 16.01 227 229 164
-0.23 -5.49 16.01 243 243 181
-0.23 -5.57 16.01 208 207 150
-0.23 -5.64 16.01 96 97 55
-0.07 -5.71 15.93 76 84 60
-0.07 -5.79 15.93 67 79 67
-0.07 -5.87 15.93 75 91 78
-0.07 -5.95 15.93 75 95 84
-0.27 -5.41 15.94 193 199 139
-0.27 -5.49 15.94 208 213 149
-0.27 -5.57 15.94 225 228 161
-0.27 -5.64 15.94 231 234 179
-0.11 -5.71 15.86 121 125 90
-0.11 -5.79 15.86 55 60 38
-0.11 -5.87 15.86 75 89 64
-0.11 -5.95 15.86 93 110 92
-0.30 -5.41 15.87 160 167 123
-0.30 -5.49 15.87 183 188 134
-0.30 -5.57 15.87 203 209 145
-0.15 -5.64 15.79 246 250 191
-0.15 -5.71 15.79 234 233 189
-0.15 -5.79 15.79 117 118 84
-0.15 -5.87 15.79 55 62 28
-0.15 -5.95 15.79 58 72 46
-0.15 -6.02 15.79 80 100 89
0.01 -6.10 15.71 73 97 97
-0.19 -5.40 15.73 109 122 94
-0.34 -5.49 15.81 162 173 133
-0.19 -5.56 15.73 159 167 116
-0.19 -5.64 15.73 203 208 152
-0.19 -5.71 15.73 255 255 209
-0.03 -5.79 15.64 240 242 192
-0.19 -5.87 15.73 124 136 86
-0.19 -5.95 15.73 45 62 26
-0.19 -6.02 15.73 61 88 73
-0.19 -6.10 15.73 70 98 102
-0.23 -5.40 15.66 60 78 66
-0.23 -5.48 15.66 99 114 93
-0.23 -5.56 15.66 161 173 137
-0.23 -5.64 15.66 152 161 114
-0.07 -5.71 15.58 187 193 131
-0.07 -5.79 15.58 255 255 200
-0.07 -5.86 15.58 241 255 198
-0.23 -5.95 15.66 121 148 103
-0.23 -6.02 15.66 56 88 73
-0.23 -6.10 15.66 69 103 112
-0.23 -6.18 15.66 64 100 124
-0.23 -6.26 15.66 63 95 120
-0.27 -5.40 15.59 73 93 92
-0.27 -5.48 15.59 64 81 71
-0.27 -5.56 15.59 86 100 77
-0.27 -5.64 15.59 142 155 112
-0.27 -5.71 15.59 154 166 100
-0.11 -5.79 15.51 169 187 111
-0.27 -5.87 15.59 239 255 195
-0.27 -5.95 15.59 165 202 150
-0.27 -6.02 15.59 56 97 81
-0.42 -6.11 15.67 74 116 128
-0.42 -6.18 15.67 63 104 132
-0.42 -6.26 15.67 64 101 130
-0.30 -5.56 15.52 62 82 80
-0.30 -5.64 15.52 79 104 98
-0.30 -5.71 15.52 94 131 113
-0.30 -5.79 15.52 101 143 129
-0.30 -5.87 15.52 110 156 154
-0.30 -5.95 15.52 98 144 160
-0.46 -6.03 15.61 55 99 136
-0.46 -6.11 15.61 70 116 165
-0.46 -6.18 15.61 62 115 165
-0.46 -6.26 15.61 56 112 163
-0.58 -6.34 15.67 48 101 155
-0.58 -6.42 15.67 51 94 136
-0.58 -6.50 15.67 71 99 113
-0.89 -6.58 15.84 81 102 107
-0.34 -5.56 15.46 65 92 87
-0.34 -5.64 15.46 41 72 66
-0.34 -5.71 15.46 0 30 23
-0.34 -5.79 15.46 0 28 23
-0.50 -5.88 15.54 13 65 61
-0.50 -5.95 15.54 60 115 120
-0.50 -6.03 15.54 64 122 136
-0.50 -6.11 15.54 52 114 155
-0.62 -6.19 15.61 45 121 197
-0.62 -6.27 15.61 41 119 217
-0.62 -6.34 15.61 45 120 221
-0.77 -6.42 15.69 38 103 193
-0.93 -6.50 15.77 44 94 157
-0.93 -6.58 15.77 58 97 140
-0.54 -5.57 15.47 40 68 56
-0.54 -5.64 15.47 30 60 58
-0.54 -5.72 15.47 57 97 107
-0.54 -5.80 15.47 82 129 145
-0.54 -5.88 15.47 105 164 172
-0.54 -5.95 15.47 99 162 167
-0.54 -6.03 15.47 73 134 137
-0.66 -6.11 15.54 43 113 139
-0.66 -6.19 15.54 41 127 200
-0.66 -6.27 15.54 26 115 215
-0.81 -6.35 15.62 38 121 223
-0.97 -6.43 15.70 33 106 201
-0.97 -6.50 15.70 38 96 170
-0.97 -6.58 15.70 49 95 147
-0.97 -6.66 15.70 64 98 125
-1.09 -6.73 15.77 76 98 111
-0.57 -5.57 15.41 126 153 134
-0.57 -5.64 15.41 205 227 206
-0.57 -5.72 15.41 249 255 236
-0.57 -5.80 15.41 249 255 232
-0.57 -5.88 15.41 227 252 212
-0.70 -5.96 15.47 173 204 162
-0.70 -6.03 15.47 116 152 108
-0.70 -6.11 15.47 56 104 90
-0.70 -6.19 15.47 37 115 151
-0.85 -6.27 15.56 26 117 188
-1.01 -6.35 15.64 26 118 205
-1.01 -6.43 15.64 25 113 203
-1.01 -6.50 15.64 25 111 188
-1.13 -6.58 15.70 31 107 169
-1.13 -6.66 15.70 38 103 145
-1.13 -6.73 15.70 43 96 127
-0.74 -5.42 15.41 151 173 150
-0.74 -5.50 15.41 207 230 202
-0.61 -5.57 15.34 235 255 226
-0.61 -5.64 15.34 239 255 225
-0.61 -5.72 15.34 230 247 211
-0.74 -5.80 15.41 218 236 198
-0.74 -5.88 15.41 214 243 199
-0.74 -5.96 15.41 221 252 210
-0.74 -6.03 15.41 198 222 188
-0.74 -6.11 15.41 98 135 128
-0.89 -6.19 15.49 32 105 140
-1.04 -6.27 15.57 31 118 189
-1.04 -6.35 15.57 30 113 209
-1.04 -6.43 15.57 34 116 218
-1.17 -6.51 15.64 33 119 204
-1.17 -6.58 15.64 37 115 187
-1.17 -6.66 15.64 41 106 160
-1.17 -6.73 15.64 40 93 133
-1.17 -6.81 15.64 47 93 119
-1.17 -6.89 15.64 64 103 120
-0.77 -5.42 15.34 226 245 213
-0.77 -5.50 15.34 218 239 200
-0.77 -5.57 15.34 206 228 181
-0.77 -5.65 15.34 213 228 187
-0.77 -5.73 15.34 229 233 206
-0.77 -5.80 15.34 240 242 220
-0.77 -5.88 15.34 244 255 221
-0.77 -5.96 15.34 247 255 224
-0.93 -6.04 15.42 233 235 211
-0.93 -6.12 15.42 139 159 148
-1.08 -6.20 15.51 43 107 119
-1.08 -6.27 15.51 29 114 155
-1.08 -6.35 15.51 33 116 194
-1.21 -6.43 15.57 28 117 211
-1.21 -6.51 15.57 17 117 205
-1.21 -6.58 15.57 17 115 206
-1.21 -6.66 15.57 25 107 207
-1.21 -6.73 15.57 24 93 194
-1.21 -6.81 15.57 22 89 178
-1.21 -6.89 15.57 41 96 163
-0.97 -5.27 15.36 217 239 216
-0.97 -5.35 15.36 237 255 226
-0.97 -5.43 15.36 205 226 187
-0.97 -5.50 15.36 200 219 173
-0.97 -5.58 15.36 202 220 168
-0.97 -5.66 15.36 225 243 193
-0.97 -5.73 15.36 234 251 209
-0.97 -5.81 15.36 228 245 209
-0.97 -5.89 15.36 218 245 202
-0.97 -5.96 15.36 233 253 218
-1.12 -6.05 15.44 253 255 238
-1.12 -6.12 15.44 177 196 192
-1.12 -6.20 15.44 56 119 126
-1.24 -6.28 15.51 27 111 145
-1.24 -6.35 15.51 43 122 197
-1.24 -6.43 15.51 32 117 208
-1.24 -6.51 15.51 11 114 193
-1.24 -6.58 15.51 12 113 195
-1.24 -6.66 15.51 29 112 206
-1.24 -6.73 15.51 30 103 197
-1.24 -6.81 15.51 27 96 171
-1.40 -6.89 15.59 41 100 156
-1.00 -5.27 15.29 216 242 195
-1.00 -5.35 15.29 196 220 170
-1.00 -5.43 15.29 186 210 158
-1.00 -5.50 15.29 198 220 171
-1.16 -5.59 15.37 223 242 196
-1.16 -5.66 15.37 237 253 214
-1.16 -5.74 15.37 237 246 215
-1.16 -5.82 15.37 233 237 214
-1.16 -5.89 15.37 236 239 220
-1.16 -5.97 15.37 240 238 223
-1.16 -6.05 15.37 255 252 233
-1.16 -6.12 15.37 201 217 207
