ply
format ascii 1.0
element vertex 1748
property float x
property float y
property float z
property uchar red
property uchar green
property uchar blue
end_header
16.30 4.94 2.71 76 134 171
16.30 4.82 2.71 76 134 171
16.30 4.71 2.71 79 135 172
16.30 4.60 2.71 78 134 169
16.30 4.48 2.71 82 138 173
16.30 4.37 2.71 77 136 170
16.30 4.26 2.71 77 136 170
16.30 4.14 2.71 77 137 173
16.30 4.03 2.71 73 136 171
16.30 3.92 2.71 79 142 177
16.30 3.80 2.71 76 140 176
16.30 3.69 2.71 76 140 176
16.30 3.58 2.71 76 138 175
16.30 3.46 2.71 75 137 174
16.30 3.35 2.71 77 137 174
16.30 3.24 2.71 79 137 175
16.30 3.12 2.71 81 139 177
16.30 3.01 2.71 84 139 178
16.30 2.90 2.71 82 137 176
16.30 2.78 2.71 83 138 177
16.30 2.67 2.71 84 139 178
16.30 2.56 2.71 84 139 178
16.30 2.44 2.71 83 138 177
16.30 2.33 2.71 83 138 177
16.00 2.16 2.89 82 140 178
16.00 2.05 2.89 83 141 179
16.00 1.94 2.89 79 141 178
16.00 1.82 2.89 80 142 179
16.00 1.71 2.89 82 144 181
16.00 1.60 2.89 82 144 181
16.00 1.49 2.89 81 143 180
15.70 1.33 3.07 83 143 180
15.70 1.21 3.07 84 144 181
15.70 1.10 3.07 82 142 178
15.70 0.99 3.07 84 144 180
15.70 0.88 3.07 84 144 180
15.40 0.72 3.25 83 143 179
15.40 0.61 3.25 83 143 179
15.40 0.50 3.25 85 145 181
15.40 0.39 3.25 84 144 180
15.40 0.27 3.25 84 142 179
15.40 0.16 3.25 85 143 181
15.40 0.05 3.25 86 141 180
15.70 -0.02 3.07 83 141 179
15.70 -0.13 3.07 83 141 179
15.70 -0.25 3.07 79 141 180
15.70 -0.36 3.07 79 141 180
15.70 -0.47 3.07 76 139 180
15.40 -0.62 3.25 75 138 179
15.40 -0.73 3.25 76 141 181
15.40 -0.84 3.25 75 140 180
15.40 -0.95 3.25 77 141 179
15.40 -1.07 3.25 79 143 181
15.40 -1.18 3.25 81 143 180
15.40 -1.29 3.25 80 142 179
15.40 -1.40 3.25 85 143 181
15.40 -1.51 3.25 80 135 174
15.40 -1.62 3.25 84 139 178
15.13 -1.76 3.41 86 144 184
-3.12 -3.86 14.42 60 122 169
-3.12 -3.93 14.42 39 102 155
-3.12 -4.01 14.42 18 80 139
-3.12 -4.08 14.42 3 62 128
-3.27 -4.17 14.51 0 55 129
-3.27 -4.24 14.51 0 51 137
-3.27 -4.31 14.51 3 56 150
-3.39 -4.40 14.58 8 63 163
-3.39 -4.47 14.58 10 64 170
-3.51 -4.55 14.66 6 64 174
-3.51 -4.63 14.66 5 65 179
-3.51 -4.70 14.66 9 72 185
-3.51 -4.78 14.66 8 73 189
-3.51 -4.85 14.66 8 78 192
-3.63 -4.93 14.73 12 81 200
-3.63 -5.00 14.73 12 84 202
-3.63 -5.08 14.73 13 85 205
-3.63 -5.15 14.73 14 89 206
-3.63 -5.22 14.73 14 87 200
-3.63 -5.30 14.73 18 91 202
-3.51 -5.36 14.66 21 98 204
-3.51 -5.44 14.66 24 103 208
-3.51 -5.51 14.66 25 106 211
-3.51 -5.58 14.66 24 107 211
-3.51 -5.66 14.66 21 108 211
-3.39 -5.72 14.58 21 108 211
-3.39 -5.80 14.58 12 101 203
-3.39 -5.87 14.58 19 108 210
-3.39 -5.94 14.58 18 111 207
-3.39 -6.02 14.58 16 109 205
-3.39 -6.09 14.58 16 113 207
-3.27 -6.16 14.51 19 118 211
-3.27 -6.24 14.51 15 116 208
-3.27 -6.31 14.51 9 107 198
-3.12 -6.38 14.42 31 114 208
-3.12 -6.45 14.42 81 146 214
-3.12 -6.53 14.42 122 165 181
-3.00 -6.60 14.35 130 153 133
-3.00 -6.67 14.35 143 154 114
-2.88 -6.75 14.28 157 160 113
-2.88 -6.82 14.28 141 150 103
-2.88 -6.90 14.28 107 119 83
16.24 10.50 2.61 82 99 83
16.24 10.38 2.61 74 90 77
16.24 10.27 2.61 82 94 84
16.24 10.16 2.61 74 85 77
16.24 10.04 2.61 72 92 81
16.24 9.93 2.61 61 91 91
16.24 9.82 2.61 68 114 137
16.24 9.70 2.61 49 114 146
16.24 9.59 2.61 49 115 149
16.24 9.48 2.61 49 113 148
16.24 9.36 2.61 53 117 153
16.24 9.25 2.61 49 117 154
16.24 9.14 2.61 48 118 154
16.24 9.02 2.61 47 117 153
16.24 8.91 2.61 47 117 153
16.24 8.80 2.61 49 119 155
16.24 8.68 2.61 51 119 156
16.24 8.57 2.61 53 121 158
16.24 8.46 2.61 56 121 159
16.24 8.34 2.61 57 123 158
16.24 8.23 2.61 58 124 159
16.24 8.12 2.61 61 125 161
16.24 8.00 2.61 61 125 161
16.24 7.89 2.61 62 126 162
16.24 7.77 2.61 62 126 162
16.24 7.66 2.61 63 127 163
16.24 7.55 2.61 64 128 164
16.24 7.43 2.61 65 129 164
16.24 7.32 2.61 66 129 164
16.24 7.21 2.61 68 131 166
16.24 7.09 2.61 70 130 166
16.24 6.98 2.61 71 131 167
16.24 6.87 2.61 70 133 168
16.24 6.75 2.61 70 133 168
16.24 6.64 2.61 69 131 168
16.24 6.53 2.61 68 130 167
16.24 6.41 2.61 66 128 165
16.24 6.30 2.61 67 129 166
16.24 6.19 2.61 68 132 168
16.24 6.07 2.61 69 133 169
16.24 5.96 2.61 69 133 171
16.24 5.85 2.61 69 133 171
16.24 5.73 2.61 70 134 172
16.24 5.62 2.61 71 135 173
16.24 5.51 2.61 71 135 171
16.24 5.39 2.61 71 135 171
16.24 5.28 2.61 73 135 172
16.24 5.17 2.61 73 135 172
16.24 5.05 2.61 74 134 170
16.24 4.94 2.61 74 134 170
16.24 4.82 2.61 76 134 171
16.24 4.71 2.61 77 135 172
16.24 4.60 2.61 78 137 171
16.24 4.48 2.61 80 139 173
16.24 4.37 2.61 77 135 172
16.24 4.26 2.61 78 136 173
16.24 4.14 2.61 80 140 176
16.24 4.03 2.61 76 139 174
16.24 3.92 2.61 79 142 177
16.24 3.80 2.61 77 139 176
16.24 3.69 2.61 77 139 176
16.24 3.58 2.61 76 138 175
16.24 3.46 2.61 76 138 175
16.24 3.35 2.61 78 138 175
16.24 3.24 2.61 79 139 176
16.24 3.12 2.61 81 139 177
16.24 3.01 2.61 81 139 177
16.24 2.90 2.61 83 138 177
16.24 2.78 2.61 82 137 176
16.24 2.67 2.61 82 137 176
16.24 2.56 2.61 84 139 178
16.24 2.44 2.61 84 142 180
15.95 2.28 2.79 84 142 180
15.95 2.16 2.79 82 140 178
15.95 2.05 2.79 80 138 176
15.95 1.94 2.79 79 141 178
15.95 1.82 2.79 80 142 179
15.95 1.71 2.79 81 143 180
15.95 1.60 2.79 81 143 180
15.65 1.44 2.97 80 142 179
15.65 1.33 2.97 83 143 179
15.65 1.21 2.97 84 144 180
15.65 1.10 2.97 82 142 178
15.65 0.99 2.97 83 143 179
15.65 0.88 2.97 84 144 178
15.35 0.72 3.15 83 143 177
15.35 0.61 3.15 84 144 178
15.35 0.50 3.15 85 145 179
15.35 0.39 3.15 85 144 178
15.35 0.27 3.15 84 143 177
15.35 0.16 3.15 87 143 180
15.65 0.09 2.97 87 143 180
15.65 -0.02 2.97 85 143 180
15.65 -0.13 2.97 85 143 180
15.65 -0.25 2.97 84 144 181
15.65 -0.36 2.97 83 143 180
15.65 -0.47 2.97 78 142 180
15.35 -0.62 3.15 76 140 178
15.35 -0.73 3.15 76 139 180
15.35 -0.84 3.15 75 138 179
15.35 -0.95 3.15 76 139 180
15.35 -1.07 3.15 78 141 182
15.35 -1.18 3.15 80 142 183
15.35 -1.29 3.15 79 141 182
15.35 -1.40 3.15 83 142 184
15.35 -1.51 3.15 81 140 180
15.08 -1.65 3.31 86 145 187
15.08 -1.76 3.31 81 144 185
15.08 -1.87 3.31 70 133 177
15.08 -1.99 3.31 55 121 169
-3.04 -3.85 14.28 40 105 159
-3.16 -3.93 14.36 21 86 144
-3.16 -4.01 14.36 10 71 138
-3.16 -4.08 14.36 0 56 129
-3.31 -4.17 14.45 2 57 139
-3.31 -4.24 14.45 5 57 143
-3.43 -4.32 14.52 3 54 146
-3.43 -4.40 14.52 5 55 154
-3.43 -4.47 14.52 8 57 160
-3.55 -4.55 14.59 6 58 160
-3.55 -4.63 14.59 3 56 162
-3.55 -4.70 14.59 12 70 180
-3.55 -4.78 14.59 8 70 183
-3.67 -4.86 14.66 8 71 185
-3.67 -4.93 14.66 9 74 192
-3.67 -5.00 14.66 7 76 195
-3.67 -5.08 14.66 8 77 198
-3.67 -5.15 14.66 9 79 200
-3.67 -5.22 14.66 11 82 198
-3.55 -5.29 14.59 15 86 202
-3.55 -5.36 14.59 19 92 203
-3.55 -5.44 14.59 22 98 208
-3.43 -5.80 14.52 10 104 204
-3.43 -5.87 14.52 13 109 211
-3.43 -5.94 14.52 11 107 209
-3.43 -6.02 14.52 9 104 212
-3.43 -6.09 14.52 15 110 226
-3.43 -6.17 14.52 21 111 221
-3.31 -6.24 14.45 23 109 194
-3.31 -6.31 14.45 36 107 173
-3.31 -6.38 14.45 69 121 168
-3.16 -6.45 14.36 108 144 166
-3.16 -6.53 14.36 134 162 150
-3.04 -6.60 14.28 136 156 128
-3.04 -6.67 14.28 146 168 130
-2.92 -6.75 14.21 123 142 112
-2.92 -6.82 14.21 102 119 103
-2.92 -6.90 14.21 92 107 102
16.19 10.50 2.51 85 102 86
16.19 10.38 2.51 77 93 80
16.19 10.27 2.51 88 98 89
16.19 10.16 2.51 75 85 77
16.19 10.04 2.51 75 92 84
16.19 9.93 2.51 62 90 93
16.19 9.82 2.51 70 114 139
16.19 9.70 2.51 51 114 147
16.19 9.59 2.51 52 116 151
16.19 9.48 2.51 51 113 150
16.19 9.36 2.51 52 114 153
16.19 9.25 2.51 49 114 152
16.19 9.14 2.51 45 115 151
16.19 9.02 2.51 44 117 152
16.19 8.91 2.51 44 118 153
16.19 8.80 2.51 45 119 154
16.19 8.68 2.51 48 121 156
16.19 8.57 2.51 50 123 158
16.19 8.46 2.51 53 123 159
16.19 8.34 2.51 55 123 158
16.19 8.23 2.51 58 124 159
16.19 8.12 2.51 63 129 164
16.19 8.00 2.51 63 127 163
16.19 7.89 2.51 61 125 161
16.19 7.77 2.51 60 124 160
16.49 7.74 2.33 60 124 160
16.49 7.63 2.33 62 126 162
16.19 7.43 2.51 64 128 163
16.19 7.32 2.51 66 129 164
16.19 7.21 2.51 69 129 165
16.19 7.09 2.51 70 128 165
16.19 6.98 2.51 71 129 166
16.19 6.87 2.51 72 132 168
16.19 6.75 2.51 72 132 168
16.49 6.72 2.33 72 132 169
16.49 6.60 2.33 71 131 168
16.19 6.41 2.51 67 129 166
16.19 6.30 2.51 68 130 167
16.19 6.19 2.51 68 132 170
16.19 6.07 2.51 69 133 171
16.19 5.96 2.51 70 134 172
16.19 5.85 2.51 71 135 173
16.19 5.73 2.51 70 135 173
16.19 5.62 2.51 71 136 174
16.19 5.51 2.51 71 135 170
16.19 5.39 2.51 72 136 171
16.19 5.28 2.51 73 136 171
16.19 5.17 2.51 73 136 171
16.19 5.05 2.51 74 134 170
16.19 4.94 2.51 74 134 170
16.19 4.82 2.51 76 134 171
16.19 4.71 2.51 77 135 172
16.19 4.60 2.51 78 136 173
16.19 4.48 2.51 78 136 173
16.19 4.37 2.51 77 135 172
16.19 4.26 2.51 77 135 172
16.19 4.14 2.51 79 139 175
16.19 4.03 2.51 76 138 175
16.19 3.92 2.51 76 138 175
16.19 3.80 2.51 77 139 176
16.19 3.69 2.51 77 139 176
16.19 3.58 2.51 77 139 176
16.19 3.46 2.51 77 139 176
16.19 3.35 2.51 79 139 176
16.19 3.24 2.51 80 140 177
16.19 3.12 2.51 80 140 177
16.19 3.01 2.51 80 140 177
16.19 2.90 2.51 83 141 179
16.19 2.78 2.51 81 139 177
16.19 2.67 2.51 81 139 177
16.19 2.56 2.51 82 140 178
15.89 2.39 2.69 84 142 180
15.89 2.28 2.69 84 142 180
15.89 2.16 2.69 81 139 177
15.89 2.05 2.69 79 137 175
15.89 1.94 2.69 79 141 180
15.89 1.82 2.69 80 142 181
15.89 1.71 2.69 82 142 179
15.59 1.55 2.87 81 141 178
15.59 1.44 2.87 80 140 177
15.59 1.33 2.87 82 142 178
15.59 1.21 2.87 81 141 177
15.59 1.10 2.87 79 139 173
15.59 0.99 2.87 81 141 175
15.59 0.88 2.87 83 142 176
15.29 0.72 3.05 82 141 175
15.29 0.61 3.05 83 142 174
15.29 0.50 3.05 84 143 175
15.29 0.39 3.05 83 142 174
15.29 0.27 3.05 82 141 175
15.29 0.16 3.05 86 142 177
15.59 0.09 2.87 86 142 179
15.59 -0.02 2.87 85 143 180
15.59 -0.13 2.87 85 143 180
15.59 -0.25 2.87 84 144 181
15.29 -0.40 3.05 83 143 180
15.29 -0.51 3.05 80 142 181
15.29 -0.62 3.05 79 141 180
15.29 -0.73 3.05 78 141 182
15.29 -0.84 3.05 77 140 181
15.29 -0.95 3.05 79 140 184
15.29 -1.07 3.05 80 141 185
15.29 -1.18 3.05 80 141 185
15.29 -1.29 3.05 79 140 184
15.29 -1.40 3.05 79 140 184
15.29 -1.51 3.05 76 139 180
15.02 -1.65 3.22 77 140 183
15.02 -1.76 3.22 62 129 172
15.02 -1.87 3.22 51 117 165
15.02 -1.99 3.22 44 114 166
-3.20 -3.86 14.29 34 103 162
-3.20 -3.93 14.29 20 85 149
-3.20 -4.01 14.29 13 76 147
-3.35 -4.09 14.38 1 58 137
-3.35 -4.17 14.38 6 58 142
-3.47 -4.25 14.46 5 55 144
-3.47 -4.32 14.46 2 48 142
-3.47 -4.40 14.46 2 48 142
-3.59 -4.48 14.53 7 53 149
-3.59 -4.55 14.53 12 58 156
-3.59 -4.63 14.53 10 58 160
-3.59 -4.70 14.53 9 62 166
-3.59 -4.78 14.53 6 62 171
-3.59 -4.85 14.53 6 63 176
-3.59 -4.92 14.53 6 67 182
-3.71 -5.00 14.60 7 69 188
-3.71 -5.08 14.60 6 71 191
-3.59 -5.14 14.53 6 75 196
-3.59 -5.22 14.53 9 78 197
-3.59 -5.29 14.53 12 81 200
-3.59 -5.36 14.53 15 86 200
-3.59 -5.44 14.53 18 91 204
-3.47 -5.80 14.46 26 100 207
-3.47 -5.87 14.46 26 100 205
-3.47 -5.94 14.46 16 98 198
-3.47 -6.02 14.46 13 105 208
-3.47 -6.09 14.46 13 114 222
-3.35 -6.16 14.38 4 106 206
-3.35 -6.24 14.38 12 104 177
-3.35 -6.31 14.38 45 118 171
-3.35 -6.38 14.38 76 125 158
-3.20 -6.45 14.29 99 127 149
-3.20 -6.53 14.29 122 144 157
-3.08 -6.60 14.22 130 148 148
-3.08 -6.67 14.22 135 156 139
-2.96 -6.75 14.15 94 109 86
-2.96 -6.82 14.15 93 97 74
-2.96 -6.90 14.15 109 112 95
16.13 10.50 2.41 84 101 83
16.13 10.38 2.41 77 93 80
16.13 10.27 2.41 89 99 90
16.13 10.16 2.41 77 86 81
16.13 10.04 2.41 81 98 90
16.13 9.93 2.41 72 100 104
16.13 9.82 2.41 67 111 138
16.13 9.70 2.41 50 113 148
16.13 9.59 2.41 52 116 152
16.13 9.48 2.41 52 114 151
16.13 9.36 2.41 51 113 152
16.13 9.25 2.41 53 117 155
16.13 9.14 2.41 48 116 153
16.13 9.02 2.41 45 119 154
16.13 8.91 2.41 45 121 155
16.13 8.80 2.41 47 121 156
16.13 8.68 2.41 49 123 158
16.13 8.57 2.41 52 125 160
16.13 8.46 2.41 55 125 161
16.13 8.34 2.41 57 127 161
16.13 8.23 2.41 59 127 162
16.13 8.12 2.41 62 128 163
16.13 8.00 2.41 61 127 162
16.13 7.89 2.41 61 125 161
16.13 7.77 2.41 61 125 161
16.13 7.66 2.41 62 124 161
16.13 7.55 2.41 63 125 162
16.13 7.43 2.41 65 128 163
16.13 7.32 2.41 68 128 164
16.13 7.21 2.41 70 128 165
16.13 7.09 2.41 72 128 165
16.13 6.98 2.41 70 128 165
16.13 6.87 2.41 71 129 167
16.43 6.83 2.23 72 130 168
16.43 6.72 2.23 71 131 168
16.43 6.60 2.23 72 132 169
16.43 6.49 2.23 70 132 169
16.43 6.37 2.23 70 132 169
16.43 6.26 2.23 71 133 172
16.43 6.14 2.23 72 134 173
16.13 5.96 2.41 72 136 174
16.13 5.85 2.41 73 137 175
16.13 5.73 2.41 73 137 175
16.13 5.62 2.41 73 137 173
16.13 5.51 2.41 71 135 170
16.13 5.39 2.41 72 137 169
16.13 5.28 2.41 73 136 171
16.13 5.17 2.41 73 136 171
16.13 5.05 2.41 72 135 170
16.13 4.94 2.41 72 135 170
16.13 4.82 2.41 75 135 172
16.13 4.71 2.41 76 136 173
16.13 4.60 2.41 76 136 173
16.13 4.48 2.41 74 134 171
16.13 4.37 2.41 74 134 171
16.13 4.26 2.41 75 135 172
16.13 4.14 2.41 77 137 174
16.13 4.03 2.41 77 137 174
16.13 3.92 2.41 74 134 171
16.13 3.80 2.41 78 138 175
16.13 3.69 2.41 78 138 175
16.13 3.58 2.41 78 138 175
16.13 3.46 2.41 79 139 176
16.13 3.35 2.41 79 139 176
16.13 3.24 2.41 79 139 176
16.13 3.12 2.41 79 139 176
16.13 3.01 2.41 79 139 176
16.13 2.90 2.41 80 140 177
16.13 2.78 2.41 80 140 177
16.13 2.67 2.41 81 141 178
15.83 2.50 2.59 82 142 179
15.83 2.39 2.59 83 141 179
15.83 2.28 2.59 83 141 179
15.83 2.16 2.59 81 139 177
15.83 2.05 2.59 80 138 176
15.83 1.94 2.59 81 140 180
15.83 1.82 2.59 82 141 181
15.53 1.66 2.78 82 141 181
15.53 1.55 2.78 80 139 179
15.53 1.44 2.78 80 140 177
15.53 1.33 2.78 81 141 177
15.53 1.21 2.78 80 140 176
15.53 1.10 2.78 80 138 175
15.53 0.99 2.78 82 140 177
15.53 0.88 2.78 83 142 176
15.23 0.72 2.96 82 141 175
15.23 0.61 2.96 82 141 175
15.23 0.50 2.96 83 142 176
15.23 0.39 2.96 83 142 174
15.23 0.27 2.96 82 141 175
15.23 0.16 2.96 86 142 177
15.23 0.05 2.96 85 141 178
15.53 -0.02 2.78 83 141 178
15.23 -0.17 2.96 83 141 178
15.23 -0.28 2.96 84 142 180
15.23 -0.40 2.96 84 142 180
15.23 -0.51 2.96 83 142 182
15.23 -0.62 2.96 83 142 182
15.23 -0.73 2.96 82 144 185
15.23 -0.84 2.96 81 143 184
15.23 -0.95 2.96 81 142 186
15.23 -1.07 2.96 82 143 187
15.23 -1.18 2.96 82 143 188
15.23 -1.29 2.96 80 141 186
15.23 -1.40 2.96 79 140 185
15.23 -1.51 2.96 73 138 178
14.97 -1.65 3.12 73 140 182
14.97 -1.76 3.12 62 130 175
14.97 -1.87 3.12 51 121 170
14.97 -1.99 3.12 49 120 174
-3.23 -3.86 14.23 38 108 168
-3.23 -3.93 14.23 21 89 154
-3.38 -4.02 14.32 15 79 151
-3.38 -4.09 14.32 0 54 133
-3.38 -4.17 14.32 0 50 134
-3.50 -4.25 14.39 0 50 137
-3.50 -4.32 14.39 6 51 142
-3.50 -4.40 14.39 7 52 143
-3.62 -4.48 14.46 7 50 142
-3.62 -4.55 14.46 7 50 142
-3.62 -4.63 14.46 8 52 147
-3.62 -4.70 14.46 7 55 155
-3.62 -4.78 14.46 3 54 159
-3.62 -4.85 14.46 4 58 166
-3.62 -4.92 14.46 5 62 175
-3.62 -5.00 14.46 6 67 182
-3.62 -5.07 14.46 7 69 190
-3.62 -5.14 14.46 6 72 194
-3.62 -5.22 14.46 6 75 196
-3.62 -5.29 14.46 7 76 197
-3.62 -5.36 14.46 10 81 199
-3.62 -5.44 14.46 12 84 202
-3.62 -5.51 14.46 13 88 203
-3.62 -5.58 14.46 14 91 205
-3.50 -5.80 14.39 10 94 216
-3.50 -5.87 14.39 11 97 220
-3.50 -5.94 14.39 9 96 211
-3.50 -6.02 14.39 15 101 210
-3.50 -6.09 14.39 21 109 209
-3.38 -6.16 14.32 21 98 178
-3.38 -6.24 14.32 37 98 145
-3.38 -6.31 14.32 76 114 137
-3.23 -6.38 14.23 103 116 122
-3.23 -6.45 14.23 112 113 117
-3.12 -6.52 14.15 126 130 141
-3.12 -6.60 14.15 116 128 140
-3.12 -6.67 14.15 105 129 129
-3.00 -6.75 14.08 77 103 102
16.07 10.50 2.31 88 103 84
16.07 10.38 2.31 80 94 79
16.07 10.27 2.31 85 95 87
16.07 10.16 2.31 78 87 84
16.07 10.04 2.31 84 101 95
16.07 9.93 2.31 80 107 114
16.07 9.82 2.31 66 110 139
16.07 9.70 2.31 49 111 148
16.07 9.59 2.31 53 117 153
16.07 9.48 2.31 52 114 153
16.07 9.36 2.31 50 112 151
16.07 9.25 2.31 53 118 156
16.07 9.14 2.31 47 117 153
16.07 9.02 2.31 45 119 154
16.07 8.91 2.31 45 121 155
16.07 8.80 2.31 46 120 155
16.07 8.68 2.31 48 122 157
16.07 8.57 2.31 51 124 159
16.07 8.46 2.31 55 125 161
16.07 8.34 2.31 57 127 161
16.07 8.23 2.31 61 127 162
16.07 8.12 2.31 60 126 161
16.07 8.00 2.31 63 127 163
16.07 7.89 2.31 65 127 164
16.07 7.77 2.31 67 129 166
16.07 7.66 2.31 68 130 167
16.07 7.55 2.31 68 130 167
16.07 7.43 2.31 67 130 165
16.07 7.32 2.31 69 129 166
16.07 7.21 2.31 69 129 166
16.07 7.09 2.31 70 128 168
16.07 6.98 2.31 70 128 168
16.37 6.94 2.13 70 128 168
16.37 6.83 2.13 70 128 168
16.37 6.72 2.13 71 129 169
16.37 6.60 2.13 71 129 169
16.37 6.49 2.13 72 131 171
16.37 6.37 2.13 72 131 171
16.37 6.26 2.13 72 132 169
16.07 6.07 2.31 73 133 170
16.07 5.96 2.31 72 134 171
16.07 5.85 2.31 73 135 172
16.07 5.73 2.31 73 135 172
16.07 5.62 2.31 72 134 171
16.07 5.51 2.31 72 137 169
16.07 5.39 2.31 72 137 169
16.07 5.28 2.31 72 136 171
16.07 5.17 2.31 72 136 171
16.07 5.05 2.31 72 134 171
16.07 4.94 2.31 72 134 171
16.07 4.82 2.31 73 135 174
16.07 4.71 2.31 74 136 175
16.07 4.60 2.31 75 137 178
16.07 4.48 2.31 73 135 176
16.07 4.37 2.31 77 136 178
16.07 4.26 2.31 77 136 178
16.07 4.14 2.31 77 136 178
16.07 4.03 2.31 79 138 180
16.07 3.92 2.31 74 133 175
16.07 3.80 2.31 76 135 175
16.07 3.69 2.31 76 135 175
16.07 3.58 2.31 77 136 176
16.07 3.46 2.31 77 136 176
16.07 3.35 2.31 77 136 176
16.07 3.24 2.31 78 137 177
16.07 3.12 2.31 76 138 177
16.07 3.01 2.31 76 138 177
16.07 2.90 2.31 76 138 177
16.07 2.78 2.31 77 139 178
15.78 2.61 2.50 81 140 180
15.78 2.50 2.50 81 140 180
15.78 2.39 2.50 81 140 180
15.78 2.28 2.50 81 140 180
15.78 2.16 2.50 82 140 180
15.78 2.05 2.50 82 140 180
15.78 1.94 2.50 80 139 179
15.78 1.82 2.50 82 141 181
15.48 1.66 2.68 82 141 181
15.48 1.55 2.68 80 139 179
15.48 1.44 2.68 81 140 180
15.48 1.33 2.68 84 142 180
15.48 1.21 2.68 81 139 177
15.48 1.10 2.68 83 141 179
15.48 0.99 2.68 84 142 180
15.48 0.88 2.68 84 142 179
15.18 0.72 2.86 83 141 178
15.18 0.61 2.86 84 142 179
15.18 0.50 2.86 85 143 180
15.18 0.39 2.86 86 144 181
15.18 0.27 2.86 85 143 180
15.18 0.16 2.86 86 141 180
15.18 0.05 2.86 85 140 179
15.18 -0.06 2.86 84 139 178
15.18 -0.17 2.86 83 138 177
15.18 -0.28 2.86 82 140 178
15.18 -0.40 2.86 83 141 179
15.18 -0.51 2.86 83 142 182
15.18 -0.62 2.86 83 142 182
15.18 -0.73 2.86 84 143 183
15.18 -0.84 2.86 83 142 184
15.18 -0.95 2.86 82 144 185
15.18 -1.07 2.86 83 144 188
15.18 -1.18 2.86 83 144 189
15.18 -1.29 2.86 81 142 187
15.18 -1.40 2.86 80 141 188
15.18 -1.51 2.86 77 142 184
14.91 -1.65 3.03 79 143 187
14.91 -1.76 3.03 71 139 184
14.91 -1.87 3.03 62 130 179
14.91 -1.99 3.03 51 122 174
-3.27 -3.86 14.16 40 111 167
-3.27 -3.93 14.16 29 97 160
-3.42 -4.02 14.26 25 90 158
-3.42 -4.09 14.26 4 64 137
-3.42 -4.17 14.26 0 53 133
-3.54 -4.25 14.33 0 50 131
-3.54 -4.32 14.33 7 53 138
-3.54 -4.40 14.33 8 54 140
-3.66 -4.48 14.40 4 48 135
-3.66 -4.55 14.40 1 45 132
-3.66 -4.63 14.40 3 47 136
-3.66 -4.70 14.40 6 52 146
-3.66 -4.78 14.40 4 52 150
-3.66 -4.85 14.40 3 55 157
-3.66 -4.92 14.40 7 61 169
-3.66 -5.00 14.40 6 66 178
-3.66 -5.07 14.40 5 68 184
-3.66 -5.14 14.40 4 69 189
-3.66 -5.22 14.40 8 76 199
-3.66 -5.29 14.40 7 75 198
-3.66 -5.36 14.40 7 77 198
-3.66 -5.44 14.40 7 79 199
-3.66 -5.51 14.40 8 83 200
-3.66 -5.58 14.40 9 86 202
-3.54 -5.80 14.33 14 89 191
-3.54 -5.87 14.33 19 93 198
-3.54 -5.94 14.33 15 91 203
-3.54 -6.02 14.33 13 89 199
-3.54 -6.09 14.33 24 96 194
-3.42 -6.16 14.26 39 102 179
-3.42 -6.24 14.26 57 109 157
-3.42 -6.31 14.26 81 118 144
-3.42 -6.38 14.26 100 124 128
-3.27 -6.45 14.16 99 115 114
-3.15 -6.52 14.09 108 122 131
-3.15 -6.60 14.09 101 115 124
-3.15 -6.67 14.09 94 114 113
-3.03 -6.75 14.02 89 105 104
16.02 10.50 2.21 86 101 82
16.02 10.38 2.21 83 97 82
16.02 10.27 2.21 83 93 85
16.02 10.16 2.21 78 89 85
16.02 10.04 2.21 81 97 94
16.02 9.93 2.21 79 108 116
16.02 9.82 2.21 66 111 142
16.02 9.70 2.21 48 112 150
16.02 9.59 2.21 52 117 155
16.02 9.48 2.21 50 115 153
16.02 9.36 2.21 46 111 149
16.02 9.25 2.21 50 120 156
16.02 9.14 2.21 43 116 151
16.02 9.02 2.21 44 118 153
16.02 8.91 2.21 44 118 153
16.02 8.80 2.21 46 119 154
16.02 8.68 2.21 47 120 155
16.02 8.57 2.21 51 121 157
16.02 8.46 2.21 55 123 160
16.02 8.34 2.21 57 125 160
16.02 8.23 2.21 61 127 162
16.02 8.12 2.21 62 126 162
16.02 8.00 2.21 63 127 163
16.02 7.89 2.21 65 127 164
16.02 7.77 2.21 66 128 165
16.02 7.66 2.21 66 128 165
16.02 7.55 2.21 67 129 166
16.02 7.43 2.21 66 129 164
16.02 7.32 2.21 68 128 165
16.02 7.21 2.21 68 127 167
16.02 7.09 2.21 69 126 169
16.02 6.98 2.21 69 126 169
16.02 6.87 2.21 70 128 168
16.32 6.83 2.03 71 129 169
16.32 6.72 2.03 71 129 169
16.32 6.60 2.03 71 129 169
16.32 6.49 2.03 72 130 168
16.32 6.37 2.03 72 130 168
16.32 6.26 2.03 72 130 168
16.02 6.07 2.21 73 131 169
16.02 5.96 2.21 74 132 170
16.02 5.85 2.21 75 133 171
16.02 5.73 2.21 73 133 169
16.02 5.62 2.21 72 132 168
16.02 5.51 2.21 72 137 169
16.02 5.39 2.21 72 137 169
16.02 5.28 2.21 72 136 171
16.02 5.17 2.21 72 136 172
16.02 5.05 2.21 71 135 171
16.02 4.94 2.21 71 135 173
16.02 4.82 2.21 73 135 176
16.02 4.71 2.21 73 135 176
16.02 4.60 2.21 76 137 181
16.02 4.48 2.21 73 134 178
16.02 4.37 2.21 77 138 182
16.02 4.26 2.21 77 138 182
16.02 4.14 2.21 78 137 181
16.02 4.03 2.21 82 141 185
16.02 3.92 2.21 76 135 179
16.02 3.80 2.21 78 136 176
16.02 3.69 2.21 78 136 176
16.02 3.58 2.21 77 136 176
16.02 3.46 2.21 77 136 176
16.02 3.35 2.21 75 137 176
16.02 3.24 2.21 76 138 177
15.72 3.07 2.40 76 138 177
15.72 2.95 2.40 76 138 177
15.72 2.84 2.40 76 138 177
15.72 2.73 2.40 76 138 177
15.72 2.61 2.40 77 139 178
15.72 2.50 2.40 78 140 179
15.72 2.39 2.40 81 140 180
15.72 2.28 2.40 81 140 180
15.72 2.16 2.40 82 140 180
15.72 2.05 2.40 82 140 180
15.72 1.94 2.40 80 139 179
15.72 1.82 2.40 82 141 181
15.42 1.66 2.58 82 141 181
15.42 1.55 2.58 80 139 179
15.42 1.44 2.58 81 140 180
15.42 1.33 2.58 83 141 181
15.42 1.21 2.58 79 137 177
15.42 1.10 2.58 83 141 181
15.42 0.99 2.58 84 142 182
15.42 0.88 2.58 84 142 182
15.42 0.76 2.58 82 140 180
15.12 0.61 2.76 83 141 181
15.12 0.50 2.76 85 143 183
15.12 0.39 2.76 88 143 182
15.12 0.27 2.76 87 142 181
15.12 0.16 2.76 87 142 183
15.12 0.05 2.76 85 140 181
15.12 -0.06 2.76 84 139 180
15.12 -0.17 2.76 83 138 179
15.12 -0.28 2.76 82 140 178
15.12 -0.40 2.76 82 140 178
15.12 -0.51 2.76 83 141 181
15.12 -0.62 2.76 83 141 181
15.12 -0.73 2.76 82 141 181
15.12 -0.84 2.76 82 141 181
15.12 -0.95 2.76 83 142 184
15.12 -1.07 2.76 84 143 187
15.12 -1.18 2.76 82 143 187
15.12 -1.29 2.76 80 141 186
15.12 -1.40 2.76 79 140 187
14.85 -1.54 2.93 77 140 183
14.85 -1.65 2.93 75 139 183
14.85 -1.76 2.93 71 138 181
14.85 -1.87 2.93 62 130 177
14.85 -1.99 2.93 48 120 168
14.85 -2.10 2.93 40 111 163
14.56 -2.24 3.11 36 105 162
-3.46 -4.02 14.19 32 98 159
-3.46 -4.09 14.19 14 75 142
-3.58 -4.18 14.26 5 61 135
-3.58 -4.25 14.26 0 52 127
-3.58 -4.32 14.26 4 51 131
-3.58 -4.40 14.26 5 52 132
-3.58 -4.47 14.26 5 50 133
-3.70 -4.55 14.34 6 51 136
-3.70 -4.63 14.34 11 55 142
-3.70 -4.70 14.34 6 52 140
-3.70 -4.78 14.34 5 51 145
-3.70 -4.85 14.34 4 54 151
-3.70 -4.92 14.34 6 59 163
-3.70 -5.00 14.34 6 64 174
-3.70 -5.07 14.34 5 66 181
-3.70 -5.14 14.34 3 68 188
-3.70 -5.22 14.34 7 75 198
-3.70 -5.29 14.34 6 74 197
-3.70 -5.36 14.34 3 75 195
-3.70 -5.44 14.34 3 75 195
-3.70 -5.51 14.34 2 79 195
-3.70 -5.58 14.34 5 82 198
-3.70 -5.66 14.34 3 84 199
-3.58 -5.72 14.26 2 86 202
-3.58 -5.80 14.26 4 93 211
-3.58 -5.87 14.26 6 92 213
-3.58 -5.94 14.26 7 90 210
-3.58 -6.02 14.26 23 92 193
-3.58 -6.09 14.26 50 107 160
-3.58 -6.17 14.26 79 120 142
-3.46 -6.24 14.19 98 121 127
-3.46 -6.31 14.19 107 119 117
-3.46 -6.38 14.19 110 121 117
-3.31 -6.45 14.10 101 110 115
-3.31 -6.53 14.10 102 110 129
-3.19 -6.60 14.03 102 113 135
15.96 10.50 2.12 78 93 74
15.96 10.38 2.12 83 97 82
15.96 10.27 2.12 83 93 85
15.96 10.16 2.12 80 91 87
15.96 10.04 2.12 77 93 90
15.96 9.93 2.12 74 103 111
15.96 9.82 2.12 64 109 142
15.96 9.70 2.12 45 110 148
15.96 9.59 2.12 50 118 155
15.96 9.48 2.12 48 116 153
15.96 9.36 2.12 45 113 150
15.96 9.25 2.12 50 123 158
15.96 9.14 2.12 45 119 154
15.96 9.02 2.12 46 120 155
15.96 8.91 2.12 45 119 154
15.96 8.80 2.12 46 119 154
15.96 8.68 2.12 49 119 155
15.96 8.57 2.12 51 121 157
15.96 8.46 2.12 55 123 160
15.96 8.34 2.12 60 126 161
15.96 8.23 2.12 62 128 163
15.96 8.12 2.12 63 127 163
15.96 8.00 2.12 61 125 161
15.96 7.89 2.12 60 122 159
15.96 7.77 2.12 58 120 157
15.96 7.66 2.12 57 119 156
15.96 7.55 2.12 59 121 158
15.96 7.43 2.12 60 123 158
15.96 7.32 2.12 62 124 161
15.96 7.21 2.12 65 124 166
15.96 7.09 2.12 66 125 169
15.96 6.98 2.12 69 126 171
15.96 6.87 2.12 72 129 172
16.26 6.83 1.93 72 129 172
16.26 6.72 1.93 72 130 170
16.26 6.60 1.93 72 130 170
16.26 6.49 1.93 75 133 171
16.26 6.37 1.93 74 132 170
15.96 6.19 2.12 74 132 170
15.96 6.07 2.12 74 132 170
15.96 5.96 2.12 76 134 171
15.96 5.85 2.12 76 134 171
15.96 5.73 2.12 75 133 170
15.96 5.62 2.12 73 133 169
15.96 5.51 2.12 73 136 171
15.96 5.39 2.12 72 136 171
15.96 5.28 2.12 72 136 172
15.96 5.17 2.12 72 136 172
15.96 5.05 2.12 71 135 173
15.96 4.94 2.12 71 134 175
15.96 4.82 2.12 72 135 176
15.96 4.71 2.12 72 135 178
15.96 4.60 2.12 72 133 178
15.96 4.48 2.12 71 132 177
15.96 4.37 2.12 76 137 182
15.96 4.26 2.12 76 137 182
15.96 4.14 2.12 76 134 180
15.96 4.03 2.12 81 139 185
15.96 3.92 2.12 75 134 178
15.96 3.80 2.12 80 137 180
15.96 3.69 2.12 79 137 177
15.96 3.58 2.12 78 137 177
15.96 3.46 2.12 78 137 177
15.66 3.29 2.30 76 138 177
15.66 3.18 2.30 77 139 178
15.66 3.07 2.30 78 140 179
15.66 2.95 2.30 78 140 179
15.66 2.84 2.30 77 141 179
15.66 2.73 2.30 76 140 178
15.66 2.61 2.30 76 138 177
15.66 2.50 2.30 77 139 178
15.66 2.39 2.30 80 139 179
15.66 2.28 2.30 81 140 180
15.66 2.16 2.30 80 139 179
15.66 2.05 2.30 79 138 178
15.66 1.94 2.30 81 140 180
15.66 1.82 2.30 83 142 182
15.37 1.66 2.48 82 141 181
15.37 1.55 2.48 79 138 178
15.37 1.44 2.48 81 139 179
15.37 1.33 2.48 80 138 178
15.37 1.21 2.48 76 134 174
15.37 1.10 2.48 81 139 179
15.37 0.99 2.48 82 140 180
15.37 0.88 2.48 81 138 181
15.37 0.76 2.48 80 137 180
15.37 0.65 2.48 82 136 180
15.37 0.54 2.48 85 139 183
15.07 0.39 2.67 86 140 184
15.07 0.27 2.67 86 140 184
15.07 0.16 2.67 87 141 185
15.07 0.05 2.67 86 140 184
15.07 -0.06 2.67 85 140 181
15.07 -0.17 2.67 84 139 180
15.07 -0.28 2.67 84 139 180
15.07 -0.40 2.67 84 139 180
15.07 -0.51 2.67 82 140 180
15.07 -0.62 2.67 82 140 180
15.07 -0.73 2.67 82 140 180
15.07 -0.84 2.67 82 140 180
15.07 -0.95 2.67 81 140 182
15.07 -1.07 2.67 83 142 184
15.07 -1.18 2.67 80 141 185
15.07 -1.29 2.67 78 139 183
15.07 -1.40 2.67 76 137 182
14.80 -1.54 2.83 81 142 187
14.80 -1.65 2.83 75 138 182
14.80 -1.76 2.83 75 139 185
14.80 -1.87 2.83 70 138 185
14.80 -1.99 2.83 59 130 176
14.50 -2.13 3.02 52 124 174
14.50 -2.24 3.02 46 116 168
-3.35 -4.01 14.04 36 102 160
-3.49 -4.09 14.13 25 89 150
-3.61 -4.18 14.20 17 76 142
-3.61 -4.25 14.20 8 62 132
-3.61 -4.32 14.20 4 53 129
-3.61 -4.40 14.20 1 50 127
-3.61 -4.47 14.20 0 47 127
-3.61 -4.55 14.20 0 47 129
-3.61 -4.62 14.20 2 48 133
-3.73 -4.70 14.27 6 52 137
-3.73 -4.78 14.27 4 51 141
-3.73 -4.85 14.27 3 54 146
-3.73 -4.92 14.27 5 59 159
-3.73 -5.00 14.27 5 63 171
-3.73 -5.07 14.27 4 66 179
-3.73 -5.14 14.27 2 67 185
-3.73 -5.22 14.27 0 70 191
-3.73 -5.29 14.27 0 69 191
-3.73 -5.36 14.27 0 69 189
-3.73 -5.44 14.27 0 73 192
-3.73 -5.51 14.27 1 78 194
-3.73 -5.58 14.27 3 83 198
-3.61 -5.65 14.20 3 87 201
-3.61 -5.72 14.20 4 89 198
-3.61 -5.80 14.20 6 96 193
-3.61 -5.87 14.20 1 87 188
-3.61 -5.94 14.20 14 91 205
-3.61 -6.02 14.20 47 111 208
-3.61 -6.09 14.20 83 129 178
-3.61 -6.17 14.20 102 133 151
-3.49 -6.24 14.13 108 125 132
-3.49 -6.31 14.13 105 117 117
-3.49 -6.38 14.13 94 113 109
-3.49 -6.46 14.13 99 119 118
-3.35 -6.53 14.04 100 119 125
-3.35 -6.60 14.04 104 119 126
15.61 10.40 2.20 94 97 80
15.90 10.38 2.02 95 98 81
15.90 10.27 2.02 90 101 85
15.90 10.16 2.02 84 104 95
15.90 10.04 2.02 73 108 110
15.90 9.93 2.02 63 111 123
15.90 9.82 2.02 56 114 134
15.90 9.70 2.02 51 118 144
15.90 9.59 2.02 52 119 148
15.90 9.48 2.02 49 118 147
15.90 9.36 2.02 48 119 151
15.90 9.25 2.02 46 119 154
15.90 9.14 2.02 46 118 156
15.90 9.02 2.02 45 118 153
15.90 8.91 2.02 47 117 153
15.90 8.80 2.02 48 118 154
15.90 8.68 2.02 50 120 156
15.90 8.57 2.02 53 121 158
15.90 8.46 2.02 55 123 160
15.90 8.34 2.02 58 123 161
15.90 8.23 2.02 59 124 162
15.90 8.12 2.02 62 126 162
15.90 8.00 2.02 62 126 162
15.90 7.89 2.02 64 126 163
16.20 7.86 1.83 65 127 164
15.90 7.66 2.02 68 128 165
15.90 7.55 2.02 68 128 165
15.90 7.43 2.02 69 127 165
15.90 7.32 2.02 69 127 165
15.90 7.21 2.02 70 129 169
15.90 7.09 2.02 70 129 169
15.90 6.98 2.02 66 129 170
15.90 6.87 2.02 63 131 168
15.90 6.75 2.02 64 132 169
15.90 6.64 2.02 67 132 170
15.90 6.53 2.02 69 133 171
15.90 6.41 2.02 73 135 172
15.90 6.30 2.02 72 132 169
15.90 6.19 2.02 72 131 165
15.90 6.07 2.02 73 132 166
15.90 5.96 2.02 75 134 166
15.90 5.85 2.02 75 134 166
15.90 5.73 2.02 72 133 162
15.90 5.62 2.02 69 130 161
15.90 5.51 2.02 74 133 165
15.90 5.39 2.02 74 133 167
15.90 5.28 2.02 74 132 169
15.90 5.17 2.02 74 132 170
15.90 5.05 2.02 75 133 171
15.90 4.94 2.02 76 133 176
15.90 4.82 2.02 76 135 177
15.90 4.71 2.02 77 136 180
15.90 4.60 2.02 73 134 179
15.90 4.48 2.02 72 133 178
15.90 4.37 2.02 72 135 178
15.90 4.26 2.02 73 136 179
15.90 4.14 2.02 76 139 180
15.90 4.03 2.02 76 140 178
15.90 3.92 2.02 75 139 177
15.90 3.80 2.02 70 134 169
15.90 3.69 2.02 75 139 174
15.61 3.52 2.20 75 139 175
15.61 3.40 2.20 73 137 173
15.61 3.29 2.20 77 141 177
15.61 3.18 2.20 78 142 178
15.61 3.07 2.20 76 140 178
15.61 2.95 2.20 76 140 178
15.61 2.84 2.20 73 137 175
15.61 2.73 2.20 76 138 177
15.61 2.61 2.20 77 139 176
15.61 2.50 2.20 78 138 175
15.61 2.39 2.20 81 139 176
15.61 2.28 2.20 83 141 178
15.61 2.16 2.20 86 142 177
15.61 2.05 2.20 84 140 175
15.61 1.94 2.20 79 139 175
15.61 1.82 2.20 79 139 175
15.31 1.66 2.39 80 138 175
15.31 1.55 2.39 81 139 176
15.31 1.44 2.39 80 138 175
15.31 1.33 2.39 81 136 175
15.31 1.21 2.39 80 135 174
15.31 1.10 2.39 82 137 176
15.31 0.99 2.39 83 138 177
15.31 0.88 2.39 83 141 181
15.31 0.76 2.39 84 142 182
15.31 0.65 2.39 84 142 182
15.31 0.54 2.39 84 142 182
15.31 0.43 2.39 82 141 181
15.01 0.27 2.57 81 140 180
15.01 0.16 2.57 86 144 181
15.01 0.05 2.57 86 144 181
15.01 -0.06 2.57 86 144 181
15.01 -0.17 2.57 86 144 181
15.01 -0.28 2.57 88 143 182
15.01 -0.40 2.57 88 143 182
15.01 -0.51 2.57 87 142 181
15.01 -0.62 2.57 87 142 181
15.01 -0.73 2.57 86 141 182
15.01 -0.84 2.57 86 141 182
15.01 -0.95 2.57 84 141 184
15.01 -1.07 2.57 84 141 184
15.01 -1.18 2.57 84 143 185
14.74 -1.32 2.74 83 142 184
14.74 -1.43 2.74 79 141 182
14.74 -1.54 2.74 79 141 178
14.74 -1.65 2.74 79 141 178
14.74 -1.76 2.74 78 140 179
14.74 -1.87 2.74 75 137 178
14.74 -1.99 2.74 72 135 176
14.45 -2.13 2.92 67 130 174
14.45 -2.24 2.92 55 122 167
-3.38 -4.01 13.97 48 114 164
-3.53 -4.09 14.06 38 105 157
-3.53 -4.17 14.06 27 92 148
-3.65 -4.25 14.14 13 78 134
-3.65 -4.32 14.14 6 64 127
-3.65 -4.40 14.14 2 56 120
-3.65 -4.47 14.14 3 50 118
-3.65 -4.55 14.14 8 50 122
-3.65 -4.62 14.14 11 54 132
-3.65 -4.69 14.14 6 54 138
-3.65 -4.77 14.14 5 54 146
-3.65 -4.84 14.14 7 56 148
-3.77 -4.92 14.21 10 56 154
-3.77 -5.00 14.21 12 57 160
-3.77 -5.07 14.21 10 56 167
-3.77 -5.14 14.21 8 57 175
-3.77 -5.22 14.21 10 69 195
-3.77 -5.29 14.21 0 61 187
-3.77 -5.36 14.21 0 70 194
-3.77 -5.44 14.21 0 76 198
-3.77 -5.51 14.21 0 77 195
-3.77 -5.58 14.21 4 85 202
-3.65 -5.65 14.14 3 84 201
-3.65 -5.72 14.14 5 84 189
-3.65 -5.80 14.14 3 79 163
-3.65 -5.87 14.14 25 91 152
-3.65 -5.94 14.14 75 123 163
-3.65 -6.02 14.14 105 140 162
-3.65 -6.09 14.14 111 138 149
-3.65 -6.17 14.14 105 124 128
-3.53 -6.24 14.06 108 124 123
-3.53 -6.31 14.06 113 124 120
-3.53 -6.38 14.06 113 115 110
-3.53 -6.46 14.06 115 117 114
-3.38 -6.53 13.97 110 119 124
-3.38 -6.60 13.97 103 120 128
15.55 10.40 2.10 95 98 81
15.55 10.29 2.10 99 102 85
15.55 10.18 2.10 95 106 92
15.85 10.16 1.92 86 105 99
15.85 10.04 1.92 70 105 109
15.85 9.93 1.92 58 106 120
15.85 9.82 1.92 55 113 135
15.85 9.70 1.92 50 117 144
15.85 9.59 1.92 50 116 148
15.85 9.48 1.92 48 117 148
15.85 9.36 1.92 48 118 152
15.85 9.25 1.92 46 119 154
15.85 9.14 1.92 47 119 157
15.85 9.02 1.92 47 120 155
15.85 8.91 1.92 49 119 155
15.85 8.80 1.92 50 120 156
15.85 8.68 1.92 51 121 157
15.85 8.57 1.92 54 122 159
15.85 8.46 1.92 56 124 161
15.85 8.34 1.92 59 124 162
15.85 8.23 1.92 60 125 163
15.85 8.12 1.92 61 125 163
16.15 8.08 1.73 62 126 164
16.15 7.97 1.73 63 125 162
16.15 7.86 1.73 64 126 163
16.15 7.74 1.73 67 127 164
15.85 7.55 1.92 68 128 165
15.85 7.43 1.92 68 128 165
15.85 7.32 1.92 68 128 165
15.85 7.21 1.92 69 128 168
15.85 7.09 1.92 69 128 168
15.85 6.98 1.92 66 130 168
15.85 6.87 1.92 63 131 168
15.85 6.75 1.92 64 132 169
15.85 6.64 1.92 66 131 169
15.85 6.53 1.92 68 132 170
15.85 6.41 1.92 69 133 169
15.85 6.30 1.92 71 131 168
15.85 6.19 1.92 71 131 167
15.85 6.07 1.92 72 130 167
15.85 5.96 1.92 73 132 166
15.85 5.85 1.92 74 133 167
15.85 5.73 1.92 74 135 166
15.85 5.62 1.92 74 135 166
15.85 5.51 1.92 75 134 168
15.85 5.39 1.92 75 133 170
15.85 5.28 1.92 74 132 169
15.85 5.17 1.92 75 133 171
15.85 5.05 1.92 74 133 173
15.85 4.94 1.92 74 133 175
15.85 4.82 1.92 74 133 175
15.85 4.71 1.92 75 134 178
15.85 4.60 1.92 71 132 176
15.85 4.48 1.92 71 132 176
15.85 4.37 1.92 70 133 176
15.85 4.26 1.92 72 135 178
15.85 4.14 1.92 75 138 179
15.85 4.03 1.92 75 139 177
15.85 3.92 1.92 74 138 176
15.85 3.80 1.92 72 136 172
15.85 3.69 1.92 77 141 177
15.55 3.52 2.10 75 139 175
15.55 3.40 2.10 73 137 173
15.55 3.29 2.10 77 141 179
15.55 3.18 2.10 77 141 179
15.55 3.07 2.10 76 140 178
15.55 2.95 2.10 77 141 179
15.55 2.84 2.10 75 139 177
15.55 2.73 2.10 79 141 180
15.55 2.61 2.10 80 142 179
15.55 2.50 2.10 79 139 176
15.55 2.39 2.10 78 136 173
15.55 2.28 2.10 78 136 173
15.55 2.16 2.10 80 136 171
15.55 2.05 2.10 80 136 171
15.55 1.94 2.10 78 138 174
15.55 1.82 2.10 78 138 174
15.25 1.66 2.29 78 138 174
15.25 1.55 2.29 78 138 174
15.25 1.44 2.29 80 138 175
15.25 1.33 2.29 80 138 176
15.25 1.21 2.29 81 139 177
15.25 1.10 2.29 81 139 177
15.25 0.99 2.29 81 139 177
15.25 0.88 2.29 82 140 180
15.25 0.76 2.29 82 140 180
15.25 0.65 2.29 81 140 180
15.25 0.54 2.29 81 140 180
15.25 0.43 2.29 81 140 180
14.96 0.27 2.47 80 139 179
14.96 0.16 2.47 82 142 178
14.96 0.05 2.47 82 142 178
14.96 -0.06 2.47 83 141 178
14.96 -0.17 2.47 83 141 178
14.96 -0.28 2.47 83 141 179
14.96 -0.40 2.47 83 141 179
14.96 -0.51 2.47 83 141 179
14.96 -0.62 2.47 83 141 179
14.96 -0.73 2.47 82 140 180
14.96 -0.84 2.47 82 140 180
14.96 -0.95 2.47 81 140 182
14.96 -1.07 2.47 82 141 183
14.96 -1.18 2.47 80 142 183
14.69 -1.32 2.64 80 142 183
14.69 -1.43 2.64 78 140 181
14.69 -1.54 2.64 78 142 178
14.69 -1.65 2.64 79 143 179
14.69 -1.76 2.64 78 142 180
14.69 -1.87 2.64 76 139 180
14.69 -1.99 2.64 74 139 179
14.39 -2.13 2.83 71 135 179
14.39 -2.24 2.83 62 131 173
-3.42 -4.01 13.91 55 123 170
-3.57 -4.09 14.00 48 116 165
-3.57 -4.17 14.00 39 104 158
-3.57 -4.24 14.00 26 91 145
-3.57 -4.31 14.00 15 75 135
-3.69 -4.40 14.07 8 62 124
-3.69 -4.47 14.07 4 53 119
-3.69 -4.55 14.07 6 51 119
-3.69 -4.62 14.07 8 53 121
-3.69 -4.69 14.07 3 52 121
-3.69 -4.77 14.07 4 53 129
-3.69 -4.84 14.07 7 53 141
-3.69 -4.91 14.07 8 51 153
-3.69 -4.99 14.07 6 52 164
-3.69 -5.06 14.07 7 53 173
-3.81 -5.14 14.15 5 55 178
-3.81 -5.22 14.15 2 62 186
-3.81 -5.29 14.15 0 63 187
-3.81 -5.36 14.15 3 73 195
-3.81 -5.44 14.15 1 72 196
-3.81 -5.51 14.15 0 73 196
-3.69 -5.58 14.07 4 78 201
-3.69 -5.65 14.07 0 74 195
-3.69 -5.72 14.07 0 71 175
-3.69 -5.80 14.07 20 88 153
-3.69 -5.87 14.07 77 132 173
-3.69 -5.94 14.07 120 162 187
-3.69 -6.02 14.07 114 143 159
-3.69 -6.09 14.07 97 122 127
-3.69 -6.17 14.07 102 122 123
-3.57 -6.24 14.00 103 122 120
-3.57 -6.31 14.00 116 128 124
-3.57 -6.38 14.00 108 115 108
-3.57 -6.46 14.00 108 114 110
-3.57 -6.53 14.00 103 115 113
-3.42 -6.60 13.91 96 114 116
15.79 10.27 1.82 89 99 88
15.79 10.16 1.82 86 105 101
15.79 10.04 1.82 77 111 120
15.79 9.93 1.82 70 117 135
15.79 9.82 1.82 54 111 138
15.79 9.70 1.82 49 115 147
15.79 9.59 1.82 50 116 150
15.79 9.48 1.82 48 117 150
15.79 9.36 1.82 48 118 152
15.79 9.25 1.82 47 119 157
15.79 9.14 1.82 48 120 160
15.79 9.02 1.82 48 120 158
15.79 8.91 1.82 50 119 158
15.79 8.80 1.82 51 121 157
15.79 8.68 1.82 52 122 158
15.79 8.57 1.82 55 123 160
15.79 8.46 1.82 56 124 161
15.79 8.34 1.82 59 124 162
15.79 8.23 1.82 59 124 162
16.09 8.20 1.64 62 126 164
16.09 8.08 1.64 62 126 164
16.09 7.97 1.64 63 125 162
16.09 7.86 1.64 63 125 162
16.09 7.74 1.64 66 126 163
16.09 7.63 1.64 66 126 163
15.79 7.43 1.82 67 127 164
15.79 7.32 1.82 67 127 164
15.79 7.21 1.82 68 128 165
15.79 7.09 1.82 68 128 165
15.79 6.98 1.82 65 129 165
15.79 6.87 1.82 63 131 168
15.79 6.75 1.82 63 131 168
15.79 6.64 1.82 65 130 168
15.79 6.53 1.82 66 130 168
15.79 6.41 1.82 66 130 168
15.79 6.30 1.82 70 129 169
15.79 6.19 1.82 70 130 167
15.79 6.07 1.82 71 129 167
15.79 5.96 1.82 71 129 166
16.09 5.92 1.64 72 130 167
16.09 5.80 1.64 73 133 169
16.09 5.69 1.64 75 135 171
15.79 5.51 1.82 74 134 171
15.79 5.39 1.82 74 134 171
15.79 5.28 1.82 74 134 171
15.79 5.17 1.82 73 132 172
15.79 5.05 1.82 73 132 172
15.79 4.94 1.82 73 132 174
15.79 4.82 1.82 70 131 175
15.79 4.71 1.82 70 131 175
15.79 4.60 1.82 72 133 177
15.79 4.48 1.82 72 133 177
15.79 4.37 1.82 72 134 175
15.79 4.26 1.82 73 135 176
15.79 4.14 1.82 73 137 175
15.79 4.03 1.82 73 137 173
15.79 3.92 1.82 73 137 173
15.79 3.80 1.82 74 138 176
15.79 3.69 1.82 77 141 179
15.49 3.52 2.01 75 139 177
15.49 3.40 2.01 73 137 175
15.49 3.29 2.01 75 139 177
15.49 3.18 2.01 76 140 178
15.49 3.07 2.01 75 139 177
15.49 2.95 2.01 77 141 179
15.49 2.84 2.01 74 138 176
15.49 2.73 2.01 77 141 179
15.49 2.61 2.01 80 142 179
15.49 2.50 2.01 78 140 177
15.49 2.39 2.01 77 137 174
15.49 2.28 2.01 77 137 174
15.49 2.16 2.01 79 137 174
15.49 2.05 2.01 80 138 175
15.49 1.94 2.01 77 140 175
15.49 1.82 2.01 77 140 175
15.20 1.66 2.19 78 138 174
15.20 1.55 2.19 78 138 174
15.20 1.44 2.19 79 137 175
15.20 1.33 2.19 81 139 177
15.20 1.21 2.19 82 140 178
15.20 1.10 2.19 82 140 180
15.20 0.99 2.19 82 140 180
15.20 0.88 2.19 81 139 179
15.20 0.76 2.19 81 139 179
15.20 0.65 2.19 80 139 181
15.20 0.54 2.19 80 139 181
14.90 0.39 2.38 78 140 181
14.90 0.27 2.38 78 140 181
14.90 0.16 2.38 81 141 178
14.90 0.05 2.38 80 140 177
14.90 -0.06 2.38 80 140 177
14.90 -0.17 2.38 80 140 177
14.90 -0.28 2.38 80 140 177
14.90 -0.40 2.38 80 140 177
14.90 -0.51 2.38 80 139 179
14.90 -0.62 2.38 80 139 179
14.90 -0.73 2.38 79 138 178
14.90 -0.84 2.38 79 138 178
14.90 -0.95 2.38 78 140 181
14.90 -1.07 2.38 78 140 181
14.63 -1.21 2.54 79 141 182
14.63 -1.32 2.54 78 140 181
14.63 -1.43 2.54 77 140 181
14.63 -1.54 2.54 77 143 178
14.63 -1.65 2.54 78 144 179
14.63 -1.76 2.54 78 142 180
14.63 -1.87 2.54 78 142 180
14.34 -2.02 2.73 77 142 182
14.34 -2.13 2.73 76 141 183
14.34 -2.24 2.73 69 138 179
14.04 -2.37 2.92 64 132 177
14.04 -2.48 2.92 52 123 169
-3.61 -4.17 13.94 49 116 168
-3.61 -4.24 13.94 39 106 158
-3.61 -4.31 13.94 30 93 147
-3.61 -4.39 13.94 17 76 134
-3.61 -4.46 13.94 7 61 121
-3.72 -4.55 14.01 4 54 117
-3.72 -4.62 14.01 3 51 115
-3.72 -4.69 14.01 4 52 116
-3.72 -4.77 14.01 6 54 120
-3.72 -4.84 14.01 7 54 126
-3.72 -4.91 14.01 7 55 131
-3.72 -4.99 14.01 6 55 132
-3.72 -5.06 14.01 5 57 140
-3.72 -5.13 14.01 4 62 146
-3.72 -5.21 14.01 9 73 183
-3.72 -5.28 14.01 0 60 184
-3.84 -5.36 14.08 0 64 197
-3.72 -5.43 14.01 7 74 207
-3.72 -5.50 14.01 11 80 199
-3.72 -5.58 14.01 4 73 174
-3.72 -5.65 14.01 0 68 145
-3.72 -5.72 14.01 13 78 132
-3.72 -5.80 14.01 93 147 175
-3.72 -5.87 14.01 128 167 182
-3.72 -5.94 14.01 144 174 182
-3.72 -6.02 14.01 99 122 128
-3.72 -6.09 14.01 80 99 103
-3.72 -6.17 14.01 82 100 104
-3.72 -6.24 14.01 81 99 99
-3.61 -6.31 13.94 95 111 110
15.73 10.27 1.72 81 93 83
15.73 10.16 1.72 77 97 96
15.73 10.04 1.72 69 106 115
15.73 9.93 1.72 66 114 134
15.73 9.82 1.72 56 113 142
15.73 9.70 1.72 50 116 150
15.73 9.59 1.72 50 116 151
15.73 9.48 1.72 51 117 152
15.73 9.36 1.72 50 118 155
15.73 9.25 1.72 50 119 158
15.73 9.14 1.72 49 121 161
15.73 9.02 1.72 48 117 156
15.73 8.91 1.72 49 118 157
15.73 8.80 1.72 50 119 158
15.73 8.68 1.72 52 121 160
15.73 8.57 1.72 54 122 161
15.73 8.46 1.72 56 124 163
15.73 8.34 1.72 59 124 162
15.73 8.23 1.72 59 124 162
16.03 8.20 1.54 62 127 165
16.03 8.08 1.54 61 126 164
16.03 7.97 1.54 62 126 164
16.03 7.86 1.54 61 125 163
16.03 7.74 1.54 62 124 163
16.03 7.63 1.54 63 125 164
15.73 7.43 1.72 63 125 162
15.73 7.32 1.72 64 126 163
15.73 7.21 1.72 65 127 164
15.73 7.09 1.72 66 128 165
15.73 6.98 1.72 64 130 165
15.73 6.87 1.72 63 131 168
15.73 6.75 1.72 63 131 168
15.73 6.64 1.72 63 131 168
15.73 6.53 1.72 65 130 168
15.73 6.41 1.72 66 130 168
15.73 6.30 1.72 70 129 169
15.73 6.19 1.72 70 129 169
15.73 6.07 1.72 71 129 169
16.03 6.03 1.54 70 130 167
16.03 5.92 1.54 70 130 167
16.03 5.80 1.54 69 131 168
16.03 5.69 1.54 70 132 169
16.03 5.57 1.54 70 132 171
16.03 5.46 1.54 70 132 171
16.03 5.35 1.54 71 133 172
15.73 5.17 1.72 71 133 172
15.73 5.05 1.72 71 133 174
15.73 4.94 1.72 70 132 173
15.73 4.82 1.72 70 132 173
15.73 4.71 1.72 69 131 172
15.73 4.60 1.72 74 136 177
15.73 4.48 1.72 74 136 177
15.73 4.37 1.72 74 136 175
15.73 4.26 1.72 74 136 175
15.73 4.14 1.72 73 135 172
15.73 4.03 1.72 73 135 172
15.73 3.92 1.72 72 134 173
15.73 3.80 1.72 72 136 174
15.73 3.69 1.72 75 138 179
15.44 3.52 1.91 73 136 177
15.44 3.40 1.91 72 135 176
15.44 3.29 1.91 75 138 179
15.44 3.18 1.91 74 137 178
15.44 3.07 1.91 73 136 177
15.44 2.95 1.91 75 138 179
15.44 2.84 1.91 73 137 175
15.44 2.73 1.91 74 138 176
15.44 2.61 1.91 77 139 178
15.44 2.50 1.91 78 140 179
15.44 2.39 1.91 78 140 179
15.44 2.28 1.91 78 140 179
15.44 2.16 1.91 79 141 178
15.44 2.05 1.91 80 142 179
15.44 1.94 1.91 78 140 177
15.44 1.82 1.91 77 139 176
15.44 1.71 1.91 77 139 176
15.44 1.60 1.91 76 138 175
15.14 1.44 2.09 78 138 175
15.14 1.33 2.09 80 138 178
15.14 1.21 2.09 80 138 178
15.14 1.10 2.09 81 139 179
15.14 0.99 2.09 81 139 179
15.14 0.88 2.09 81 140 182
15.14 0.76 2.09 81 140 182
15.14 0.65 2.09 79 141 182
15.14 0.54 2.09 79 141 182
14.84 0.39 2.28 78 140 181
14.84 0.27 2.28 78 140 181
14.84 0.16 2.28 79 141 178
14.84 0.05 2.28 79 141 178
14.84 -0.06 2.28 79 141 178
14.84 -0.17 2.28 79 141 178
14.84 -0.28 2.28 79 141 180
14.84 -0.40 2.28 78 140 179
14.84 -0.51 2.28 78 140 179
14.84 -0.62 2.28 78 140 179
14.84 -0.73 2.28 76 138 177
14.84 -0.84 2.28 77 139 178
14.84 -0.95 2.28 78 140 181
14.58 -1.10 2.45 78 140 181
14.58 -1.21 2.45 77 140 181
14.58 -1.32 2.45 77 140 181
14.58 -1.43 2.45 77 140 181
14.58 -1.54 2.45 76 142 177
14.58 -1.65 2.45 77 143 178
14.58 -1.76 2.45 77 141 177
14.28 -1.90 2.63 76 140 178
14.28 -2.02 2.63 77 141 179
14.28 -2.13 2.63 78 141 184
13.98 -2.26 2.82 73 140 182
13.98 -2.37 2.82 70 137 180
13.98 -2.48 2.82 53 124 168
-3.64 -4.17 13.87 51 122 168
-3.64 -4.24 13.87 48 116 163
-3.64 -4.31 13.87 39 105 155
-3.64 -4.39 13.87 28 91 144
-3.64 -4.46 13.87 16 76 130
-3.64 -4.54 13.87 6 62 119
-3.64 -4.61 13.87 3 55 113
-3.64 -4.68 13.87 8 54 116
-3.64 -4.76 13.87 10 52 124
-3.76 -4.84 13.95 8 53 136
-3.76 -4.91 13.95 7 51 146
-3.76 -4.99 13.95 7 52 153
-3.76 -5.06 13.95 5 54 157
-3.76 -5.13 13.95 3 58 158
-3.76 -5.21 13.95 5 67 178
-3.76 -5.28 13.95 3 65 188
-3.76 -5.36 13.95 7 72 202
-3.76 -5.43 13.95 7 70 201
-3.76 -5.50 13.95 4 67 181
-3.76 -5.58 13.95 4 67 164
-3.76 -5.65 13.95 31 96 164
-3.76 -5.72 13.95 90 145 186
-3.76 -5.80 13.95 149 190 196
-3.76 -5.87 13.95 143 172 167
-3.76 -5.94 13.95 145 170 166
-3.76 -6.02 13.95 93 113 114
-3.76 -6.09 13.95 78 97 103
-3.76 -6.17 13.95 83 100 108
-3.76 -6.24 13.95 85 102 109
-3.64 -6.31 13.87 90 108 112
15.38 10.40 1.81 90 96 82
15.68 10.38 1.62 92 98 86
15.68 10.27 1.62 85 98 89
15.68 10.16 1.62 74 95 96
15.68 10.04 1.62 65 101 115
15.68 9.93 1.62 63 111 134
15.68 9.82 1.62 55 114 146
15.68 9.70 1.62 51 116 154
15.68 9.59 1.62 50 115 153
15.68 9.48 1.62 50 116 151
15.68 9.36 1.62 49 117 154
15.68 9.25 1.62 49 119 155
15.68 9.14 1.62 48 120 158
15.68 9.02 1.62 47 116 155
15.68 8.91 1.62 48 117 156
15.68 8.80 1.62 50 119 158
15.68 8.68 1.62 52 121 160
15.68 8.57 1.62 55 123 162
15.68 8.46 1.62 56 124 163
15.68 8.34 1.62 57 125 164
15.97 8.31 1.44 58 126 165
15.97 8.20 1.44 61 126 164
15.97 7.63 1.44 62 126 164
15.68 7.43 1.62 64 126 165
15.68 7.32 1.62 64 126 165
15.68 7.21 1.62 65 127 164
15.68 7.09 1.62 66 128 165
15.68 6.98 1.62 64 130 165
15.68 6.87 1.62 62 132 168
15.68 6.75 1.62 62 132 168
15.68 6.64 1.62 63 131 170
15.68 6.53 1.62 65 130 170
15.68 6.41 1.62 67 130 171
15.68 6.30 1.62 68 130 171
15.68 6.19 1.62 71 130 172
15.68 6.07 1.62 71 130 172
15.68 5.96 1.62 72 131 171
15.97 5.92 1.44 72 131 171
15.97 5.80 1.44 69 131 170
15.97 5.69 1.44 67 129 168
15.97 5.57 1.44 68 132 170
15.97 5.46 1.44 68 132 170
15.97 5.35 1.44 69 133 171
15.68 5.17 1.62 69 133 171
15.68 5.05 1.62 69 132 173
15.68 4.94 1.62 69 132 173
15.68 4.82 1.62 70 132 173
15.68 4.71 1.62 70 132 173
15.68 4.60 1.62 74 136 177
15.68 4.48 1.62 74 136 177
15.68 4.37 1.62 74 136 175
15.68 4.26 1.62 74 136 175
15.68 4.14 1.62 72 134 173
15.68 4.03 1.62 72 134 171
15.68 3.92 1.62 72 134 173
15.68 3.80 1.62 70 133 174
15.68 3.69 1.62 73 136 179
15.38 3.52 1.81 72 135 178
15.38 3.40 1.81 72 135 178
15.38 3.29 1.81 76 138 179
15.38 3.18 1.81 75 137 178
15.38 3.07 1.81 73 135 176
15.38 2.95 1.81 75 137 178
15.38 2.84 1.81 76 139 180
15.38 2.73 1.81 75 138 179
15.38 2.61 1.81 75 138 179
15.38 2.50 1.81 76 139 180
15.38 2.39 1.81 77 140 181
15.38 2.28 1.81 77 140 181
15.38 2.16 1.81 76 139 180
15.38 2.05 1.81 75 138 179
15.38 1.94 1.81 75 139 175
15.38 1.82 1.81 75 139 175
15.38 1.71 1.81 77 139 176
15.38 1.60 1.81 77 139 176
15.08 1.44 2.00 79 138 178
15.08 1.33 2.00 78 137 177
15.08 1.21 2.00 78 137 177
15.08 1.10 2.00 78 137 179
15.08 0.99 2.00 79 138 180
15.08 0.88 2.00 80 139 181
15.08 0.76 2.00 81 140 182
15.08 0.65 2.00 79 140 184
15.08 0.54 2.00 79 140 184
15.08 0.43 2.00 77 140 183
14.79 0.27 2.18 77 138 182
14.79 0.16 2.18 79 141 180
14.79 0.05 2.18 81 140 180
14.79 -0.06 2.18 79 141 180
14.79 -0.17 2.18 79 141 180
14.79 -0.28 2.18 79 141 180
14.79 -0.40 2.18 79 141 180
14.79 -0.51 2.18 78 142 180
14.79 -0.62 2.18 78 142 180
14.79 -0.73 2.18 75 139 177
14.79 -0.84 2.18 77 141 179
14.52 -0.99 2.35 78 141 182
14.52 -1.10 2.35 79 142 183
14.52 -1.21 2.35 78 141 182
14.52 -1.32 2.35 78 141 182
14.52 -1.43 2.35 79 142 183
14.52 -1.54 2.35 77 143 178
14.22 -1.68 2.54 77 143 178
14.22 -1.79 2.54 77 141 179
14.22 -1.90 2.54 75 139 177
14.22 -2.02 2.54 76 139 180
13.93 -2.15 2.73 77 140 181
13.93 -2.26 2.73 76 141 183
13.93 -2.37 2.73 71 138 181
13.93 -2.48 2.73 62 131 173
13.93 -2.59 2.73 57 128 172
13.93 -2.70 2.73 51 122 168
-3.68 -4.31 13.81 45 113 160
-3.68 -4.39 13.81 35 103 152
-3.68 -4.46 13.81 26 89 140
-3.68 -4.54 13.81 14 76 127
-3.68 -4.61 13.81 10 66 117
-3.68 -4.68 13.81 7 59 109
-3.68 -4.76 13.81 10 56 115
-3.68 -4.83 13.81 8 55 125
-3.68 -4.91 13.81 7 54 136
-3.68 -4.98 13.81 6 54 139
-3.80 -5.06 13.88 5 57 143
-3.80 -5.13 13.88 3 59 142
-3.80 -5.21 13.88 1 65 152
-3.80 -5.28 13.88 5 70 164
-3.80 -5.36 13.88 5 69 167
-3.80 -5.43 13.88 0 61 156
-3.68 -5.50 13.81 12 78 154
-3.68 -5.57 13.81 50 115 169
-3.80 -5.65 13.88 93 159 185
-3.80 -5.72 13.88 143 198 203
-3.80 -5.80 13.88 141 178 171
-3.80 -5.87 13.88 139 165 156
-3.80 -5.94 13.88 150 175 172
-3.80 -6.02 13.88 118 139 144
-3.80 -6.09 13.88 71 91 100
-3.80 -6.17 13.88 89 107 119
15.92 10.59 1.34 88 97 80
15.32 10.29 1.71 88 96 81
15.62 10.27 1.53 83 96 87
15.62 10.16 1.53 77 98 101
15.62 10.04 1.53 71 107 121
15.62 9.93 1.53 70 117 143
15.62 9.82 1.53 55 114 148
15.62 9.70 1.53 50 115 153
15.62 9.59 1.53 50 115 153
15.62 9.48 1.53 49 115 150
15.62 9.36 1.53 49 114 152
15.62 9.25 1.53 47 117 153
15.62 9.14 1.53 48 117 156
15.62 9.02 1.53 47 116 155
15.62 8.91 1.53 48 117 156
15.62 8.80 1.53 51 120 159
15.62 8.68 1.53 53 122 161
15.62 8.57 1.53 56 124 163
15.62 8.46 1.53 58 126 165
15.62 8.34 1.53 59 127 166
15.92 8.31 1.34 59 127 166
15.92 8.20 1.34 59 124 164
15.92 7.63 1.34 63 127 165
15.92 7.51 1.34 64 128 166
15.62 7.32 1.53 64 128 166
15.62 7.21 1.53 65 127 166
15.62 7.09 1.53 66 128 167
15.62 6.98 1.53 64 129 167
15.62 6.87 1.53 61 130 169
15.62 6.75 1.53 62 131 170
15.62 6.64 1.53 63 131 170
15.62 6.53 1.53 65 130 170
15.62 6.41 1.53 66 131 173
15.62 6.30 1.53 68 129 173
15.62 6.19 1.53 69 131 172
15.62 6.07 1.53 73 132 174
15.62 5.96 1.53 74 133 175
15.92 5.92 1.34 74 133 175
15.92 5.80 1.34 71 133 172
15.92 5.69 1.34 69 131 170
15.92 5.57 1.34 66 131 169
