ply
format ascii 1.0
element vertex 1740
property float x
property float y
property float z
property uchar red
property uchar green
property uchar blue
end_header
17.23 6.14 3.61 119 154 150
17.23 6.03 3.61 120 154 153
17.23 5.92 3.61 119 153 152
17.23 5.80 3.61 113 147 148
17.23 5.69 3.61 104 142 145
17.23 5.57 3.61 103 147 156
17.23 5.46 3.61 96 144 156
17.23 5.35 3.61 96 144 156
17.23 5.23 3.61 96 144 156
17.23 5.12 3.61 97 143 156
17.23 5.00 3.61 100 146 159
17.23 4.89 3.61 102 146 157
17.23 4.78 3.61 95 139 150
17.23 4.43 3.61 101 144 153
17.23 4.32 3.61 102 145 154
17.23 4.21 3.61 107 150 159
17.23 4.09 3.61 110 150 160
17.23 3.98 3.61 115 154 161
17.23 3.86 3.61 113 152 147
17.23 3.75 3.61 116 153 145
17.23 3.63 3.61 120 160 151
17.23 3.52 3.61 123 163 154
17.23 3.41 3.61 120 162 152
17.23 3.29 3.61 125 165 156
17.23 3.18 3.61 132 172 163
17.23 3.06 3.61 138 171 164
17.23 2.95 3.61 144 173 168
16.93 2.78 3.79 153 175 172
16.93 2.67 3.79 159 178 174
16.93 2.10 3.79 149 159 161
16.93 1.99 3.79 139 152 160
-3.11 -3.31 15.35 154 164 129
-3.11 -3.38 15.35 169 176 132
-3.11 -3.45 15.35 171 177 117
-3.11 -3.53 15.35 177 183 121
-3.11 -3.60 15.35 173 179 115
-3.11 -3.67 15.35 179 184 118
-3.11 -3.75 15.35 174 179 112
-3.11 -3.82 15.35 181 186 119
-3.11 -3.89 15.35 174 180 116
-3.11 -3.97 15.35 164 172 115
-3.11 -4.04 15.35 139 148 101
-3.11 -4.11 15.35 97 111 76
-3.11 -4.19 15.35 83 99 73
-3.11 -4.26 15.35 87 108 91
-3.11 -4.33 15.35 88 110 98
-3.11 -4.41 15.35 87 113 100
-3.11 -4.48 15.35 84 110 97
-3.11 -4.55 15.35 84 111 96
-2.99 -4.62 15.28 84 111 96
-2.99 -4.69 15.28 89 115 102
17.17 8.77 3.51 130 179 176
17.17 8.65 3.51 130 181 184
17.17 7.63 3.51 79 150 170
17.17 7.51 3.51 79 152 171
17.17 7.40 3.51 81 148 175
17.17 7.29 3.51 87 147 184
17.17 7.17 3.51 80 134 178
17.17 7.06 3.51 75 134 176
17.17 6.94 3.51 77 139 180
17.17 6.83 3.51 78 140 181
17.17 6.72 3.51 66 131 171
17.17 6.60 3.51 63 128 168
17.17 6.49 3.51 54 123 164
17.17 6.37 3.51 54 123 165
17.17 6.26 3.51 54 125 167
17.17 6.14 3.51 55 126 170
17.17 6.03 3.51 55 126 172
17.17 5.92 3.51 55 126 172
17.17 5.80 3.51 58 128 177
17.17 5.69 3.51 65 134 176
17.17 5.57 3.51 71 137 171
17.17 5.46 3.51 70 135 163
17.17 5.35 3.51 73 138 166
17.17 5.23 3.51 75 140 168
17.17 5.12 3.51 76 141 169
17.17 5.00 3.51 78 143 171
17.17 4.89 3.51 77 141 169
17.17 4.78 3.51 70 134 162
17.17 4.43 3.51 71 132 160
17.17 4.32 3.51 76 137 165
17.17 4.21 3.51 77 138 166
17.17 4.09 3.51 77 138 166
17.17 3.98 3.51 74 138 165
17.17 3.86 3.51 77 142 170
17.17 3.75 3.51 73 140 167
17.17 3.63 3.51 72 142 168
17.17 3.52 3.51 72 142 168
17.17 3.41 3.51 68 140 165
17.17 3.29 3.51 69 139 165
17.17 3.18 3.51 70 139 168
17.17 3.06 3.51 70 135 165
17.17 2.95 3.51 78 139 170
17.17 2.84 3.51 81 140 172
16.87 2.67 3.69 85 141 174
16.87 2.10 3.69 97 157 185
16.87 1.99 3.69 106 162 185
-3.02 -3.29 15.22 137 148 118
-3.15 -3.38 15.29 160 168 131
-3.15 -3.45 15.29 170 175 121
-3.15 -3.53 15.29 177 183 121
-3.15 -3.60 15.29 172 179 112
-3.15 -3.67 15.29 174 180 108
-3.15 -3.75 15.29 172 178 104
-3.15 -3.82 15.29 174 178 101
-3.15 -3.89 15.29 175 181 107
-3.15 -3.97 15.29 176 183 116
-3.15 -4.04 15.29 161 170 115
-3.15 -4.11 15.29 118 131 87
-3.15 -4.19 15.29 84 99 68
-3.15 -4.26 15.29 90 108 86
-3.15 -4.33 15.29 92 113 98
-3.15 -4.41 15.29 94 117 101
-3.15 -4.48 15.29 90 114 98
-3.15 -4.55 15.29 88 113 94
-3.02 -4.62 15.22 81 106 87
-3.02 -4.69 15.22 83 107 94
17.11 9.45 3.41 135 157 144
17.11 9.34 3.41 142 166 150
17.11 9.22 3.41 135 162 147
17.11 9.11 3.41 129 159 147
17.11 9.00 3.41 122 153 147
17.11 8.88 3.41 114 146 143
17.11 8.77 3.41 108 141 146
17.11 8.65 3.41 105 139 151
17.11 8.54 3.41 98 135 153
17.11 8.43 3.41 90 131 153
17.11 8.31 3.41 82 126 151
17.11 8.20 3.41 77 124 150
17.11 8.08 3.41 76 127 156
17.11 7.97 3.41 72 126 154
17.11 7.63 3.41 63 124 155
17.11 7.51 3.41 62 127 159
17.11 7.40 3.41 63 126 159
17.11 7.29 3.41 64 122 159
17.11 7.17 3.41 65 121 158
17.11 7.06 3.41 68 127 161
17.11 6.94 3.41 62 125 158
17.11 6.83 3.41 62 125 158
17.11 6.72 3.41 61 126 158
17.11 6.60 3.41 69 134 166
17.11 6.49 3.41 65 134 167
17.11 6.37 3.41 61 129 164
17.11 6.26 3.41 59 129 163
17.11 6.14 3.41 62 132 168
17.11 6.03 3.41 63 132 171
17.11 5.92 3.41 61 130 169
17.11 5.80 3.41 62 131 172
17.11 5.69 3.41 66 134 171
17.11 5.57 3.41 72 137 169
17.11 5.46 3.41 73 137 165
17.11 5.35 3.41 75 139 167
17.11 5.23 3.41 72 136 164
17.11 5.12 3.41 67 131 159
17.11 5.00 3.41 71 135 163
17.11 4.89 3.41 77 141 169
17.11 4.78 3.41 76 140 168
17.11 4.43 3.41 77 138 169
17.11 4.32 3.41 78 139 170
17.11 4.21 3.41 76 137 168
17.11 4.09 3.41 82 143 174
17.11 3.98 3.41 82 141 173
17.11 3.86 3.41 82 141 171
17.11 3.75 3.41 80 137 167
17.11 3.63 3.41 79 138 170
17.11 3.52 3.41 83 142 174
17.11 3.41 3.41 83 142 174
17.11 3.29 3.41 86 145 177
17.11 3.18 3.41 85 144 176
17.11 3.06 3.41 82 138 171
17.11 2.95 3.41 81 137 172
16.81 2.78 3.59 84 138 174
16.81 2.67 3.59 80 138 175
16.81 2.56 3.59 75 135 171
16.81 2.44 3.59 71 134 169
16.81 2.33 3.59 70 136 170
16.81 2.21 3.59 71 140 173
16.81 2.10 3.59 71 142 174
16.81 1.99 3.59 70 139 172
16.51 1.82 3.77 76 142 174
16.51 1.71 3.77 79 144 174
16.51 1.60 3.77 81 142 170
16.21 1.44 3.94 86 144 166
16.21 1.33 3.94 105 154 169
16.21 1.21 3.94 111 153 167
16.21 1.10 3.94 120 158 169
16.21 0.99 3.94 126 159 168
16.21 0.88 3.94 135 162 171
15.90 0.72 4.12 143 166 174
15.90 0.61 4.12 147 166 172
15.90 0.50 4.12 142 157 164
15.90 0.39 4.12 129 144 149
15.90 0.27 4.12 118 133 140
-3.06 -3.44 15.16 171 175 124
-3.06 -3.51 15.16 179 185 123
-3.18 -3.60 15.23 176 183 113
-3.18 -3.67 15.23 179 186 108
-3.18 -3.75 15.23 180 188 105
-3.18 -3.82 15.23 176 181 97
-3.18 -3.89 15.23 179 184 102
-3.18 -3.97 15.23 177 185 110
-3.18 -4.04 15.23 167 176 113
-3.18 -4.11 15.23 149 161 111
-3.18 -4.19 15.23 97 111 75
-3.18 -4.26 15.23 91 107 80
-3.18 -4.33 15.23 89 108 88
-3.18 -4.41 15.23 88 109 90
-3.18 -4.48 15.23 87 110 90
-3.18 -4.55 15.23 89 113 91
-3.06 -4.62 15.16 82 105 85
-3.06 -4.69 15.16 92 116 100
-3.06 -4.77 15.16 85 108 98
-3.06 -4.84 15.16 93 114 105
17.06 9.45 3.32 97 150 158
17.06 9.34 3.32 85 145 145
17.06 9.22 3.32 79 142 147
17.06 9.11 3.32 68 128 152
17.06 9.00 3.32 66 125 157
17.06 8.88 3.32 66 125 157
17.06 8.77 3.32 66 125 157
17.06 8.65 3.32 62 123 154
17.06 8.54 3.32 57 118 149
17.06 8.43 3.32 53 118 150
17.06 8.31 3.32 57 122 154
17.06 8.20 3.32 61 127 161
17.06 8.08 3.32 62 128 162
17.06 7.97 3.32 57 128 160
17.06 7.63 3.32 58 131 164
17.06 7.51 3.32 57 130 163
17.06 7.40 3.32 54 124 158
17.06 7.29 3.32 56 126 162
17.06 7.17 3.32 60 128 165
17.06 7.06 3.32 61 129 166
17.06 6.94 3.32 62 130 167
17.06 6.83 3.32 64 132 169
17.06 6.72 3.32 67 133 168
17.06 6.60 3.32 65 131 166
16.76 6.41 3.49 69 133 171
16.76 6.30 3.49 70 134 172
17.06 6.26 3.32 70 133 174
17.06 6.14 3.32 68 131 172
17.06 6.03 3.32 70 131 175
17.06 5.92 3.32 72 133 177
17.06 5.80 3.32 71 132 176
17.06 5.69 3.32 70 129 173
17.06 5.57 3.32 72 131 171
17.06 5.46 3.32 74 132 172
17.06 5.35 3.32 74 132 170
17.06 5.23 3.32 75 133 171
17.06 5.12 3.32 74 134 170
17.06 5.00 3.32 74 134 170
17.06 4.89 3.32 72 135 168
17.06 4.78 3.32 72 135 168
17.06 4.43 3.32 74 137 170
17.06 4.32 3.32 73 136 169
17.06 4.21 3.32 77 140 173
17.06 4.09 3.32 78 141 174
17.06 3.98 3.32 77 140 173
17.06 3.86 3.32 75 139 174
17.06 3.75 3.32 76 140 175
17.06 3.63 3.32 78 141 176
17.06 3.52 3.32 79 142 177
17.06 3.41 3.32 80 143 178
17.06 3.29 3.32 80 143 178
17.06 3.18 3.32 82 142 178
17.06 3.06 3.32 82 142 178
17.06 2.95 3.32 80 140 176
16.76 2.78 3.49 81 141 177
16.76 2.67 3.49 82 142 178
16.76 2.56 3.49 82 142 178
16.76 2.44 3.49 80 140 176
16.76 2.33 3.49 79 139 175
16.76 2.21 3.49 78 141 176
16.76 2.10 3.49 79 142 177
16.76 1.99 3.49 79 142 175
16.45 1.82 3.67 78 141 174
16.45 1.71 3.67 77 140 173
16.15 1.55 3.84 77 140 173
16.15 1.44 3.84 79 140 171
16.15 1.33 3.84 81 140 170
16.15 1.21 3.84 82 141 171
16.15 1.10 3.84 89 146 175
16.15 0.99 3.84 92 149 178
15.85 0.83 4.02 98 154 181
15.85 0.72 4.02 104 160 187
15.85 0.61 4.02 107 161 187
15.85 0.50 4.02 109 163 189
15.85 0.39 4.02 113 167 193
15.85 0.27 4.02 121 171 196
-3.10 -3.44 15.09 164 179 138
-3.10 -3.51 15.09 174 185 127
-3.10 -3.59 15.09 176 187 119
-3.22 -3.67 15.16 172 187 118
-3.22 -3.75 15.16 169 182 112
-3.22 -3.82 15.16 173 181 108
-3.22 -3.89 15.16 184 186 113
-3.22 -3.97 15.16 188 184 110
-3.22 -4.04 15.16 178 173 107
-3.22 -4.11 15.16 171 170 114
-3.22 -4.19 15.16 131 138 97
-3.22 -4.26 15.16 99 119 94
-3.22 -4.33 15.16 92 116 103
-3.22 -4.41 15.16 78 105 96
-3.22 -4.48 15.16 84 107 99
-3.22 -4.55 15.16 83 101 89
-3.22 -4.63 15.16 87 103 90
-3.10 -4.69 15.09 88 110 98
-3.10 -4.77 15.09 87 110 100
-3.10 -4.84 15.09 90 111 102
17.00 9.91 3.22 80 99 97
17.00 9.80 3.22 85 114 118
17.00 9.68 3.22 84 120 132
17.00 9.57 3.22 72 119 137
17.00 9.45 3.22 60 112 134
17.00 9.34 3.22 52 114 129
17.00 9.22 3.22 55 118 136
16.70 9.02 3.39 59 120 149
16.70 8.91 3.39 57 117 151
16.70 8.80 3.39 56 119 152
16.70 8.68 3.39 60 123 156
17.00 8.65 3.22 59 123 158
17.00 8.54 3.22 57 121 156
17.00 8.43 3.22 56 122 156
17.00 8.31 3.22 60 126 160
17.00 8.20 3.22 56 124 159
17.00 8.08 3.22 59 127 162
17.00 7.97 3.22 58 128 162
17.00 7.86 3.22 56 126 160
17.00 7.74 3.22 56 126 162
17.00 7.63 3.22 60 130 166
17.00 7.51 3.22 58 131 166
17.00 7.40 3.22 58 128 164
17.00 7.29 3.22 60 129 168
17.00 7.17 3.22 63 131 170
17.00 7.06 3.22 63 131 168
17.00 6.94 3.22 64 129 167
17.00 6.83 3.22 66 131 169
17.00 6.72 3.22 66 131 169
16.70 6.53 3.39 65 130 168
16.70 6.41 3.39 67 131 169
16.70 6.30 3.39 67 131 169
16.70 6.19 3.39 67 130 171
16.70 6.07 3.39 66 129 170
16.70 5.96 3.39 69 130 174
16.70 5.85 3.39 71 132 176
16.70 5.73 3.39 70 131 176
17.00 5.69 3.22 69 128 172
17.00 5.57 3.22 73 132 174
17.00 5.46 3.22 74 132 172
17.00 5.35 3.22 74 134 171
17.00 5.23 3.22 75 135 172
17.00 5.12 3.22 73 136 171
17.00 5.00 3.22 74 137 172
17.00 4.89 3.22 72 137 169
17.00 4.78 3.22 72 137 169
17.00 4.66 3.22 69 134 166
17.00 4.55 3.22 71 136 168
17.00 4.43 3.22 72 137 169
17.00 4.32 3.22 71 136 168
17.00 4.21 3.22 76 139 172
17.00 4.09 3.22 77 140 173
17.00 3.98 3.22 76 139 172
17.00 3.86 3.22 76 140 175
17.00 3.75 3.22 76 140 175
17.00 3.63 3.22 78 141 176
17.00 3.52 3.22 78 141 176
17.00 3.41 3.22 78 140 177
17.00 3.29 3.22 77 139 176
17.00 3.18 3.22 79 139 176
17.00 3.06 3.22 79 139 176
17.00 2.95 3.22 80 140 177
17.00 2.84 3.22 81 141 178
16.70 2.67 3.39 82 142 179
16.70 2.56 3.39 82 142 179
16.70 2.44 3.39 82 142 179
16.70 2.33 3.39 81 141 178
16.70 2.21 3.39 80 142 179
16.70 2.10 3.39 81 143 180
16.70 1.99 3.39 78 141 176
16.40 1.82 3.57 78 141 176
16.40 1.71 3.57 78 141 176
16.10 1.55 3.75 78 141 176
16.10 1.44 3.75 80 140 174
16.10 1.33 3.75 81 140 172
16.10 1.21 3.75 82 141 173
16.10 1.10 3.75 79 138 168
16.10 0.99 3.75 78 137 167
15.79 0.83 3.92 81 138 167
15.79 0.72 3.92 85 142 171
15.79 0.61 3.92 90 145 175
15.79 0.50 3.92 93 148 178
15.79 0.39 3.92 99 155 182
15.79 0.27 3.92 107 158 185
16.10 0.20 3.75 116 162 188
16.10 0.09 3.75 123 163 188
16.10 -0.02 3.75 129 166 184
16.10 -0.13 3.75 132 166 178
-2.86 -3.26 14.87 98 106 85
-2.86 -3.34 14.87 108 112 87
-3.14 -3.44 15.03 170 173 130
-3.14 -3.51 15.03 175 180 116
-3.14 -3.59 15.03 178 184 114
-3.14 -3.66 15.03 173 183 114
-3.26 -3.75 15.10 174 181 113
-3.26 -3.82 15.10 179 182 113
-3.26 -3.89 15.10 177 177 105
-3.26 -3.97 15.10 180 174 100
-3.26 -4.04 15.10 186 182 109
-3.26 -4.11 15.10 195 195 131
-3.26 -4.19 15.10 140 149 96
-3.26 -4.26 15.10 103 121 83
-3.26 -4.33 15.10 90 112 89
-3.26 -4.41 15.10 88 112 99
-3.26 -4.48 15.10 89 108 104
-3.26 -4.55 15.10 90 102 102
-3.26 -4.63 15.10 90 102 100
-3.26 -4.70 15.10 86 105 99
-3.26 -4.78 15.10 82 105 95
-3.26 -4.85 15.10 85 106 99
-3.14 -4.91 15.03 90 111 104
-3.14 -4.99 15.03 94 115 110
16.94 9.91 3.12 72 99 110
16.94 9.80 3.12 68 110 134
16.94 9.68 3.12 62 111 141
16.94 9.57 3.12 58 114 149
16.94 9.45 3.12 57 119 156
16.94 9.34 3.12 57 122 160
16.64 9.14 3.30 54 122 159
16.64 9.02 3.30 54 123 162
16.64 8.91 3.30 51 120 159
16.64 8.80 3.30 51 120 159
16.64 8.68 3.30 53 122 161
16.64 8.57 3.30 55 124 163
16.64 8.46 3.30 54 123 162
16.94 8.43 3.12 53 122 161
16.94 8.31 3.12 54 123 162
16.94 8.20 3.12 57 126 167
16.94 8.08 3.12 59 128 169
16.94 7.97 3.12 59 128 169
16.94 7.86 3.12 58 127 168
16.94 7.74 3.12 58 127 168
16.94 7.63 3.12 59 128 169
16.94 7.51 3.12 60 129 171
16.94 7.40 3.12 59 126 169
16.94 7.29 3.12 58 125 167
16.94 7.17 3.12 61 126 168
16.94 7.06 3.12 61 126 168
16.94 6.94 3.12 62 127 167
16.94 6.83 3.12 64 129 169
16.94 6.72 3.12 65 128 169
16.64 6.53 3.30 66 129 170
16.64 6.41 3.30 64 127 168
16.64 6.30 3.30 64 127 168
16.64 6.19 3.30 65 128 169
16.64 6.07 3.30 65 128 169
16.64 5.96 3.30 67 128 172
16.64 5.85 3.30 67 128 172
16.64 5.73 3.30 68 129 174
16.94 5.69 3.12 67 128 172
16.94 5.57 3.12 70 132 173
16.94 5.46 3.12 70 132 171
16.94 5.35 3.12 69 133 171
16.94 5.23 3.12 69 133 171
16.94 5.12 3.12 69 133 169
16.94 5.00 3.12 68 132 168
16.94 4.89 3.12 67 133 167
16.94 4.78 3.12 67 133 167
16.94 4.66 3.12 71 137 169
16.94 4.55 3.12 72 138 170
16.94 4.43 3.12 73 138 170
16.94 4.32 3.12 73 138 170
16.94 4.21 3.12 72 137 169
16.94 4.09 3.12 72 135 170
16.94 3.98 3.12 71 134 169
16.94 3.86 3.12 72 136 172
16.94 3.75 3.12 73 137 173
16.94 3.63 3.12 74 136 173
16.94 3.52 3.12 75 137 174
16.94 3.41 3.12 75 137 174
16.94 3.29 3.12 76 138 175
16.94 3.18 3.12 78 137 177
16.94 3.06 3.12 78 137 177
16.94 2.95 3.12 77 136 176
16.64 2.78 3.30 77 136 176
16.64 2.67 3.30 77 136 178
16.64 2.56 3.30 78 137 179
16.64 2.44 3.30 78 137 179
16.64 2.33 3.30 79 138 180
16.64 2.21 3.30 77 139 180
16.64 2.10 3.30 78 140 181
16.64 1.99 3.30 80 142 181
16.64 1.87 3.30 80 142 181
16.34 1.71 3.47 80 142 181
16.34 1.60 3.47 80 142 181
16.04 1.44 3.65 82 141 181
16.04 1.33 3.65 81 141 178
16.04 1.21 3.65 81 141 178
16.04 1.10 3.65 79 139 176
16.04 0.99 3.65 79 139 176
16.04 0.88 3.65 80 138 176
15.74 0.72 3.83 81 139 177
15.74 0.61 3.83 82 140 177
15.74 0.50 3.83 83 141 178
15.74 0.39 3.83 83 141 178
15.74 0.27 3.83 84 142 179
15.74 0.16 3.83 82 140 178
16.04 0.09 3.65 80 138 175
16.04 -0.02 3.65 78 137 171
16.04 -0.13 3.65 78 137 167
-2.90 -3.26 14.81 146 175 173
-2.90 -3.34 14.81 130 151 142
-3.05 -3.43 14.89 151 161 134
-3.17 -3.51 14.97 164 169 128
-3.17 -3.59 14.97 177 180 127
-3.17 -3.66 14.97 192 196 137
-3.29 -3.75 15.04 195 200 134
-3.29 -3.82 15.04 184 192 117
-3.29 -3.89 15.04 184 194 121
-3.29 -3.97 15.04 196 207 139
-3.29 -4.04 15.04 200 215 160
-3.29 -4.11 15.04 107 125 87
-3.29 -4.19 15.04 77 99 78
-3.29 -4.26 15.04 67 92 86
-3.29 -4.33 15.04 67 91 95
-3.29 -4.41 15.04 78 101 109
-3.29 -4.48 15.04 80 98 108
-3.29 -4.55 15.04 83 96 102
-3.29 -4.63 15.04 86 100 101
-3.29 -4.70 15.04 89 111 108
-3.29 -4.78 15.04 85 110 104
-3.29 -4.85 15.04 90 113 107
-3.29 -4.92 15.04 96 119 113
-3.17 -4.99 14.97 95 118 112
16.59 10.04 3.20 79 98 94
16.59 9.93 3.20 72 96 100
16.89 9.91 3.02 69 103 115
16.89 9.80 3.02 61 113 135
16.89 9.68 3.02 56 113 140
16.89 9.57 3.02 51 117 143
16.89 9.45 3.02 53 120 149
16.59 9.25 3.20 48 119 149
16.59 9.14 3.20 43 113 147
16.59 9.02 3.20 46 120 157
16.59 8.91 3.20 45 119 158
16.59 8.80 3.20 46 118 158
16.59 8.68 3.20 49 121 161
16.59 8.57 3.20 51 123 163
16.59 8.46 3.20 52 124 164
16.59 8.34 3.20 51 123 163
16.89 8.31 3.02 52 124 164
16.89 8.20 3.02 54 126 166
16.89 8.08 3.02 54 126 166
16.89 7.97 3.02 56 125 166
16.89 7.86 3.02 56 125 166
16.89 7.74 3.02 58 127 169
16.89 7.63 3.02 59 128 170
16.89 7.51 3.02 58 127 169
16.89 7.40 3.02 57 124 167
16.89 7.29 3.02 59 124 166
16.89 7.17 3.02 60 123 166
16.89 7.06 3.02 61 124 167
16.89 6.94 3.02 63 126 167
16.89 6.83 3.02 64 127 168
16.89 6.72 3.02 65 128 169
16.89 6.60 3.02 66 129 170
16.59 6.41 3.20 64 128 166
16.59 6.30 3.20 66 130 168
16.89 6.26 3.02 68 131 172
16.89 6.14 3.02 68 131 172
16.59 5.96 3.20 67 129 170
16.59 5.85 3.20 66 128 169
16.59 5.73 3.20 68 129 173
16.89 5.69 3.02 70 131 175
16.89 5.57 3.02 71 133 174
16.89 5.46 3.02 71 133 174
16.89 5.35 3.02 70 134 172
16.89 5.23 3.02 70 134 172
16.89 5.12 3.02 70 134 170
16.89 5.00 3.02 70 134 170
16.89 4.89 3.02 69 135 169
16.89 4.78 3.02 69 135 169
16.89 4.66 3.02 73 139 171
16.89 4.55 3.02 73 139 171
16.89 4.43 3.02 74 139 171
16.89 4.32 3.02 75 140 172
16.89 4.21 3.02 73 137 172
16.59 4.03 3.20 73 136 171
16.59 3.92 3.20 72 135 170
16.59 3.80 3.20 72 136 172
16.89 3.75 3.02 72 136 172
16.89 3.63 3.02 74 136 173
16.89 3.52 3.02 75 137 174
16.89 3.41 3.02 76 138 175
16.59 3.24 3.20 76 138 175
16.59 3.12 3.20 79 138 178
16.59 3.01 3.20 80 139 179
16.59 2.90 3.20 79 138 178
16.59 2.78 3.20 79 138 178
16.59 2.67 3.20 78 137 177
16.59 2.56 3.20 78 137 177
16.59 2.44 3.20 79 138 180
16.59 2.33 3.20 79 138 180
16.59 2.21 3.20 78 140 181
16.59 2.10 3.20 78 140 181
16.59 1.99 3.20 79 141 180
16.59 1.87 3.20 78 140 179
16.28 1.71 3.38 77 139 178
16.28 1.60 3.38 77 139 178
15.98 1.44 3.55 77 139 178
15.98 1.10 3.55 78 137 177
15.98 0.99 3.55 81 140 180
15.98 0.88 3.55 83 142 182
15.98 0.76 3.55 83 142 182
15.68 0.61 3.73 83 142 182
15.68 0.50 3.73 82 141 181
15.68 0.39 3.73 83 142 182
15.68 0.27 3.73 84 142 180
15.68 0.16 3.73 87 143 178
15.68 0.05 3.73 89 143 177
15.98 -0.02 3.55 89 146 176
15.98 -0.13 3.55 89 146 176
15.98 -0.25 3.55 86 146 174
15.98 -0.36 3.55 83 143 171
-2.94 -3.26 14.74 122 160 161
-2.94 -3.34 14.74 127 158 152
-3.09 -3.43 14.83 167 190 162
-3.21 -3.51 14.90 201 224 178
-3.21 -3.59 14.90 189 212 156
-3.21 -3.66 14.90 196 217 161
-3.33 -3.75 14.97 191 214 162
-3.33 -3.82 14.97 197 220 178
-3.33 -3.89 14.97 228 254 225
-3.33 -3.97 14.97 183 217 201
-3.33 -4.04 14.97 67 107 109
-3.33 -4.11 14.97 40 83 100
-3.33 -4.19 14.97 48 93 122
-3.33 -4.26 14.97 62 105 137
-3.33 -4.33 14.97 68 109 139
-3.33 -4.41 14.97 67 105 128
-3.33 -4.48 14.97 73 109 125
-3.33 -4.55 14.97 74 107 114
-3.33 -4.63 14.97 87 117 119
-3.33 -4.70 14.97 92 116 116
-3.33 -4.78 14.97 88 110 108
-3.33 -4.85 14.97 83 105 103
-3.33 -4.92 14.97 82 104 102
-3.21 -4.99 14.90 79 101 98
16.53 10.04 3.10 77 98 93
16.53 9.93 3.10 66 96 98
16.53 9.82 3.10 62 100 113
16.53 9.70 3.10 56 114 138
16.53 9.59 3.10 50 114 141
16.53 9.48 3.10 46 117 139
16.53 9.36 3.10 48 120 144
16.53 9.25 3.10 50 121 149
16.53 9.14 3.10 50 121 153
16.53 9.02 3.10 46 120 157
16.53 8.91 3.10 46 120 159
16.53 8.80 3.10 48 120 160
16.53 8.68 3.10 49 121 161
16.53 8.57 3.10 51 123 163
16.53 8.46 3.10 52 124 164
16.53 8.34 3.10 52 124 164
16.53 8.23 3.10 52 124 164
16.83 8.20 2.92 52 124 164
16.83 8.08 2.92 51 123 163
16.83 7.97 2.92 52 121 162
16.83 7.86 2.92 54 123 164
16.83 7.74 2.92 58 127 168
16.83 7.63 2.92 59 128 169
16.83 7.51 2.92 58 127 168
16.83 7.40 2.92 56 123 165
16.83 7.29 2.92 63 128 170
16.83 7.17 2.92 62 125 168
16.83 7.06 2.92 62 125 166
16.83 6.94 2.92 64 127 168
16.83 6.83 2.92 65 128 169
16.83 6.72 2.92 66 130 168
16.83 6.60 2.92 67 131 169
16.53 6.41 3.10 66 130 168
16.53 6.30 3.10 68 132 170
16.83 6.26 2.92 71 133 172
16.83 6.14 2.92 72 134 173
16.53 5.96 3.10 69 131 170
16.53 5.85 3.10 67 129 168
16.53 5.73 3.10 69 131 172
16.83 5.69 2.92 73 135 176
16.83 5.57 2.92 70 132 173
16.83 5.46 2.92 70 132 173
16.83 5.35 2.92 69 133 171
16.83 5.23 2.92 69 133 171
16.83 5.12 2.92 70 134 170
16.83 5.00 2.92 71 135 171
16.83 4.89 2.92 72 136 171
16.83 4.78 2.92 72 136 171
16.83 4.66 2.92 73 137 172
16.83 4.55 2.92 73 137 172
16.83 4.43 2.92 73 137 172
16.53 4.26 3.10 75 139 174
16.53 4.14 3.10 75 138 173
16.53 4.03 3.10 77 137 173
16.53 3.92 3.10 77 137 174
16.53 3.80 3.10 74 138 174
16.53 3.69 3.10 74 138 176
16.53 3.58 3.10 75 137 176
16.53 3.46 3.10 76 138 177
16.53 3.35 3.10 76 138 177
16.53 3.24 3.10 77 139 178
16.53 3.12 3.10 80 140 177
16.53 3.01 3.10 80 140 177
16.53 2.90 3.10 81 141 178
16.53 2.78 3.10 80 140 177
16.53 2.67 3.10 79 139 176
16.53 2.56 3.10 78 138 175
16.53 2.44 3.10 79 139 176
16.53 2.33 3.10 79 139 176
16.53 2.21 3.10 77 139 176
16.53 2.10 3.10 77 139 176
16.53 1.99 3.10 79 139 176
16.23 1.82 3.28 79 139 176
16.23 1.71 3.28 75 137 176
16.23 1.60 3.28 74 136 175
16.23 1.49 3.28 74 136 175
15.93 1.10 3.46 80 142 181
15.93 0.99 3.46 82 144 183
15.93 0.88 3.46 82 144 183
15.93 0.76 3.46 79 141 180
15.63 0.61 3.63 75 137 176
15.63 0.50 3.63 74 136 175
15.63 0.39 3.63 76 138 177
15.63 0.27 3.63 76 138 177
15.63 0.16 3.63 80 142 179
15.63 0.05 3.63 81 143 180
15.93 -0.02 3.46 81 145 181
15.93 -0.13 3.46 83 147 183
15.93 -0.25 3.46 79 147 184
15.93 -0.36 3.46 77 145 184
-2.97 -3.26 14.68 95 146 149
-2.97 -3.34 14.68 126 171 164
-3.13 -3.43 14.77 170 203 176
-3.13 -3.50 14.77 196 215 183
-3.25 -3.59 14.84 198 210 170
-3.25 -3.66 14.84 189 202 156
-3.25 -3.74 14.84 213 227 178
-3.25 -3.81 14.84 231 250 204
-3.37 -3.89 14.91 165 191 156
-3.37 -3.97 14.91 74 111 93
-3.37 -4.04 14.91 48 89 91
-3.37 -4.11 14.91 62 109 129
-3.37 -4.19 14.91 68 113 146
-3.37 -4.26 14.91 66 104 143
-3.49 -4.34 14.98 66 98 137
-3.49 -4.42 14.98 66 91 122
-3.37 -4.48 14.91 82 102 127
-3.37 -4.55 14.91 74 95 112
-3.37 -4.63 14.91 82 102 113
-3.37 -4.70 14.91 82 101 108
-3.37 -4.78 14.91 79 98 104
-3.37 -4.85 14.91 75 96 99
-3.37 -4.92 14.91 73 94 97
-3.25 -4.99 14.84 71 92 93
16.47 10.27 3.00 80 92 82
16.47 10.16 3.00 78 94 84
16.47 10.04 3.00 74 97 89
16.47 9.93 3.00 66 97 100
16.47 9.82 3.00 69 110 130
16.47 9.70 3.00 56 116 150
16.47 9.59 3.00 51 117 151
16.47 9.48 3.00 47 118 146
16.47 9.36 3.00 45 119 148
16.47 9.25 3.00 49 119 153
16.47 9.14 3.00 51 120 159
16.47 9.02 3.00 49 121 159
16.47 8.91 3.00 50 122 160
16.47 8.80 3.00 51 123 161
16.47 8.68 3.00 51 123 161
16.47 8.57 3.00 51 123 161
16.47 8.46 3.00 51 123 161
16.47 8.34 3.00 51 123 161
16.47 8.23 3.00 52 124 162
16.47 8.12 3.00 54 123 162
16.77 8.08 2.82 54 123 162
16.77 7.97 2.82 55 124 163
16.77 7.86 2.82 57 126 165
16.77 7.74 2.82 59 128 167
16.77 7.63 2.82 60 129 168
16.77 7.51 2.82 59 128 167
16.77 7.40 2.82 59 127 166
16.77 7.29 2.82 67 130 171
16.77 7.17 2.82 66 128 169
16.77 7.06 2.82 66 128 169
16.77 6.94 2.82 68 130 169
16.77 6.83 2.82 67 129 168
16.77 6.72 2.82 68 130 167
16.77 6.60 2.82 70 132 169
16.77 6.49 2.82 69 131 168
16.77 6.37 2.82 69 131 168
16.77 6.26 2.82 70 132 169
16.77 6.14 2.82 72 134 171
16.47 5.96 3.00 71 135 171
16.47 5.85 3.00 70 134 170
16.47 5.73 3.00 71 135 173
16.47 5.62 3.00 73 137 175
16.47 5.51 3.00 72 134 175
16.47 5.39 3.00 71 133 174
16.47 5.28 3.00 71 133 172
16.47 5.17 3.00 71 133 172
16.77 5.12 2.82 70 134 170
16.77 5.00 2.82 71 135 171
16.77 4.89 2.82 72 136 171
16.77 4.78 2.82 72 136 171
16.77 4.66 2.82 73 137 172
16.77 4.55 2.82 72 136 171
16.77 4.43 2.82 74 137 172
16.47 4.26 3.00 76 139 174
16.47 4.14 3.00 77 137 173
16.47 4.03 3.00 79 137 174
16.47 3.92 3.00 79 139 176
16.47 3.80 3.00 77 139 176
16.47 3.69 3.00 75 139 177
16.47 3.58 3.00 76 138 177
16.47 3.46 3.00 76 138 177
16.47 3.35 3.00 76 138 177
16.47 3.24 3.00 77 139 178
16.47 3.12 3.00 80 140 177
16.47 3.01 3.00 80 140 177
16.47 2.90 3.00 82 142 179
16.47 2.78 3.00 80 140 177
16.47 2.67 3.00 79 139 175
16.47 2.56 3.00 78 138 174
16.47 2.44 3.00 79 139 175
16.47 2.33 3.00 80 140 176
16.47 2.21 3.00 78 141 176
16.47 2.10 3.00 77 140 175
16.17 1.94 3.18 80 140 176
16.17 1.82 3.18 79 139 175
16.17 1.71 3.18 79 139 175
16.17 1.60 3.18 78 138 174
16.17 1.49 3.18 76 138 175
16.17 1.37 3.18 76 138 175
15.87 1.21 3.36 76 138 175
16.17 1.15 3.18 75 137 174
15.87 0.99 3.36 77 139 176
15.87 0.88 3.36 76 140 178
15.87 0.76 3.36 75 139 177
15.87 0.65 3.36 76 140 178
15.87 0.54 3.36 78 142 180
15.57 0.39 3.54 81 145 183
15.57 0.27 3.54 84 144 180
15.57 0.16 3.54 87 144 173
15.57 0.05 3.54 86 140 166
15.87 -0.02 3.36 87 138 165
15.87 -0.13 3.36 88 139 168
15.87 -0.25 3.36 89 140 169
15.87 -0.36 3.36 89 140 171
15.87 -0.47 3.36 89 142 174
15.57 -0.62 3.54 94 145 176
-3.16 -3.43 14.70 192 217 162
-3.16 -3.50 14.70 173 208 144
-3.28 -3.59 14.77 160 193 136
-3.28 -3.66 14.77 195 224 180
-3.40 -3.89 14.85 92 127 155
-3.40 -3.97 14.85 72 120 169
-3.40 -4.04 14.85 72 128 189
-3.40 -4.11 14.85 68 132 193
-3.40 -4.19 14.85 64 126 183
-3.52 -4.27 14.92 56 110 156
-3.52 -4.34 14.92 49 94 133
-3.52 -4.42 14.92 58 97 130
-3.52 -4.49 14.92 71 101 135
-3.40 -4.55 14.85 63 93 127
-3.40 -4.63 14.85 69 94 124
-3.40 -4.70 14.85 69 88 105
-3.40 -4.78 14.85 74 91 101
-3.40 -4.85 14.85 76 95 102
-3.40 -4.92 14.85 77 96 103
-3.28 -4.99 14.77 77 96 100
-3.28 -5.06 14.77 77 96 100
-3.28 -5.13 14.77 73 93 92
16.42 10.27 2.90 87 99 89
16.42 10.16 2.90 81 97 87
16.42 10.04 2.90 75 98 90
16.42 9.93 2.90 70 101 106
16.42 9.82 2.90 68 112 137
16.42 9.70 2.90 48 111 152
16.42 9.59 2.90 47 114 156
16.42 9.48 2.90 47 120 155
16.42 9.36 2.90 47 119 157
16.42 9.25 2.90 49 117 162
16.42 9.14 2.90 48 116 163
16.42 9.02 2.90 46 115 154
16.42 8.91 2.90 49 119 155
16.42 8.80 2.90 51 121 157
16.42 8.68 2.90 51 121 157
16.42 8.57 2.90 52 122 158
16.42 8.46 2.90 53 123 159
16.42 8.34 2.90 54 124 160
16.42 8.23 2.90 55 125 161
16.42 8.12 2.90 57 127 163
16.42 8.00 2.90 58 128 164
16.72 7.97 2.72 60 130 166
16.72 7.86 2.72 61 131 167
16.72 7.74 2.72 61 131 167
16.72 7.63 2.72 60 130 166
16.72 7.51 2.72 61 131 167
16.72 7.40 2.72 62 130 167
16.72 7.29 2.72 68 131 172
16.72 7.17 2.72 67 129 170
16.72 7.06 2.72 66 128 167
16.72 6.94 2.72 69 131 168
16.72 6.83 2.72 68 130 167
16.72 6.72 2.72 70 132 169
16.72 6.60 2.72 72 134 171
16.42 6.41 2.90 71 134 169
16.42 6.30 2.90 68 131 166
16.42 6.19 2.90 68 131 166
16.42 6.07 2.90 72 135 170
16.42 5.96 2.90 73 137 173
16.42 5.85 2.90 73 137 173
16.42 5.73 2.90 72 136 172
16.42 5.62 2.90 73 137 175
16.42 5.51 2.90 77 139 178
16.42 5.39 2.90 76 138 179
16.42 5.28 2.90 75 137 178
16.42 5.17 2.90 74 136 177
16.42 5.05 2.90 74 136 175
16.42 4.94 2.90 74 136 175
16.42 4.82 2.90 74 136 173
16.42 4.71 2.90 74 136 173
16.72 4.66 2.72 75 138 173
16.42 4.48 2.90 74 137 172
16.42 4.37 2.90 76 136 172
16.42 4.26 2.90 77 137 173
16.42 4.14 2.90 77 135 172
16.42 4.03 2.90 78 136 174
16.42 3.92 2.90 79 139 176
16.42 3.80 2.90 76 138 177
16.42 3.69 2.90 75 139 177
16.42 3.58 2.90 76 138 177
16.42 3.46 2.90 76 138 177
16.42 3.35 2.90 77 139 178
16.42 3.24 2.90 78 140 179
16.42 3.12 2.90 81 141 178
16.42 3.01 2.90 81 141 178
16.42 2.90 2.90 84 144 180
16.42 2.78 2.90 83 143 179
16.42 2.67 2.90 81 141 175
16.42 2.56 2.90 81 141 175
16.42 2.44 2.90 82 142 176
16.42 2.33 2.90 83 143 177
16.11 2.16 3.08 81 144 175
16.11 2.05 3.08 80 143 174
16.11 1.94 3.08 81 141 175
16.11 1.82 3.08 82 142 176
16.11 1.71 3.08 82 142 176
16.11 1.60 3.08 82 142 176
16.11 1.49 3.08 79 142 177
16.11 1.37 3.08 78 141 176
15.81 1.21 3.26 78 141 176
15.81 1.10 3.26 78 142 178
15.81 0.99 3.26 79 143 179
15.81 0.88 3.26 79 143 179
15.81 0.76 3.26 77 141 177
15.81 0.65 3.26 77 142 180
15.81 0.54 3.26 79 144 182
15.51 0.39 3.44 78 143 181
15.51 0.27 3.44 75 140 178
15.51 0.16 3.44 76 144 179
15.51 0.05 3.44 75 141 176
15.81 -0.02 3.26 76 142 177
15.81 -0.13 3.26 81 143 180
15.81 -0.25 3.26 83 145 184
15.81 -0.36 3.26 83 142 182
15.51 -0.51 3.44 81 139 179
15.51 -0.62 3.44 82 137 176
-3.20 -3.43 14.64 190 215 157
-3.20 -3.50 14.64 157 190 135
-3.20 -3.58 14.64 168 200 151
-3.32 -3.66 14.71 179 203 167
-3.44 -3.89 14.78 61 97 123
-3.44 -3.97 14.78 69 120 167
-3.44 -4.04 14.78 72 130 193
-3.44 -4.11 14.78 71 136 202
-3.56 -4.20 14.85 77 138 203
-3.56 -4.27 14.85 87 140 194
-3.56 -4.34 14.85 74 117 162
-3.56 -4.42 14.85 76 110 148
-3.56 -4.49 14.85 65 91 126
-3.44 -4.55 14.78 59 85 120
-3.44 -4.63 14.78 70 91 122
-3.44 -4.70 14.78 72 91 108
-3.44 -4.78 14.78 79 95 108
-3.44 -4.85 14.78 82 99 109
-3.44 -4.92 14.78 81 98 108
-3.32 -4.99 14.71 81 100 106
-3.32 -5.06 14.71 83 102 108
-3.32 -5.13 14.71 80 100 101
16.36 10.50 2.80 81 92 78
16.36 10.38 2.80 87 97 86
16.36 10.27 2.80 87 101 88
16.36 10.16 2.80 81 94 84
16.36 10.04 2.80 80 91 83
16.36 9.93 2.80 63 87 91
16.36 9.82 2.80 67 114 140
16.36 9.70 2.80 54 112 152
16.36 9.59 2.80 55 113 153
16.36 9.48 2.80 53 115 156
16.36 9.36 2.80 51 113 154
16.36 9.25 2.80 50 112 151
16.36 9.14 2.80 49 113 151
16.36 9.02 2.80 49 117 156
16.36 8.91 2.80 50 119 158
16.36 8.80 2.80 52 121 160
16.36 8.68 2.80 51 120 159
16.36 8.57 2.80 50 123 158
16.36 8.46 2.80 52 125 160
16.36 8.34 2.80 53 126 159
16.36 8.23 2.80 52 125 158
16.36 8.12 2.80 59 130 162
16.36 8.00 2.80 57 128 160
16.66 7.97 2.62 59 128 161
16.66 7.86 2.62 61 130 163
16.66 7.74 2.62 64 130 162
16.66 7.63 2.62 62 128 160
16.66 7.51 2.62 61 127 159
16.66 7.40 2.62 62 126 161
16.66 7.29 2.62 67 131 167
16.66 7.17 2.62 67 129 168
16.66 7.06 2.62 68 130 169
16.66 6.94 2.62 69 131 170
16.66 6.83 2.62 69 131 170
16.66 6.72 2.62 69 131 170
16.66 6.60 2.62 68 130 169
16.36 6.41 2.80 69 131 170
16.36 6.30 2.80 69 131 170
16.36 6.19 2.80 68 130 169
16.36 6.07 2.80 68 130 169
16.36 5.96 2.80 68 130 169
16.36 5.85 2.80 69 131 170
16.36 5.73 2.80 71 133 172
16.36 5.62 2.80 71 133 172
16.36 5.51 2.80 71 135 171
16.36 5.39 2.80 72 136 172
16.36 5.28 2.80 72 136 172
16.36 5.17 2.80 71 135 171
16.36 5.05 2.80 72 134 171
16.36 4.94 2.80 74 136 173
16.36 4.82 2.80 73 136 171
16.36 4.71 2.80 71 134 169
16.36 4.60 2.80 77 137 173
16.36 4.48 2.80 76 136 172
16.36 4.37 2.80 77 135 172
16.36 4.26 2.80 77 135 172
16.36 4.14 2.80 79 138 172
16.36 4.03 2.80 80 139 173
16.36 3.92 2.80 79 139 175
16.36 3.80 2.80 77 139 176
16.36 3.69 2.80 76 140 178
16.36 3.58 2.80 77 141 179
16.36 3.46 2.80 77 141 179
16.36 3.35 2.80 77 141 177
16.36 3.24 2.80 76 140 176
16.36 3.12 2.80 77 139 176
16.36 3.01 2.80 77 139 176
16.36 2.90 2.80 79 142 177
16.36 2.78 2.80 78 141 176
16.36 2.67 2.80 78 141 176
16.36 2.56 2.80 78 141 176
16.36 2.44 2.80 79 142 175
16.06 2.28 2.98 79 142 175
16.06 2.16 2.98 79 142 175
16.06 2.05 2.98 80 140 174
16.06 1.94 2.98 81 141 175
16.06 1.82 2.98 83 142 176
16.06 1.71 2.98 84 143 177
16.06 1.60 2.98 84 143 177
16.06 1.49 2.98 83 141 178
16.06 1.37 2.98 82 140 178
15.76 1.21 3.16 83 141 179
15.76 1.10 3.16 80 138 176
15.76 0.99 3.16 80 138 176
15.76 0.88 3.16 82 140 178
15.76 0.76 3.16 83 141 179
15.76 0.65 3.16 83 141 178
15.76 0.54 3.16 82 140 177
15.46 0.39 3.34 81 140 174
15.46 0.27 3.34 81 139 176
15.46 0.16 3.34 78 140 181
15.46 0.05 3.34 75 137 178
15.76 -0.02 3.16 79 141 180
15.76 -0.13 3.16 85 143 183
15.76 -0.25 3.16 87 133 182
15.76 -0.36 3.16 96 142 191
15.46 -0.51 3.34 76 131 172
15.46 -0.62 3.34 75 131 158
-3.24 -3.13 14.57 203 221 199
-3.24 -3.21 14.57 218 228 203
-3.24 -3.28 14.57 213 232 204
-3.24 -3.35 14.57 212 233 202
-3.24 -3.43 14.57 140 170 134
-3.24 -3.50 14.57 135 172 154
-3.36 -3.59 14.65 118 164 177
-3.36 -3.66 14.65 75 137 186
-3.48 -4.04 14.72 49 122 199
-3.48 -4.11 14.72 50 124 197
-3.48 -4.19 14.72 59 131 203
-3.60 -4.27 14.79 61 135 206
-3.60 -4.34 14.79 65 132 203
-3.60 -4.42 14.79 78 132 202
-3.60 -4.49 14.79 91 128 183
-3.48 -4.55 14.72 96 116 141
-3.48 -4.63 14.72 93 105 117
-3.48 -4.70 14.72 74 93 108
-3.48 -4.78 14.72 65 86 103
-3.48 -4.85 14.72 64 86 99
-3.36 -4.91 14.65 73 95 108
-3.36 -4.99 14.65 79 102 110
-3.36 -5.06 14.65 76 99 105
-3.36 -5.13 14.65 68 92 96
-3.24 -5.20 14.57 79 101 99
-3.24 -5.28 14.57 76 98 95
16.30 10.50 2.71 80 91 77
16.30 10.38 2.71 83 93 82
16.30 10.27 2.71 79 93 80
16.30 10.16 2.71 73 86 77
16.30 10.04 2.71 75 88 79
16.30 9.93 2.71 63 88 93
16.30 9.82 2.71 64 111 137
16.30 9.70 2.71 51 109 149
16.30 9.59 2.71 51 109 149
16.30 9.48 2.71 50 112 153
16.30 9.36 2.71 50 112 153
16.30 9.25 2.71 50 114 150
16.30 9.14 2.71 51 117 152
16.30 9.02 2.71 51 119 156
16.30 8.91 2.71 51 121 157
16.30 8.80 2.71 50 120 156
16.30 8.68 2.71 51 121 157
16.30 8.57 2.71 53 123 159
16.30 8.46 2.71 56 126 162
16.30 8.34 2.71 56 126 160
16.30 8.23 2.71 54 124 158
16.30 8.12 2.71 58 128 162
16.30 8.00 2.71 57 127 161
16.60 7.97 2.52 59 128 161
16.60 7.86 2.52 61 130 163
16.60 7.74 2.52 64 130 164
16.60 7.63 2.52 62 128 162
16.60 7.51 2.52 63 127 162
16.30 7.32 2.71 64 128 163
16.60 7.29 2.52 67 129 166
16.60 7.17 2.52 67 129 166
16.60 7.06 2.52 67 129 166
16.60 6.94 2.52 69 131 168
16.60 6.83 2.52 70 132 169
16.60 6.72 2.52 69 131 168
16.30 6.53 2.71 69 131 168
16.30 6.41 2.71 69 131 168
16.30 6.30 2.71 69 131 168
16.30 6.19 2.71 69 131 170
16.30 6.07 2.71 70 132 171
16.30 5.96 2.71 70 132 171
16.30 5.85 2.71 71 133 172
16.30 5.73 2.71 71 133 172
16.30 5.62 2.71 72 134 173
16.30 5.51 2.71 71 135 171
16.30 5.39 2.71 72 136 172
16.30 5.28 2.71 72 136 172
16.30 5.17 2.71 71 135 171
16.30 5.05 2.71 73 135 172
16.30 4.94 2.71 74 136 173
16.30 4.82 2.71 74 136 173
16.30 4.71 2.71 72 134 171
16.30 4.60 2.71 76 136 172
16.30 4.48 2.71 76 136 172
16.30 4.37 2.71 78 136 173
16.30 4.26 2.71 78 136 173
16.30 4.14 2.71 81 139 176
16.30 4.03 2.71 82 140 177
16.30 3.92 2.71 82 142 179
16.30 3.80 2.71 76 138 175
16.30 3.69 2.71 75 139 177
16.30 3.58 2.71 75 139 177
16.30 3.46 2.71 75 139 177
16.30 3.35 2.71 75 139 175
16.30 3.24 2.71 75 139 175
16.30 3.12 2.71 76 138 175
16.30 3.01 2.71 76 138 175
16.30 2.90 2.71 78 141 176
16.30 2.78 2.71 78 141 176
16.30 2.67 2.71 79 142 177
16.30 2.56 2.71 79 142 177
16.30 2.44 2.71 80 143 176
16.00 2.28 2.89 80 143 176
16.00 2.16 2.89 79 142 175
16.00 2.05 2.89 80 140 174
16.00 1.94 2.89 82 142 176
16.00 1.82 2.89 84 143 177
16.00 1.71 2.89 85 144 178
16.00 1.60 2.89 85 144 178
16.00 1.49 2.89 84 142 179
15.70 1.33 3.07 83 141 179
15.70 1.21 3.07 84 142 180
15.70 1.10 3.07 83 141 179
15.70 0.99 3.07 83 141 179
15.70 0.88 3.07 84 142 180
15.70 0.76 3.07 85 143 181
15.70 0.65 3.07 84 142 179
15.70 0.54 3.07 83 141 178
15.40 0.39 3.25 82 140 177
15.40 0.27 3.25 81 140 174
15.40 0.16 3.25 85 147 172
15.40 0.05 3.25 89 149 177
15.70 -0.02 3.07 83 139 176
15.70 -0.13 3.07 84 139 178
15.70 -0.25 3.07 81 145 173
15.70 -0.36 3.07 77 143 167
15.40 -0.51 3.25 68 133 151
15.40 -0.62 3.25 104 163 177
-3.27 -3.13 14.51 213 239 212
-3.27 -3.21 14.51 219 236 200
-3.27 -3.28 14.51 234 245 211
-3.27 -3.35 14.51 193 208 169
-3.27 -3.43 14.51 121 158 115
-3.39 -3.51 14.58 90 137 127
-3.39 -3.59 14.58 50 108 130
-3.39 -3.66 14.58 21 92 144
-3.51 -4.04 14.66 46 122 197
-3.63 -4.13 14.73 44 121 191
-3.63 -4.20 14.73 52 129 197
-3.63 -4.27 14.73 53 133 196
-3.63 -4.34 14.73 57 133 195
-3.63 -4.42 14.73 70 138 201
-3.63 -4.49 14.73 88 141 193
-3.51 -4.55 14.66 103 139 171
-3.51 -4.63 14.66 113 140 161
-3.51 -4.70 14.66 100 125 147
-3.51 -4.78 14.66 80 101 122
-3.39 -4.84 14.58 63 82 96
-3.39 -4.91 14.58 68 85 95
-3.39 -4.99 14.58 80 95 98
-3.39 -5.06 14.58 83 97 97
-3.39 -5.13 14.58 79 95 92
-3.27 -5.20 14.51 70 93 83
-3.27 -5.28 14.51 76 102 91
16.24 10.50 2.61 88 99 85
16.24 10.38 2.61 88 98 87
16.24 10.27 2.61 80 94 81
16.24 10.16 2.61 74 87 78
16.24 10.04 2.61 79 92 83
16.24 9.93 2.61 70 95 100
16.24 9.82 2.61 65 112 140
16.24 9.70 2.61 52 111 151
16.24 9.59 2.61 53 112 152
16.24 9.48 2.61 52 115 156
16.24 9.36 2.61 52 115 156
16.24 9.25 2.61 53 117 153
16.24 9.14 2.61 55 119 155
16.24 9.02 2.61 52 120 155
16.24 8.91 2.61 51 119 154
16.24 8.80 2.61 49 119 153
16.24 8.68 2.61 49 119 153
16.24 8.57 2.61 53 123 157
16.24 8.46 2.61 56 126 160
16.24 8.34 2.61 56 126 160
16.24 8.23 2.61 53 123 157
16.24 8.12 2.61 59 127 162
16.24 8.00 2.61 58 126 161
16.54 7.97 2.43 61 127 162
16.54 7.86 2.43 62 128 163
16.54 7.74 2.43 64 128 164
16.54 7.63 2.43 64 128 164
16.54 7.51 2.43 66 128 165
16.24 7.32 2.61 67 129 166
16.54 7.29 2.43 67 130 165
16.54 7.17 2.43 67 130 165
16.54 7.06 2.43 67 130 165
16.54 6.94 2.43 69 132 167
16.54 6.83 2.43 70 133 168
16.54 6.72 2.43 70 132 169
16.54 6.60 2.43 69 131 168
16.24 6.41 2.61 69 131 168
16.24 6.30 2.61 70 132 169
16.24 6.19 2.61 71 133 170
16.24 6.07 2.61 72 134 171
16.24 5.96 2.61 72 134 173
16.24 5.85 2.61 72 134 173
16.24 5.73 2.61 72 134 173
16.24 5.62 2.61 72 134 173
16.24 5.51 2.61 72 134 171
16.24 5.39 2.61 73 135 172
16.24 5.28 2.61 73 135 172
16.24 5.17 2.61 72 134 171
16.24 5.05 2.61 73 135 172
16.24 4.94 2.61 75 137 174
16.24 4.82 2.61 77 137 174
16.24 4.71 2.61 75 135 172
16.24 4.60 2.61 76 136 173
16.24 4.48 2.61 77 137 174
16.24 4.37 2.61 78 136 173
16.24 4.26 2.61 79 137 174
16.24 4.14 2.61 81 139 176
16.24 4.03 2.61 82 140 177
16.24 3.92 2.61 82 142 179
16.24 3.80 2.61 77 139 176
16.24 3.69 2.61 75 139 177
16.24 3.58 2.61 75 139 177
16.24 3.46 2.61 75 139 177
16.24 3.35 2.61 75 139 175
16.24 3.24 2.61 75 139 175
16.24 3.12 2.61 76 138 175
16.24 3.01 2.61 77 139 176
16.24 2.90 2.61 78 141 176
16.24 2.78 2.61 78 141 176
16.24 2.67 2.61 79 142 177
16.24 2.56 2.61 80 143 178
15.95 2.39 2.79 80 143 178
15.95 2.28 2.79 80 143 178
15.95 2.16 2.79 79 142 177
15.95 2.05 2.79 80 140 176
15.95 1.94 2.79 82 142 176
15.95 1.82 2.79 84 143 177
15.95 1.71 2.79 85 144 178
15.95 1.60 2.79 85 144 178
15.65 1.44 2.97 84 142 179
15.65 1.33 2.97 83 141 179
15.65 1.21 2.97 83 141 179
15.65 1.10 2.97 84 142 180
15.65 0.99 2.97 84 142 180
15.65 0.88 2.97 85 143 181
15.65 0.76 2.97 85 143 181
15.65 0.65 2.97 85 143 181
15.65 0.54 2.97 84 142 180
15.65 0.43 2.97 83 141 179
15.35 0.27 3.15 83 141 179
15.65 0.20 2.97 80 143 178
15.65 0.09 2.97 89 145 182
15.65 -0.02 2.97 97 142 184
15.65 -0.13 2.97 98 138 187
15.65 -0.25 2.97 83 131 180
15.65 -0.36 2.97 81 126 157
-3.31 -2.84 14.45 115 156 142
-3.16 -2.89 14.36 190 222 185
-3.31 -2.98 14.45 215 237 198
-3.31 -3.06 14.45 194 215 174
-3.31 -3.13 14.45 208 236 188
-3.31 -3.21 14.45 227 255 219
-3.43 -3.29 14.52 186 220 203
-3.43 -3.37 14.52 123 167 178
-3.43 -3.44 14.52 54 125 189
-3.43 -3.51 14.52 20 88 151
-3.43 -3.59 14.52 19 88 157
-3.55 -3.67 14.59 23 101 184
-3.55 -3.75 14.59 36 121 212
-3.55 -3.82 14.59 39 127 217
-3.55 -3.89 14.59 32 117 210
-3.55 -3.97 14.59 35 111 207
-3.67 -4.05 14.66 43 116 211
-3.67 -4.13 14.66 39 109 204
-3.67 -4.20 14.66 41 115 204
-3.67 -4.27 14.66 36 118 200
-3.67 -4.34 14.66 37 120 200
-3.67 -4.42 14.66 48 125 207
-3.67 -4.49 14.66 61 130 208
-3.67 -4.56 14.66 78 135 202
-3.55 -4.63 14.59 94 144 203
-3.55 -4.70 14.59 109 161 208
-3.55 -4.78 14.59 125 170 209
-3.55 -4.85 14.59 110 149 180
-3.43 -4.91 14.52 73 101 123
-3.43 -4.99 14.52 56 78 91
-3.43 -5.06 14.52 76 91 98
-3.31 -5.13 14.45 85 100 103
-3.31 -5.20 14.45 73 91 93
-3.16 -5.27 14.36 82 101 107
16.19 10.50 2.51 84 96 84
16.19 10.38 2.51 86 98 88
16.19 10.27 2.51 78 94 83
16.19 10.16 2.51 71 86 79
16.19 10.04 2.51 79 92 85
16.19 9.93 2.51 73 98 105
16.19 9.82 2.51 59 109 136
16.19 9.70 2.51 50 112 153
16.19 9.59 2.51 52 114 155
16.19 9.48 2.51 50 115 153
16.19 9.36 2.51 49 114 152
16.19 9.25 2.51 47 113 148
16.19 9.14 2.51 48 114 149
16.19 9.02 2.51 50 119 152
16.19 8.91 2.51 50 119 152
16.19 8.80 2.51 50 118 153
16.19 8.68 2.51 49 117 152
16.19 8.57 2.51 52 120 155
16.19 8.46 2.51 55 123 158
16.19 8.34 2.51 56 124 159
16.19 8.23 2.51 55 123 158
16.19 8.12 2.51 61 126 164
16.19 8.00 2.51 61 126 164
16.49 7.97 2.33 62 126 164
16.49 7.86 2.33 63 127 165
16.49 7.74 2.33 64 126 165
16.49 7.63 2.33 65 127 166
16.49 7.51 2.33 68 127 167
16.49 7.40 2.33 70 130 167
16.49 7.29 2.33 66 129 164
16.49 7.17 2.33 66 129 162
16.49 7.06 2.33 67 130 163
16.49 6.94 2.33 69 132 165
16.49 6.83 2.33 70 133 166
16.49 6.72 2.33 70 133 168
16.49 6.60 2.33 70 133 168
16.49 6.49 2.33 70 132 169
16.19 6.30 2.51 71 133 170
16.19 6.19 2.51 71 133 170
16.19 6.07 2.51 72 134 171
16.19 5.96 2.51 74 133 173
16.19 5.85 2.51 74 133 173
16.19 5.73 2.51 74 133 173
16.19 5.62 2.51 74 133 173
16.19 5.51 2.51 72 134 171
16.19 5.39 2.51 73 135 172
16.19 5.28 2.51 73 135 172
16.19 5.17 2.51 73 135 172
16.19 5.05 2.51 76 136 173
16.19 4.94 2.51 77 137 174
16.19 4.82 2.51 77 137 174
16.19 4.71 2.51 75 135 172
16.19 4.60 2.51 77 137 174
16.19 4.48 2.51 77 137 174
16.19 4.37 2.51 78 136 174
16.19 4.26 2.51 79 137 175
16.19 4.14 2.51 79 137 175
16.19 4.03 2.51 78 136 174
16.19 3.92 2.51 77 137 174
16.19 3.80 2.51 78 140 179
16.19 3.69 2.51 76 140 178
16.19 3.58 2.51 76 140 178
16.19 3.46 2.51 75 139 177
16.19 3.35 2.51 75 139 177
16.19 3.24 2.51 76 140 178
16.19 3.12 2.51 78 140 177
16.19 3.01 2.51 78 140 177
16.19 2.90 2.51 78 140 177
16.19 2.78 2.51 78 140 177
16.19 2.67 2.51 79 142 177
15.89 2.50 2.69 79 142 177
15.89 2.39 2.69 79 142 177
15.89 2.28 2.69 79 142 177
15.89 2.16 2.69 79 142 177
15.89 2.05 2.69 82 142 178
15.89 1.94 2.69 81 141 175
15.89 1.82 2.69 83 142 176
15.89 1.71 2.69 83 141 178
15.59 1.55 2.87 84 142 179
15.59 1.44 2.87 83 141 178
15.59 1.33 2.87 82 140 178
15.59 1.21 2.87 82 140 178
15.59 1.10 2.87 82 140 178
15.59 0.99 2.87 82 140 178
15.59 0.88 2.87 83 141 179
15.59 0.76 2.87 84 142 180
15.59 0.65 2.87 84 142 182
15.59 0.54 2.87 84 142 182
15.29 0.39 3.05 84 142 182
15.29 0.27 3.05 83 143 180
15.29 0.16 3.05 88 152 180
15.59 0.09 2.87 74 138 163
15.59 -0.02 2.87 74 135 154
15.59 -0.13 2.87 81 139 163
15.59 -0.25 2.87 85 143 180
15.29 -0.40 3.05 120 172 193
-3.20 -2.82 14.29 160 208 184
-3.35 -2.91 14.38 188 225 181
-3.35 -2.98 14.38 204 231 188
-3.35 -3.06 14.38 206 228 189
-3.35 -3.13 14.38 222 246 210
-3.47 -3.22 14.46 198 227 199
-3.47 -3.29 14.46 115 149 133
-3.47 -3.37 14.46 49 94 99
-3.47 -3.44 14.46 14 84 136
-3.47 -3.51 14.46 4 78 151
-3.59 -3.60 14.53 18 96 181
-3.59 -3.67 14.53 30 116 199
-3.59 -3.75 14.53 35 124 208
-3.59 -3.82 14.53 37 123 206
-3.59 -3.89 14.53 40 122 206
-3.71 -3.98 14.60 44 120 206
-3.71 -4.05 14.60 45 116 204
-3.71 -4.13 14.60 45 115 200
-3.71 -4.20 14.60 42 117 198
-3.71 -4.27 14.60 36 118 192
-3.71 -4.34 14.60 34 121 192
-3.71 -4.42 14.60 36 122 195
-3.71 -4.49 14.60 40 122 196
-3.71 -4.56 14.60 47 125 197
-3.59 -4.63 14.53 66 133 201
-3.59 -4.70 14.53 91 146 202
-3.59 -4.78 14.53 102 145 190
-3.59 -4.85 14.53 120 155 187
-3.47 -4.91 14.46 139 164 186
-3.47 -4.99 14.46 134 148 157
-3.47 -5.06 14.46 105 115 114
-3.35 -5.13 14.38 83 93 85
-3.35 -5.20 14.38 82 104 92
-3.20 -5.27 14.29 75 102 93
16.13 10.50 2.41 79 91 79
16.13 10.38 2.41 83 95 85
16.13 10.27 2.41 79 95 85
16.13 10.16 2.41 75 90 85
16.13 10.04 2.41 83 98 93
16.13 9.93 2.41 77 104 113
16.13 9.82 2.41 62 111 141
16.13 9.70 2.41 53 115 156
16.13 9.59 2.41 55 117 158
16.13 9.48 2.41 53 118 156
16.13 9.36 2.41 50 115 153
16.13 9.25 2.41 47 116 149
16.13 9.14 2.41 48 117 150
16.13 9.02 2.41 48 119 151
16.13 8.91 2.41 50 121 153
16.13 8.80 2.41 51 122 154
16.13 8.68 2.41 50 121 153
16.13 8.57 2.41 50 120 154
16.13 8.46 2.41 53 123 157
16.13 8.34 2.41 57 125 160
16.13 8.23 2.41 58 126 161
16.13 8.12 2.41 61 126 164
16.13 8.00 2.41 62 127 165
16.43 7.97 2.23 63 127 165
16.43 7.86 2.23 63 127 165
16.43 7.74 2.23 63 125 166
16.43 7.63 2.23 64 126 167
16.43 7.51 2.23 68 127 169
16.43 7.40 2.23 70 129 169
16.43 7.29 2.23 65 129 164
16.43 7.17 2.23 65 130 162
16.43 7.06 2.23 66 131 163
16.43 6.94 2.23 69 132 165
16.43 6.83 2.23 70 133 166
16.43 6.72 2.23 70 133 168
16.43 6.60 2.23 70 133 168
16.43 6.49 2.23 72 134 171
16.43 6.37 2.23 71 133 170
16.43 6.26 2.23 73 133 170
16.13 6.07 2.41 72 132 169
16.13 5.96 2.41 72 131 171
16.13 5.85 2.41 73 132 172
16.13 5.73 2.41 74 133 173
16.13 5.62 2.41 74 133 173
16.13 5.51 2.41 74 133 173
16.13 5.39 2.41 75 134 174
16.13 5.28 2.41 75 134 174
16.13 5.17 2.41 75 134 174
16.13 5.05 2.41 76 135 175
16.13 4.94 2.41 78 137 177
16.13 4.82 2.41 77 136 176
16.13 4.71 2.41 75 134 174
16.13 4.60 2.41 77 136 176
16.13 4.48 2.41 77 136 176
16.13 4.37 2.41 78 136 176
16.13 4.26 2.41 78 136 176
16.13 4.14 2.41 77 135 175
16.13 4.03 2.41 76 134 174
16.13 3.92 2.41 75 134 174
16.13 3.80 2.41 77 139 178
16.13 3.69 2.41 76 140 178
16.13 3.58 2.41 75 139 177
16.13 3.46 2.41 75 139 177
16.13 3.35 2.41 75 139 177
16.13 3.24 2.41 76 140 178
16.13 3.12 2.41 78 140 177
16.13 3.01 2.41 78 140 177
16.13 2.90 2.41 78 140 177
16.13 2.78 2.41 79 141 178
16.13 2.67 2.41 79 141 178
15.83 2.50 2.59 78 140 177
15.83 2.39 2.59 78 140 177
15.83 2.28 2.59 78 140 177
15.83 2.16 2.59 80 142 179
15.83 2.05 2.59 83 143 180
15.83 1.94 2.59 82 142 178
15.83 1.82 2.59 83 141 178
15.53 1.66 2.78 83 141 178
15.53 1.55 2.78 83 141 178
15.53 1.44 2.78 83 141 178
15.53 1.33 2.78 82 140 177
15.53 1.21 2.78 82 140 177
15.53 1.10 2.78 81 139 177
15.53 0.99 2.78 82 140 178
15.53 0.88 2.78 83 141 181
15.53 0.76 2.78 83 141 181
15.53 0.65 2.78 84 142 182
15.23 0.50 2.96 84 142 182
15.23 0.39 2.96 84 141 184
15.23 0.27 2.96 88 139 184
15.23 0.16 2.96 90 132 180
15.23 0.05 2.96 94 132 181
15.23 -0.06 2.96 94 138 185
15.23 -0.17 2.96 95 138 173
-3.38 -2.69 14.32 116 153 169
-3.38 -2.76 14.32 163 195 190
-3.38 -2.84 14.32 191 224 195
-3.38 -2.91 14.32 179 209 171
-3.38 -2.98 14.32 189 220 178
-3.38 -3.06 14.32 211 242 208
-3.50 -3.15 14.39 197 232 210
-3.50 -3.22 14.39 108 154 169
-3.50 -3.29 14.39 11 71 144
-3.50 -3.37 14.39 0 58 164
-3.50 -3.44 14.39 2 86 198
-3.62 -3.53 14.46 12 93 200
-3.62 -3.60 14.46 20 100 199
-3.62 -3.67 14.46 28 113 203
-3.62 -3.75 14.46 37 121 207
-3.74 -3.83 14.54 41 123 205
-3.74 -3.91 14.54 42 120 203
-3.74 -3.98 14.54 48 120 202
-3.74 -4.05 14.54 53 124 206
-3.74 -4.13 14.54 49 120 200
-3.74 -4.20 14.54 47 120 199
-3.74 -4.27 14.54 38 120 194
-3.74 -4.34 14.54 35 121 194
-3.74 -4.42 14.54 37 125 196
-3.74 -4.49 14.54 33 121 195
-3.74 -4.56 14.54 33 120 199
-3.74 -4.64 14.54 43 125 207
-3.62 -4.70 14.46 45 129 202
-3.62 -4.78 14.46 64 142 208
-3.62 -4.85 14.46 83 148 204
-3.62 -4.92 14.46 96 149 193
-3.50 -4.99 14.39 119 158 189
-3.50 -5.06 14.39 139 167 189
-3.38 -5.13 14.32 130 152 166
-3.38 -5.20 14.32 62 80 90
-3.23 -5.27 14.23 69 87 97
-3.23 -5.34 14.23 73 93 104
-3.23 -5.41 14.23 76 94 106
-3.12 -5.48 14.15 75 89 98
-3.12 -5.56 14.15 66 76 85
16.07 10.50 2.31 82 94 82
16.07 10.38 2.31 86 98 88
16.07 10.27 2.31 83 99 89
16.07 10.16 2.31 79 94 89
16.07 10.04 2.31 87 102 97
16.07 9.93 2.31 82 109 118
16.07 9.82 2.31 66 117 146
16.07 9.70 2.31 54 117 158
16.07 9.59 2.31 54 117 158
16.07 9.48 2.31 50 118 155
16.07 9.36 2.31 50 118 155
16.07 9.25 2.31 50 121 153
16.07 9.14 2.31 52 123 155
16.07 9.02 2.31 47 117 151
16.07 8.91 2.31 51 121 155
16.07 8.80 2.31 53 123 157
16.07 8.68 2.31 52 122 156
16.07 8.57 2.31 51 121 155
16.07 8.46 2.31 54 124 158
16.07 8.34 2.31 57 127 163
16.07 8.23 2.31 59 129 165
16.07 8.12 2.31 58 126 163
16.07 8.00 2.31 62 127 165
16.07 7.89 2.31 63 128 166
16.37 7.86 2.13 62 126 164
16.37 7.74 2.13 63 125 166
16.37 7.63 2.13 64 126 167
16.07 7.43 2.31 68 127 169
16.07 7.32 2.31 69 128 168
16.37 7.29 2.13 66 130 166
16.37 7.17 2.13 66 130 165
16.37 7.06 2.13 66 130 165
16.37 6.94 2.13 68 132 167
16.37 6.83 2.13 69 133 168
16.37 6.72 2.13 70 132 169
16.37 6.60 2.13 69 131 168
16.37 6.49 2.13 72 134 171
16.37 6.37 2.13 71 133 170
16.37 6.26 2.13 72 132 169
16.07 6.07 2.31 72 132 169
16.07 5.96 2.31 72 131 171
16.07 5.85 2.31 73 132 172
16.07 5.73 2.31 74 133 173
16.07 5.62 2.31 75 134 174
16.07 5.51 2.31 76 134 174
16.07 5.39 2.31 77 135 175
16.07 5.28 2.31 77 135 175
16.07 5.17 2.31 76 134 174
16.07 5.05 2.31 77 135 175
16.07 4.94 2.31 78 136 176
16.07 4.82 2.31 77 135 175
16.07 4.71 2.31 76 134 174
16.07 4.60 2.31 78 136 176
16.07 4.48 2.31 78 136 176
16.07 4.37 2.31 78 135 178
16.07 4.26 2.31 78 135 178
16.07 4.14 2.31 78 135 178
16.07 4.03 2.31 78 135 178
16.07 3.92 2.31 77 136 178
16.07 3.80 2.31 76 138 177
16.07 3.69 2.31 75 139 177
16.07 3.58 2.31 74 138 176
16.07 3.46 2.31 74 138 176
16.07 3.35 2.31 74 138 176
15.78 3.18 2.50 75 139 177
15.78 3.07 2.50 77 139 178
15.78 2.95 2.50 77 139 178
15.78 2.84 2.50 77 139 178
15.78 2.73 2.50 78 140 179
15.78 2.61 2.50 78 140 177
15.78 2.50 2.50 78 140 177
15.78 2.39 2.50 77 139 176
15.78 2.28 2.50 77 139 176
15.78 2.16 2.50 79 141 178
15.78 2.05 2.50 83 143 180
15.78 1.94 2.50 83 143 179
15.78 1.82 2.50 84 142 179
15.48 1.66 2.68 84 142 179
15.48 1.55 2.68 84 142 179
15.48 1.44 2.68 85 143 180
15.48 1.33 2.68 83 141 178
15.48 1.21 2.68 82 140 177
15.48 1.10 2.68 83 141 179
15.48 0.99 2.68 84 142 180
15.48 0.88 2.68 84 142 182
15.48 0.76 2.68 84 142 182
15.18 0.61 2.86 84 141 184
15.18 0.50 2.86 84 141 184
15.18 0.39 2.86 84 141 186
15.18 0.27 2.86 80 142 183
15.18 0.16 2.86 78 146 183
15.18 0.05 2.86 71 144 177
15.18 -0.06 2.86 66 139 172
15.18 -0.17 2.86 92 154 179
-3.42 -2.69 14.26 149 188 195
-3.42 -2.76 14.26 180 205 199
-3.42 -2.84 14.26 197 218 199
-3.42 -2.91 14.26 201 220 190
-3.42 -2.98 14.26 223 249 204
-3.42 -3.06 14.26 211 239 201
-3.54 -3.15 14.33 118 154 144
