ply
format ascii 1.0
element vertex 1845
property float x
property float y
property float z
property uchar red
property uchar green
property uchar blue
end_header
1.78 5.90 27.25 89 91 52
1.92 5.87 27.22 180 179 125
1.92 5.80 27.22 169 165 102
1.92 5.73 27.22 155 152 85
1.92 5.66 27.22 140 139 74
1.92 5.59 27.22 104 107 54
1.92 5.52 27.22 71 76 46
1.92 5.45 27.22 87 95 82
1.92 5.38 27.22 107 120 113
1.92 5.31 27.22 21 35 35
1.78 5.19 27.25 0 7 8
1.89 6.01 27.16 0 2 0
1.89 5.94 27.16 22 24 3
1.89 5.87 27.16 135 135 99
1.89 5.80 27.16 172 171 117
1.89 5.73 27.16 163 161 100
1.89 5.66 27.16 163 162 105
1.89 5.59 27.16 151 151 101
1.89 5.52 27.16 130 136 92
1.89 5.45 27.16 106 112 84
1.74 5.33 27.19 122 133 119
1.74 5.26 27.19 44 55 51
1.74 5.19 27.19 0 9 1
1.74 5.12 27.19 4 14 5
1.74 5.05 27.19 5 16 2
1.85 6.01 27.10 0 1 0
1.85 5.94 27.10 0 1 0
1.85 5.87 27.10 61 60 39
1.85 5.80 27.10 171 170 126
1.85 5.73 27.10 177 176 122
1.85 5.66 27.10 171 170 116
1.85 5.59 27.10 156 156 104
1.85 5.52 27.10 140 143 88
1.71 5.40 27.13 92 97 56
1.71 5.33 27.13 73 77 60
1.71 5.26 27.13 36 41 37
1.71 5.19 27.13 7 14 7
1.71 5.12 27.13 3 10 3
1.71 5.05 27.13 5 10 4
1.96 6.06 27.01 0 3 0
1.82 5.94 27.04 0 1 0
1.82 5.87 27.04 12 13 0
1.82 5.80 27.04 122 122 86
1.82 5.73 27.04 181 180 132
1.82 5.66 27.04 170 168 119
1.82 5.59 27.04 157 156 102
1.82 5.52 27.04 137 138 78
1.67 5.40 27.07 98 100 51
1.67 5.33 27.07 20 19 0
1.67 5.26 27.07 13 12 8
1.67 5.19 27.07 14 16 13
1.67 5.12 27.07 4 5 7
1.67 5.05 27.07 4 8 11
1.78 6.01 26.98 8 11 2
1.78 5.94 26.98 0 1 0
1.78 5.87 26.98 1 1 0
1.78 5.80 26.98 44 44 20
1.78 5.73 26.98 168 165 130
1.78 5.66 26.98 172 172 122
1.78 5.59 26.98 150 149 92
1.64 5.47 27.01 144 144 82
1.64 5.40 27.01 126 124 73
1.64 5.33 27.01 22 21 0
1.64 5.26 27.01 3 1 0
1.64 5.19 27.01 10 9 7
1.64 5.12 27.01 6 7 11
1.78 5.09 26.98 9 12 17
1.75 6.01 26.92 11 14 7
1.75 5.94 26.92 2 2 0
1.75 5.87 26.92 1 0 0
1.75 5.80 26.92 2 2 0
1.75 5.73 26.92 116 114 93
1.75 5.66 26.92 170 169 121
1.60 5.54 26.95 164 162 103
1.60 5.47 26.95 152 150 91
1.60 5.40 26.95 144 138 88
1.60 5.33 26.95 77 73 35
1.60 5.26 26.95 20 15 0
1.60 5.19 26.95 3 3 0
1.60 5.12 26.95 5 7 6
1.75 5.09 26.92 11 16 10
1.71 6.01 26.85 4 6 1
1.71 5.94 26.85 3 3 3
1.71 5.87 26.85 2 0 5
1.71 5.80 26.85 1 0 4
1.71 5.73 26.85 34 30 19
1.57 5.61 26.89 138 135 90
1.57 5.54 26.89 175 173 114
1.57 5.47 26.89 158 153 95
1.57 5.40 26.89 143 137 85
1.57 5.33 26.89 128 125 80
1.57 5.26 26.89 46 43 12
1.57 5.19 26.89 1 2 0
1.57 5.12 26.89 1 4 0
1.71 5.09 26.85 5 13 0
1.68 5.87 26.79 0 1 0
1.68 5.80 26.79 0 9 0
1.68 5.73 26.79 3 15 5
1.53 5.61 26.83 46 59 52
1.53 5.54 26.83 156 168 148
1.53 5.47 26.83 158 165 113
1.53 5.40 26.83 149 149 79
1.53 5.33 26.83 143 135 62
1.53 5.26 26.83 118 106 34
1.53 5.19 26.83 45 38 0
1.53 5.12 26.83 7 5 0
1.68 5.09 26.79 6 10 0
1.68 5.02 26.79 3 9 9
1.68 4.95 26.79 7 12 8
1.64 5.87 26.73 0 4 0
1.64 5.80 26.73 2 9 2
1.64 5.73 26.73 0 4 0
1.64 5.66 26.73 14 26 22
1.64 5.59 26.73 101 112 96
1.64 5.52 26.73 165 171 125
1.64 5.45 26.73 161 161 97
1.50 5.33 26.77 153 145 73
1.50 5.26 26.77 136 127 52
1.50 5.19 26.77 77 70 0
1.64 5.16 26.73 18 17 0
1.64 5.09 26.73 13 17 0
1.64 5.02 26.73 3 10 2
1.64 4.95 26.73 5 10 4
1.61 5.73 26.67 0 4 0
1.61 5.66 26.67 0 9 9
1.61 5.59 26.67 45 55 44
1.61 5.52 26.67 156 162 126
1.61 5.45 26.67 171 170 114
1.61 5.38 26.67 161 154 84
1.46 5.26 26.70 152 143 68
1.61 5.23 26.67 118 110 35
1.61 5.16 26.67 60 56 0
1.61 5.09 26.67 3 8 0
1.61 5.02 26.67 11 16 0
1.61 4.95 26.67 7 12 5
1.57 5.73 26.61 2 8 8
1.57 5.66 26.61 0 3 4
1.57 5.59 26.61 2 9 2
1.57 5.52 26.61 99 103 78
1.57 5.45 26.61 183 182 136
1.57 5.38 26.61 164 156 91
1.57 5.31 26.61 154 145 68
1.57 5.23 26.61 142 135 55
1.57 5.16 26.61 103 99 26
1.57 5.09 26.61 23 26 0
1.57 5.02 26.61 4 11 0
1.57 4.95 26.61 8 14 4
1.68 5.77 26.51 2 7 10
1.53 5.66 26.55 0 4 6
1.53 5.59 26.55 0 2 0
1.53 5.52 26.55 24 28 11
1.53 5.45 26.55 162 162 126
1.53 5.38 26.55 172 166 104
1.53 5.31 26.55 158 151 73
1.53 5.23 26.55 150 142 61
1.53 5.16 26.55 130 124 46
1.53 5.09 26.55 84 84 14
1.53 5.02 26.55 4 6 0
1.53 4.95 26.55 7 11 0
1.50 5.73 26.49 1 5 8
1.50 5.66 26.49 2 7 10
1.50 5.59 26.49 2 8 6
1.50 5.52 26.49 0 2 0
1.50 5.45 26.49 78 77 49
1.50 5.38 26.49 177 172 114
1.50 5.31 26.49 171 163 88
1.50 5.23 26.49 157 148 69
1.50 5.16 26.49 147 140 60
1.50 5.09 26.49 121 119 44
1.50 5.02 26.49 44 43 0
1.50 4.95 26.49 3 4 0
1.61 5.63 26.39 0 4 0
1.46 5.52 26.43 4 6 1
1.46 5.45 26.43 8 7 0
1.46 5.38 26.43 138 133 77
1.46 5.31 26.43 174 166 93
1.46 5.23 26.43 167 158 81
1.46 5.16 26.43 158 149 72
1.46 5.09 26.43 136 130 52
1.46 5.02 26.43 101 97 36
1.46 4.95 26.43 5 3 0
1.46 4.88 26.43 8 6 0
1.46 4.81 26.43 16 14 1
1.57 5.63 26.33 0 5 0
1.57 5.56 26.33 0 5 0
1.57 5.49 26.33 5 4 0
1.43 5.38 26.36 76 73 18
1.43 5.31 26.36 165 157 85
1.43 5.23 26.36 173 164 89
1.43 5.16 26.36 158 149 72
1.43 5.09 26.36 156 148 73
1.43 5.02 26.36 126 120 60
1.43 4.95 26.36 12 9 0
1.43 4.88 26.36 3 1 0
1.43 4.81 26.36 12 10 0
1.53 5.63 26.27 0 8 0
1.53 5.56 26.27 0 11 0
1.53 5.49 26.27 0 5 0
1.53 5.42 26.27 5 10 0
1.53 5.35 26.27 122 122 94
1.39 5.23 26.30 169 168 124
1.39 5.16 26.30 164 160 99
1.39 5.09 26.30 159 152 74
1.39 5.02 26.30 145 137 56
1.39 4.95 26.30 45 33 0
1.39 4.88 26.30 9 3 0
1.39 4.81 26.30 7 5 0
1.64 5.68 26.17 0 5 0
1.50 5.56 26.21 1 11 2
1.50 5.49 26.21 0 4 0
1.50 5.42 26.21 0 3 0
1.50 5.35 26.21 45 47 26
1.50 5.28 26.21 151 151 117
1.36 5.16 26.24 172 168 120
1.36 5.09 26.24 164 157 89
1.36 5.02 26.24 155 147 74
1.36 4.95 26.24 87 77 16
1.36 4.88 26.24 12 8 0
1.36 4.81 26.24 6 2 0
1.60 5.68 26.11 0 5 3
1.46 5.56 26.15 0 4 2
1.46 5.49 26.15 1 5 6
1.46 5.42 26.15 0 5 1
1.46 5.35 26.15 1 1 0
1.46 5.28 26.15 100 98 75
1.32 5.16 26.18 169 164 124
1.32 5.09 26.18 169 163 105
1.32 5.02 26.18 167 159 87
1.32 4.95 26.18 127 119 46
1.32 4.88 26.18 48 43 0
1.32 4.81 26.18 10 7 0
1.32 4.74 26.18 3 6 0
1.32 4.67 26.18 3 7 0
1.71 5.72 26.01 0 2 0
1.57 5.61 26.05 1 6 2
1.43 5.49 26.08 0 2 0
1.43 5.42 26.08 0 1 0
1.43 5.35 26.08 8 10 0
1.43 5.28 26.08 1 4 0
1.29 5.16 26.12 85 86 44
1.29 5.09 26.12 167 169 106
1.29 5.02 26.12 167 168 92
1.29 4.95 26.12 151 146 55
1.29 4.88 26.12 131 128 47
1.29 4.81 26.12 72 69 2
1.29 4.74 26.12 18 16 0
1.29 4.67 26.12 8 8 0
1.67 5.72 25.95 2 5 0
1.53 5.61 25.99 1 7 0
1.53 5.53 25.99 0 4 0
1.39 5.42 26.02 2 7 1
1.39 5.35 26.02 0 2 0
1.39 5.28 26.02 0 4 0
1.25 5.16 26.06 26 28 0
1.25 5.09 26.06 131 136 82
1.25 5.02 26.06 177 178 110
1.25 4.95 26.06 161 155 67
1.25 4.88 26.06 148 143 59
1.25 4.81 26.06 109 105 32
1.25 4.74 26.06 49 44 0
1.25 4.67 26.06 7 4 0
1.25 4.60 26.06 16 16 0
1.25 4.53 26.06 9 11 0
1.64 5.72 25.89 0 2 0
1.64 5.65 25.89 0 6 0
1.50 5.53 25.92 1 6 0
1.36 5.42 25.96 8 12 13
1.36 5.35 25.96 0 1 0
1.36 5.28 25.96 3 6 0
1.36 5.21 25.96 1 2 0
1.22 5.09 26.00 62 66 31
1.22 5.02 26.00 158 158 106
1.22 4.95 26.00 164 158 72
1.22 4.88 26.00 159 153 69
1.22 4.81 26.00 138 131 53
1.22 4.74 26.00 92 87 23
1.22 4.67 26.00 14 8 0
1.22 4.60 26.00 12 11 0
1.08 4.49 26.03 11 12 0
1.46 5.53 25.86 0 2 3
1.46 5.46 25.86 0 2 9
1.32 5.35 25.90 3 6 15
1.32 5.28 25.90 2 3 7
1.32 5.21 25.90 2 3 0
1.32 5.14 25.90 2 4 0
1.18 5.02 25.94 113 113 77
1.18 4.95 25.94 158 151 70
1.18 4.88 25.94 163 157 73
1.18 4.81 25.94 148 141 63
1.18 4.74 25.94 131 126 60
1.18 4.67 25.94 46 40 0
1.18 4.60 25.94 4 4 0
1.04 4.49 25.97 6 7 0
1.04 4.42 25.97 6 14 1
1.18 4.39 25.94 4 14 5
1.57 5.58 25.77 3 6 0
1.43 5.46 25.80 2 7 0
1.43 5.39 25.80 2 7 0
1.29 5.28 25.84 0 5 0
1.29 5.21 25.84 0 3 0
1.29 5.14 25.84 1 8 1
1.29 5.07 25.84 29 33 10
1.15 4.95 25.87 166 159 87
1.15 4.88 25.87 169 161 86
1.15 4.81 25.87 151 144 66
1.15 4.74 25.87 152 147 63
1.15 4.67 25.87 113 109 36
1.15 4.60 25.87 27 23 0
1.15 4.53 25.87 6 2 0
1.15 4.46 25.87 9 10 0
1.15 4.39 25.87 10 11 3
1.39 5.39 25.74 1 6 0
1.39 5.32 25.74 1 8 0
1.25 5.21 25.78 0 3 0
1.25 5.14 25.78 0 3 0
1.25 5.07 25.78 5 8 0
1.11 4.95 25.81 179 175 102
1.11 4.88 25.81 168 162 84
1.11 4.81 25.81 158 153 71
1.11 4.74 25.81 153 148 64
1.11 4.67 25.81 134 130 57
1.11 4.60 25.81 73 70 19
1.11 4.53 25.81 19 16 0
1.11 4.46 25.81 9 7 0
1.11 4.39 25.81 7 8 2
1.50 5.44 25.64 0 5 0
1.36 5.32 25.68 2 9 2
1.22 5.21 25.72 1 8 1
1.22 5.14 25.72 0 4 0
1.08 5.02 25.75 0 2 0
1.08 4.95 25.75 153 146 104
1.08 4.88 25.75 174 169 103
1.08 4.81 25.75 161 158 77
1.08 4.74 25.75 152 151 61
1.08 4.67 25.75 149 148 58
1.08 4.60 25.75 113 114 34
1.08 4.53 25.75 40 41 0
1.08 4.46 25.75 6 7 0
1.08 4.39 25.75 6 9 0
1.18 5.21 25.65 0 7 0
1.18 5.14 25.65 2 9 2
1.04 5.02 25.69 0 2 0
1.04 4.95 25.69 94 91 50
1.04 4.88 25.69 180 179 112
1.04 4.81 25.69 168 167 85
1.04 4.74 25.69 159 157 74
1.04 4.67 25.69 154 152 69
1.04 4.60 25.69 138 137 57
1.04 4.53 25.69 86 85 20
1.04 4.46 25.69 12 9 0
1.04 4.39 25.69 6 3 0
1.04 4.32 25.69 15 13 16
1.04 4.25 25.69 9 8 14
1.14 5.21 25.59 0 4 0
1.14 5.14 25.59 3 10 3
1.00 5.02 25.63 1 6 2
1.00 4.95 25.63 37 33 22
1.00 4.88 25.63 144 143 99
1.00 4.81 25.63 170 169 102
1.00 4.74 25.63 164 163 80
1.00 4.67 25.63 153 153 57
1.00 4.60 25.63 147 149 42
1.00 4.53 25.63 130 132 33
1.00 4.46 25.63 40 41 0
1.00 4.39 25.63 6 5 0
1.00 4.32 25.63 9 6 0
1.00 4.25 25.63 18 14 15
0.97 5.02 25.57 0 5 0
0.97 4.95 25.57 6 7 0
0.97 4.88 25.57 77 77 39
0.97 4.81 25.57 163 162 108
0.97 4.74 25.57 175 172 103
0.97 4.67 25.57 159 156 77
0.97 4.60 25.57 151 147 60
0.97 4.53 25.57 148 143 62
0.97 4.46 25.57 88 84 21
0.97 4.39 25.57 21 16 0
0.97 4.32 25.57 6 0 0
1.11 4.29 25.53 15 12 7
1.11 4.21 25.53 14 13 8
1.11 4.14 25.53 9 10 2
0.93 5.02 25.51 2 8 6
0.93 4.95 25.51 0 2 0
0.93 4.88 25.51 29 27 14
0.93 4.81 25.51 128 125 92
0.93 4.74 25.51 180 176 115
0.93 4.67 25.51 176 171 90
0.93 4.60 25.51 155 151 60
0.93 4.53 25.51 158 153 62
0.93 4.46 25.51 126 123 42
0.93 4.39 25.51 64 60 0
1.07 4.36 25.47 7 4 0
1.07 4.29 25.47 10 7 0
1.07 4.21 25.47 15 14 10
1.07 4.14 25.47 9 8 13
0.90 5.02 25.45 5 11 7
0.90 4.95 25.45 0 3 0
0.90 4.88 25.45 3 3 0
0.90 4.81 25.45 75 71 46
0.90 4.74 25.45 162 159 106
0.90 4.67 25.45 177 170 100
0.90 4.60 25.45 153 146 66
0.90 4.53 25.45 163 156 76
1.04 4.50 25.41 145 138 66
1.04 4.43 25.41 104 100 39
1.04 4.36 25.41 29 26 0
1.04 4.29 25.41 6 4 0
1.04 4.21 25.41 13 12 7
1.04 4.14 25.41 12 12 14
1.04 4.07 25.41 2 5 0
1.04 4.00 25.41 5 8 0
0.86 5.02 25.39 0 5 0
0.86 4.95 25.39 9 12 0
0.86 4.88 25.39 1 1 3
0.86 4.81 25.39 17 13 10
1.00 4.78 25.35 125 122 89
0.86 4.67 25.39 180 178 119
1.00 4.64 25.35 161 159 76
1.00 4.57 25.35 162 157 63
1.00 4.50 25.35 146 142 45
1.00 4.43 25.35 152 147 53
1.00 4.36 25.35 65 62 0
1.00 4.29 25.35 21 18 0
1.00 4.21 25.35 4 1 0
1.00 4.14 25.35 13 11 12
1.00 4.07 25.35 14 22 9
1.00 4.00 25.35 0 4 0
0.83 4.88 25.32 1 3 2
0.97 4.85 25.29 5 4 0
0.97 4.78 25.29 61 59 34
0.97 4.71 25.29 165 163 114
0.97 4.64 25.29 167 164 87
0.97 4.57 25.29 161 156 65
0.97 4.50 25.29 166 161 69
0.97 4.43 25.29 161 154 64
0.97 4.36 25.29 109 104 20
0.97 4.29 25.29 53 47 0
0.97 4.21 25.29 6 1 0
0.83 4.10 25.32 14 10 9
0.83 4.03 25.32 11 13 8
0.83 3.96 25.32 0 4 0
0.83 3.89 25.32 37 39 34
0.83 3.82 25.32 71 73 68
0.93 4.92 25.22 1 6 2
0.93 4.85 25.22 0 1 0
0.93 4.78 25.22 9 8 0
0.93 4.71 25.22 123 121 83
0.93 4.64 25.22 179 179 107
0.93 4.57 25.22 163 161 74
0.93 4.50 25.22 160 155 64
0.93 4.43 25.22 154 146 63
0.93 4.36 25.22 136 130 54
0.93 4.29 25.22 92 85 31
0.79 4.17 25.26 16 10 0
0.79 4.10 25.26 7 3 0
0.79 4.03 25.26 12 11 7
0.79 3.96 25.26 6 6 4
0.79 3.89 25.26 22 26 25
0.79 3.82 25.26 68 72 71
0.90 4.78 25.16 0 2 0
0.90 4.71 25.16 57 57 29
0.90 4.64 25.16 168 169 103
0.90 4.57 25.16 169 169 83
0.90 4.50 25.16 164 160 73
0.90 4.43 25.16 166 159 78
0.90 4.36 25.16 154 146 74
0.90 4.29 25.16 140 131 76
0.76 4.17 25.20 59 51 12
0.76 4.10 25.20 9 3 0
0.76 4.03 25.20 15 11 0
0.76 3.96 25.20 6 5 1
0.76 3.89 25.20 10 16 14
0.76 3.82 25.20 64 73 72
0.86 4.78 25.10 4 7 0
0.86 4.71 25.10 4 6 0
0.86 4.64 25.10 113 114 56
0.86 4.57 25.10 171 172 94
0.86 4.50 25.10 164 162 79
0.86 4.43 25.10 160 155 74
0.86 4.36 25.10 151 143 70
0.86 4.29 25.10 153 145 80
0.72 4.17 25.14 95 89 31
0.72 4.10 25.14 23 19 0
0.72 4.03 25.14 7 2 0
0.72 3.96 25.14 4 3 0
0.72 3.89 25.14 6 11 4
0.72 3.82 25.14 62 71 68
0.83 4.64 25.04 47 51 1
0.83 4.57 25.04 162 165 98
0.83 4.50 25.04 173 170 99
0.83 4.43 25.04 159 156 79
0.83 4.36 25.04 159 153 75
0.69 4.25 25.08 156 150 72
0.69 4.17 25.08 127 125 50
0.69 4.10 25.08 71 68 1
0.69 4.03 25.08 14 13 0
0.69 3.96 25.08 16 16 0
0.69 3.89 25.08 6 8 0
0.69 3.82 25.08 59 64 60
0.69 3.75 25.08 70 76 72
0.83 3.72 25.04 72 78 74
0.79 4.64 24.98 11 12 0
0.79 4.57 24.98 120 119 71
0.79 4.50 24.98 169 167 110
0.79 4.43 24.98 165 160 94
0.65 4.32 25.02 162 160 77
0.65 4.25 25.02 151 147 60
0.65 4.17 25.02 142 141 58
0.65 4.10 25.02 102 100 23
0.65 4.03 25.02 31 33 0
0.65 3.96 25.02 10 10 0
0.65 3.89 25.02 1 5 0
0.65 3.82 25.02 52 55 48
0.65 3.75 25.02 69 72 65
0.79 3.72 24.98 77 80 73
0.62 4.46 24.96 154 150 105
0.62 4.39 24.96 172 168 107
0.62 4.32 24.96 162 159 78
0.62 4.25 24.96 155 154 64
0.62 4.17 24.96 160 160 72
0.62 4.10 24.96 131 130 47
0.62 4.03 24.96 73 76 0
0.62 3.96 24.96 19 20 0
0.75 3.93 24.92 1 4 0
0.75 3.86 24.92 46 47 39
0.75 3.79 24.92 66 67 59
0.75 3.72 24.92 79 80 72
0.75 3.65 24.92 73 76 67
0.75 3.58 24.92 74 77 68
0.58 4.46 24.90 108 105 90
0.58 4.39 24.90 164 159 129
0.58 4.32 24.90 165 167 94
0.58 4.25 24.90 158 158 72
0.58 4.17 24.90 159 158 76
0.58 4.10 24.90 143 137 61
0.58 4.03 24.90 124 118 40
0.72 4.00 24.86 51 43 0
0.72 3.93 24.86 11 6 0
0.72 3.86 24.86 32 27 5
0.72 3.79 24.86 79 75 63
0.72 3.72 24.86 78 78 70
0.72 3.65 24.86 77 79 76
0.72 3.58 24.86 72 76 75
0.55 4.46 24.83 37 35 20
0.55 4.39 24.83 142 139 108
0.55 4.32 24.83 167 168 100
0.55 4.25 24.83 165 164 81
0.55 4.17 24.83 152 149 68
0.55 4.10 24.83 155 149 71
0.55 4.03 24.83 151 144 64
0.68 4.00 24.79 88 81 13
0.68 3.93 24.79 8 6 0
0.68 3.86 24.79 24 23 0
0.68 3.79 24.79 72 71 51
0.68 3.72 24.79 78 80 69
0.68 3.65 24.79 79 81 78
0.68 3.58 24.79 76 80 81
0.51 4.46 24.77 3 1 0
0.51 4.39 24.77 102 98 69
0.51 4.32 24.77 167 167 107
0.51 4.25 24.77 176 174 97
0.51 4.17 24.77 157 154 73
0.51 4.10 24.77 159 152 71
0.65 4.07 24.73 161 155 71
0.65 4.00 24.73 132 126 50
0.65 3.93 24.73 37 35 0
0.65 3.86 24.73 31 33 0
0.65 3.79 24.73 64 64 36
0.65 3.72 24.73 74 76 62
0.65 3.65 24.73 74 76 75
0.65 3.58 24.73 73 77 80
0.47 4.32 24.71 142 140 92
0.47 4.25 24.71 174 171 104
0.47 4.17 24.71 165 162 81
0.61 4.14 24.67 161 155 67
0.61 4.07 24.67 157 151 65
0.61 4.00 24.67 155 150 68
0.61 3.93 24.67 81 81 7
0.61 3.86 24.67 48 52 0
0.61 3.79 24.67 59 61 22
0.75 3.76 24.63 73 76 57
0.75 3.68 24.63 73 75 72
0.75 3.61 24.63 71 74 79
0.75 3.54 24.63 73 79 79
0.75 3.47 24.63 76 82 78
0.44 4.32 24.65 27 25 4
0.44 4.25 24.65 148 145 104
0.44 4.17 24.65 172 173 97
0.58 4.14 24.61 164 163 73
0.58 4.07 24.61 163 161 74
0.58 4.00 24.61 159 157 74
0.58 3.93 24.61 140 139 56
0.58 3.86 24.61 92 94 21
0.58 3.79 24.61 68 68 16
0.72 3.76 24.57 79 80 46
0.72 3.68 24.57 76 79 62
0.72 3.61 24.57 75 78 69
0.72 3.54 24.57 74 79 72
0.72 3.47 24.57 78 83 76
0.54 4.21 24.55 162 163 93
0.54 4.14 24.55 163 163 75
0.54 4.07 24.55 159 158 75
0.54 4.00 24.55 162 159 78
0.54 3.93 24.55 157 156 76
0.54 3.86 24.55 124 124 52
0.68 3.83 24.51 91 90 34
0.68 3.76 24.51 83 84 44
0.68 3.68 24.51 72 75 46
0.68 3.61 24.51 76 79 60
0.68 3.54 24.51 76 82 68
0.68 3.47 24.51 80 86 76
0.68 3.40 24.51 79 82 75
0.68 3.33 24.51 80 81 85
0.51 4.21 24.49 139 142 73
0.51 4.14 24.49 170 173 84
0.51 4.07 24.49 158 160 77
0.51 4.00 24.49 160 159 79
0.51 3.93 24.49 157 154 77
0.64 3.90 24.45 145 142 73
0.64 3.83 24.45 113 111 54
0.64 3.76 24.45 97 96 52
0.64 3.68 24.45 79 80 48
0.64 3.61 24.45 82 84 62
0.64 3.54 24.45 81 86 66
0.64 3.47 24.45 80 83 72
0.64 3.40 24.45 78 81 74
0.64 3.33 24.45 78 78 86
0.47 4.21 24.43 92 89 44
0.47 4.14 24.43 167 163 99
0.47 4.07 24.43 172 168 79
0.47 4.00 24.43 162 159 64
0.61 3.97 24.38 155 155 67
0.61 3.90 24.38 145 147 64
0.61 3.83 24.38 137 140 63
0.61 3.76 24.38 115 116 50
0.61 3.68 24.38 93 96 43
0.61 3.61 24.38 80 81 47
0.61 3.54 24.38 71 74 57
0.61 3.47 24.38 84 89 85
0.61 3.40 24.38 69 77 79
0.61 3.33 24.38 72 84 82
0.44 4.21 24.36 44 42 4
0.44 4.14 24.36 128 125 70
0.44 4.07 24.36 173 171 94
0.57 4.04 24.32 167 165 80
0.57 3.97 24.32 161 161 75
0.57 3.90 24.32 154 153 71
0.57 3.83 24.32 141 142 64
0.57 3.76 24.32 129 128 61
0.57 3.68 24.32 109 109 55
0.57 3.61 24.32 86 86 50
0.57 3.54 24.32 74 77 56
0.57 3.47 24.32 81 86 79
0.57 3.40 24.32 72 80 82
0.57 3.33 24.32 71 83 83
0.40 4.07 24.30 165 164 107
0.54 4.04 24.26 170 167 98
0.54 3.97 24.26 164 162 87
0.54 3.90 24.26 158 155 76
0.54 3.83 24.26 151 148 71
0.54 3.76 24.26 149 146 75
0.54 3.68 24.26 131 129 70
0.54 3.61 24.26 97 96 52
0.54 3.54 24.26 79 79 53
0.54 3.47 24.26 82 84 73
0.50 4.11 24.20 131 131 93
0.50 4.04 24.20 166 164 113
0.50 3.97 24.20 166 161 95
0.50 3.90 24.20 159 153 79
0.50 3.83 24.20 160 154 76
0.50 3.76 24.20 163 157 83
0.50 3.68 24.20 148 144 80
0.50 3.61 24.20 114 111 60
0.50 3.54 24.20 84 81 50
0.50 3.47 24.20 82 80 65
0.47 4.11 24.14 75 77 56
0.47 4.04 24.14 154 151 116
0.47 3.97 24.14 177 172 114
0.47 3.90 24.14 162 155 83
0.47 3.83 24.14 164 157 79
0.47 3.76 24.14 162 155 77
0.47 3.68 24.14 159 155 82
0.47 3.61 24.14 140 136 75
0.47 3.54 24.14 94 91 50
0.47 3.47 24.14 82 80 57
0.47 3.40 24.14 85 86 78
0.47 3.33 24.14 81 86 89
0.47 3.26 24.14 79 87 89
0.60 3.22 24.10 75 86 82
0.43 4.11 24.08 27 29 18
0.43 4.04 24.08 119 118 90
0.43 3.97 24.08 183 177 125
0.43 3.90 24.08 171 164 94
0.43 3.83 24.08 164 157 77
0.43 3.76 24.08 158 151 70
0.43 3.68 24.08 167 162 81
0.43 3.61 24.08 161 156 88
0.43 3.54 24.08 119 113 65
0.43 3.47 24.08 90 85 56
0.43 3.40 24.08 89 87 75
0.43 3.33 24.08 84 88 91
0.43 3.26 24.08 83 88 91
0.57 3.22 24.03 76 85 80
0.39 3.97 24.01 159 155 107
0.39 3.90 24.01 178 171 103
0.39 3.83 24.01 166 161 80
0.39 3.76 24.01 162 156 70
0.39 3.68 24.01 169 163 79
0.39 3.61 24.01 168 162 88
0.39 3.54 24.01 145 138 84
0.39 3.47 24.01 105 99 67
0.39 3.40 24.01 91 87 75
0.39 3.33 24.01 86 87 92
0.39 3.26 24.01 84 87 92
0.39 3.19 24.01 80 86 82
0.39 3.12 24.01 81 88 80
0.53 3.08 23.97 79 87 72
0.36 3.97 23.95 128 124 77
0.36 3.90 23.95 177 172 106
0.36 3.83 23.95 170 165 84
0.36 3.76 23.95 168 164 77
0.36 3.68 23.95 169 163 75
0.36 3.61 23.95 163 156 78
0.36 3.54 23.95 163 156 101
0.36 3.47 23.95 120 111 78
0.36 3.40 23.95 94 88 74
0.36 3.33 23.95 86 85 90
0.36 3.26 23.95 86 87 92
0.36 3.19 23.95 82 88 84
0.36 3.12 23.95 84 91 83
0.36 3.04 23.95 80 88 73
0.32 3.83 23.89 157 159 86
0.32 3.76 23.89 163 166 79
0.32 3.68 23.89 170 171 93
0.32 3.61 23.89 162 162 90
0.32 3.54 23.89 160 164 90
0.32 3.47 23.89 136 140 81
0.32 3.40 23.89 101 102 68
0.32 3.33 23.89 79 81 78
0.32 3.26 23.89 84 88 91
0.32 3.19 23.89 79 83 84
0.32 3.12 23.89 89 91 90
0.32 3.04 23.89 83 85 80
0.32 2.97 23.89 84 86 81
0.32 2.90 23.89 72 78 74
0.29 3.83 23.83 176 175 108
0.29 3.76 23.83 163 165 81
0.29 3.68 23.83 162 160 83
0.29 3.61 23.83 167 165 90
0.29 3.54 23.83 171 173 98
0.29 3.47 23.83 151 153 90
0.29 3.40 23.83 122 125 82
0.29 3.33 23.83 76 80 66
0.29 3.26 23.83 82 84 79
0.29 3.19 23.83 84 86 85
0.29 3.12 23.83 85 87 86
0.29 3.04 23.83 79 81 78
0.29 2.97 23.83 86 88 85
0.29 2.90 23.83 75 81 77
0.25 3.83 23.77 166 165 101
0.25 3.76 23.77 167 166 84
0.25 3.68 23.77 168 165 86
0.25 3.61 23.77 168 165 86
0.25 3.54 23.77 172 173 93
0.25 3.47 23.77 164 165 95
0.25 3.40 23.77 148 148 96
0.25 3.33 23.77 81 84 57
0.25 3.26 23.77 79 81 67
0.25 3.19 23.77 90 93 86
0.25 3.12 23.77 84 86 85
0.25 3.04 23.77 77 79 76
0.25 2.97 23.77 87 89 86
0.25 2.90 23.77 82 86 85
0.22 3.83 23.71 130 129 73
0.22 3.76 23.71 168 166 92
0.22 3.68 23.71 175 173 96
0.22 3.61 23.71 167 164 85
0.22 3.54 23.71 167 166 83
0.22 3.47 23.71 167 168 92
0.22 3.40 23.71 161 161 99
0.22 3.33 23.71 96 99 56
0.22 3.26 23.71 77 80 51
0.22 3.19 23.71 90 94 80
0.22 3.12 23.71 87 89 86
0.22 3.04 23.71 81 83 80
0.22 2.97 23.71 86 88 85
0.22 2.90 23.71 86 88 85
0.18 3.83 23.64 89 88 42
0.18 3.76 23.64 153 152 88
0.18 3.68 23.64 175 173 99
0.18 3.61 23.64 171 168 91
0.18 3.54 23.64 170 167 86
0.18 3.47 23.64 168 166 91
0.18 3.40 23.64 165 164 97
0.18 3.33 23.64 117 120 63
0.18 3.26 23.64 80 83 40
0.18 3.19 23.64 83 86 67
0.18 3.12 23.64 89 90 84
0.18 3.04 23.64 87 88 83
0.18 2.97 23.64 85 86 81
0.18 2.90 23.64 84 85 80
0.15 3.83 23.58 33 34 0
0.15 3.76 23.58 117 117 65
0.15 3.68 23.58 173 172 108
0.15 3.61 23.58 181 178 107
0.15 3.54 23.58 174 170 97
0.15 3.47 23.58 170 166 95
0.15 3.40 23.58 166 165 98
0.15 3.33 23.58 138 141 74
0.15 3.26 23.58 91 94 41
0.15 3.19 23.58 76 78 54
0.15 3.12 23.58 87 87 77
0.15 3.04 23.58 89 91 80
0.15 2.97 23.58 85 87 76
0.15 2.90 23.58 83 84 76
0.11 3.68 23.52 152 153 96
0.11 3.61 23.52 187 183 120
0.11 3.54 23.52 177 173 109
0.11 3.47 23.52 173 168 104
0.11 3.40 23.52 166 165 101
0.11 3.33 23.52 152 156 82
0.11 3.26 23.52 113 117 58
0.11 3.19 23.52 80 83 54
0.11 3.12 23.52 85 85 73
0.11 3.04 23.52 87 88 74
0.11 2.97 23.52 89 89 77
0.11 2.90 23.52 86 88 75
0.11 2.83 23.52 69 72 63
0.11 2.76 23.52 49 58 53
0.07 3.68 23.46 116 119 66
0.07 3.61 23.46 182 180 123
0.07 3.54 23.46 183 181 120
0.07 3.47 23.46 172 168 107
0.07 3.40 23.46 165 163 102
0.07 3.33 23.46 160 164 88
0.07 3.26 23.46 133 138 74
0.07 3.19 23.46 90 93 62
0.07 3.12 23.46 86 87 73
0.07 3.04 23.46 85 86 68
0.07 2.97 23.46 92 93 77
0.07 2.90 23.46 87 89 75
0.07 2.83 23.46 72 75 64
0.07 2.76 23.46 46 56 48
0.04 3.68 23.40 45 46 32
0.04 3.61 23.40 170 169 138
0.04 3.54 23.40 183 184 124
0.04 3.47 23.40 170 171 103
0.17 3.44 23.35 164 164 104
0.17 3.37 23.35 163 166 95
0.04 3.26 23.40 144 149 82
0.04 3.19 23.40 117 122 68
0.04 3.12 23.40 90 94 57
0.04 3.04 23.40 88 93 73
0.04 2.97 23.40 91 92 86
0.04 2.90 23.40 89 89 87
0.04 2.83 23.40 83 83 85
0.04 2.76 23.40 40 44 47
0.00 3.68 23.34 18 19 3
0.00 3.61 23.34 135 134 103
0.00 3.54 23.34 183 187 128
0.14 3.51 23.29 176 179 112
0.14 3.44 23.29 172 172 110
0.14 3.37 23.29 165 169 95
0.14 3.29 23.29 162 165 96
0.14 3.22 23.29 137 142 84
0.14 3.15 23.29 101 103 63
0.14 3.08 23.29 87 91 66
0.14 3.01 23.29 95 97 84
0.14 2.94 23.29 92 94 89
0.14 2.87 23.29 85 89 90
0.14 2.79 23.29 41 46 49
0.10 3.72 23.23 0 3 0
0.10 3.65 23.23 86 87 56
0.10 3.58 23.23 178 181 128
0.10 3.51 23.23 178 180 117
0.10 3.44 23.23 175 175 113
0.10 3.37 23.23 168 170 95
0.10 3.29 23.23 172 174 101
0.10 3.22 23.23 155 160 96
0.10 3.15 23.23 120 122 72
0.10 3.08 23.23 92 94 57
0.10 3.01 23.23 94 96 74
0.10 2.94 23.23 88 94 82
0.10 2.87 23.23 83 92 89
0.10 2.79 23.23 39 49 50
0.10 2.72 23.23 51 65 68
0.10 2.65 23.23 67 86 93
0.07 3.72 23.17 1 4 0
0.07 3.65 23.17 42 42 14
0.07 3.58 23.17 157 158 114
0.07 3.51 23.17 176 175 119
0.07 3.44 23.17 173 173 109
0.07 3.37 23.17 173 174 98
0.07 3.29 23.17 170 170 96
0.07 3.22 23.17 165 166 98
0.07 3.15 23.17 147 146 89
0.07 3.08 23.17 109 109 59
0.07 3.01 23.17 93 94 60
0.07 2.94 23.17 85 92 74
0.07 2.87 23.17 84 95 89
0.07 2.79 23.17 43 55 53
0.07 2.72 23.17 46 61 66
0.07 2.65 23.17 65 84 91
0.17 3.62 23.06 127 126 95
0.03 3.51 23.11 174 173 129
0.03 3.44 23.11 177 177 115
0.03 3.37 23.11 177 177 103
0.03 3.29 23.11 168 168 94
0.03 3.22 23.11 170 171 101
0.03 3.15 23.11 164 164 100
0.03 3.08 23.11 128 128 68
0.03 3.01 23.11 102 104 57
0.03 2.94 23.11 89 95 69
0.03 2.87 23.11 89 100 86
0.03 2.79 23.11 53 64 58
0.03 2.72 23.11 47 61 62
0.03 2.65 23.11 65 82 92
0.03 2.58 23.11 67 86 101
0.03 2.51 23.11 57 80 94
0.13 3.62 23.00 76 73 64
0.13 3.55 23.00 131 126 104
0.13 3.47 23.00 166 167 110
-0.00 3.37 23.04 178 177 112
-0.00 3.29 23.04 173 172 108
-0.00 3.22 23.04 173 174 106
-0.00 3.15 23.04 169 170 102
-0.00 3.08 23.04 156 157 87
-0.00 3.01 23.04 136 137 77
-0.00 2.94 23.04 105 106 64
-0.00 2.87 23.04 98 101 74
-0.00 2.79 23.04 70 72 58
-0.00 2.72 23.04 54 59 55
-0.00 2.65 23.04 70 77 85
-0.00 2.58 23.04 79 88 103
-0.00 2.51 23.04 74 87 104
0.10 3.47 22.94 153 153 101
0.10 3.40 22.94 181 181 119
-0.04 3.29 22.98 173 173 111
-0.04 3.22 22.98 172 172 108
-0.04 3.15 22.98 173 174 108
-0.04 3.08 22.98 169 170 100
-0.04 3.01 22.98 147 147 85
-0.04 2.94 22.98 118 117 71
-0.04 2.87 22.98 106 105 74
-0.04 2.79 22.98 76 75 57
-0.04 2.72 22.98 55 56 51
-0.04 2.65 22.98 67 72 78
-0.04 2.58 22.98 76 83 99
-0.04 2.51 22.98 71 82 100
-0.04 2.44 22.98 61 74 91
-0.04 2.37 22.98 70 87 95
0.06 3.47 22.87 120 123 96
0.06 3.40 22.87 179 177 129
0.06 3.33 22.87 175 172 117
-0.07 3.22 22.92 174 174 110
-0.07 3.15 22.92 170 171 105
-0.07 3.08 22.92 171 177 105
-0.07 3.01 22.92 162 165 98
-0.07 2.94 22.92 133 134 77
-0.07 2.87 22.92 115 113 72
-0.07 2.79 22.92 94 92 69
-0.07 2.72 22.92 54 54 46
-0.07 2.65 22.92 65 68 73
-0.07 2.58 22.92 80 84 95
-0.07 2.51 22.92 71 80 85
-0.07 2.44 22.92 76 85 90
-0.07 2.37 22.92 80 90 92
0.02 3.47 22.81 100 103 76
0.02 3.40 22.81 175 174 128
0.02 3.33 22.81 177 176 120
0.02 3.26 22.81 173 173 111
-0.11 3.15 22.86 170 171 105
-0.11 3.08 22.86 175 178 107
-0.11 3.01 22.86 165 168 101
-0.11 2.94 22.86 146 146 84
-0.11 2.87 22.86 125 124 76
-0.11 2.79 22.86 94 95 63
-0.11 2.72 22.86 53 56 39
-0.11 2.65 22.86 60 65 59
-0.11 2.58 22.86 71 77 77
-0.11 2.51 22.86 70 80 79
-0.11 2.44 22.86 79 89 88
-0.11 2.37 22.86 85 96 92
-0.11 2.29 22.86 75 85 84
-0.11 2.22 22.86 81 90 95
0.12 3.51 22.70 83 87 62
-0.01 3.40 22.75 166 167 123
-0.01 3.33 22.75 179 179 127
-0.01 3.26 22.75 174 174 114
-0.01 3.19 22.75 169 170 104
-0.15 3.08 22.80 176 177 109
-0.15 3.01 22.80 168 169 101
-0.15 2.94 22.80 160 162 97
-0.15 2.87 22.80 138 141 86
-0.15 2.79 22.80 114 117 74
-0.15 2.72 22.80 80 85 55
-0.15 2.65 22.80 72 79 61
-0.15 2.58 22.80 88 96 85
-0.15 2.51 22.80 97 109 99
-0.15 2.44 22.80 83 94 86
-0.15 2.37 22.80 83 94 88
-0.28 2.26 22.84 92 103 99
-0.15 2.22 22.80 99 109 108
0.09 3.51 22.64 74 79 57
0.09 3.44 22.64 150 152 112
-0.05 3.33 22.69 176 175 127
-0.05 3.26 22.69 175 176 119
-0.05 3.19 22.69 169 169 107
-0.05 3.12 22.69 175 174 107
-0.18 3.01 22.73 169 168 101
-0.18 2.94 22.73 161 164 97
-0.18 2.87 22.73 149 153 94
-0.18 2.79 22.73 124 128 77
-0.18 2.72 22.73 98 105 64
-0.18 2.65 22.73 90 99 70
-0.18 2.58 22.73 91 100 81
-0.18 2.51 22.73 90 102 88
-0.18 2.44 22.73 80 91 83
-0.32 2.33 22.78 95 104 99
-0.32 2.26 22.78 97 106 103
-0.32 2.19 22.78 121 130 129
0.05 3.51 22.58 74 79 59
0.05 3.44 22.58 126 130 95
-0.08 3.33 22.63 163 164 122
-0.08 3.26 22.63 176 176 122
-0.08 3.19 22.63 173 171 112
-0.08 3.12 22.63 174 173 106
-0.08 3.04 22.63 174 171 104
-0.22 2.94 22.67 167 168 102
-0.22 2.87 22.67 167 168 108
-0.22 2.79 22.67 131 134 79
-0.22 2.72 22.67 107 113 67
-0.22 2.65 22.67 102 110 73
-0.22 2.58 22.67 88 96 72
-0.22 2.51 22.67 81 92 76
-0.22 2.44 22.67 100 109 104
-0.22 2.37 22.67 106 115 114
-0.35 2.26 22.72 108 116 119
-0.35 2.19 22.72 47 55 57
0.15 3.55 22.47 78 82 67
0.02 3.44 22.52 112 117 87
0.02 3.37 22.52 147 152 112
-0.12 3.26 22.56 175 174 126
-0.12 3.19 22.56 180 178 121
-0.12 3.12 22.56 177 173 109
-0.12 3.04 22.56 176 171 105
-0.12 2.97 22.56 175 174 110
-0.25 2.87 22.61 170 170 110
-0.25 2.79 22.61 157 158 98
-0.25 2.72 22.61 127 132 78
-0.25 2.65 22.61 96 105 60
-0.25 2.58 22.61 112 121 90
-0.25 2.51 22.61 123 134 117
-0.25 2.44 22.61 117 126 121
-0.25 2.37 22.61 93 101 104
-0.39 2.26 22.66 30 37 45
-0.39 2.19 22.66 17 25 28
-0.39 2.12 22.66 26 34 37
-0.39 2.05 22.66 36 48 46
0.11 3.55 22.41 67 74 58
0.11 3.47 22.41 100 106 80
-0.02 3.37 22.45 128 134 98
-0.02 3.29 22.45 166 168 121
-0.15 3.19 22.50 183 182 126
-0.15 3.12 22.50 179 174 110
-0.15 3.04 22.50 177 169 104
-0.15 2.97 22.50 174 169 103
-0.15 2.90 22.50 166 162 98
-0.29 2.79 22.55 170 171 105
-0.29 2.72 22.55 144 148 87
-0.29 2.65 22.55 106 115 60
-0.29 2.58 22.55 132 140 101
-0.29 2.51 22.55 119 129 105
-0.29 2.44 22.55 71 78 70
-0.29 2.37 22.55 24 32 34
-0.42 2.26 22.60 20 28 31
-0.42 2.19 22.60 27 37 38
-0.42 2.12 22.60 40 50 49
-0.42 2.05 22.60 36 51 46
0.08 3.55 22.34 45 53 38
0.08 3.47 22.34 86 94 70
0.08 3.40 22.34 112 118 84
-0.06 3.29 22.39 157 158 114
-0.06 3.22 22.39 186 183 130
-0.19 3.12 22.44 182 177 113
-0.19 3.04 22.44 179 170 103
-0.19 2.97 22.44 179 172 104
-0.19 2.90 22.44 176 171 103
-0.19 2.83 22.44 168 168 94
-0.32 2.72 22.49 155 158 89
-0.32 2.65 22.49 144 152 92
-0.32 2.58 22.49 124 133 88
-0.32 2.51 22.49 42 50 26
-0.32 2.44 22.49 1 9 0
-0.32 2.37 22.49 24 33 32
-0.46 2.26 22.54 35 43 45
-0.46 2.19 22.54 44 55 51
-0.46 2.12 22.54 33 44 38
-0.46 2.05 22.54 32 48 38
0.04 3.55 22.28 6 7 9
0.04 3.47 22.28 35 35 27
-0.09 3.37 22.33 60 57 38
-0.09 3.29 22.33 116 111 79
-0.23 3.19 22.38 184 177 131
-0.23 3.12 22.38 177 173 112
-0.23 3.04 22.38 180 175 111
-0.23 2.97 22.38 173 168 104
-0.23 2.90 22.38 178 174 103
-0.23 2.83 22.38 165 165 77
-0.36 2.72 22.43 172 175 86
-0.36 2.65 22.43 138 140 67
-0.36 2.58 22.43 69 71 22
-0.36 2.51 22.43 8 11 0
-0.36 2.44 22.43 33 38 34
-0.36 2.37 22.43 34 45 41
-0.36 2.29 22.43 35 47 43
-0.49 2.19 22.47 36 53 43
-0.49 2.12 22.47 33 50 42
-0.49 2.05 22.47 38 53 50
-0.13 3.37 22.27 3 1 0
-0.13 3.29 22.27 36 35 5
-0.13 3.22 22.27 123 120 79
-0.26 3.12 22.32 166 164 113
-0.26 3.04 22.32 169 167 108
-0.26 2.97 22.32 162 159 92
-0.26 2.90 22.32 166 164 89
-0.40 2.79 22.36 159 159 69
-0.40 2.72 22.36 164 164 74
-0.40 2.65 22.36 132 135 54
-0.40 2.58 22.36 80 81 21
-0.40 2.51 22.36 30 34 1
-0.40 2.44 22.36 44 48 34
-0.40 2.37 22.36 39 48 45
-0.40 2.29 22.36 38 50 50
-0.53 2.19 22.41 36 51 48
-0.53 2.12 22.41 34 51 45
-0.53 2.05 22.41 38 53 48
-0.16 3.37 22.21 27 29 15
-0.16 3.29 22.21 29 33 10
-0.16 3.22 22.21 88 91 60
-0.16 3.15 22.21 162 164 125
-0.30 3.04 22.25 163 165 115
-0.30 2.97 22.25 169 168 101
-0.30 2.90 22.25 166 165 85
-0.30 2.83 22.25 164 164 76
-0.43 2.72 22.30 169 169 79
-0.43 2.65 22.30 156 161 69
-0.43 2.58 22.30 119 123 47
-0.43 2.51 22.30 72 76 25
-0.43 2.44 22.30 44 48 23
-0.43 2.37 22.30 42 48 46
-0.43 2.29 22.30 44 53 62
-0.57 2.19 22.35 42 53 59
-0.57 2.12 22.35 37 51 52
-0.57 2.05 22.35 29 44 37
-0.20 3.37 22.14 45 53 40
-0.20 3.29 22.14 35 42 24
-0.20 3.22 22.14 52 60 37
-0.20 3.15 22.14 137 143 117
-0.33 3.04 22.19 164 169 129
-0.33 2.97 22.19 172 174 109
-0.33 2.90 22.19 164 165 87
-0.33 2.83 22.19 165 167 83
-0.33 2.76 22.19 168 171 82
-0.47 2.65 22.24 169 174 80
-0.47 2.58 22.24 147 152 68
-0.47 2.51 22.24 104 109 45
-0.47 2.44 22.24 45 49 14
-0.47 2.37 22.24 37 42 38
-0.47 2.29 22.24 40 46 60
-0.47 2.22 22.24 40 48 61
-0.60 2.12 22.29 39 49 58
-0.60 2.05 22.29 43 55 51
-0.60 1.98 22.29 67 80 71
-0.60 1.91 22.29 102 113 107
-0.24 3.37 22.08 46 58 46
-0.24 3.29 22.08 39 50 36
-0.24 3.22 22.08 27 38 24
-0.24 3.15 22.08 102 111 94
-0.24 3.08 22.08 159 166 135
-0.37 2.97 22.13 168 171 114
-0.37 2.90 22.13 167 169 96
-0.37 2.83 22.13 167 168 92
-0.37 2.76 22.13 160 161 81
-0.50 2.65 22.18 163 166 77
-0.50 2.58 22.18 153 157 73
-0.50 2.51 22.18 132 135 68
-0.50 2.44 22.18 74 77 34
-0.50 2.37 22.18 40 43 32
-0.50 2.29 22.18 40 44 53
-0.50 2.22 22.18 42 48 60
-0.50 2.15 22.18 42 50 61
-0.50 2.08 22.18 43 55 53
-0.64 1.98 22.23 65 77 73
-0.64 1.91 22.23 96 108 104
-0.27 3.37 22.02 39 51 41
-0.27 3.29 22.02 39 51 39
-0.27 3.22 22.02 21 33 21
-0.27 3.15 22.02 62 72 61
-0.27 3.08 22.02 126 134 110
-0.41 2.97 22.07 169 173 123
-0.41 2.90 22.07 174 176 111
-0.41 2.83 22.07 168 170 97
-0.41 2.76 22.07 160 163 86
-0.41 2.69 22.07 167 169 86
-0.54 2.58 22.12 162 163 85
-0.54 2.51 22.12 151 154 83
-0.54 2.44 22.12 104 107 54
-0.54 2.37 22.12 50 55 23
-0.54 2.29 22.12 38 44 30
-0.54 2.22 22.12 39 48 43
-0.54 2.15 22.12 42 52 53
-0.54 2.08 22.12 48 60 58
-0.54 2.01 22.12 62 74 72
-0.67 1.91 22.17 67 79 77
-0.67 1.83 22.17 75 85 84
-0.54 1.79 22.12 81 90 87
-0.31 3.37 21.96 31 43 33
-0.31 3.29 21.96 37 47 36
-0.31 3.22 21.96 34 44 33
-0.31 3.15 21.96 46 56 47
-0.31 3.08 21.96 108 116 93
-0.44 2.97 22.01 156 162 114
-0.44 2.90 22.01 174 176 111
-0.44 2.83 22.01 164 168 94
-0.44 2.76 22.01 162 165 88
-0.44 2.69 22.01 171 172 92
-0.44 2.61 22.01 164 165 89
-0.57 2.51 22.05 156 158 85
-0.57 2.44 22.05 125 127 64
-0.57 2.37 22.05 70 78 21
-0.57 2.29 22.05 47 56 13
-0.57 2.22 22.05 49 59 32
-0.57 2.15 22.05 49 60 46
-0.57 2.08 22.05 51 64 57
-0.57 2.01 22.05 37 49 49
-0.57 1.94 22.05 0 8 4
-0.71 1.83 22.10 0 4 0
-0.57 1.79 22.05 0 4 1
-0.34 3.22 21.89 41 51 40
-0.34 3.15 21.89 27 37 28
-0.34 3.08 21.89 78 86 63
-0.48 2.97 21.94 143 149 101
-0.48 2.90 21.94 174 176 111
-0.48 2.83 21.94 168 172 95
-0.48 2.76 21.94 167 168 88
-0.48 2.69 21.94 167 168 90
-0.48 2.61 21.94 161 159 84
-0.48 2.54 21.94 161 163 88
-0.48 2.47 21.94 153 157 83
-0.61 2.37 21.99 103 111 38
-0.61 2.29 21.99 62 72 9
-0.61 2.22 21.99 52 65 19
-0.61 2.15 21.99 44 57 29
-0.61 2.08 21.99 48 61 51
-0.61 2.01 21.99 35 47 43
-0.61 1.94 21.99 0 5 0
-0.61 1.87 21.99 0 9 1
-0.61 1.79 21.99 0 4 0
-0.38 3.22 21.83 39 49 41
-0.38 3.15 21.83 37 46 41
-0.38 3.08 21.83 51 56 50
-0.51 2.97 21.88 120 117 108
-0.51 2.90 21.88 167 163 138
-0.51 2.83 21.88 175 174 120
-0.51 2.76 21.88 167 168 98
-0.51 2.69 21.88 170 171 95
-0.51 2.61 21.88 165 166 90
-0.51 2.54 21.88 166 166 94
-0.51 2.47 21.88 163 162 95
-0.51 2.40 21.88 138 141 74
-0.65 2.29 21.93 88 92 33
-0.65 2.22 21.93 54 57 10
-0.65 2.15 21.93 55 60 30
-0.65 2.08 21.93 54 60 46
-0.65 2.01 21.93 46 52 50
-0.65 1.94 21.93 0 3 2
-0.65 1.87 21.93 0 8 10
-0.65 1.79 21.93 2 11 8
-0.42 3.08 21.77 43 48 44
-0.55 2.97 21.82 91 88 79
-0.55 2.90 21.82 143 138 116
-0.55 2.83 21.82 170 168 117
-0.55 2.76 21.82 168 169 101
-0.55 2.69 21.82 167 168 90
-0.55 2.61 21.82 166 167 87
-0.55 2.54 21.82 166 166 92
-0.55 2.47 21.82 164 164 94
-0.55 2.40 21.82 149 152 81
-0.55 2.33 21.82 119 123 62
-0.68 2.22 21.87 74 78 28
-0.68 2.15 21.87 52 57 25
-0.68 2.08 21.87 54 61 45
-0.68 2.01 21.87 49 58 55
-0.68 1.94 21.87 0 3 4
-0.68 1.87 21.87 1 11 13
-0.68 1.79 21.87 0 10 9
-0.68 1.72 21.87 1 10 7
-0.68 1.65 21.87 3 10 3
-0.45 3.08 21.71 40 45 41
-0.45 3.01 21.71 65 65 57
-0.45 2.94 21.71 117 112 92
-0.58 2.83 21.76 162 161 115
-0.58 2.76 21.76 172 172 108
-0.58 2.69 21.76 167 168 92
-0.58 2.61 21.76 169 170 90
-0.58 2.54 21.76 169 168 88
-0.58 2.47 21.76 171 169 94
-0.58 2.40 21.76 157 159 84
-0.58 2.33 21.76 148 151 84
-0.58 2.26 21.76 93 98 44
-0.72 2.15 21.81 48 54 16
-0.72 2.08 21.81 54 61 43
-0.72 2.01 21.81 55 64 59
-0.72 1.94 21.81 0 5 10
-0.72 1.87 21.81 0 4 9
-0.72 1.79 21.81 0 10 9
-0.72 1.72 21.81 1 10 5
-0.72 1.65 21.81 1 11 3
-0.49 3.08 21.64 46 51 47
-0.49 3.01 21.64 59 60 54
-0.49 2.94 21.64 94 91 74
-0.49 2.86 21.64 146 146 108
-0.62 2.76 21.70 173 172 116
-0.62 2.69 21.70 168 169 99
-0.62 2.61 21.70 172 173 95
-0.62 2.54 21.70 165 167 84
-0.62 2.47 21.70 171 172 92
-0.62 2.40 21.70 158 161 84
-0.62 2.33 21.70 159 162 93
-0.62 2.26 21.70 111 117 57
-0.62 2.18 21.70 59 66 22
-0.62 2.11 21.70 57 66 39
-0.62 2.04 21.70 59 69 60
-0.75 1.94 21.75 5 15 17
-0.62 1.90 21.70 0 3 9
-0.75 1.79 21.75 0 10 9
-0.75 1.72 21.75 0 11 5
-0.75 1.65 21.75 1 11 2
-0.75 1.58 21.75 1 11 0
-0.75 1.51 21.75 1 11 0
-0.52 3.08 21.58 51 57 55
-0.52 3.01 21.58 59 61 56
-0.52 2.94 21.58 72 73 59
-0.52 2.86 21.58 117 120 89
-0.52 2.79 21.58 164 166 119
-0.66 2.69 21.63 169 172 105
-0.66 2.61 21.63 173 176 99
-0.66 2.54 21.63 163 165 82
-0.66 2.47 21.63 170 172 89
-0.66 2.40 21.63 164 167 90
-0.66 2.33 21.63 165 168 97
-0.66 2.26 21.63 137 142 78
-0.66 2.18 21.63 89 96 44
-0.66 2.11 21.63 66 74 37
-0.66 2.04 21.63 58 67 48
-0.66 1.97 21.63 16 25 24
-0.66 1.90 21.63 0 2 7
-0.79 1.79 21.68 2 11 8
-0.79 1.72 21.68 1 11 3
-0.79 1.65 21.68 1 11 2
-0.79 1.58 21.68 2 10 0
-0.79 1.51 21.68 2 10 0
-0.56 3.08 21.52 50 59 56
-0.56 3.01 21.52 54 63 58
-0.56 2.94 21.52 55 61 49
-0.56 2.86 21.52 87 92 70
-0.56 2.79 21.52 147 151 114
-0.56 2.72 21.52 167 170 113
-0.69 2.61 21.57 177 178 108
-0.69 2.54 21.57 165 168 91
-0.69 2.47 21.57 169 170 92
-0.69 2.40 21.57 168 168 94
-0.69 2.33 21.57 167 168 98
-0.69 2.26 21.57 159 162 95
-0.69 2.18 21.57 121 127 67
-0.69 2.11 21.57 77 85 36
-0.69 2.04 21.57 53 63 29
-0.69 1.97 21.57 22 30 19
-0.69 1.90 21.57 0 3 0
-0.69 1.83 21.57 4 11 4
-0.82 1.72 21.62 4 11 3
-0.82 1.65 21.62 3 10 2
-0.82 1.58 21.62 2 10 0
-0.82 1.51 21.62 1 9 0
-0.60 3.08 21.46 54 64 63
-0.60 3.01 21.46 51 66 61
-0.60 2.94 21.46 48 61 52
-0.60 2.86 21.46 46 58 44
-0.60 2.79 21.46 107 115 91
-0.60 2.72 21.46 142 149 105
-0.60 2.65 21.46 169 173 114
-0.60 2.58 21.46 173 174 106
-0.73 2.47 21.51 172 172 100
-0.73 2.40 21.51 171 168 101
-0.73 2.33 21.51 170 167 100
-0.73 2.26 21.51 167 168 98
-0.73 2.18 21.51 155 158 87
-0.73 2.11 21.51 132 139 72
-0.73 2.04 21.51 93 100 48
-0.73 1.97 21.51 41 48 17
-0.73 1.90 21.51 0 4 0
-0.73 1.83 21.51 4 10 0
-0.73 1.75 21.51 3 9 0
-0.73 1.68 21.51 3 9 0
-0.73 1.61 21.51 5 8 0
-0.73 1.54 21.51 5 8 0
-0.63 2.94 21.40 55 70 49
-0.63 2.86 21.40 58 74 61
-0.63 2.79 21.40 71 88 72
-0.63 2.72 21.40 121 137 110
-0.63 2.65 21.40 147 164 122
-0.63 2.58 21.40 162 176 115
-0.63 2.50 21.40 167 177 108
-0.63 2.43 21.40 168 174 100
-0.76 2.33 21.45 170 171 95
-0.76 2.26 21.45 169 170 90
-0.76 2.18 21.45 170 171 93
-0.76 2.11 21.45 151 152 82
-0.76 2.04 21.45 116 119 64
-0.76 1.97 21.45 58 63 31
-0.76 1.90 21.45 0 4 0
-0.76 1.83 21.45 0 6 0
-0.76 1.75 21.45 6 12 0
-0.76 1.68 21.45 5 10 3
-0.76 1.61 21.45 1 8 1
-0.76 1.54 21.45 0 5 0
-0.67 2.94 21.33 54 67 58
-0.67 2.86 21.33 62 77 74
-0.67 2.79 21.33 60 75 70
-0.67 2.72 21.33 98 113 94
-0.67 2.65 21.33 145 161 125
-0.67 2.58 21.33 159 172 119
-0.67 2.50 21.33 165 174 109
-0.67 2.43 21.33 166 172 100
-0.67 2.36 21.33 170 171 95
-0.80 2.26 21.38 171 173 89
-0.80 2.18 21.38 171 173 90
-0.80 2.11 21.38 160 163 86
-0.80 2.04 21.38 136 141 77
-0.80 1.97 21.38 92 99 55
-0.80 1.90 21.38 0 6 0
-0.80 1.83 21.38 1 6 0
-0.80 1.75 21.38 7 11 0
-0.80 1.68 21.38 3 9 0
-0.80 1.61 21.38 6 11 5
-0.80 1.54 21.38 1 6 0
-0.57 2.97 21.22 53 63 65
-0.70 2.86 21.27 65 78 84
-0.70 2.79 21.27 50 64 67
-0.70 2.72 21.27 70 83 74
-0.70 2.65 21.27 134 148 125
-0.70 2.58 21.27 153 164 124
-0.70 2.50 21.27 165 172 118
-0.70 2.43 21.27 166 172 102
-0.70 2.36 21.27 168 169 91
-0.70 2.29 21.27 173 176 89
-0.70 2.22 21.27 170 173 86
-0.84 2.11 21.32 167 171 87
-0.70 2.07 21.27 155 161 89
-0.84 1.97 21.32 135 143 86
-0.84 1.90 21.32 0 7 0
-0.84 1.83 21.32 2 8 0
-0.84 1.75 21.32 8 12 0
-0.84 1.68 21.32 4 8 0
-0.84 1.61 21.32 8 10 5
-0.84 1.54 21.32 4 6 1
-0.84 1.47 21.32 4 10 0
-0.84 1.40 21.32 4 10 0
-0.61 2.97 21.16 54 63 68
-0.61 2.90 21.16 64 77 83
-0.61 2.83 21.16 52 66 69
-0.74 2.72 21.21 50 65 62
-0.74 2.65 21.21 108 122 107
-0.74 2.58 21.21 141 152 120
-0.74 2.50 21.21 165 173 126
-0.74 2.43 21.21 170 175 111
-0.74 2.36 21.21 168 168 94
-0.74 2.29 21.21 172 174 90
-0.74 2.22 21.21 169 169 83
-0.74 2.14 21.21 168 171 90
-0.74 2.07 21.21 163 167 93
-0.74 2.00 21.21 166 172 108
-0.87 1.90 21.26 8 15 0
-0.87 1.83 21.26 0 7 0
-0.87 1.75 21.26 9 14 0
-0.87 1.68 21.26 9 12 0
-0.87 1.61 21.26 6 9 2
-0.87 1.54 21.26 5 7 2
-0.87 1.47 21.26 3 9 0
-0.87 1.40 21.26 5 11 0
-0.64 2.83 21.09 62 76 76
-0.78 2.72 21.15 50 65 60
-0.78 2.65 21.15 81 94 84
-0.78 2.58 21.15 123 133 109
-0.78 2.50 21.15 162 168 130
-0.78 2.43 21.15 174 179 121
-0.78 2.36 21.15 170 171 101
-0.78 2.29 21.15 172 173 93
-0.78 2.22 21.15 170 169 89
-0.78 2.14 21.15 169 172 95
-0.78 2.07 21.15 164 167 98
-0.78 2.00 21.15 182 187 123
-0.91 1.90 21.20 46 51 0
-0.91 1.83 21.20 1 8 0
-0.91 1.75 21.20 6 11 0
-0.91 1.68 21.20 11 15 0
-0.91 1.61 21.20 5 8 1
-0.91 1.54 21.20 8 10 5
-0.91 1.47 21.20 8 11 4
-0.91 1.40 21.20 7 10 0
-0.91 1.32 21.20 4 10 0
-0.91 1.25 21.20 4 10 0
-0.68 2.83 21.03 68 83 76
-0.81 2.72 21.08 59 74 69
-0.81 2.65 21.08 65 78 71
-0.81 2.58 21.08 99 110 93
-0.81 2.50 21.08 147 154 121
-0.81 2.43 21.08 174 179 125
-0.81 2.36 21.08 174 175 107
-0.81 2.29 21.08 173 174 98
-0.81 2.22 21.08 172 170 95
-0.81 2.14 21.08 171 173 100
-0.81 2.07 21.08 168 171 104
-0.81 2.00 21.08 187 192 125
-0.94 1.90 21.14 102 108 46
-0.94 1.83 21.14 6 14 0
-0.94 1.75 21.14 1 7 0
-0.94 1.68 21.14 6 11 0
-0.94 1.61 21.14 4 7 0
-0.94 1.54 21.14 8 10 5
-0.94 1.47 21.14 4 9 2
-0.94 1.40 21.14 2 8 0
-0.94 1.32 21.14 5 11 0
-0.94 1.25 21.14 5 11 0
-0.72 2.83 20.97 60 75 68
-0.72 2.75 20.97 66 82 79
-0.72 2.68 20.97 64 79 76
-0.72 2.61 20.97 79 89 78
-0.72 2.54 20.97 127 133 107
-0.85 2.43 21.02 167 172 118
-0.85 2.36 21.02 177 178 110
-0.85 2.29 21.02 173 174 96
-0.85 2.22 21.02 172 170 93
-0.85 2.14 21.02 171 171 97
-0.85 2.07 21.02 172 173 103
-0.85 2.00 21.02 182 186 110
-0.85 1.93 21.02 149 157 84
-0.98 1.83 21.07 41 50 0
-0.98 1.75 21.07 3 12 0
-0.98 1.68 21.07 0 6 0
-0.98 1.61 21.07 4 7 0
-0.98 1.54 21.07 6 8 5
-0.98 1.47 21.07 3 8 1
-0.98 1.40 21.07 2 8 0
-0.98 1.32 21.07 4 12 0
-0.98 1.25 21.07 4 12 0
-0.75 2.83 20.91 49 64 59
-0.75 2.75 20.91 69 85 85
-0.75 2.68 20.91 70 84 85
-0.75 2.61 20.91 66 76 68
-0.75 2.54 20.91 111 116 93
-0.75 2.46 20.91 158 165 111
-0.88 2.36 20.96 177 180 109
-0.88 2.29 20.96 173 175 92
-0.88 2.22 20.96 169 168 85
-0.88 2.14 20.96 168 169 91
-0.88 2.07 20.96 171 174 95
-0.88 2.00 20.96 171 176 92
-0.88 1.93 20.96 171 180 99
-1.01 1.83 21.01 81 91 18
-1.01 1.75 21.01 16 25 0
-1.01 1.68 21.01 0 7 0
-1.01 1.61 21.01 3 9 0
-1.01 1.54 21.01 4 9 5
-1.01 1.47 21.01 3 10 3
-1.01 1.40 21.01 5 12 4
-1.01 1.32 21.01 2 13 0
-1.01 1.25 21.01 2 13 0
-0.79 2.83 20.85 57 75 63
-0.79 2.75 20.85 62 82 71
-0.79 2.68 20.85 67 84 76
-0.79 2.61 20.85 68 84 74
-0.79 2.54 20.85 79 90 74
-0.79 2.46 20.85 137 144 111
-0.92 2.36 20.90 175 179 129
-0.92 2.29 20.90 170 172 99
-0.92 2.22 20.90 169 171 87
-0.92 2.14 20.90 173 173 83
-0.92 2.07 20.90 173 173 85
-0.92 2.00 20.90 171 174 95
-0.92 1.93 20.90 185 188 109
-0.92 1.86 20.90 126 133 40
-1.05 1.75 20.95 63 71 0
-1.05 1.68 20.95 3 8 0
-1.05 1.61 20.95 1 8 0
-1.05 1.54 20.95 0 5 0
-1.05 1.47 20.95 0 10 1
-1.05 1.40 20.95 1 11 0
-1.05 1.32 20.95 3 11 0
-1.05 1.25 20.95 3 11 0
-0.82 2.83 20.78 58 75 65
-0.82 2.75 20.78 61 81 70
-0.82 2.68 20.78 63 80 72
-0.82 2.61 20.78 61 77 67
-0.82 2.54 20.78 68 79 63
-0.82 2.46 20.78 110 117 86
-0.82 2.39 20.78 162 165 118
-0.96 2.29 20.84 174 175 109
-0.96 2.22 20.84 171 172 94
-0.96 2.14 20.84 174 174 88
-0.96 2.07 20.84 173 172 89
-0.96 2.00 20.84 172 173 93
-0.96 1.93 20.84 179 180 100
-0.96 1.86 20.84 146 153 60
-1.09 1.75 20.89 95 103 18
-1.09 1.68 20.89 29 35 0
-1.09 1.61 20.89 4 9 0
-1.09 1.54 20.89 5 11 0
-1.09 1.47 20.89 3 14 0
-1.09 1.40 20.89 2 13 0
-1.09 1.32 20.89 3 12 0
-1.09 1.25 20.89 3 12 0
-0.86 2.68 20.72 61 76 71
-0.86 2.61 20.72 57 73 63
-0.86 2.54 20.72 61 72 58
-0.86 2.46 20.72 79 88 61
-0.86 2.39 20.72 142 147 107
-0.99 2.29 20.77 175 179 120
-0.99 2.07 20.77 171 173 90
-0.99 2.00 20.77 174 175 95
-0.99 1.93 20.77 173 175 92
-0.99 1.86 20.77 162 167 75
-0.99 1.78 20.77 130 135 51
-1.12 1.68 20.83 69 74 7
-1.12 1.61 20.83 1 8 0
-1.12 1.54 20.83 7 15 0
-1.12 1.47 20.83 6 15 0
-1.12 1.40 20.83 2 11 0
-1.12 1.32 20.83 4 11 0
-1.12 1.25 20.83 4 11 0
-1.12 1.18 20.83 3 10 0
-0.99 1.14 20.77 3 9 0
-0.77 2.72 20.60 60 75 70
-0.77 2.64 20.60 61 74 67
-0.90 2.54 20.66 61 73 61
-0.90 2.46 20.66 63 73 49
-0.90 2.39 20.66 120 127 94
-0.90 2.32 20.66 164 170 122
-1.03 2.07 20.71 169 170 94
-1.03 2.00 20.71 176 175 93
-1.03 1.93 20.71 173 172 89
-1.03 1.86 20.71 162 165 78
-1.03 1.78 20.71 148 151 70
-1.16 1.68 20.76 107 110 41
-1.16 1.61 20.76 0 7 0
-1.16 1.54 20.76 4 11 0
-1.16 1.47 20.76 4 12 0
-1.16 1.40 20.76 4 11 0
-1.16 1.32 20.76 6 10 0
-1.16 1.25 20.76 6 10 0
-1.03 1.21 20.71 5 8 0
-1.03 1.14 20.71 5 8 0
-0.80 2.72 20.54 62 74 72
-0.80 2.64 20.54 65 76 72
-0.80 2.57 20.54 64 74 65
-0.93 2.46 20.60 58 69 53
-1.06 2.07 20.65 169 169 99
-1.06 2.00 20.65 174 173 93
-1.06 1.93 20.65 174 172 89
-1.06 1.86 20.65 163 162 80
-1.06 1.78 20.65 154 155 79
-1.06 1.71 20.65 137 139 66
-1.19 1.61 20.70 5 12 0
-1.19 1.54 20.70 0 7 0
-1.19 1.47 20.70 3 9 0
-1.06 1.43 20.65 9 13 0
-1.06 1.35 20.65 6 9 0
-1.06 1.28 20.65 6 9 2
-1.06 1.21 20.65 7 8 2
-1.06 1.14 20.65 6 7 1
-1.06 1.07 20.65 5 8 0
-1.06 0.99 20.65 6 9 0
-0.84 2.72 20.48 62 72 71
-0.84 2.64 20.48 65 76 72
-0.97 2.54 20.53 61 72 64
-0.97 2.46 20.53 62 74 64
-1.10 2.07 20.59 174 174 114
-1.10 2.00 20.59 176 173 96
-1.10 1.93 20.59 179 174 92
-1.10 1.86 20.59 169 163 85
-1.10 1.78 20.59 159 156 79
-1.10 1.71 20.59 152 153 75
-1.10 1.64 20.59 31 38 0
-1.10 1.57 20.59 1 8 0
-1.10 1.50 20.59 0 6 0
-1.10 1.43 20.59 10 13 0
-1.10 1.35 20.59 8 10 0
-1.10 1.28 20.59 7 8 3
-1.10 1.21 20.59 7 8 3
-1.10 1.14 20.59 7 8 3
-1.10 1.07 20.59 6 9 0
-1.10 0.99 20.59 6 9 2
-1.00 2.54 20.47 62 73 67
-1.00 2.46 20.47 69 82 75
-1.00 2.39 20.47 62 73 65
-1.00 2.32 20.47 94 104 95
-1.00 2.25 20.47 142 146 129
-1.14 2.14 20.52 164 166 129
-1.14 2.07 20.52 179 176 123
-1.14 2.00 20.52 176 172 98
-1.14 1.93 20.52 182 175 94
-1.14 1.86 20.52 172 167 85
-1.14 1.78 20.52 158 156 73
-1.14 1.71 20.52 157 157 69
-1.14 1.64 20.52 75 82 2
-1.14 1.57 20.52 12 19 0
-1.14 1.50 20.52 0 8 0
-1.14 1.43 20.52 6 10 0
-1.14 1.35 20.52 9 10 0
-1.14 1.28 20.52 9 8 3
-1.14 1.21 20.52 9 8 3
-1.14 1.14 20.52 8 7 2
-1.14 1.07 20.52 6 9 0
-1.14 0.99 20.52 6 9 0
-1.04 2.54 20.41 66 77 71
-1.04 2.46 20.41 72 87 82
-1.04 2.39 20.41 54 66 64
-1.04 2.32 20.41 77 88 84
-1.04 2.25 20.41 126 132 120
-1.04 2.18 20.41 152 152 124
-1.17 2.07 20.46 176 172 124
-1.17 2.00 20.46 174 170 99
-1.17 1.93 20.46 180 173 92
-1.17 1.86 20.46 173 167 81
-1.17 1.78 20.46 159 155 66
-1.17 1.71 20.46 158 160 61
-1.17 1.64 20.46 111 120 29
-1.17 1.57 20.46 27 35 0
-1.17 1.50 20.46 2 9 0
-1.17 1.43 20.46 5 9 0
-1.17 1.35 20.46 10 11 0
-1.17 1.28 20.46 9 9 0
-1.17 1.21 20.46 9 9 0
-1.17 1.14 20.46 9 9 0
-1.17 1.07 20.46 8 10 0
-1.17 0.99 20.46 8 10 0
-1.08 2.54 20.35 64 72 75
-1.08 2.46 20.35 76 85 84
-1.08 2.39 20.35 60 66 66
-1.08 2.32 20.35 68 74 74
-1.08 2.25 20.35 106 109 102
-1.08 2.18 20.35 143 145 124
-1.08 2.10 20.35 168 169 127
-1.08 2.03 20.35 177 180 109
-1.08 1.96 20.35 172 176 91
-1.08 1.89 20.35 170 172 89
-1.21 1.78 20.40 153 156 69
-1.21 1.71 20.40 157 162 62
-1.21 1.64 20.40 146 150 55
-1.21 1.57 20.40 79 84 0
-1.21 1.50 20.40 17 25 0
-1.21 1.43 20.40 5 14 0
-1.21 1.35 20.40 7 13 0
-1.21 1.28 20.40 9 12 3
-1.21 1.21 20.40 5 10 4
-1.21 1.14 20.40 4 9 3
-1.21 1.07 20.40 8 12 0
-1.21 0.99 20.40 7 10 0
-1.21 0.92 20.40 5 7 0
-1.21 0.85 20.40 9 10 0
-1.11 2.54 20.28 67 75 78
-1.11 2.46 20.28 67 76 75
-1.11 2.39 20.28 63 72 71
-1.11 2.32 20.28 69 74 77
-1.11 2.25 20.28 83 88 84
-1.11 2.18 20.28 130 133 114
-1.11 2.10 20.28 159 161 122
-1.11 2.03 20.28 176 179 112
-1.11 1.96 20.28 172 175 94
-1.11 1.89 20.28 175 176 98
-1.11 1.82 20.28 157 159 75
-1.11 1.74 20.28 159 163 68
-1.24 1.64 20.34 161 165 71
-1.24 1.57 20.34 110 115 21
-1.24 1.50 20.34 42 49 0
-1.24 1.43 20.34 4 13 0
-1.24 1.35 20.34 7 12 0
-1.24 1.28 20.34 10 12 0
-1.24 1.21 20.34 8 13 7
-1.24 1.14 20.34 7 12 6
-1.24 1.07 20.34 9 12 1
-1.24 0.99 20.34 7 9 0
-1.24 0.92 20.34 5 7 0
-1.24 0.85 20.34 7 7 0
-1.02 2.43 20.17 70 79 78
-1.02 2.35 20.17 69 78 77
-1.15 2.25 20.22 62 67 63
-1.15 2.18 20.22 112 114 100
-1.15 2.10 20.22 150 151 119
-1.15 2.03 20.22 173 177 116
-1.15 1.96 20.22 170 172 99
-1.15 1.89 20.22 174 176 103
-1.15 1.82 20.22 159 160 82
-1.15 1.74 20.22 161 161 71
-1.15 1.67 20.22 169 173 79
-1.15 1.60 20.22 142 145 54
-1.28 1.50 20.28 79 86 0
-1.28 1.43 20.28 19 26 0
-1.28 1.35 20.28 2 8 0
-1.28 1.28 20.28 5 9 0
-1.28 1.21 20.28 7 13 3
-1.28 1.14 20.28 8 13 7
-1.28 1.07 20.28 8 12 0
-1.28 0.99 20.28 5 9 0
-1.28 0.92 20.28 6 8 0
-1.28 0.85 20.28 8 10 0
-1.06 2.43 20.10 73 84 80
-1.06 2.35 20.10 67 76 75
-1.06 2.28 20.10 55 61 59
-1.18 2.18 20.16 88 91 80
-1.18 2.10 20.16 133 136 109
-1.18 2.03 20.16 165 169 118
-1.18 1.96 20.16 167 169 106
-1.18 1.89 20.16 171 171 107
-1.18 1.82 20.16 160 160 90
-1.18 1.74 20.16 163 163 77
-1.18 1.67 20.16 168 168 78
-1.18 1.60 20.16 156 159 68
-1.18 1.53 20.16 114 119 29
-1.18 1.46 20.16 52 59 0
-1.31 1.35 20.21 3 8 0
-1.31 1.28 20.21 3 7 0
-1.31 1.21 20.21 7 11 0
-1.31 1.14 20.21 10 13 4
-1.31 1.07 20.21 6 9 0
-1.31 0.99 20.21 3 6 0
-1.31 0.92 20.21 7 8 0
-1.44 0.82 20.27 10 11 5
-1.09 2.28 20.04 63 72 71
-1.09 2.21 20.04 65 70 63
-1.09 2.14 20.04 108 111 92
-1.09 2.06 20.04 148 153 112
-1.22 1.96 20.10 168 171 118
-1.22 1.89 20.10 173 174 117
