ply
format ascii 1.0
element vertex 1639
property float x
property float y
property float z
property uchar red
property uchar green
property uchar blue
end_header
11.68 -1.57 -1.86 54 118 162
11.68 -1.68 -1.86 53 119 171
11.68 -1.79 -1.86 54 119 173
11.68 -1.90 -1.86 52 117 171
11.68 -2.02 -1.86 50 115 171
11.40 -2.15 -1.65 51 116 172
11.40 -2.26 -1.65 57 120 174
11.40 -2.37 -1.65 61 124 178
11.40 -2.48 -1.65 60 126 176
11.40 -2.59 -1.65 55 121 171
11.40 -2.70 -1.65 50 116 164
11.15 -2.84 -1.46 49 115 163
11.15 -2.95 -1.46 52 118 168
11.15 -3.06 -1.46 56 122 174
11.15 -3.16 -1.46 57 123 175
11.15 -3.27 -1.46 57 122 176
10.89 -3.40 -1.27 54 117 168
10.89 -3.51 -1.27 55 121 169
10.89 -3.62 -1.27 49 122 165
10.89 -3.73 -1.27 47 122 164
10.61 -3.86 -1.06 49 123 168
10.36 -3.98 -0.87 48 120 168
10.36 -4.09 -0.87 45 118 163
10.36 -4.20 -0.87 47 123 159
10.36 -4.31 -0.87 47 125 161
10.36 -4.41 -0.87 45 124 165
10.10 -4.54 -0.68 49 126 168
10.10 -4.64 -0.68 67 134 177
10.10 -4.75 -0.68 88 146 183
10.10 -4.86 -0.68 94 142 162
10.10 -4.97 -0.68 84 121 129
10.05 20.21 -0.78 65 64 60
10.30 20.24 -0.97 77 76 72
10.56 20.27 -1.16 124 123 121
10.84 20.32 -1.37 154 153 151
10.84 20.21 -1.37 156 154 155
10.84 20.10 -1.37 155 154 152
10.84 19.99 -1.37 148 148 140
10.84 19.88 -1.37 153 153 143
11.09 19.91 -1.56 154 154 144
11.09 19.80 -1.56 151 151 141
10.84 19.56 -1.37 151 151 141
10.84 19.45 -1.37 154 154 144
10.84 19.34 -1.37 148 148 138
10.84 19.23 -1.37 152 152 142
10.84 19.12 -1.37 152 152 142
10.84 19.01 -1.37 155 152 143
10.84 18.90 -1.37 156 153 144
10.84 18.79 -1.37 157 154 145
10.84 18.68 -1.37 157 154 145
10.84 18.58 -1.37 157 154 145
10.84 18.47 -1.37 157 154 145
10.84 18.36 -1.37 158 155 148
10.84 18.25 -1.37 159 156 149
10.84 18.14 -1.37 157 157 149
10.84 18.03 -1.37 154 154 146
10.84 17.92 -1.37 153 153 145
10.84 17.81 -1.37 153 153 145
10.84 17.71 -1.37 153 154 146
11.09 17.72 -1.56 152 153 145
11.09 17.61 -1.56 153 154 146
11.09 17.50 -1.56 154 155 147
10.84 17.27 -1.37 156 157 149
10.84 17.16 -1.37 158 159 151
10.84 17.05 -1.37 158 159 151
10.84 16.94 -1.37 158 159 151
10.84 16.83 -1.37 156 155 150
10.84 16.73 -1.37 156 156 148
10.84 16.62 -1.37 156 156 148
10.84 16.51 -1.37 157 157 149
10.84 16.40 -1.37 157 157 149
10.84 16.29 -1.37 158 158 150
10.84 16.18 -1.37 158 158 150
10.84 16.07 -1.37 157 158 150
10.84 15.96 -1.37 157 158 150
10.84 15.86 -1.37 158 159 151
10.84 15.75 -1.37 158 159 151
10.84 15.64 -1.37 157 160 151
10.84 15.53 -1.37 157 160 151
11.09 15.53 -1.56 156 159 150
10.84 15.31 -1.37 157 160 151
10.84 15.20 -1.37 158 161 152
10.84 15.09 -1.37 159 162 153
10.84 14.99 -1.37 157 160 149
10.84 14.88 -1.37 158 161 150
10.84 14.77 -1.37 159 162 151
10.84 14.66 -1.37 160 163 154
10.84 14.55 -1.37 162 163 155
10.84 14.44 -1.37 163 164 158
10.84 14.33 -1.37 163 164 159
10.84 14.22 -1.37 161 162 157
10.84 14.11 -1.37 161 162 157
10.84 14.01 -1.37 161 162 157
10.84 13.90 -1.37 160 161 156
10.84 13.79 -1.37 160 161 156
10.84 13.68 -1.37 160 161 156
10.84 13.57 -1.37 161 162 157
10.84 13.46 -1.37 162 163 158
10.84 13.35 -1.37 162 163 155
10.84 13.24 -1.37 162 163 155
10.84 13.14 -1.37 164 165 157
10.84 13.03 -1.37 164 165 157
10.84 12.92 -1.37 164 165 157
10.84 12.81 -1.37 164 165 157
10.84 12.70 -1.37 163 164 158
10.84 12.37 -1.37 163 164 156
10.84 12.26 -1.37 164 165 157
10.84 12.16 -1.37 164 165 157
10.84 12.05 -1.37 165 167 156
10.84 11.94 -1.37 165 167 156
10.84 11.83 -1.37 165 167 156
10.84 11.72 -1.37 165 167 156
10.84 11.61 -1.37 161 167 157
10.84 11.50 -1.37 161 167 157
10.84 11.39 -1.37 161 167 157
10.84 11.29 -1.37 162 167 160
10.84 11.18 -1.37 162 167 160
10.84 11.07 -1.37 162 167 161
10.84 10.96 -1.37 162 167 161
10.84 10.85 -1.37 163 168 162
10.84 10.74 -1.37 162 167 161
10.84 10.63 -1.37 162 167 161
10.84 10.52 -1.37 162 167 161
10.84 10.42 -1.37 163 168 162
10.84 10.31 -1.37 162 167 161
10.84 10.20 -1.37 161 166 159
10.84 10.09 -1.37 160 165 158
10.84 9.98 -1.37 164 167 158
10.84 9.87 -1.37 164 167 158
10.84 9.76 -1.37 162 168 158
10.84 9.65 -1.37 163 169 159
10.84 9.54 -1.37 163 169 159
10.84 9.44 -1.37 162 168 158
10.84 9.33 -1.37 161 167 157
10.84 9.22 -1.37 159 165 155
10.84 9.11 -1.37 162 169 161
10.84 9.00 -1.37 162 169 162
10.84 8.89 -1.37 163 170 163
10.84 8.78 -1.37 161 170 165
10.84 8.67 -1.37 162 171 166
10.84 8.57 -1.37 163 172 169
10.84 8.46 -1.37 163 172 169
10.84 8.35 -1.37 163 172 167
10.84 8.24 -1.37 164 173 168
10.84 8.13 -1.37 165 174 169
10.84 8.02 -1.37 165 174 169
10.84 7.91 -1.37 163 174 168
10.84 7.80 -1.37 163 174 168
10.84 7.70 -1.37 164 175 169
10.84 7.59 -1.37 165 176 170
10.84 7.48 -1.37 165 175 167
10.84 7.37 -1.37 165 175 167
10.84 7.26 -1.37 166 176 168
10.56 7.07 -1.16 165 175 167
10.56 6.96 -1.16 167 174 167
10.56 6.85 -1.16 167 174 167
10.56 6.75 -1.16 168 175 168
10.56 6.64 -1.16 169 176 169
10.56 6.53 -1.16 168 178 170
10.56 6.42 -1.16 168 178 170
10.56 6.31 -1.16 167 177 169
10.56 6.20 -1.16 167 177 169
10.56 6.10 -1.16 167 177 169
10.84 6.06 -1.37 166 177 169
10.84 5.95 -1.37 167 178 170
10.84 5.85 -1.37 166 177 171
10.84 5.74 -1.37 165 176 170
10.84 5.63 -1.37 165 176 170
10.84 5.52 -1.37 166 177 171
10.84 5.41 -1.37 167 178 172
10.84 5.30 -1.37 168 179 173
10.84 5.19 -1.37 168 179 173
10.84 5.08 -1.37 168 179 173
10.84 4.97 -1.37 166 177 171
10.84 4.87 -1.37 166 177 171
10.84 4.76 -1.37 168 179 173
10.84 4.65 -1.37 169 180 174
10.84 4.54 -1.37 170 179 174
10.84 4.43 -1.37 170 179 174
10.84 4.32 -1.37 169 178 173
10.56 4.15 -1.16 168 177 172
10.56 4.04 -1.16 169 178 175
10.84 4.00 -1.37 169 178 175
10.84 3.89 -1.37 168 179 175
10.84 3.78 -1.37 166 177 173
10.84 3.67 -1.37 155 167 163
10.84 3.56 -1.37 148 163 160
10.56 3.39 -1.16 144 158 158
10.56 3.28 -1.16 133 152 150
-5.05 -0.10 10.52 125 143 143
-5.05 -0.17 10.52 118 139 140
-5.05 -0.25 10.52 117 138 139
-5.05 -0.32 10.52 111 132 135
-5.05 -0.40 10.52 110 129 133
-5.05 -0.47 10.52 125 144 150
-5.05 -0.55 10.52 150 165 172
-5.05 -0.62 10.52 167 180 188
-5.05 -0.70 10.52 177 186 195
-5.05 -0.77 10.52 178 187 192
10.30 2.04 -0.97 171 179 182
10.30 1.94 -0.97 167 177 178
10.30 1.83 -0.97 171 181 180
10.30 1.72 -0.97 171 186 179
-4.80 -1.10 10.33 171 184 177
-4.80 -1.17 10.33 169 181 177
12.16 0.83 -2.36 163 179 176
12.16 0.72 -2.36 162 178 177
12.16 0.61 -2.36 159 177 177
12.16 0.50 -2.36 158 176 178
12.16 0.39 -2.36 157 177 178
12.16 0.27 -2.36 158 176 176
12.16 0.16 -2.36 159 176 170
12.16 0.05 -2.36 161 177 167
12.16 -0.06 -2.36 163 179 169
12.16 -0.17 -2.36 168 181 172
11.91 -0.32 -2.17 173 186 176
11.91 -0.43 -2.17 180 192 182
11.91 -0.54 -2.17 186 197 189
11.91 -0.65 -2.17 188 201 194
11.91 -0.76 -2.17 186 201 196
11.91 -0.87 -2.17 172 192 191
11.91 -0.99 -2.17 146 174 177
11.91 -1.10 -2.17 115 152 161
11.91 -1.21 -2.17 81 127 143
11.63 -1.35 -1.96 49 103 127
11.63 -1.46 -1.96 13 78 110
11.63 -1.57 -1.96 15 83 120
11.63 -1.68 -1.96 22 91 132
11.63 -1.79 -1.96 30 102 142
11.63 -1.90 -1.96 37 108 152
11.63 -2.02 -1.96 42 113 157
11.63 -2.13 -1.96 45 116 162
11.35 -2.26 -1.75 48 121 164
11.35 -2.37 -1.75 51 124 167
11.35 -2.48 -1.75 48 123 165
11.35 -2.59 -1.75 52 127 169
11.35 -2.70 -1.75 51 130 171
11.35 -2.81 -1.75 50 129 172
11.09 -2.95 -1.56 44 125 170
11.09 -3.06 -1.56 43 123 172
11.09 -3.16 -1.56 44 126 176
11.09 -3.27 -1.56 50 127 179
11.09 -3.38 -1.56 53 120 172
10.84 -3.51 -1.37 55 121 169
10.84 -3.62 -1.37 48 119 161
10.84 -3.73 -1.37 44 117 158
10.56 -3.86 -1.16 45 120 162
10.56 -3.97 -1.16 45 118 163
10.30 -4.09 -0.97 45 116 160
10.30 -4.20 -0.97 48 122 157
10.30 -4.31 -0.97 50 124 159
10.30 -4.41 -0.97 43 121 160
10.05 -4.54 -0.78 50 123 164
10.05 -4.64 -0.78 70 133 176
10.05 -4.75 -0.78 90 144 180
10.05 -4.86 -0.78 95 138 157
10.05 -4.97 -0.78 77 110 119
9.99 20.42 -0.87 56 55 51
9.99 20.31 -0.87 53 52 48
9.99 20.21 -0.87 66 65 63
9.99 20.10 -0.87 109 108 106
10.25 20.13 -1.06 150 148 149
10.50 20.16 -1.25 154 152 153
10.78 20.21 -1.46 145 145 145
10.78 20.10 -1.46 151 151 149
10.78 19.99 -1.46 151 152 144
10.78 19.88 -1.46 147 149 138
10.78 19.77 -1.46 145 147 136
10.78 19.66 -1.46 148 150 139
10.78 19.56 -1.46 152 154 143
10.78 19.45 -1.46 152 152 142
10.78 19.34 -1.46 151 151 141
10.78 19.23 -1.46 152 152 142
10.50 18.97 -1.25 153 153 143
10.50 18.86 -1.25 154 154 144
10.50 18.76 -1.25 155 155 145
10.50 18.65 -1.25 156 156 146
10.50 18.54 -1.25 156 156 146
10.50 18.43 -1.25 155 155 145
10.78 18.47 -1.46 155 155 145
10.78 18.36 -1.46 155 155 145
10.78 18.25 -1.46 157 157 147
10.78 18.14 -1.46 157 157 147
10.78 18.03 -1.46 155 155 145
10.78 17.92 -1.46 153 154 146
10.78 17.81 -1.46 153 154 146
10.78 17.71 -1.46 153 156 147
10.78 17.60 -1.46 152 155 146
10.78 17.49 -1.46 153 156 147
10.78 17.38 -1.46 154 157 148
10.78 17.27 -1.46 155 158 151
10.78 17.16 -1.46 157 160 153
10.78 17.05 -1.46 158 159 153
10.78 16.94 -1.46 157 158 152
10.78 16.83 -1.46 156 157 151
10.78 16.73 -1.46 156 156 148
10.78 16.62 -1.46 156 156 148
10.78 16.51 -1.46 157 157 149
10.78 16.40 -1.46 158 158 150
10.78 16.29 -1.46 158 158 150
10.78 16.18 -1.46 159 159 151
10.78 16.07 -1.46 158 159 151
10.78 15.96 -1.46 158 159 151
10.78 15.86 -1.46 157 158 150
10.78 15.75 -1.46 157 158 150
10.78 15.64 -1.46 157 160 151
10.78 15.53 -1.46 157 160 151
10.78 15.42 -1.46 157 160 151
10.78 15.31 -1.46 157 160 151
10.78 15.20 -1.46 155 161 151
10.78 15.09 -1.46 156 162 152
10.50 14.86 -1.25 157 160 151
10.50 14.75 -1.25 158 161 152
10.50 14.64 -1.25 158 161 152
10.50 14.54 -1.25 159 162 153
10.50 14.43 -1.25 160 163 156
10.50 14.32 -1.25 161 164 157
10.50 14.21 -1.25 162 163 158
10.50 14.10 -1.25 162 162 160
10.50 13.99 -1.25 161 161 159
10.78 14.01 -1.46 161 161 159
10.78 13.90 -1.46 161 161 159
10.78 13.79 -1.46 162 161 159
10.78 13.68 -1.46 162 161 159
10.50 13.45 -1.25 162 161 157
10.50 13.35 -1.25 161 160 156
10.50 13.24 -1.25 162 163 157
10.50 13.13 -1.25 162 163 157
10.50 13.02 -1.25 163 164 158
10.50 12.91 -1.25 164 165 159
10.50 12.80 -1.25 164 165 160
10.50 12.70 -1.25 164 165 160
10.50 12.59 -1.25 163 164 159
10.78 12.59 -1.46 163 164 159
10.78 12.48 -1.46 162 163 157
10.78 12.37 -1.46 163 164 158
10.78 12.26 -1.46 164 165 159
10.78 12.16 -1.46 164 165 159
10.78 12.05 -1.46 165 166 158
10.78 11.94 -1.46 165 166 158
10.78 11.83 -1.46 165 167 156
10.50 11.61 -1.25 165 167 156
10.50 11.51 -1.25 161 167 155
10.78 11.50 -1.46 161 167 157
10.78 11.39 -1.46 161 167 157
10.78 11.29 -1.46 161 166 159
10.78 11.18 -1.46 161 166 159
10.78 11.07 -1.46 161 166 160
10.78 10.96 -1.46 161 166 160
10.50 10.75 -1.25 162 167 163
10.50 10.64 -1.25 162 167 163
10.78 10.63 -1.46 162 167 163
10.78 10.52 -1.46 162 167 163
10.78 10.42 -1.46 163 168 164
10.78 10.31 -1.46 162 167 163
10.78 10.20 -1.46 161 166 162
10.78 10.09 -1.46 160 165 159
10.78 9.98 -1.46 162 169 161
10.78 9.87 -1.46 161 169 158
10.78 9.76 -1.46 161 169 158
10.78 9.65 -1.46 161 169 158
10.78 9.33 -1.46 161 169 158
10.78 9.22 -1.46 159 167 156
10.78 9.11 -1.46 163 170 162
10.50 8.91 -1.25 163 170 163
10.50 8.80 -1.25 163 169 165
10.50 8.69 -1.25 163 169 165
10.50 8.58 -1.25 164 170 168
10.50 8.48 -1.25 164 170 168
10.50 8.37 -1.25 164 170 168
10.50 8.26 -1.25 163 172 169
10.50 8.15 -1.25 164 173 170
10.50 8.04 -1.25 164 173 170
10.50 7.94 -1.25 164 173 170
10.50 7.83 -1.25 163 174 168
10.50 7.72 -1.25 163 174 168
10.50 7.61 -1.25 163 174 168
10.50 7.50 -1.25 164 175 169
10.50 7.39 -1.25 163 174 168
10.50 7.29 -1.25 164 175 169
10.50 7.18 -1.25 165 174 169
10.50 7.07 -1.25 164 173 168
10.50 6.96 -1.25 166 172 168
10.50 6.85 -1.25 167 173 169
10.50 6.75 -1.25 169 174 168
10.50 6.64 -1.25 170 175 169
10.50 6.53 -1.25 168 178 170
10.50 6.42 -1.25 168 178 170
10.50 6.31 -1.25 168 178 170
10.50 6.20 -1.25 168 178 170
10.50 6.10 -1.25 168 178 170
10.50 5.99 -1.25 168 177 172
10.50 5.88 -1.25 168 177 172
10.50 5.77 -1.25 165 176 170
10.78 5.74 -1.46 165 176 170
10.78 5.63 -1.46 164 175 169
10.78 5.52 -1.46 165 176 170
10.78 5.41 -1.46 166 177 171
10.78 5.30 -1.46 167 178 172
10.78 5.19 -1.46 168 179 175
10.78 5.08 -1.46 168 179 175
10.78 4.97 -1.46 166 177 171
10.78 4.87 -1.46 167 178 172
10.78 4.76 -1.46 168 177 172
10.78 4.65 -1.46 169 178 173
10.50 4.47 -1.25 169 178 175
10.50 4.36 -1.25 169 178 175
10.50 4.26 -1.25 169 178 175
10.50 4.15 -1.25 169 178 175
10.50 4.04 -1.25 170 179 176
10.50 3.93 -1.25 170 179 176
10.50 3.82 -1.25 168 179 175
10.78 3.78 -1.46 167 178 174
10.78 3.67 -1.46 159 170 166
10.50 3.50 -1.25 152 164 160
10.50 3.39 -1.25 148 160 158
10.50 3.28 -1.25 148 158 159
10.25 3.12 -1.06 142 152 154
10.25 3.01 -1.06 127 141 141
10.25 2.91 -1.06 123 137 137
10.25 2.80 -1.06 141 157 154
10.25 2.69 -1.06 167 183 180
10.25 2.58 -1.06 177 193 190
10.25 2.48 -1.06 172 187 184
10.25 2.37 -1.06 176 188 188
10.25 2.26 -1.06 170 180 181
10.25 2.15 -1.06 166 174 176
10.25 2.04 -1.06 168 176 178
10.25 1.94 -1.06 171 180 179
10.25 1.83 -1.06 170 179 178
10.25 1.72 -1.06 168 179 173
10.25 1.61 -1.06 169 178 173
9.99 1.46 -0.87 175 182 174
10.25 1.40 -1.06 174 179 172
10.25 1.29 -1.06 176 183 175
10.25 1.18 -1.06 172 179 171
10.25 1.08 -1.06 165 175 166
10.78 1.06 -1.46 171 183 173
10.78 0.95 -1.46 174 186 176
12.11 0.83 -2.46 169 180 172
12.11 0.72 -2.46 170 181 173
12.11 0.61 -2.46 170 181 173
12.11 0.50 -2.46 168 179 171
12.11 0.39 -2.46 166 177 171
12.11 0.27 -2.46 166 175 170
12.11 0.16 -2.46 165 174 169
12.11 0.05 -2.46 165 174 171
12.11 -0.06 -2.46 164 174 175
11.85 -0.21 -2.27 160 174 177
11.85 -0.32 -2.27 158 173 178
11.85 -0.43 -2.27 154 171 178
11.57 -0.58 -2.05 154 169 176
11.57 -0.69 -2.05 155 168 174
11.57 -0.80 -2.05 159 170 174
11.57 -0.91 -2.05 163 171 173
11.57 -1.02 -2.05 171 177 177
11.85 -1.10 -2.27 178 182 181
11.57 -1.24 -2.05 186 188 185
11.57 -1.35 -2.05 192 194 191
11.57 -1.46 -2.05 196 200 199
11.57 -1.57 -2.05 170 176 174
11.57 -1.68 -2.05 152 160 162
11.57 -1.79 -2.05 124 134 136
11.57 -1.90 -2.05 96 105 112
11.57 -2.02 -2.05 71 84 93
11.57 -2.13 -2.05 58 72 85
11.29 -2.26 -1.84 52 70 84
11.29 -2.37 -1.84 49 70 87
11.29 -2.48 -1.84 42 68 83
11.29 -2.59 -1.84 51 80 98
11.29 -2.70 -1.84 64 96 117
11.29 -2.81 -1.84 72 108 132
11.04 -2.95 -1.65 73 112 141
11.04 -3.06 -1.65 73 114 146
11.04 -3.16 -1.65 70 114 149
11.04 -3.27 -1.65 67 116 157
11.04 -3.38 -1.65 54 112 158
10.78 -3.51 -1.46 50 116 164
10.78 -3.62 -1.46 45 116 158
10.78 -3.73 -1.46 43 116 157
10.50 -3.86 -1.25 46 119 162
10.50 -3.97 -1.25 46 117 163
10.25 -4.09 -1.06 44 115 157
10.25 -4.20 -1.06 48 121 154
10.25 -4.31 -1.06 51 124 157
10.25 -4.41 -1.06 43 118 157
9.99 -4.54 -0.87 53 122 164
9.99 -4.64 -0.87 73 135 176
9.99 -4.75 -0.87 94 144 181
9.99 -4.86 -0.87 96 134 155
9.99 -4.97 -0.87 71 99 110
9.94 20.42 -0.96 68 67 63
9.94 20.31 -0.96 83 82 78
9.94 20.21 -0.96 130 129 127
9.94 20.10 -0.96 165 164 162
10.19 20.13 -1.15 157 155 156
10.45 20.16 -1.34 150 148 149
10.45 20.05 -1.34 153 153 155
10.73 20.10 -1.56 147 147 147
10.73 19.99 -1.56 146 147 139
10.73 19.88 -1.56 151 153 142
10.73 19.77 -1.56 153 155 144
10.73 19.66 -1.56 151 153 142
10.73 19.56 -1.56 148 150 139
10.73 19.45 -1.56 153 155 144
10.73 19.34 -1.56 156 158 147
10.45 19.08 -1.34 152 154 143
10.45 18.97 -1.34 153 155 144
10.45 18.86 -1.34 155 155 145
10.45 18.76 -1.34 156 156 146
10.45 18.65 -1.34 157 157 147
10.45 18.54 -1.34 156 156 146
10.45 18.43 -1.34 155 155 145
10.45 18.32 -1.34 154 154 144
10.73 18.36 -1.56 153 153 143
10.73 18.25 -1.56 156 156 146
10.73 18.14 -1.56 156 158 147
10.73 18.03 -1.56 155 157 146
10.73 17.92 -1.56 153 156 145
10.73 17.81 -1.56 155 158 147
10.73 17.71 -1.56 154 160 150
10.73 17.60 -1.56 153 159 149
10.73 17.49 -1.56 152 158 148
10.73 17.38 -1.56 152 158 148
10.45 17.13 -1.34 153 158 151
10.45 17.02 -1.34 154 159 152
10.45 16.92 -1.34 156 159 152
10.45 16.81 -1.34 156 159 152
10.45 16.70 -1.34 157 156 152
10.45 16.59 -1.34 157 157 149
10.45 16.48 -1.34 160 157 150
10.45 16.38 -1.34 158 158 150
10.45 16.27 -1.34 159 159 151
10.45 16.16 -1.34 159 159 151
10.45 16.05 -1.34 160 160 152
10.45 15.94 -1.34 159 160 152
10.45 15.83 -1.34 159 160 152
10.45 15.73 -1.34 155 156 148
10.45 15.62 -1.34 156 157 149
10.45 15.51 -1.34 157 160 151
10.45 15.40 -1.34 158 161 152
10.45 15.29 -1.34 158 161 152
10.73 15.31 -1.56 157 160 151
10.45 15.08 -1.34 155 161 151
10.45 14.97 -1.34 155 161 151
10.45 14.86 -1.34 158 161 152
10.45 14.75 -1.34 158 161 152
10.45 14.64 -1.34 159 162 155
10.45 14.54 -1.34 159 162 155
10.45 14.43 -1.34 159 161 156
10.45 14.32 -1.34 159 161 156
10.45 14.21 -1.34 160 160 158
10.45 14.10 -1.34 162 162 160
10.45 13.99 -1.34 161 161 159
10.45 13.89 -1.34 160 160 160
10.45 13.78 -1.34 161 161 161
10.45 13.67 -1.34 163 162 160
10.45 13.56 -1.34 163 162 160
10.45 13.45 -1.34 162 161 159
10.45 13.35 -1.34 160 159 157
10.45 13.24 -1.34 161 162 156
10.45 13.13 -1.34 161 162 156
10.45 13.02 -1.34 162 163 158
10.45 12.91 -1.34 162 163 158
10.45 12.80 -1.34 162 163 158
10.45 12.70 -1.34 163 164 159
10.45 12.59 -1.34 163 163 161
10.45 12.48 -1.34 163 163 161
10.45 12.37 -1.34 162 163 158
10.73 12.37 -1.56 163 164 159
10.73 12.26 -1.56 163 164 158
10.45 12.05 -1.34 164 165 159
10.45 11.94 -1.34 165 166 158
10.45 11.83 -1.34 165 166 158
10.45 11.72 -1.34 165 167 156
10.45 11.61 -1.34 166 168 157
10.45 11.51 -1.34 163 169 155
10.45 11.40 -1.34 163 169 157
10.45 11.29 -1.34 163 169 159
10.45 11.18 -1.34 163 169 159
10.45 11.07 -1.34 163 168 161
10.45 10.97 -1.34 163 168 162
10.45 10.86 -1.34 163 168 164
10.45 10.75 -1.34 162 167 163
10.45 10.64 -1.34 161 165 164
10.45 10.53 -1.34 162 166 165
10.45 10.42 -1.34 162 166 165
10.45 10.32 -1.34 163 167 166
10.45 10.21 -1.34 163 167 166
10.45 10.10 -1.34 162 166 165
10.45 9.99 -1.34 161 166 162
10.45 9.88 -1.34 162 169 161
10.45 9.78 -1.34 161 169 158
10.45 9.67 -1.34 161 169 158
10.45 9.56 -1.34 162 170 159
10.45 9.23 -1.34 164 172 161
10.45 9.13 -1.34 163 171 160
10.45 9.02 -1.34 164 171 163
10.45 8.91 -1.34 164 169 163
10.45 8.80 -1.34 164 169 165
10.45 8.69 -1.34 164 168 167
10.45 8.58 -1.34 164 168 167
10.45 8.48 -1.34 165 169 170
10.45 8.37 -1.34 165 169 170
10.45 8.26 -1.34 164 170 168
10.45 8.15 -1.34 165 171 169
10.45 8.04 -1.34 165 174 171
10.45 7.94 -1.34 165 174 171
10.45 7.83 -1.34 164 175 171
10.45 7.72 -1.34 164 175 171
10.45 7.61 -1.34 165 176 172
10.45 7.50 -1.34 167 178 174
10.45 7.39 -1.34 163 174 168
10.45 7.29 -1.34 163 174 168
10.19 7.10 -1.15 164 173 168
10.19 7.00 -1.15 163 172 167
10.19 6.89 -1.15 165 171 167
10.19 6.78 -1.15 166 172 168
10.19 6.67 -1.15 168 173 169
10.19 6.57 -1.15 169 174 170
10.45 6.53 -1.34 165 174 169
10.45 6.42 -1.34 166 175 170
10.45 6.31 -1.34 166 175 170
10.19 6.14 -1.15 167 176 171
10.45 6.10 -1.34 167 176 171
10.45 5.99 -1.34 167 176 171
10.45 5.88 -1.34 167 176 171
10.45 5.77 -1.34 167 178 172
10.45 5.66 -1.34 166 177 171
10.45 5.56 -1.34 166 177 173
10.45 5.45 -1.34 167 178 174
10.45 5.34 -1.34 168 179 175
10.45 5.23 -1.34 169 180 176
10.45 5.12 -1.34 169 181 177
10.45 5.01 -1.34 169 181 177
10.45 4.91 -1.34 169 180 176
10.45 4.80 -1.34 168 179 175
10.45 4.69 -1.34 169 178 175
10.45 4.58 -1.34 168 177 174
10.45 4.47 -1.34 168 177 174
10.19 4.31 -1.15 168 177 174
10.19 4.20 -1.15 170 176 174
10.19 4.09 -1.15 170 176 174
10.19 3.98 -1.15 170 179 176
10.19 3.88 -1.15 169 178 175
10.19 3.77 -1.15 168 177 174
10.45 3.72 -1.34 167 176 173
10.45 3.61 -1.34 160 171 167
10.45 3.50 -1.34 154 166 162
10.19 3.34 -1.15 151 161 162
10.19 3.23 -1.15 156 159 166
10.19 3.12 -1.15 157 160 169
10.19 3.01 -1.15 165 170 174
10.19 2.91 -1.15 176 185 184
10.19 2.80 -1.15 176 189 180
10.19 2.69 -1.15 169 182 172
10.19 2.58 -1.15 165 179 166
10.19 2.48 -1.15 169 181 169
10.19 2.37 -1.15 168 180 170
10.19 2.26 -1.15 169 179 171
10.19 2.15 -1.15 172 179 172
10.19 2.04 -1.15 174 180 176
10.19 1.94 -1.15 174 180 178
10.19 1.83 -1.15 174 180 178
10.19 1.72 -1.15 173 182 179
10.19 1.61 -1.15 175 184 181
10.19 1.51 -1.15 170 181 177
9.94 1.35 -0.96 166 177 173
10.19 1.29 -1.15 169 181 179
10.19 1.18 -1.15 170 182 180
10.19 1.08 -1.15 166 182 179
10.19 0.97 -1.15 164 183 179
10.73 0.95 -1.56 161 180 176
12.05 0.83 -2.55 166 181 174
12.05 0.72 -2.55 167 180 173
12.05 0.61 -2.55 166 179 170
12.05 0.50 -2.55 167 178 170
12.05 0.39 -2.55 167 177 168
12.05 0.27 -2.55 166 176 167
12.05 0.16 -2.55 168 180 168
12.05 0.05 -2.55 167 179 169
11.80 -0.10 -2.36 164 177 167
11.80 -0.21 -2.36 162 175 168
11.52 -0.36 -2.15 159 174 167
11.52 -0.47 -2.15 160 175 170
11.24 -0.62 -1.94 163 175 171
11.24 -0.73 -1.94 164 176 172
11.24 -0.84 -1.94 160 171 165
11.52 -0.91 -2.15 161 172 166
11.52 -1.02 -2.15 161 172 166
11.52 -1.13 -2.15 160 172 168
11.52 -1.24 -2.15 158 173 168
11.52 -1.35 -2.15 155 171 170
11.52 -1.46 -2.15 153 169 168
11.52 -1.57 -2.15 167 178 170
11.52 -1.68 -2.15 174 181 174
11.52 -1.79 -2.15 177 188 184
11.52 -1.90 -2.15 182 193 195
11.52 -2.02 -2.15 180 195 200
11.24 -2.15 -1.94 170 188 198
11.24 -2.26 -1.94 154 180 193
11.24 -2.37 -1.94 141 173 188
11.24 -2.48 -1.94 117 154 173
11.24 -2.59 -1.94 97 139 163
11.24 -2.70 -1.94 68 118 145
11.24 -2.81 -1.94 45 98 132
10.98 -2.95 -1.75 31 91 128
10.98 -3.06 -1.75 28 91 134
10.98 -3.16 -1.75 28 94 142
10.98 -3.27 -1.75 31 97 147
10.98 -3.38 -1.75 33 99 149
10.73 -3.51 -1.56 39 105 153
10.73 -3.62 -1.56 39 110 152
10.73 -3.73 -1.56 42 115 156
10.45 -3.86 -1.34 47 120 163
10.45 -3.97 -1.34 48 119 163
10.19 -4.09 -1.15 47 116 158
10.19 -4.20 -1.15 46 119 151
10.19 -4.31 -1.15 50 123 156
10.19 -4.41 -1.15 44 116 154
10.19 -4.52 -1.15 55 122 164
9.94 -4.64 -0.96 79 136 179
9.94 -4.75 -0.96 100 146 182
9.94 -4.86 -0.96 98 135 154
9.94 -4.97 -0.96 69 96 105
9.63 20.70 -0.86 76 75 71
9.63 20.60 -0.86 75 74 70
9.89 20.63 -1.05 65 62 55
9.89 20.53 -1.05 74 71 64
9.89 20.42 -1.05 75 72 63
9.89 20.31 -1.05 138 135 126
9.89 20.21 -1.05 154 151 142
9.89 20.10 -1.05 154 151 142
10.14 20.13 -1.25 157 153 144
10.14 20.02 -1.25 148 144 135
10.39 20.05 -1.44 152 148 139
10.39 19.95 -1.44 152 148 139
10.39 19.84 -1.44 149 149 141
10.39 19.73 -1.44 151 151 143
10.67 19.77 -1.65 152 152 144
10.67 19.66 -1.65 152 152 144
10.67 19.56 -1.65 151 151 143
10.39 19.30 -1.44 152 153 145
10.39 19.19 -1.44 154 155 147
10.39 19.08 -1.44 152 153 145
10.39 18.97 -1.44 153 154 146
10.39 18.86 -1.44 153 156 147
10.39 18.76 -1.44 152 155 146
10.39 18.65 -1.44 151 154 145
10.39 18.54 -1.44 151 154 145
10.39 18.43 -1.44 152 155 146
10.39 18.32 -1.44 154 155 147
10.39 18.21 -1.44 153 153 145
10.39 18.11 -1.44 156 153 146
10.39 18.00 -1.44 158 155 148
10.39 17.89 -1.44 158 155 148
10.39 17.78 -1.44 157 154 147
10.39 17.67 -1.44 157 154 147
10.39 17.57 -1.44 155 155 147
10.39 17.46 -1.44 157 157 149
10.39 17.35 -1.44 156 157 151
10.39 17.24 -1.44 158 159 153
10.39 17.13 -1.44 159 160 154
10.39 17.02 -1.44 158 159 153
10.39 16.92 -1.44 156 159 152
10.39 16.81 -1.44 155 158 151
10.39 16.70 -1.44 158 159 153
10.14 16.47 -1.25 159 159 149
10.14 16.36 -1.25 160 157 148
10.14 16.26 -1.25 158 158 148
10.14 16.15 -1.25 158 158 148
10.14 16.04 -1.25 158 160 149
10.14 15.93 -1.25 158 160 149
10.14 15.82 -1.25 159 161 148
10.39 15.83 -1.44 160 162 149
10.39 15.73 -1.44 158 161 150
10.39 15.62 -1.44 157 160 149
10.39 15.51 -1.44 156 159 150
10.39 15.40 -1.44 156 159 150
10.39 15.29 -1.44 156 161 154
10.39 15.19 -1.44 157 162 155
10.39 15.08 -1.44 157 162 155
10.39 14.97 -1.44 158 161 154
10.39 14.86 -1.44 159 162 153
10.39 14.75 -1.44 162 163 155
10.14 14.53 -1.25 163 164 156
10.14 14.43 -1.25 160 161 153
10.14 14.32 -1.25 159 160 154
10.14 14.21 -1.25 161 162 156
10.14 14.10 -1.25 163 164 158
10.14 13.99 -1.25 163 164 158
10.14 13.89 -1.25 162 163 157
10.14 13.78 -1.25 161 162 154
10.14 13.67 -1.25 161 162 154
10.14 13.56 -1.25 162 163 155
10.14 13.46 -1.25 162 163 155
10.14 13.35 -1.25 161 163 152
10.14 13.24 -1.25 160 162 151
10.14 13.13 -1.25 161 163 152
10.14 13.03 -1.25 161 163 152
10.14 12.92 -1.25 161 162 154
10.14 12.81 -1.25 160 161 153
10.14 12.70 -1.25 161 162 156
10.14 12.60 -1.25 161 162 156
10.14 12.49 -1.25 161 162 157
10.14 12.38 -1.25 161 162 157
10.14 12.27 -1.25 164 164 162
10.14 12.16 -1.25 164 164 162
10.39 12.16 -1.44 164 165 160
10.39 12.05 -1.44 164 165 160
10.14 11.84 -1.25 164 165 160
10.14 11.73 -1.25 165 166 161
10.14 11.63 -1.25 166 167 161
10.14 11.52 -1.25 166 167 161
10.14 11.41 -1.25 162 168 156
10.14 11.30 -1.25 162 168 156
10.14 11.20 -1.25 162 168 156
10.14 11.09 -1.25 162 168 158
10.39 11.07 -1.44 162 168 158
10.39 10.97 -1.44 162 167 160
10.39 10.86 -1.44 162 167 160
10.39 10.75 -1.44 162 167 160
10.39 10.64 -1.44 163 168 161
10.39 10.53 -1.44 164 169 163
10.39 10.42 -1.44 164 169 163
10.39 10.32 -1.44 163 168 162
10.39 10.21 -1.44 163 168 162
10.39 10.10 -1.44 164 169 163
10.39 9.99 -1.44 166 171 164
10.39 9.88 -1.44 167 170 161
10.39 9.78 -1.44 166 169 158
10.39 9.67 -1.44 164 170 158
10.39 9.56 -1.44 164 170 158
10.39 9.45 -1.44 161 171 160
10.39 9.34 -1.44 161 171 160
10.14 9.15 -1.25 159 171 161
10.39 9.13 -1.44 158 170 160
10.14 8.93 -1.25 158 170 160
10.14 8.83 -1.25 162 172 161
10.14 8.72 -1.25 163 171 160
10.14 8.61 -1.25 162 168 156
10.14 8.50 -1.25 164 167 156
10.14 8.40 -1.25 166 169 158
10.14 8.29 -1.25 168 171 162
10.39 8.26 -1.44 163 172 167
10.39 8.15 -1.44 162 173 169
10.39 8.04 -1.44 164 173 168
10.39 7.94 -1.44 165 174 169
10.39 7.83 -1.44 166 176 168
10.39 7.72 -1.44 166 176 168
10.39 7.61 -1.44 166 176 165
10.39 7.50 -1.44 166 176 165
10.39 7.39 -1.44 165 175 164
10.14 7.21 -1.25 165 175 164
10.14 7.10 -1.25 167 175 162
10.14 7.00 -1.25 167 175 162
10.14 6.89 -1.25 168 176 165
10.14 6.78 -1.25 168 176 165
10.14 6.67 -1.25 168 176 165
10.14 6.57 -1.25 167 175 164
10.14 6.46 -1.25 169 176 168
10.14 6.35 -1.25 168 175 167
10.14 6.24 -1.25 167 174 167
10.14 6.14 -1.25 167 174 167
10.14 6.03 -1.25 168 175 168
10.14 5.92 -1.25 166 175 170
10.14 5.81 -1.25 166 175 170
10.14 5.71 -1.25 167 178 172
10.14 5.60 -1.25 167 178 172
10.14 5.49 -1.25 168 179 173
10.14 5.38 -1.25 168 179 173
10.14 5.27 -1.25 168 179 173
10.14 5.17 -1.25 168 179 173
10.14 5.06 -1.25 167 180 171
10.14 4.95 -1.25 168 181 174
10.14 4.84 -1.25 166 177 171
10.14 4.74 -1.25 167 178 174
10.14 4.63 -1.25 169 180 176
10.14 4.52 -1.25 168 179 175
10.14 4.41 -1.25 167 178 174
10.14 4.31 -1.25 167 178 174
9.89 4.14 -1.05 167 178 174
9.89 4.03 -1.05 168 179 175
9.89 3.93 -1.05 167 178 174
9.89 3.82 -1.05 168 179 175
10.14 3.77 -1.25 168 179 175
10.14 3.66 -1.25 168 179 175
10.14 3.55 -1.25 165 176 172
10.14 3.44 -1.25 162 173 169
10.14 3.34 -1.25 160 171 167
10.14 3.23 -1.25 163 174 170
10.14 3.12 -1.25 165 176 172
10.14 3.01 -1.25 169 180 176
10.14 2.91 -1.25 170 181 177
10.14 2.80 -1.25 170 181 177
10.14 2.69 -1.25 170 181 177
10.14 2.58 -1.25 169 181 177
10.14 2.48 -1.25 170 182 178
10.14 2.37 -1.25 168 180 176
10.14 2.26 -1.25 169 181 177
9.89 2.10 -1.05 170 182 178
10.14 2.04 -1.25 171 183 179
9.89 1.89 -1.05 170 182 178
9.89 1.78 -1.05 169 181 177
9.89 1.68 -1.05 168 180 176
9.89 1.57 -1.05 167 179 175
9.89 1.46 -1.05 168 179 173
9.89 1.35 -1.05 169 180 174
9.89 1.25 -1.05 170 181 175
9.89 1.14 -1.05 170 181 175
10.14 1.08 -1.25 170 179 176
10.14 0.97 -1.25 171 180 177
10.14 0.86 -1.25 172 181 178
10.14 0.75 -1.25 169 178 177
10.14 0.65 -1.25 170 179 178
10.14 0.54 -1.25 170 180 181
10.14 0.43 -1.25 171 181 182
10.14 0.32 -1.25 170 182 182
10.14 0.21 -1.25 169 181 181
10.39 0.15 -1.44 168 180 180
10.67 0.08 -1.65 167 179 179
10.67 -0.03 -1.65 169 181 177
10.67 -0.14 -1.65 166 178 174
10.93 -0.21 -1.84 165 177 173
10.93 -0.32 -1.84 166 178 174
11.46 -0.36 -2.25 165 177 173
10.93 -0.54 -1.84 163 175 171
10.93 -0.65 -1.84 163 175 171
10.93 -0.76 -1.84 164 176 172
10.93 -0.87 -1.84 162 177 174
11.18 -0.95 -2.03 161 176 173
11.18 -1.06 -2.03 160 175 172
11.18 -1.17 -2.03 159 174 171
11.46 -1.24 -2.25 158 173 170
11.46 -1.35 -2.25 157 172 169
11.18 -1.50 -2.03 157 171 171
11.18 -1.60 -2.03 159 173 173
11.18 -1.71 -2.03 156 170 170
11.18 -1.82 -2.03 155 170 167
11.18 -1.93 -2.03 157 172 169
11.18 -2.04 -2.03 160 175 172
11.18 -2.15 -2.03 162 177 174
11.18 -2.26 -2.03 164 179 176
11.18 -2.37 -2.03 166 181 178
11.18 -2.48 -2.03 176 191 186
11.18 -2.59 -2.03 176 191 186
11.18 -2.70 -2.03 178 193 188
10.93 -2.84 -1.84 180 195 190
10.93 -2.95 -1.84 176 191 186
10.93 -3.06 -1.84 161 176 171
10.93 -3.16 -1.84 138 153 148
10.93 -3.27 -1.84 119 135 134
10.67 -3.40 -1.65 89 113 113
10.67 -3.51 -1.65 76 100 104
10.67 -3.62 -1.65 61 82 83
10.39 -3.75 -1.44 49 68 72
10.39 -3.86 -1.44 48 67 71
10.39 -3.97 -1.44 54 74 83
10.14 -4.09 -1.25 57 85 97
10.14 -4.20 -1.25 57 99 124
10.14 -4.31 -1.25 61 108 138
10.14 -4.41 -1.25 63 114 143
10.14 -4.52 -1.25 66 117 146
9.89 -4.64 -1.05 82 133 154
9.89 -4.75 -1.05 99 146 162
9.89 -4.86 -1.05 92 134 146
9.89 -4.97 -1.05 72 109 115
9.58 20.70 -0.96 70 69 65
9.58 20.60 -0.96 60 59 55
9.83 20.63 -1.15 63 60 55
9.83 20.53 -1.15 89 86 81
9.83 20.42 -1.15 133 130 123
9.83 20.31 -1.15 161 158 151
9.83 20.21 -1.15 152 149 140
9.83 20.10 -1.15 148 145 136
9.83 19.99 -1.15 154 151 142
10.09 20.02 -1.34 150 147 138
10.09 19.92 -1.34 156 151 145
10.09 19.81 -1.34 154 151 144
10.09 19.70 -1.34 150 150 142
10.34 19.73 -1.53 151 152 144
10.34 19.62 -1.53 152 153 145
10.34 19.51 -1.53 152 153 145
10.34 19.40 -1.53 151 152 144
10.34 19.30 -1.53 153 154 146
10.09 19.05 -1.34 155 156 148
10.09 18.95 -1.34 152 153 145
10.09 18.84 -1.34 153 154 146
10.09 18.73 -1.34 154 155 147
10.09 18.62 -1.34 153 154 146
10.09 18.52 -1.34 152 153 145
10.09 18.41 -1.34 152 153 145
10.09 18.30 -1.34 152 153 145
10.09 18.19 -1.34 154 154 146
10.09 18.09 -1.34 155 155 145
10.34 18.11 -1.53 157 154 145
10.34 18.00 -1.53 156 153 144
10.34 17.89 -1.53 156 153 144
10.09 17.66 -1.34 157 154 147
10.09 17.55 -1.34 158 155 148
10.09 17.44 -1.34 156 156 148
10.09 17.33 -1.34 156 156 148
10.09 17.22 -1.34 154 155 147
10.09 17.12 -1.34 156 157 149
10.09 17.01 -1.34 158 159 151
10.09 16.90 -1.34 158 159 151
10.09 16.79 -1.34 157 158 152
10.09 16.69 -1.34 157 158 152
10.09 16.58 -1.34 159 160 154
10.09 16.47 -1.34 157 158 152
10.09 16.36 -1.34 158 157 152
10.09 16.26 -1.34 157 156 151
10.09 16.15 -1.34 157 156 151
10.09 16.04 -1.34 157 158 150
10.09 15.93 -1.34 158 159 151
10.09 15.82 -1.34 158 159 151
10.09 15.72 -1.34 159 160 152
10.09 15.61 -1.34 160 163 156
10.09 15.50 -1.34 158 161 154
10.09 15.39 -1.34 158 161 154
10.09 15.29 -1.34 158 161 154
10.09 15.18 -1.34 157 162 156
10.09 15.07 -1.34 157 162 156
10.09 14.96 -1.34 156 161 157
10.09 14.86 -1.34 158 160 155
10.09 14.75 -1.34 157 160 153
10.09 14.64 -1.34 160 161 153
10.09 14.53 -1.34 161 162 154
10.09 14.43 -1.34 159 160 152
10.09 14.32 -1.34 159 160 154
10.09 14.21 -1.34 160 161 155
10.09 14.10 -1.34 161 162 157
10.09 13.99 -1.34 161 162 156
10.09 13.89 -1.34 160 161 155
10.09 13.78 -1.34 159 160 154
9.83 13.56 -1.15 159 160 154
9.83 13.46 -1.15 160 161 153
9.83 13.35 -1.15 160 161 153
9.83 13.24 -1.15 161 162 154
9.83 13.14 -1.15 160 161 153
9.83 13.03 -1.15 161 163 152
9.83 12.92 -1.15 162 164 153
9.83 12.82 -1.15 162 163 155
9.83 12.71 -1.15 162 163 155
10.09 12.70 -1.34 160 161 155
10.09 12.60 -1.34 160 161 155
10.09 12.49 -1.34 161 162 157
10.09 12.38 -1.34 162 163 158
9.83 12.17 -1.15 164 165 160
9.83 12.07 -1.15 164 165 160
9.83 11.96 -1.15 164 165 160
10.09 11.95 -1.34 164 165 160
10.09 11.84 -1.34 164 165 160
10.09 11.73 -1.34 165 166 161
10.09 11.63 -1.34 166 167 161
10.09 11.52 -1.34 166 167 161
10.09 11.41 -1.34 162 168 156
10.09 11.30 -1.34 162 168 156
10.09 11.20 -1.34 162 168 156
10.09 11.09 -1.34 162 168 158
10.09 10.98 -1.34 162 168 158
10.09 10.87 -1.34 162 168 158
10.09 10.77 -1.34 162 168 158
10.09 10.66 -1.34 162 167 160
10.09 10.55 -1.34 163 168 161
10.09 10.44 -1.34 164 169 163
10.09 10.33 -1.34 164 169 163
10.09 10.23 -1.34 165 167 162
10.09 10.12 -1.34 165 167 162
10.09 10.01 -1.34 166 168 163
10.09 9.90 -1.34 166 169 162
10.09 9.80 -1.34 167 170 161
10.09 9.69 -1.34 166 169 158
10.09 9.58 -1.34 164 170 158
10.09 9.47 -1.34 164 170 158
10.09 9.37 -1.34 163 171 160
10.09 9.26 -1.34 164 172 161
10.09 9.15 -1.34 161 171 162
10.09 9.04 -1.34 161 171 162
10.09 8.93 -1.34 160 170 161
9.83 8.74 -1.15 163 171 160
9.83 8.64 -1.15 164 172 161
9.83 8.53 -1.15 164 170 158
9.83 8.42 -1.15 164 170 158
10.09 8.40 -1.34 166 169 158
10.09 8.29 -1.34 165 171 161
10.09 8.18 -1.34 164 171 164
10.09 8.07 -1.34 163 172 167
10.09 7.97 -1.34 163 172 167
10.09 7.86 -1.34 164 173 168
10.09 7.75 -1.34 165 175 166
10.09 7.64 -1.34 165 175 166
10.09 7.54 -1.34 164 174 163
10.09 7.43 -1.34 164 174 163
10.09 7.32 -1.34 165 175 164
10.09 7.21 -1.34 165 175 164
10.09 7.10 -1.34 165 175 164
10.09 7.00 -1.34 165 175 164
10.09 6.89 -1.34 166 176 165
10.09 6.78 -1.34 166 176 165
10.09 6.67 -1.34 166 176 165
10.09 6.57 -1.34 166 176 165
10.09 6.46 -1.34 169 176 168
10.09 6.35 -1.34 169 176 168
10.09 6.24 -1.34 168 175 168
10.09 6.14 -1.34 169 176 169
9.83 5.96 -1.15 170 177 170
10.09 5.92 -1.34 168 177 172
9.83 5.75 -1.15 167 176 171
10.09 5.71 -1.34 167 178 172
10.09 5.60 -1.34 167 178 172
10.09 5.49 -1.34 167 178 172
10.09 5.38 -1.34 167 178 172
10.09 5.27 -1.34 168 179 173
10.09 5.17 -1.34 168 179 173
10.09 5.06 -1.34 167 180 171
9.83 4.89 -1.15 168 181 174
9.83 4.78 -1.15 167 178 172
9.83 4.67 -1.15 167 178 174
9.83 4.57 -1.15 168 179 175
9.83 4.46 -1.15 168 179 175
9.83 4.35 -1.15 168 179 175
9.83 4.25 -1.15 167 178 174
9.83 4.14 -1.15 168 179 175
9.83 4.03 -1.15 168 179 175
9.83 3.93 -1.15 170 181 177
9.83 3.82 -1.15 170 181 177
9.83 3.71 -1.15 170 181 177
9.83 3.60 -1.15 169 180 176
9.83 3.50 -1.15 167 178 174
10.09 3.44 -1.34 166 177 173
10.09 3.34 -1.34 166 177 173
9.83 3.18 -1.15 166 177 173
9.83 3.07 -1.15 167 178 174
9.83 2.96 -1.15 169 180 176
9.83 2.85 -1.15 170 181 177
9.83 2.75 -1.15 170 181 177
9.83 2.64 -1.15 170 181 177
9.83 2.53 -1.15 170 181 177
9.83 2.43 -1.15 171 182 178
9.83 2.32 -1.15 166 178 174
9.83 2.21 -1.15 167 179 175
9.83 2.10 -1.15 168 180 176
9.83 2.00 -1.15 169 181 177
9.83 1.89 -1.15 169 181 177
9.83 1.78 -1.15 169 181 177
9.83 1.68 -1.15 168 180 176
9.83 1.57 -1.15 168 180 176
9.83 1.46 -1.15 169 180 174
9.83 1.35 -1.15 170 181 175
9.83 1.25 -1.15 171 182 176
9.83 1.14 -1.15 171 182 176
9.83 1.03 -1.15 171 180 177
9.83 0.93 -1.15 172 181 178
10.09 0.86 -1.34 173 182 179
10.09 0.75 -1.34 170 179 178
10.09 0.65 -1.34 171 180 179
9.83 0.50 -1.15 170 180 179
9.83 0.39 -1.15 171 181 180
9.83 0.28 -1.15 170 182 182
9.83 0.18 -1.15 169 181 181
10.09 0.11 -1.34 169 181 181
10.09 -0.00 -1.34 168 180 180
10.09 -0.11 -1.34 169 181 177
10.62 -0.14 -1.74 166 178 174
10.87 -0.21 -1.94 165 177 173
10.87 -0.32 -1.94 166 178 174
10.62 -0.47 -1.74 166 178 174
10.62 -0.57 -1.74 164 176 172
10.62 -0.68 -1.74 164 176 172
10.62 -0.79 -1.74 165 177 173
10.62 -0.90 -1.74 162 177 174
10.87 -0.98 -1.94 161 176 173
10.87 -1.09 -1.94 160 175 172
10.87 -1.20 -1.94 159 174 171
10.87 -1.31 -1.94 158 173 170
11.13 -1.39 -2.13 158 173 170
11.13 -1.50 -2.13 158 173 170
10.87 -1.63 -1.94 160 175 172
10.87 -1.74 -1.94 157 172 169
11.13 -1.82 -2.13 156 171 168
11.13 -1.93 -2.13 157 172 169
11.13 -2.04 -2.13 158 173 170
11.13 -2.15 -2.13 158 173 170
11.13 -2.26 -2.13 159 174 171
11.13 -2.37 -2.13 160 175 172
11.13 -2.48 -2.13 165 180 175
10.87 -2.62 -1.94 162 177 172
10.87 -2.73 -1.94 159 174 169
10.87 -2.84 -1.94 160 175 170
10.87 -2.95 -1.94 166 181 176
10.87 -3.06 -1.94 173 188 183
10.62 -3.19 -1.74 177 192 187
10.62 -3.29 -1.74 178 194 191
10.62 -3.40 -1.74 182 200 200
10.62 -3.51 -1.74 180 198 198
10.34 -3.64 -1.53 175 191 190
10.34 -3.75 -1.53 164 179 176
10.34 -3.86 -1.53 143 157 157
10.09 -3.98 -1.34 116 131 134
10.09 -4.09 -1.34 86 107 112
10.09 -4.20 -1.34 38 71 86
10.09 -4.31 -1.34 37 75 94
10.09 -4.41 -1.34 38 79 99
10.09 -4.52 -1.34 49 90 110
9.83 -4.64 -1.15 75 114 129
9.83 -4.75 -1.15 97 133 145
9.83 -4.86 -1.15 94 124 132
9.83 -4.97 -1.15 75 103 106
9.53 20.92 -1.05 71 70 68
9.53 20.81 -1.05 80 79 77
9.53 20.70 -1.05 74 73 69
9.53 20.60 -1.05 73 72 68
9.53 20.49 -1.05 114 111 106
9.53 20.38 -1.05 144 141 136
9.78 20.42 -1.24 161 158 151
9.78 20.31 -1.24 163 160 153
9.78 20.21 -1.24 146 143 136
9.78 20.10 -1.24 148 145 138
9.78 19.99 -1.24 155 152 145
9.78 19.88 -1.24 152 149 142
10.03 19.92 -1.43 155 152 145
10.03 19.81 -1.43 150 147 140
10.03 19.70 -1.43 150 151 143
10.03 19.59 -1.43 151 152 144
10.03 19.49 -1.43 152 153 145
10.03 19.38 -1.43 152 153 145
10.03 19.27 -1.43 151 152 144
10.03 19.16 -1.43 153 154 146
10.03 19.05 -1.43 154 155 147
10.03 18.95 -1.43 153 154 146
10.03 18.84 -1.43 153 154 146
10.03 18.73 -1.43 154 155 147
10.03 18.62 -1.43 153 154 146
9.78 18.38 -1.24 153 153 145
9.78 18.28 -1.24 153 153 145
9.78 18.17 -1.24 153 153 145
9.78 18.06 -1.24 154 154 146
9.78 17.96 -1.24 159 156 147
9.78 17.85 -1.24 157 154 145
10.03 17.87 -1.43 155 152 143
10.03 17.76 -1.43 155 152 143
10.03 17.66 -1.43 157 154 145
9.78 17.42 -1.24 159 156 147
9.78 17.31 -1.24 157 157 147
9.78 17.21 -1.24 156 156 146
9.78 17.10 -1.24 154 154 146
9.78 16.99 -1.24 156 156 148
9.78 16.89 -1.24 157 158 150
9.78 16.78 -1.24 157 158 150
9.78 16.67 -1.24 157 158 150
9.78 16.56 -1.24 157 158 150
9.78 16.46 -1.24 159 160 154
9.78 16.35 -1.24 157 156 152
9.78 16.24 -1.24 157 156 154
9.78 16.14 -1.24 157 156 152
9.78 16.03 -1.24 157 156 152
9.78 15.92 -1.24 157 156 152
9.78 15.81 -1.24 158 157 153
9.78 15.71 -1.24 158 159 154
9.78 15.60 -1.24 158 159 154
9.78 15.49 -1.24 159 160 155
9.78 15.39 -1.24 159 160 155
9.78 15.28 -1.24 158 160 157
9.78 15.17 -1.24 158 160 157
9.78 15.06 -1.24 159 161 158
9.78 14.96 -1.24 159 161 158
10.03 14.96 -1.43 156 160 159
10.03 14.86 -1.43 158 160 157
10.03 14.75 -1.43 157 159 154
9.78 14.53 -1.24 160 161 155
9.78 14.42 -1.24 161 162 156
9.78 14.31 -1.24 160 161 155
9.78 14.21 -1.24 160 161 156
9.78 14.10 -1.24 160 161 156
9.78 13.99 -1.24 161 162 157
9.78 13.89 -1.24 160 161 156
9.78 13.78 -1.24 160 161 156
9.78 13.67 -1.24 160 161 156
9.78 13.56 -1.24 159 160 155
9.78 13.46 -1.24 159 160 154
9.78 13.35 -1.24 160 161 155
9.78 13.24 -1.24 161 162 156
9.78 13.14 -1.24 162 163 157
9.78 13.03 -1.24 160 161 153
9.78 12.92 -1.24 162 163 155
9.78 12.82 -1.24 164 165 159
9.78 12.71 -1.24 163 164 158
9.78 12.60 -1.24 160 161 155
9.78 12.49 -1.24 160 161 155
9.78 12.39 -1.24 162 163 158
9.78 12.28 -1.24 164 165 160
9.78 12.17 -1.24 164 165 160
9.78 12.07 -1.24 164 165 160
9.78 11.96 -1.24 164 165 160
9.78 11.85 -1.24 164 165 160
9.78 11.74 -1.24 164 165 159
9.78 11.64 -1.24 165 166 160
9.78 11.53 -1.24 165 166 160
9.78 11.42 -1.24 165 168 161
9.78 11.32 -1.24 160 168 155
9.78 11.21 -1.24 161 167 155
9.78 11.10 -1.24 161 167 155
9.78 10.99 -1.24 162 168 158
10.03 10.98 -1.43 162 168 158
10.03 10.87 -1.43 162 168 158
10.03 10.77 -1.43 162 168 158
10.03 10.66 -1.43 164 167 160
10.03 10.55 -1.43 165 168 161
10.03 10.44 -1.43 165 168 161
10.03 10.33 -1.43 165 168 161
10.03 10.23 -1.43 165 167 162
10.03 10.12 -1.43 164 166 161
10.03 10.01 -1.43 165 167 162
10.03 9.90 -1.43 165 168 161
10.03 9.80 -1.43 168 169 161
10.03 9.69 -1.43 167 169 158
9.78 9.49 -1.24 165 168 157
9.78 9.39 -1.24 166 169 158
9.78 9.28 -1.24 165 171 161
9.78 9.17 -1.24 165 171 161
9.78 9.07 -1.24 163 173 162
9.78 8.96 -1.24 163 173 162
9.78 8.85 -1.24 163 173 162
9.78 8.74 -1.24 162 172 161
9.78 8.64 -1.24 162 172 161
9.78 8.53 -1.24 166 174 161
9.78 8.42 -1.24 166 174 161
9.78 8.32 -1.24 166 172 160
9.78 8.21 -1.24 165 171 161
9.78 8.10 -1.24 166 171 165
9.78 8.00 -1.24 166 171 167
9.78 7.89 -1.24 167 172 166
9.78 7.78 -1.24 168 173 167
10.03 7.75 -1.43 167 174 166
10.03 7.64 -1.43 166 173 165
10.03 7.54 -1.43 166 174 163
10.03 7.43 -1.43 166 174 163
10.03 7.32 -1.43 166 176 165
9.78 7.14 -1.24 165 175 164
9.78 7.03 -1.24 164 174 163
9.78 6.92 -1.24 164 174 163
9.78 6.82 -1.24 164 176 164
9.78 6.71 -1.24 165 177 165
9.78 6.60 -1.24 166 178 168
9.78 6.50 -1.24 166 176 167
9.78 6.39 -1.24 167 177 168
9.78 6.07 -1.24 170 176 172
9.78 5.96 -1.24 171 177 173
10.03 5.92 -1.43 169 178 173
9.78 5.75 -1.24 168 177 172
10.03 5.71 -1.43 166 177 173
10.03 5.60 -1.43 166 177 173
10.03 5.49 -1.43 167 178 172
10.03 5.38 -1.43 167 178 172
9.78 5.21 -1.24 168 179 173
9.78 5.10 -1.24 168 179 173
9.78 5.00 -1.24 167 180 173
9.78 4.89 -1.24 168 181 174
9.78 4.78 -1.24 168 179 175
9.78 4.67 -1.24 167 178 174
9.78 4.57 -1.24 167 178 174
9.78 4.46 -1.24 168 179 175
9.78 4.35 -1.24 169 180 176
9.78 4.25 -1.24 169 180 176
9.53 4.08 -1.05 168 179 175
9.53 3.97 -1.05 168 179 175
9.53 3.87 -1.05 171 182 178
9.53 3.76 -1.05 171 182 178
9.53 3.65 -1.05 170 181 177
9.53 3.55 -1.05 170 181 177
9.53 3.44 -1.05 170 181 177
9.78 3.39 -1.24 170 181 177
9.78 3.28 -1.24 170 181 177
9.78 3.18 -1.24 169 180 176
9.53 3.01 -1.05 169 180 176
9.53 2.91 -1.05 170 181 177
9.53 2.80 -1.05 170 181 177
9.53 2.70 -1.05 169 180 176
9.78 2.64 -1.24 170 181 177
9.78 2.53 -1.24 170 181 177
9.78 2.43 -1.24 171 182 178
9.78 2.32 -1.24 169 181 177
9.78 2.21 -1.24 169 181 177
9.78 2.10 -1.24 170 182 178
9.78 2.00 -1.24 170 182 178
9.78 1.89 -1.24 170 182 178
9.78 1.78 -1.24 170 182 178
9.78 1.68 -1.24 170 182 178
9.78 1.57 -1.24 170 182 178
9.78 1.46 -1.24 170 181 175
9.53 1.31 -1.05 171 182 176
9.53 1.20 -1.05 171 182 176
9.53 1.10 -1.05 171 182 176
9.53 0.99 -1.05 171 180 177
9.78 0.93 -1.24 171 180 177
9.78 0.82 -1.24 172 181 178
9.78 0.71 -1.24 172 181 180
9.78 0.60 -1.24 172 181 180
9.78 0.50 -1.24 171 181 180
9.78 0.39 -1.24 171 181 180
9.78 0.28 -1.24 170 182 180
9.78 0.18 -1.24 169 181 179
9.78 0.07 -1.24 169 181 181
9.78 -0.04 -1.24 169 181 181
9.78 -0.15 -1.24 170 182 178
9.78 -0.25 -1.24 168 180 176
9.78 -0.36 -1.24 167 179 175
9.78 -0.47 -1.24 168 180 176
10.03 -0.54 -1.43 168 180 176
10.03 -0.65 -1.43 167 179 175
10.03 -0.75 -1.43 166 178 174
10.29 -0.83 -1.63 167 179 175
10.29 -0.94 -1.63 164 179 174
10.29 -1.05 -1.63 164 179 174
10.29 -1.15 -1.63 163 178 175
10.29 -1.26 -1.63 162 177 174
10.57 -1.34 -1.84 161 176 173
10.57 -1.44 -1.84 161 176 173
10.82 -1.52 -2.03 160 175 172
10.82 -1.63 -2.03 163 178 175
10.82 -1.74 -2.03 160 175 172
10.82 -1.85 -2.03 159 174 171
10.82 -1.96 -2.03 160 175 172
10.82 -2.07 -2.03 160 175 172
10.82 -2.18 -2.03 159 174 171
10.82 -2.29 -2.03 159 174 169
10.82 -2.40 -2.03 160 175 170
10.82 -2.51 -2.03 158 173 168
10.82 -2.62 -2.03 159 174 169
10.82 -2.73 -2.03 161 176 171
10.82 -2.84 -2.03 163 178 173
10.82 -2.95 -2.03 164 179 174
10.57 -3.08 -1.84 164 179 174
10.57 -3.19 -1.84 165 180 175
10.57 -3.29 -1.84 165 180 177
10.57 -3.40 -1.84 163 178 175
10.29 -3.53 -1.63 170 182 180
10.29 -3.64 -1.63 179 191 187
10.29 -3.75 -1.63 191 202 196
10.03 -3.88 -1.43 201 211 202
10.03 -3.98 -1.43 207 218 210
10.03 -4.09 -1.43 210 222 218
10.03 -4.20 -1.43 191 215 217
10.03 -4.31 -1.43 171 196 201
10.03 -4.41 -1.43 139 168 174
10.03 -4.52 -1.43 117 144 153
9.78 -4.64 -1.24 109 134 139
9.78 -4.75 -1.24 106 127 132
9.78 -4.86 -1.24 91 109 111
9.78 -4.97 -1.24 73 92 90
9.47 20.92 -1.14 72 68 67
9.47 20.81 -1.14 75 71 70
9.47 20.70 -1.14 73 69 66
9.47 20.60 -1.14 99 95 92
9.47 20.49 -1.14 144 141 136
9.47 20.38 -1.14 154 151 146
9.47 20.28 -1.14 152 149 142
9.47 20.17 -1.14 151 148 141
9.73 20.21 -1.33 146 143 136
9.73 20.10 -1.33 153 150 143
9.73 19.99 -1.33 155 152 145
9.73 19.88 -1.33 152 149 142
9.73 19.78 -1.33 155 152 145
9.73 19.67 -1.33 148 148 140
9.73 19.56 -1.33 150 151 143
9.73 19.46 -1.33 149 152 143
9.73 19.35 -1.33 151 152 144
9.73 19.24 -1.33 151 152 144
9.73 19.13 -1.33 150 151 143
9.73 19.03 -1.33 152 153 145
9.73 18.92 -1.33 153 154 146
9.73 18.81 -1.33 154 154 146
9.73 18.71 -1.33 154 154 146
9.73 18.60 -1.33 154 154 146
9.73 18.49 -1.33 154 154 146
9.73 18.38 -1.33 154 154 146
9.73 18.28 -1.33 153 153 145
9.73 18.17 -1.33 155 152 145
9.73 18.06 -1.33 156 153 146
9.73 17.96 -1.33 158 156 144
9.73 17.85 -1.33 157 155 143
9.73 17.74 -1.33 156 154 142
9.73 17.64 -1.33 156 154 142
9.73 17.53 -1.33 157 154 145
9.73 17.42 -1.33 158 155 146
9.73 17.31 -1.33 156 156 146
9.73 17.21 -1.33 156 156 146
9.73 17.10 -1.33 156 156 146
9.73 16.99 -1.33 157 157 147
9.73 16.89 -1.33 158 158 148
9.73 16.78 -1.33 158 158 148
9.73 16.67 -1.33 157 157 149
9.73 16.56 -1.33 157 157 149
9.73 16.46 -1.33 157 158 152
9.73 16.35 -1.33 156 157 151
9.73 16.24 -1.33 156 157 152
9.73 16.14 -1.33 157 156 152
9.73 16.03 -1.33 157 156 152
9.73 15.92 -1.33 158 157 152
9.73 15.81 -1.33 158 157 152
9.73 15.71 -1.33 158 157 152
9.73 15.60 -1.33 158 157 152
9.73 15.49 -1.33 157 156 151
9.73 15.39 -1.33 157 156 151
9.73 15.28 -1.33 157 158 153
9.73 15.17 -1.33 158 159 154
9.73 15.06 -1.33 158 160 155
9.73 14.96 -1.33 158 160 155
9.73 14.85 -1.33 158 160 157
9.73 14.74 -1.33 158 160 157
9.73 14.64 -1.33 159 160 154
9.73 14.53 -1.33 160 161 155
9.73 14.42 -1.33 161 162 157
9.73 14.31 -1.33 162 163 158
9.73 14.21 -1.33 162 163 158
9.73 14.10 -1.33 162 163 158
9.73 13.99 -1.33 162 162 160
9.73 13.89 -1.33 159 159 157
9.73 13.78 -1.33 161 161 159
9.73 13.67 -1.33 162 162 160
9.73 13.56 -1.33 162 162 160
9.47 13.35 -1.14 161 162 157
9.47 13.25 -1.14 161 162 157
9.47 13.14 -1.14 163 164 159
9.47 13.03 -1.14 164 165 160
9.47 12.93 -1.14 162 163 157
9.47 12.82 -1.14 162 163 157
9.73 12.82 -1.33 163 164 158
9.73 12.71 -1.33 163 164 158
9.47 12.50 -1.14 162 163 157
9.47 12.39 -1.14 161 162 156
9.47 12.29 -1.14 163 164 158
9.47 12.18 -1.14 164 165 159
9.47 12.07 -1.14 164 165 160
9.47 11.97 -1.14 164 165 160
9.47 11.86 -1.14 164 165 160
9.73 11.85 -1.33 164 165 160
9.73 11.74 -1.33 164 165 159
9.73 11.64 -1.33 165 166 160
9.73 11.53 -1.33 165 166 160
9.73 11.42 -1.33 165 168 161
9.73 11.32 -1.33 159 167 154
9.73 11.21 -1.33 160 168 155
9.73 11.10 -1.33 160 168 155
9.73 10.99 -1.33 161 167 157
9.73 10.89 -1.33 162 168 158
9.73 10.78 -1.33 162 168 158
9.73 10.67 -1.33 162 168 158
9.73 10.57 -1.33 164 167 158
9.73 10.46 -1.33 164 167 158
9.73 10.35 -1.33 164 167 160
9.73 10.24 -1.33 164 167 160
9.73 10.14 -1.33 165 166 160
9.73 10.03 -1.33 165 166 160
9.73 9.92 -1.33 166 167 161
9.73 9.82 -1.33 166 167 161
9.73 9.71 -1.33 169 169 161
9.73 9.60 -1.33 168 168 160
9.73 9.49 -1.33 167 168 160
9.73 9.39 -1.33 168 169 161
9.73 9.28 -1.33 166 172 162
9.73 9.17 -1.33 166 172 162
9.73 9.07 -1.33 165 173 162
9.73 8.96 -1.33 165 173 162
9.73 8.85 -1.33 164 174 163
9.73 8.74 -1.33 163 173 162
9.47 8.56 -1.14 163 173 162
9.47 8.45 -1.14 166 174 163
9.47 8.34 -1.14 166 174 163
9.73 8.32 -1.33 166 174 163
9.73 8.21 -1.33 167 172 165
9.73 8.10 -1.33 168 173 166
9.73 8.00 -1.33 170 172 167
9.73 7.89 -1.33 170 172 167
9.73 7.78 -1.33 171 173 168
9.73 7.67 -1.33 169 174 167
9.73 7.57 -1.33 168 173 166
9.73 7.46 -1.33 167 175 164
9.73 7.35 -1.33 166 174 163
9.73 7.25 -1.33 166 176 165
9.73 7.14 -1.33 165 175 164
9.73 7.03 -1.33 163 175 163
9.73 6.92 -1.33 163 175 163
9.73 6.82 -1.33 164 176 166
9.73 6.71 -1.33 165 177 167
9.73 6.60 -1.33 165 178 168
9.73 6.50 -1.33 166 178 168
9.73 6.39 -1.33 165 175 167
9.73 6.07 -1.33 169 175 171
9.73 5.96 -1.33 170 176 172
9.73 5.85 -1.33 167 176 173
9.73 5.75 -1.33 166 175 172
9.73 5.64 -1.33 166 177 173
9.73 5.53 -1.33 166 177 173
9.73 5.42 -1.33 166 177 173
9.73 5.32 -1.33 167 178 174
9.73 5.21 -1.33 167 178 172
9.73 5.10 -1.33 168 179 173
9.73 5.00 -1.33 167 180 173
9.73 4.89 -1.33 167 180 173
9.73 4.78 -1.33 168 179 175
9.73 4.67 -1.33 167 178 174
9.73 4.57 -1.33 167 178 174
9.73 4.46 -1.33 168 179 175
9.73 4.35 -1.33 169 180 176
9.47 4.19 -1.14 170 181 177
9.47 4.08 -1.14 169 180 176
9.47 3.97 -1.14 168 179 175
9.47 3.87 -1.14 170 181 177
9.47 3.76 -1.14 170 181 177
9.47 3.65 -1.14 169 180 176
9.47 3.55 -1.14 169 180 176
9.47 3.44 -1.14 169 180 176
9.47 3.33 -1.14 170 181 177
9.47 3.23 -1.14 170 181 177
9.47 3.12 -1.14 171 180 177
9.47 3.01 -1.14 171 180 177
9.47 2.91 -1.14 170 181 177
9.47 2.80 -1.14 171 182 178
9.47 2.70 -1.14 171 182 178
9.47 2.59 -1.14 171 182 178
9.73 2.53 -1.33 171 182 178
9.73 2.43 -1.33 172 183 179
9.73 2.32 -1.33 173 184 180
9.73 2.21 -1.33 173 184 180
9.73 2.10 -1.33 172 184 180
9.73 2.00 -1.33 171 183 179
9.73 1.89 -1.33 171 183 179
9.73 1.78 -1.33 171 183 179
9.73 1.68 -1.33 170 182 178
9.73 1.57 -1.33 170 182 178
9.47 1.42 -1.14 171 182 176
9.47 1.31 -1.14 171 182 176
9.47 1.20 -1.14 171 182 176
9.47 1.10 -1.14 171 182 176
9.47 0.99 -1.14 171 180 175
9.47 0.88 -1.14 171 180 177
9.47 0.78 -1.14 171 180 177
