ply
format ascii 1.0
element vertex 1673
property float x
property float y
property float z
property uchar red
property uchar green
property uchar blue
end_header
9.78 9.49 -1.24 166 168 163
9.78 9.39 -1.24 166 168 163
9.78 9.28 -1.24 164 169 162
9.78 9.17 -1.24 164 169 162
9.78 9.07 -1.24 164 172 161
9.78 8.96 -1.24 165 173 162
9.78 8.85 -1.24 165 172 164
9.78 8.74 -1.24 165 172 165
9.78 8.64 -1.24 165 172 165
9.78 8.53 -1.24 165 171 167
9.78 8.42 -1.24 164 170 166
9.78 8.32 -1.24 164 170 168
9.78 8.21 -1.24 164 170 168
9.78 8.10 -1.24 156 162 158
-4.98 3.41 10.01 154 160 156
-4.98 3.34 10.01 148 157 152
-4.98 3.26 10.01 141 150 145
-4.98 3.19 10.01 133 145 141
-4.98 3.11 10.01 124 139 136
-4.98 3.04 10.01 114 130 129
-4.98 2.96 10.01 103 122 126
-4.98 2.89 10.01 86 113 124
-4.98 2.81 10.01 70 98 120
-4.98 2.74 10.01 50 85 117
-4.98 2.66 10.01 32 68 116
-4.98 2.59 10.01 8 49 113
-4.98 2.51 10.01 0 40 118
-4.98 2.44 10.01 0 44 131
-4.98 2.36 10.01 6 50 149
-4.98 2.29 10.01 1 48 156
-4.98 2.21 10.01 0 48 158
-5.10 2.10 10.09 0 50 146
-5.10 2.03 10.09 5 60 160
-5.10 1.95 10.09 6 60 160
-5.10 1.88 10.09 9 57 155
-5.10 1.80 10.09 20 62 144
-5.10 1.73 10.09 48 89 135
-5.10 1.65 10.09 82 114 135
-5.10 1.58 10.09 119 145 142
-4.98 1.53 10.01 147 165 153
-4.98 1.46 10.01 164 174 163
-4.98 1.38 10.01 173 176 167
-4.84 1.19 9.90 178 185 169
-4.84 1.12 9.90 174 186 166
-4.84 1.04 9.90 171 183 161
-4.84 0.97 9.90 169 181 159
-4.84 0.89 9.90 171 180 159
-4.84 0.81 9.90 172 181 162
-4.84 0.74 9.90 172 181 162
-4.84 0.66 9.90 170 178 163
9.02 3.54 -0.66 170 179 174
9.02 3.44 -0.66 171 180 177
9.27 3.39 -0.86 170 181 177
9.27 3.28 -0.86 169 182 173
9.53 3.01 -1.05 170 182 172
9.53 2.91 -1.05 170 182 172
9.78 2.85 -1.24 171 183 173
9.53 2.70 -1.05 173 184 176
9.53 2.59 -1.05 173 184 176
9.78 2.53 -1.24 172 183 175
9.78 2.43 -1.24 171 182 174
9.78 2.32 -1.24 173 184 178
9.78 2.21 -1.24 173 184 178
9.78 2.10 -1.24 172 185 178
9.78 2.00 -1.24 171 184 177
9.78 1.89 -1.24 171 184 177
9.78 1.78 -1.24 171 184 177
9.78 1.68 -1.24 170 182 178
9.78 1.57 -1.24 171 182 178
9.78 1.46 -1.24 169 180 176
9.53 1.31 -1.05 171 180 177
9.53 1.20 -1.05 172 181 178
9.53 1.10 -1.05 173 182 179
9.78 1.03 -1.24 173 182 179
9.78 0.93 -1.24 170 181 177
9.78 0.82 -1.24 169 180 176
9.78 0.71 -1.24 171 182 178
9.78 0.60 -1.24 171 182 178
9.78 0.50 -1.24 171 183 179
9.78 0.39 -1.24 171 183 179
9.78 0.28 -1.24 171 183 179
9.78 0.18 -1.24 170 182 178
9.78 0.07 -1.24 169 181 177
9.78 -0.04 -1.24 169 181 177
9.78 -0.15 -1.24 169 182 175
9.78 -0.25 -1.24 168 181 174
9.78 -0.36 -1.24 168 181 174
10.03 -0.43 -1.43 168 181 174
10.03 -0.54 -1.43 168 180 176
10.03 -0.65 -1.43 167 179 175
10.03 -0.75 -1.43 166 178 174
10.29 -0.83 -1.63 165 177 173
10.29 -0.94 -1.63 165 177 173
10.29 -1.05 -1.63 165 177 173
10.29 -1.15 -1.63 164 176 172
10.29 -1.26 -1.63 162 174 170
10.57 -1.34 -1.84 161 173 171
10.57 -1.44 -1.84 161 173 171
10.57 -1.55 -1.84 165 177 175
10.82 -1.63 -2.03 164 175 169
10.82 -1.74 -2.03 163 174 168
10.82 -1.85 -2.03 163 174 170
10.82 -1.96 -2.03 163 174 170
10.82 -2.07 -2.03 163 175 171
10.82 -2.18 -2.03 162 174 170
10.82 -2.29 -2.03 162 174 170
10.82 -2.40 -2.03 164 176 172
10.82 -2.51 -2.03 161 176 171
10.82 -2.62 -2.03 163 178 173
10.82 -2.73 -2.03 164 179 174
10.82 -2.84 -2.03 163 178 173
10.82 -2.95 -2.03 161 178 172
10.57 -3.08 -1.84 161 178 172
10.57 -3.19 -1.84 162 178 175
10.57 -3.29 -1.84 162 178 175
10.57 -3.40 -1.84 165 181 178
10.29 -3.53 -1.63 170 185 180
10.29 -3.64 -1.63 177 192 185
10.29 -3.75 -1.63 188 199 191
10.03 -3.88 -1.43 198 209 201
10.03 -3.98 -1.43 204 215 209
10.03 -4.09 -1.43 202 217 214
10.03 -4.20 -1.43 191 215 219
10.03 -4.31 -1.43 173 198 205
9.78 -4.43 -1.24 143 172 178
9.78 -4.54 -1.24 121 148 155
9.78 -4.64 -1.24 112 140 144
9.78 -4.75 -1.24 107 131 133
9.78 -4.86 -1.24 89 109 108
9.78 -4.97 -1.24 66 84 84
9.78 -5.07 -1.24 64 84 85
9.78 -5.18 -1.24 64 83 87
9.73 20.63 -1.33 152 151 147
9.73 20.53 -1.33 161 160 156
9.73 20.42 -1.33 152 149 144
9.73 20.31 -1.33 151 148 143
9.73 20.21 -1.33 152 149 142
9.73 20.10 -1.33 155 152 145
9.73 19.99 -1.33 155 152 145
9.73 19.88 -1.33 152 149 142
9.73 19.78 -1.33 150 147 140
9.73 19.67 -1.33 151 148 141
9.73 19.56 -1.33 151 151 141
9.73 19.46 -1.33 153 153 143
9.73 19.35 -1.33 154 154 144
9.73 19.24 -1.33 153 153 143
9.73 19.13 -1.33 152 152 144
9.73 19.03 -1.33 153 152 147
9.73 18.92 -1.33 151 150 145
9.73 18.81 -1.33 153 152 147
9.73 18.71 -1.33 153 152 147
9.73 18.60 -1.33 155 154 150
9.73 18.49 -1.33 155 154 150
9.73 18.38 -1.33 155 154 150
9.73 18.28 -1.33 155 154 150
9.73 18.17 -1.33 154 153 149
9.73 18.06 -1.33 154 153 148
9.73 17.96 -1.33 156 153 146
9.73 17.85 -1.33 156 153 144
9.73 17.74 -1.33 154 154 144
9.98 17.76 -1.53 154 154 144
9.98 17.66 -1.53 155 155 145
9.73 17.42 -1.33 155 155 145
9.73 17.31 -1.33 156 156 148
9.73 17.21 -1.33 156 156 148
9.73 17.10 -1.33 156 156 148
9.73 16.99 -1.33 157 157 149
9.73 16.89 -1.33 157 158 150
9.73 16.78 -1.33 157 158 150
9.73 16.67 -1.33 157 158 150
9.73 16.56 -1.33 157 158 150
9.73 16.46 -1.33 157 158 150
9.73 16.35 -1.33 156 157 149
9.73 16.24 -1.33 157 158 150
9.73 16.14 -1.33 158 159 151
9.73 16.03 -1.33 158 159 151
9.73 15.92 -1.33 158 158 150
9.73 15.81 -1.33 157 157 149
9.73 15.71 -1.33 158 158 150
9.73 15.60 -1.33 160 160 152
9.73 15.49 -1.33 159 159 151
9.73 15.39 -1.33 159 159 151
9.73 15.28 -1.33 160 160 152
9.73 15.17 -1.33 160 160 152
9.73 15.06 -1.33 162 159 152
9.73 14.96 -1.33 161 158 151
9.73 14.85 -1.33 161 158 151
9.73 14.74 -1.33 161 158 151
9.73 14.64 -1.33 161 163 152
9.73 14.53 -1.33 161 163 152
9.73 14.42 -1.33 161 163 152
9.73 14.31 -1.33 161 163 152
9.73 14.21 -1.33 161 162 154
9.73 14.10 -1.33 161 162 154
9.73 13.99 -1.33 160 163 154
9.73 13.89 -1.33 159 162 153
9.73 13.78 -1.33 160 163 154
9.47 13.56 -1.14 161 164 157
9.47 13.46 -1.14 161 164 157
9.47 13.35 -1.14 161 164 157
9.47 13.25 -1.14 160 163 156
9.47 13.14 -1.14 160 163 156
9.47 13.03 -1.14 161 164 157
9.47 12.93 -1.14 162 164 153
9.73 12.92 -1.33 162 164 153
9.73 12.82 -1.33 162 164 153
9.73 12.71 -1.33 162 164 153
9.73 12.60 -1.33 162 164 153
9.73 12.49 -1.33 163 165 154
9.73 12.39 -1.33 163 165 154
9.47 12.18 -1.14 163 165 154
9.47 12.07 -1.14 161 162 154
9.47 11.97 -1.14 162 163 155
9.47 11.86 -1.14 163 164 158
9.73 11.85 -1.33 164 165 159
9.73 11.74 -1.33 164 165 159
9.73 11.64 -1.33 164 165 159
9.73 11.53 -1.33 164 165 160
9.73 11.42 -1.33 165 166 161
9.73 11.32 -1.33 163 166 157
9.73 11.21 -1.33 163 166 157
9.73 11.10 -1.33 163 166 157
9.73 10.99 -1.33 163 166 157
9.73 10.89 -1.33 163 166 157
9.73 10.78 -1.33 164 167 158
9.73 10.67 -1.33 164 167 158
9.73 10.57 -1.33 162 165 156
9.73 10.46 -1.33 163 166 157
9.73 10.35 -1.33 163 166 159
9.73 10.24 -1.33 163 166 159
9.73 10.14 -1.33 163 166 159
9.73 10.03 -1.33 164 167 160
9.73 9.92 -1.33 165 168 161
9.73 9.82 -1.33 166 168 163
9.73 9.71 -1.33 168 169 164
9.73 9.60 -1.33 168 168 166
9.73 9.49 -1.33 168 168 166
9.73 9.39 -1.33 168 168 166
9.73 9.28 -1.33 167 169 164
9.73 9.17 -1.33 168 170 165
9.73 9.07 -1.33 167 172 165
9.73 8.96 -1.33 168 173 166
9.73 8.85 -1.33 165 172 164
9.73 8.74 -1.33 166 173 165
9.47 8.56 -1.14 166 173 165
9.47 8.45 -1.14 166 173 166
9.47 8.34 -1.14 165 172 165
9.73 8.32 -1.33 166 171 167
9.73 8.21 -1.33 166 171 167
9.73 8.10 -1.33 160 165 161
-5.02 3.41 9.94 158 163 159
-5.02 3.34 9.94 152 158 154
-5.02 3.26 9.94 145 151 147
-5.02 3.19 9.94 137 146 141
-5.02 3.11 9.94 130 141 137
-5.02 3.04 9.94 120 135 130
-5.02 2.96 9.94 110 128 128
-5.02 2.89 9.94 95 118 124
-5.02 2.81 9.94 80 106 123
-5.02 2.74 9.94 64 95 123
-5.02 2.66 9.94 49 82 125
-5.02 2.59 9.94 24 63 120
-5.02 2.51 9.94 5 45 115
-5.02 2.44 9.94 0 42 121
-5.02 2.36 9.94 0 47 129
-5.02 2.29 9.94 0 43 122
-5.02 2.21 9.94 1 56 136
-5.13 2.10 10.03 5 63 145
-5.13 2.03 10.03 0 50 157
-5.13 1.95 10.03 0 51 166
-5.13 1.88 10.03 31 79 187
-5.13 1.80 10.03 70 111 203
-5.02 1.76 9.94 96 130 191
-5.02 1.68 9.94 119 148 180
-5.02 1.61 9.94 139 164 171
-5.02 1.53 9.94 147 168 159
-5.02 1.46 9.94 149 172 156
-5.02 1.38 9.94 156 177 158
-4.88 1.19 9.84 163 180 164
-4.88 1.12 9.84 167 179 165
-4.88 1.04 9.84 167 180 162
-4.88 0.97 9.84 168 181 163
-4.88 0.89 9.84 171 182 165
-4.88 0.81 9.84 173 184 168
-4.77 0.76 9.75 171 182 166
-4.77 0.69 9.75 169 179 168
8.97 3.54 -0.75 169 180 174
8.97 3.44 -0.75 170 181 175
9.22 3.39 -0.95 169 182 175
9.22 3.28 -0.95 168 181 172
9.47 3.01 -1.14 170 181 173
9.47 2.91 -1.14 171 182 174
9.47 2.80 -1.14 172 183 175
9.47 2.70 -1.14 173 184 176
9.47 2.59 -1.14 174 185 177
9.47 2.48 -1.14 173 184 176
9.47 2.38 -1.14 172 183 175
9.47 2.27 -1.14 171 182 176
9.47 2.16 -1.14 171 182 176
9.47 2.06 -1.14 171 182 176
9.47 1.95 -1.14 171 182 176
9.47 1.84 -1.14 171 182 176
9.47 1.74 -1.14 171 182 176
9.47 1.63 -1.14 170 181 177
9.47 1.52 -1.14 170 181 177
9.47 1.42 -1.14 171 180 177
9.47 1.31 -1.14 172 181 178
9.47 1.20 -1.14 173 182 179
9.47 1.10 -1.14 174 183 180
9.47 0.99 -1.14 174 183 180
9.47 0.88 -1.14 172 183 179
9.47 0.78 -1.14 172 183 179
9.73 0.71 -1.33 171 182 178
9.73 0.60 -1.33 172 183 179
9.73 0.50 -1.33 171 183 179
9.47 0.35 -1.14 171 183 179
9.47 0.24 -1.14 171 183 179
9.47 0.14 -1.14 170 182 178
9.73 0.07 -1.33 170 182 178
9.73 -0.04 -1.33 169 181 177
9.73 -0.15 -1.33 168 181 174
9.73 -0.25 -1.33 168 181 174
9.73 -0.36 -1.33 168 181 174
9.47 -0.50 -1.14 168 181 174
9.47 -0.61 -1.14 169 182 175
9.73 -0.68 -1.33 169 182 175
9.73 -0.79 -1.33 169 181 177
9.73 -0.89 -1.33 168 180 176
9.47 -1.03 -1.14 165 177 173
9.47 -1.14 -1.14 165 177 173
9.47 -1.25 -1.14 164 176 172
9.47 -1.35 -1.14 164 176 172
9.73 -1.43 -1.33 164 176 172
9.98 -1.51 -1.53 165 177 173
9.98 -1.62 -1.53 168 180 176
9.98 -1.72 -1.53 165 178 171
10.51 -1.77 -1.93 164 177 170
10.51 -1.88 -1.93 164 177 170
10.51 -1.99 -1.93 164 177 170
10.51 -2.10 -1.93 164 177 170
10.51 -2.21 -1.93 164 177 170
10.51 -2.32 -1.93 164 177 170
10.76 -2.40 -2.13 165 178 171
10.76 -2.51 -2.13 159 174 167
10.51 -2.64 -1.93 161 176 169
10.51 -2.75 -1.93 162 177 170
10.51 -2.86 -1.93 162 177 170
10.51 -2.97 -1.93 162 177 170
10.51 -3.08 -1.93 163 178 171
10.51 -3.19 -1.93 165 180 173
10.23 -3.32 -1.72 166 181 174
10.23 -3.43 -1.72 163 182 176
10.23 -3.53 -1.72 164 181 175
10.23 -3.64 -1.72 165 181 171
9.98 -3.77 -1.53 169 180 172
9.98 -3.88 -1.53 173 183 174
9.98 -3.98 -1.53 179 186 179
9.98 -4.09 -1.53 180 190 182
9.98 -4.20 -1.53 187 199 199
9.73 -4.32 -1.33 192 206 207
9.73 -4.43 -1.33 199 217 219
9.73 -4.54 -1.33 207 225 225
9.73 -4.64 -1.33 215 231 230
9.73 -4.75 -1.33 215 230 225
9.73 -4.86 -1.33 206 221 214
9.47 -4.98 -1.14 198 211 204
9.47 -5.08 -1.14 174 188 188
9.73 -5.18 -1.33 146 160 161
9.17 20.98 -1.04 61 60 58
9.17 20.88 -1.04 66 65 63
9.17 20.77 -1.04 67 66 62
9.17 20.67 -1.04 48 47 43
9.42 20.70 -1.23 107 106 101
9.42 20.60 -1.23 158 157 152
9.42 20.49 -1.23 157 157 147
9.67 20.53 -1.43 148 148 138
9.42 20.28 -1.23 149 149 137
9.42 20.17 -1.23 151 151 139
9.67 20.21 -1.43 154 152 140
9.67 20.10 -1.43 152 150 138
9.67 19.99 -1.43 151 149 137
9.67 19.88 -1.43 151 149 137
9.67 19.78 -1.43 152 150 138
9.67 19.67 -1.43 154 152 140
9.67 19.56 -1.43 152 152 142
9.67 19.46 -1.43 153 153 143
9.67 19.35 -1.43 153 153 143
9.67 19.24 -1.43 152 152 142
9.67 19.13 -1.43 152 152 144
9.67 19.03 -1.43 154 154 146
9.67 18.92 -1.43 153 153 145
9.67 18.81 -1.43 154 154 146
9.42 18.57 -1.23 154 154 146
9.42 18.47 -1.23 154 153 148
9.42 18.36 -1.23 154 153 148
9.42 18.25 -1.23 155 154 150
9.42 18.15 -1.23 155 154 150
9.42 18.04 -1.23 155 154 150
9.42 17.93 -1.23 155 154 149
9.42 17.83 -1.23 156 153 146
9.42 17.72 -1.23 156 153 144
9.67 17.74 -1.43 156 153 144
9.67 17.64 -1.43 157 154 145
9.67 17.53 -1.43 157 154 145
9.67 17.42 -1.43 158 155 146
9.67 17.31 -1.43 156 156 148
9.67 17.21 -1.43 156 156 148
9.67 17.10 -1.43 156 156 148
9.67 16.99 -1.43 156 156 148
9.67 16.89 -1.43 157 157 149
9.67 16.78 -1.43 158 158 150
9.67 16.67 -1.43 157 157 149
9.67 16.56 -1.43 157 157 149
9.42 16.34 -1.23 157 158 150
9.42 16.23 -1.23 155 156 148
9.42 16.12 -1.23 156 157 149
9.42 16.02 -1.23 158 159 151
9.42 15.91 -1.23 157 158 150
9.42 15.80 -1.23 157 157 149
9.42 15.70 -1.23 157 157 149
9.42 15.59 -1.23 159 159 151
9.42 15.48 -1.23 160 160 152
9.42 15.38 -1.23 158 158 150
9.42 15.27 -1.23 159 159 151
9.42 15.16 -1.23 159 159 151
9.42 15.06 -1.23 160 160 152
9.42 14.95 -1.23 162 159 152
9.42 14.84 -1.23 161 158 151
9.42 14.74 -1.23 161 158 151
9.67 14.74 -1.43 158 158 150
9.67 14.64 -1.43 160 162 151
9.67 14.53 -1.43 159 162 151
9.42 14.31 -1.23 160 163 154
9.67 14.31 -1.43 160 163 154
9.67 14.21 -1.43 161 162 154
9.42 13.99 -1.23 161 162 154
9.42 13.88 -1.23 161 162 154
9.42 13.78 -1.23 161 162 154
9.42 13.67 -1.23 161 162 154
9.42 13.56 -1.23 162 163 157
9.42 13.46 -1.23 162 163 157
9.42 13.35 -1.23 162 163 155
9.42 13.25 -1.23 162 163 155
9.42 13.14 -1.23 162 163 155
9.42 13.03 -1.23 162 163 155
9.42 12.93 -1.23 160 163 152
9.42 12.82 -1.23 161 164 153
9.42 12.71 -1.23 162 165 154
9.42 12.61 -1.23 162 165 154
9.42 12.50 -1.23 162 165 156
9.42 12.39 -1.23 162 165 156
9.42 12.29 -1.23 161 164 155
9.42 12.18 -1.23 161 164 155
9.42 12.07 -1.23 159 162 155
9.42 11.97 -1.23 160 163 156
9.42 11.86 -1.23 161 164 157
9.42 11.75 -1.23 162 165 158
9.67 11.74 -1.43 162 165 158
9.67 11.64 -1.43 162 165 158
9.42 11.43 -1.23 162 165 158
9.42 11.33 -1.23 163 166 159
9.42 11.22 -1.23 163 166 157
9.67 11.21 -1.43 163 166 157
9.67 11.10 -1.43 163 166 157
9.67 10.99 -1.43 164 165 157
9.67 10.89 -1.43 164 165 157
9.67 10.78 -1.43 165 166 160
9.67 10.67 -1.43 165 166 160
9.67 10.57 -1.43 162 165 158
9.67 10.46 -1.43 163 166 159
9.67 10.35 -1.43 164 167 160
9.67 10.24 -1.43 164 167 160
9.67 10.14 -1.43 164 167 160
9.67 10.03 -1.43 164 167 160
9.67 9.92 -1.43 165 168 161
9.67 9.82 -1.43 166 168 163
9.67 9.71 -1.43 168 169 164
9.67 9.60 -1.43 167 167 165
9.67 9.49 -1.43 167 167 165
9.67 9.39 -1.43 168 168 166
9.42 9.20 -1.23 167 169 164
9.42 9.09 -1.23 168 170 165
9.42 8.98 -1.23 167 172 166
9.42 8.88 -1.23 168 173 167
9.42 8.77 -1.23 163 170 162
9.42 8.66 -1.23 166 173 165
9.42 8.56 -1.23 166 173 165
9.42 8.45 -1.23 166 173 166
9.42 8.34 -1.23 165 172 165
9.42 8.24 -1.23 166 171 165
9.42 8.13 -1.23 167 172 168
9.42 8.02 -1.23 164 169 165
9.42 7.92 -1.23 162 166 165
9.42 7.81 -1.23 156 160 159
9.42 7.70 -1.23 149 153 152
9.42 7.60 -1.23 140 149 146
-5.06 3.11 9.88 133 143 142
-5.06 3.04 9.88 126 138 136
-5.06 2.96 9.88 118 133 136
-5.06 2.89 9.88 104 123 129
-5.06 2.81 9.88 89 111 125
-5.06 2.74 9.88 70 98 122
-5.06 2.66 9.88 57 87 125
-5.06 2.59 9.88 39 73 121
-5.06 2.51 9.88 19 55 117
-5.06 2.44 9.88 6 45 114
-5.06 2.36 9.88 8 44 130
-5.06 2.29 9.88 13 46 153
-5.06 2.21 9.88 12 42 156
-5.06 2.14 9.88 5 40 144
-5.06 2.06 9.88 12 53 107
-5.17 1.95 9.96 32 73 101
-5.17 1.88 9.96 64 102 103
-5.17 1.80 9.96 99 129 119
-5.17 1.73 9.96 132 150 138
-5.06 1.68 9.88 154 161 153
-5.06 1.61 9.88 171 173 168
-5.06 1.53 9.88 177 176 174
-5.06 1.46 9.88 176 178 173
-5.06 1.38 9.88 175 180 176
-4.92 1.34 9.77 169 178 175
-4.92 1.27 9.77 163 174 170
-4.92 1.19 9.77 167 178 170
-4.92 1.12 9.77 169 181 171
-4.92 1.04 9.77 171 183 169
-4.92 0.97 9.77 170 182 168
8.92 3.54 -0.85 170 181 175
8.92 3.44 -0.85 170 181 177
9.17 3.39 -1.04 168 181 174
9.17 3.28 -1.04 166 182 171
9.42 3.01 -1.23 170 181 173
9.17 2.86 -1.04 171 182 174
9.42 2.80 -1.23 172 183 175
9.42 2.70 -1.23 173 184 178
9.42 2.59 -1.23 173 184 178
9.42 2.48 -1.23 172 183 177
9.42 2.38 -1.23 172 183 177
9.42 2.27 -1.23 171 182 176
9.42 2.16 -1.23 171 182 176
9.42 2.06 -1.23 171 182 176
9.42 1.95 -1.23 171 182 176
9.42 1.84 -1.23 171 182 176
9.42 1.74 -1.23 171 182 176
9.42 1.63 -1.23 170 181 175
9.42 1.52 -1.23 170 181 175
9.42 1.42 -1.23 172 183 179
9.17 1.27 -1.04 171 182 178
9.17 1.16 -1.04 171 182 178
9.17 1.05 -1.04 171 182 178
9.42 0.99 -1.23 171 182 178
9.42 0.88 -1.23 171 182 178
9.42 0.78 -1.23 171 182 178
9.42 0.67 -1.23 172 183 179
9.42 0.56 -1.23 172 183 179
9.42 0.46 -1.23 172 183 179
9.42 0.35 -1.23 172 183 179
9.42 0.24 -1.23 172 183 179
9.42 0.14 -1.23 171 182 178
9.42 0.03 -1.23 171 182 178
9.42 -0.08 -1.23 170 181 177
9.42 -0.18 -1.23 169 182 175
9.42 -0.29 -1.23 168 181 174
9.42 -0.40 -1.23 169 182 175
9.42 -0.50 -1.23 169 182 175
9.42 -0.61 -1.23 170 183 176
9.42 -0.71 -1.23 171 184 177
9.42 -0.82 -1.23 170 183 176
9.42 -0.93 -1.23 170 183 176
9.42 -1.03 -1.23 171 183 179
9.42 -1.14 -1.23 169 181 177
9.42 -1.25 -1.23 167 179 175
9.42 -1.35 -1.23 167 179 175
9.42 -1.46 -1.23 167 179 175
9.42 -1.57 -1.23 167 179 175
9.67 -1.64 -1.43 165 177 173
9.67 -1.75 -1.43 165 178 171
9.67 -1.86 -1.43 165 178 171
10.18 -1.91 -1.81 165 178 171
10.18 -2.02 -1.81 165 178 171
10.18 -2.13 -1.81 165 178 171
10.18 -2.24 -1.81 166 179 172
10.18 -2.34 -1.81 166 179 172
10.18 -2.45 -1.81 166 179 172
10.46 -2.53 -2.03 171 186 179
10.46 -2.64 -2.03 169 184 177
10.46 -2.75 -2.03 166 181 174
10.46 -2.86 -2.03 164 179 172
10.46 -2.97 -2.03 163 178 171
10.18 -3.10 -1.81 163 178 171
10.18 -3.21 -1.81 164 179 172
10.18 -3.32 -1.81 165 182 176
10.18 -3.43 -1.81 162 181 175
10.18 -3.53 -1.81 164 183 179
9.93 -3.66 -1.62 168 187 181
9.93 -3.77 -1.62 174 189 184
9.93 -3.88 -1.62 179 192 185
9.93 -3.98 -1.62 181 190 185
9.93 -4.09 -1.62 180 189 186
9.67 -4.22 -1.43 181 190 189
9.67 -4.32 -1.43 183 192 191
9.67 -4.43 -1.43 182 194 192
9.42 -4.55 -1.23 182 194 192
9.42 -4.66 -1.23 180 192 188
9.42 -4.76 -1.23 181 193 189
9.42 -4.87 -1.23 184 200 190
9.42 -4.98 -1.23 191 204 197
9.17 -5.10 -1.04 200 211 205
9.42 -5.19 -1.23 214 223 220
9.12 20.98 -1.13 56 52 51
9.12 20.88 -1.13 75 69 69
9.12 20.77 -1.13 119 115 112
9.12 20.67 -1.13 157 153 150
9.12 20.56 -1.13 146 145 140
9.37 20.60 -1.32 153 152 147
9.37 20.49 -1.32 144 145 137
9.37 20.38 -1.32 153 154 146
9.37 20.28 -1.32 147 149 138
9.37 20.17 -1.32 147 149 138
9.37 20.07 -1.32 149 149 139
9.37 19.96 -1.32 151 151 141
9.37 19.85 -1.32 155 152 143
9.37 19.75 -1.32 156 153 144
9.37 19.64 -1.32 154 151 142
9.37 19.53 -1.32 152 149 140
9.37 19.43 -1.32 151 151 143
9.37 19.32 -1.32 152 152 144
9.37 19.21 -1.32 152 152 142
9.37 19.11 -1.32 152 152 142
9.37 19.00 -1.32 156 153 144
9.37 18.89 -1.32 158 154 145
9.37 18.79 -1.32 155 151 142
9.37 18.68 -1.32 157 153 144
9.37 18.57 -1.32 156 152 143
9.37 18.47 -1.32 155 152 145
9.37 18.36 -1.32 156 153 148
9.37 18.25 -1.32 156 155 150
9.37 18.15 -1.32 157 156 152
9.37 18.04 -1.32 156 155 151
9.37 17.93 -1.32 156 155 150
9.37 17.83 -1.32 159 156 149
9.37 17.72 -1.32 159 156 147
9.37 17.61 -1.32 159 156 147
9.37 17.51 -1.32 158 155 146
9.62 17.53 -1.52 158 155 146
9.37 17.29 -1.32 158 155 146
9.37 17.19 -1.32 158 155 148
9.37 17.08 -1.32 159 156 149
9.37 16.97 -1.32 156 156 148
9.37 16.87 -1.32 157 157 149
9.37 16.76 -1.32 158 158 150
9.37 16.66 -1.32 158 158 150
9.37 16.55 -1.32 158 158 150
9.37 16.44 -1.32 158 158 150
9.37 16.34 -1.32 159 159 151
9.37 16.23 -1.32 158 159 151
9.37 16.12 -1.32 157 158 150
9.37 16.02 -1.32 156 157 149
9.37 15.91 -1.32 156 157 149
9.37 15.80 -1.32 158 158 150
9.37 15.70 -1.32 159 159 151
9.37 15.59 -1.32 159 159 151
9.37 15.48 -1.32 159 159 151
9.12 15.26 -1.13 159 159 151
9.12 15.15 -1.13 159 159 151
9.12 15.05 -1.13 160 160 152
9.37 15.06 -1.32 160 160 152
9.37 14.95 -1.32 163 160 153
9.37 14.84 -1.32 162 159 152
9.37 14.74 -1.32 162 159 152
9.37 14.63 -1.32 160 160 152
9.37 14.52 -1.32 157 159 148
9.37 14.42 -1.32 157 160 149
9.37 14.31 -1.32 158 161 152
9.37 14.20 -1.32 159 162 153
9.37 14.10 -1.32 160 161 155
9.37 13.99 -1.32 161 162 156
9.37 13.88 -1.32 161 162 156
9.37 13.78 -1.32 161 162 156
9.37 13.67 -1.32 162 163 157
9.37 13.56 -1.32 163 163 155
9.37 13.46 -1.32 164 164 156
9.37 13.35 -1.32 163 163 155
9.37 13.25 -1.32 163 163 155
9.12 13.03 -1.13 164 164 154
9.12 12.93 -1.13 164 164 156
9.12 12.82 -1.13 162 165 156
9.37 12.82 -1.32 162 165 158
9.37 12.71 -1.32 163 166 159
9.37 12.61 -1.32 162 165 158
9.37 12.50 -1.32 161 163 158
9.37 12.39 -1.32 161 163 158
9.37 12.29 -1.32 162 164 159
9.12 12.08 -1.13 163 165 160
9.37 12.07 -1.32 161 164 157
9.37 11.97 -1.32 162 165 158
9.37 11.86 -1.32 163 166 157
9.37 11.75 -1.32 164 167 158
9.37 11.65 -1.32 163 166 155
9.37 11.54 -1.32 163 166 155
9.37 11.43 -1.32 164 167 156
9.37 11.33 -1.32 164 167 158
9.37 11.22 -1.32 166 167 161
9.37 11.11 -1.32 166 167 161
9.37 11.01 -1.32 166 167 161
9.37 10.90 -1.32 166 165 160
9.37 10.79 -1.32 166 165 160
9.37 10.69 -1.32 165 164 160
9.37 10.58 -1.32 165 164 160
9.37 10.47 -1.32 168 167 163
9.37 10.37 -1.32 168 167 163
9.62 10.35 -1.52 167 168 163
9.62 10.24 -1.52 166 167 162
9.37 10.05 -1.32 164 166 161
9.37 9.94 -1.32 164 166 161
9.37 9.84 -1.32 164 169 163
9.37 9.73 -1.32 164 169 163
9.37 9.62 -1.32 166 168 163
9.37 9.52 -1.32 166 168 163
9.37 9.41 -1.32 164 169 163
9.37 9.30 -1.32 164 169 163
9.37 9.20 -1.32 163 170 163
9.37 9.09 -1.32 164 171 164
9.37 8.98 -1.32 163 173 165
9.37 8.88 -1.32 163 173 165
9.37 8.77 -1.32 162 172 164
9.37 8.66 -1.32 164 174 166
9.37 8.56 -1.32 163 173 165
9.37 8.45 -1.32 162 172 164
9.37 8.34 -1.32 162 172 164
9.37 8.24 -1.32 163 173 165
9.37 8.13 -1.32 165 175 166
9.37 8.02 -1.32 162 174 162
9.37 7.92 -1.32 162 174 162
9.37 7.81 -1.32 161 171 160
9.37 7.70 -1.32 155 165 157
9.37 7.60 -1.32 149 158 153
-5.10 3.11 9.81 144 153 152
-5.10 3.04 9.81 136 146 145
-5.10 2.96 9.81 131 141 143
-5.10 2.89 9.81 110 124 127
-5.10 2.81 9.81 109 124 131
-5.10 2.74 9.81 97 115 127
-5.10 2.66 9.81 83 104 121
-5.10 2.59 9.81 67 92 112
-5.10 2.51 9.81 41 67 94
-5.10 2.44 9.81 14 43 73
-5.10 2.36 9.81 9 35 60
-5.10 2.29 9.81 18 41 47
-5.10 2.21 9.81 62 80 80
-5.10 2.14 9.81 113 126 134
-5.10 2.06 9.81 180 182 197
-5.10 1.98 9.81 188 187 201
-5.21 1.88 9.90 183 183 195
-5.21 1.80 9.90 181 181 191
-5.10 1.76 9.81 173 178 182
-5.10 1.68 9.81 170 178 181
-5.10 1.61 9.81 168 178 177
-5.10 1.53 9.81 166 178 176
-5.10 1.46 9.81 164 179 172
-5.10 1.38 9.81 164 179 172
-5.10 1.31 9.81 164 179 172
-4.96 1.27 9.71 165 178 171
-4.96 1.19 9.71 166 179 170
-4.96 1.12 9.71 169 180 172
-4.96 1.04 9.71 170 180 171
-4.96 0.97 9.71 169 179 170
8.86 3.54 -0.94 172 182 181
8.86 3.44 -0.94 171 181 180
9.12 3.39 -1.13 171 182 178
9.12 3.28 -1.13 170 183 174
9.12 2.96 -1.13 170 181 177
9.12 2.86 -1.13 171 182 176
9.37 2.80 -1.32 171 182 176
9.37 2.70 -1.32 172 183 177
9.37 2.59 -1.32 172 183 177
9.37 2.48 -1.32 173 184 178
9.12 2.33 -1.13 173 184 178
9.12 2.22 -1.13 175 184 179
9.12 2.11 -1.13 175 184 179
9.12 2.01 -1.13 175 184 179
9.12 1.90 -1.13 175 184 179
9.12 1.80 -1.13 175 184 179
9.12 1.69 -1.13 175 184 179
9.12 1.58 -1.13 174 183 178
9.12 1.48 -1.13 174 183 178
9.12 1.37 -1.13 176 187 183
9.12 1.27 -1.13 175 186 182
9.12 1.16 -1.13 175 186 182
9.12 1.05 -1.13 175 186 182
9.12 0.95 -1.13 174 185 181
9.12 0.84 -1.13 173 184 180
9.12 0.74 -1.13 172 183 179
9.12 0.63 -1.13 173 184 180
9.37 0.56 -1.32 173 184 180
9.37 0.46 -1.32 172 183 179
9.37 0.35 -1.32 172 183 179
9.37 0.24 -1.32 172 183 179
9.37 0.14 -1.32 173 184 180
9.37 0.03 -1.32 174 185 181
9.37 -0.08 -1.32 174 185 181
9.37 -0.18 -1.32 173 186 177
9.37 -0.29 -1.32 173 186 177
9.37 -0.40 -1.32 172 185 176
9.37 -0.50 -1.32 172 185 176
9.37 -0.61 -1.32 173 186 179
9.37 -0.71 -1.32 172 185 178
9.12 -0.86 -1.13 171 184 177
9.12 -0.96 -1.13 171 184 177
9.12 -1.07 -1.13 171 184 177
9.12 -1.17 -1.13 171 184 177
9.12 -1.28 -1.13 170 183 176
9.12 -1.39 -1.13 171 184 177
9.12 -1.49 -1.13 172 184 180
9.37 -1.57 -1.32 172 184 180
9.37 -1.67 -1.32 170 182 178
9.37 -1.78 -1.32 166 181 176
9.37 -1.89 -1.32 167 182 177
9.62 -1.97 -1.52 167 182 177
9.62 -2.07 -1.52 165 180 175
9.62 -2.18 -1.52 165 180 175
9.62 -2.29 -1.52 166 181 176
9.62 -2.39 -1.52 166 181 176
9.62 -2.50 -1.52 165 180 175
9.62 -2.61 -1.52 172 184 180
9.87 -2.69 -1.71 169 181 177
9.87 -2.80 -1.71 167 180 173
9.87 -2.91 -1.71 167 180 173
9.87 -3.01 -1.71 168 181 174
9.87 -3.12 -1.71 168 181 174
9.87 -3.23 -1.71 170 183 176
9.87 -3.34 -1.71 172 185 178
9.87 -3.45 -1.71 171 183 179
9.87 -3.55 -1.71 171 183 179
9.87 -3.66 -1.71 172 187 184
9.62 -3.79 -1.52 175 190 187
9.62 -3.89 -1.52 175 191 190
9.62 -4.00 -1.52 174 190 189
9.62 -4.11 -1.52 177 192 189
9.62 -4.22 -1.52 183 195 191
9.62 -4.32 -1.52 181 193 189
9.37 -4.44 -1.32 179 190 186
9.37 -4.55 -1.32 178 189 185
9.37 -4.66 -1.32 180 192 190
9.37 -4.76 -1.32 183 195 193
9.37 -4.87 -1.32 182 196 196
9.12 -4.99 -1.13 184 196 196
9.12 -5.10 -1.13 186 197 193
9.12 -5.20 -1.13 185 194 191
8.59 20.92 -0.86 64 63 59
8.59 20.81 -0.86 61 57 56
8.59 20.71 -0.86 62 58 57
8.81 20.73 -1.03 118 112 114
8.81 20.63 -1.03 154 150 149
9.06 20.67 -1.22 151 147 146
9.06 20.56 -1.22 154 153 149
9.06 20.45 -1.22 145 144 140
9.06 20.35 -1.22 147 148 142
9.31 20.38 -1.42 147 148 142
9.31 20.28 -1.42 151 152 144
9.31 20.17 -1.42 149 150 142
9.31 20.07 -1.42 151 151 143
9.31 19.96 -1.42 153 153 145
9.31 19.85 -1.42 154 151 144
9.31 19.75 -1.42 152 149 142
9.31 19.64 -1.42 153 150 145
9.31 19.53 -1.42 158 155 150
9.31 19.43 -1.42 152 152 144
9.31 19.32 -1.42 153 153 145
9.31 19.21 -1.42 154 154 144
9.31 19.11 -1.42 154 154 144
9.31 19.00 -1.42 156 153 144
9.31 18.89 -1.42 155 151 140
9.31 18.79 -1.42 152 148 137
9.31 18.68 -1.42 156 152 143
9.06 18.44 -1.22 156 152 143
9.31 18.47 -1.42 156 153 146
9.31 18.36 -1.42 157 154 147
9.31 18.25 -1.42 157 156 151
9.31 18.15 -1.42 157 156 151
9.31 18.04 -1.42 156 155 151
9.06 17.80 -1.22 155 154 149
9.06 17.70 -1.22 159 156 149
9.31 17.72 -1.42 159 156 147
9.31 17.61 -1.42 158 155 146
9.31 17.51 -1.42 158 155 146
9.31 17.40 -1.42 157 154 145
9.31 17.29 -1.42 157 154 145
9.31 17.19 -1.42 157 154 147
9.06 16.96 -1.22 157 154 147
9.06 16.85 -1.22 158 155 148
9.06 16.74 -1.22 159 156 149
9.06 16.64 -1.22 158 158 150
9.06 16.53 -1.22 159 159 151
9.31 16.55 -1.42 158 158 150
9.31 16.44 -1.42 158 158 150
9.06 16.21 -1.22 159 159 151
9.06 16.11 -1.22 160 161 153
9.06 16.00 -1.22 158 159 151
9.06 15.90 -1.22 157 158 150
9.06 15.79 -1.22 157 158 150
9.06 15.68 -1.22 159 159 151
9.06 15.58 -1.22 160 160 152
9.06 15.47 -1.22 159 159 151
9.06 15.37 -1.22 158 158 150
9.06 15.26 -1.22 158 158 150
9.06 15.15 -1.22 158 158 150
9.06 15.05 -1.22 159 159 151
9.06 14.94 -1.22 159 159 151
9.06 14.84 -1.22 161 158 151
9.06 14.73 -1.22 161 158 151
9.06 14.62 -1.22 161 158 151
9.06 14.52 -1.22 159 159 151
9.31 14.52 -1.42 160 162 151
9.31 14.42 -1.42 159 162 151
9.31 14.31 -1.42 159 162 153
9.31 14.20 -1.42 160 163 154
9.31 14.10 -1.42 161 162 156
9.31 13.99 -1.42 161 162 156
9.31 13.88 -1.42 161 162 156
9.31 13.78 -1.42 162 163 157
9.06 13.56 -1.22 163 164 158
9.06 13.46 -1.22 165 165 157
9.06 13.35 -1.22 165 165 157
9.06 13.25 -1.22 165 165 155
9.06 13.14 -1.22 165 165 155
9.06 13.03 -1.22 165 165 155
9.06 12.93 -1.22 166 166 158
9.06 12.82 -1.22 163 166 159
9.06 12.72 -1.22 163 165 160
9.06 12.61 -1.22 162 164 159
9.06 12.50 -1.22 161 163 158
9.06 12.40 -1.22 160 162 157
9.06 12.29 -1.22 160 162 157
9.06 12.19 -1.22 162 164 159
9.06 12.08 -1.22 164 166 161
9.06 11.97 -1.22 161 163 158
9.06 11.87 -1.22 162 164 159
9.06 11.76 -1.22 163 166 157
9.06 11.66 -1.22 163 166 157
9.31 11.65 -1.42 163 166 155
9.31 11.54 -1.42 163 166 155
9.31 11.43 -1.42 164 168 154
9.06 11.23 -1.22 164 167 156
9.31 11.22 -1.42 164 165 159
9.31 11.11 -1.42 164 165 159
9.31 11.01 -1.42 164 165 159
9.31 10.90 -1.42 166 165 160
9.31 10.79 -1.42 165 164 159
9.31 10.69 -1.42 165 164 160
9.31 10.58 -1.42 165 164 160
9.31 10.47 -1.42 168 167 163
9.31 10.37 -1.42 167 166 162
9.31 10.26 -1.42 165 166 161
9.31 10.15 -1.42 164 165 160
9.31 10.05 -1.42 162 164 159
9.31 9.94 -1.42 162 164 159
9.31 9.84 -1.42 162 167 163
9.31 9.73 -1.42 164 169 165
9.31 9.62 -1.42 167 170 163
9.31 9.52 -1.42 167 170 163
9.31 9.41 -1.42 165 170 163
9.31 9.30 -1.42 165 170 163
9.31 9.20 -1.42 164 171 164
9.31 9.09 -1.42 165 172 165
9.06 8.90 -1.22 164 174 166
9.06 8.79 -1.22 164 174 166
9.31 8.77 -1.42 163 174 166
9.31 8.66 -1.42 163 174 168
9.06 8.47 -1.22 162 173 167
9.06 8.37 -1.22 161 170 165
9.06 8.26 -1.22 161 170 165
9.06 8.16 -1.22 163 172 167
9.06 8.05 -1.22 166 176 167
9.06 7.94 -1.22 159 173 156
9.06 7.84 -1.22 160 175 156
9.31 7.81 -1.42 161 174 157
9.31 7.70 -1.42 157 169 157
9.31 7.60 -1.42 152 163 155
9.06 7.41 -1.22 145 156 152
8.81 7.23 -1.03 138 149 145
-4.99 3.00 9.64 132 142 141
-4.99 2.93 9.64 121 133 133
-5.13 2.81 9.75 119 133 134
-5.13 2.74 9.75 106 121 124
-5.13 2.66 9.75 92 111 117
-5.13 2.59 9.75 90 112 123
-5.13 2.51 9.75 89 112 126
-5.13 2.44 9.75 89 117 131
-5.13 2.36 9.75 99 125 140
-5.13 2.29 9.75 135 161 174
-5.13 2.21 9.75 158 179 184
-5.13 2.14 9.75 172 190 176
-5.13 2.06 9.75 176 180 165
-5.13 1.98 9.75 176 176 168
-5.25 1.88 9.83 175 173 176
-5.25 1.80 9.83 175 174 179
-5.13 1.76 9.75 170 176 174
-5.13 1.68 9.75 165 176 170
-5.13 1.61 9.75 164 177 167
-5.13 1.53 9.75 166 179 170
-5.13 1.46 9.75 168 181 174
-5.13 1.38 9.75 169 178 173
-5.13 1.31 9.75 172 177 170
-4.99 1.27 9.64 174 179 172
8.59 4.12 -0.86 173 181 170
8.59 4.02 -0.86 175 183 172
8.59 3.91 -0.86 174 181 173
8.59 3.81 -0.86 171 178 171
8.59 3.70 -0.86 171 177 173
8.81 3.65 -1.03 174 180 178
8.81 3.54 -1.03 174 183 182
8.81 3.44 -1.03 173 182 181
8.81 3.33 -1.03 173 184 180
8.81 3.22 -1.03 172 185 178
9.06 2.96 -1.22 170 181 177
9.06 2.86 -1.22 171 182 178
9.06 2.75 -1.22 171 182 178
9.06 2.64 -1.22 172 183 179
9.06 2.54 -1.22 172 183 179
9.06 2.43 -1.22 173 184 180
9.06 2.33 -1.22 174 185 181
9.06 2.22 -1.22 175 184 179
9.06 2.11 -1.22 175 184 179
9.06 2.01 -1.22 175 184 179
9.06 1.90 -1.22 175 184 179
9.06 1.80 -1.22 177 183 179
9.06 1.69 -1.22 177 183 179
9.06 1.58 -1.22 176 182 178
9.06 1.48 -1.22 176 182 178
8.81 1.33 -1.03 171 182 178
8.81 1.22 -1.03 172 183 179
8.81 1.12 -1.03 173 184 180
8.81 1.01 -1.03 174 185 181
8.81 0.90 -1.03 174 185 181
8.81 0.80 -1.03 173 184 180
8.81 0.69 -1.03 172 183 179
8.81 0.59 -1.03 174 185 181
9.06 0.52 -1.22 173 184 180
9.06 0.42 -1.22 172 183 179
9.06 0.31 -1.22 172 183 179
9.06 0.21 -1.22 173 184 180
9.06 0.10 -1.22 174 185 181
9.06 -0.01 -1.22 175 186 182
9.06 -0.11 -1.22 176 187 183
9.06 -0.22 -1.22 173 186 177
9.06 -0.33 -1.22 173 186 177
9.06 -0.43 -1.22 173 186 177
9.06 -0.54 -1.22 173 186 177
9.06 -0.64 -1.22 174 187 178
9.06 -0.75 -1.22 174 187 178
9.06 -0.86 -1.22 173 186 179
9.06 -0.96 -1.22 173 186 179
9.06 -1.07 -1.22 172 185 178
9.06 -1.17 -1.22 172 185 178
9.06 -1.28 -1.22 173 186 179
9.06 -1.39 -1.22 172 185 178
9.06 -1.49 -1.22 171 184 177
9.06 -1.60 -1.22 171 184 177
9.06 -1.70 -1.22 173 185 181
9.06 -1.81 -1.22 170 185 182
9.06 -1.92 -1.22 171 186 183
9.06 -2.02 -1.22 170 185 182
9.31 -2.10 -1.42 168 183 180
9.31 -2.21 -1.42 167 182 179
9.31 -2.31 -1.42 168 183 180
9.31 -2.42 -1.42 168 183 178
9.31 -2.53 -1.42 166 181 176
9.31 -2.63 -1.42 166 178 174
9.31 -2.74 -1.42 166 178 174
9.31 -2.85 -1.42 167 180 173
9.31 -2.95 -1.42 170 183 176
9.31 -3.06 -1.42 170 183 176
9.57 -3.14 -1.61 168 181 174
9.57 -3.25 -1.61 168 181 174
9.57 -3.36 -1.61 171 182 176
9.57 -3.47 -1.61 173 183 175
9.57 -3.57 -1.61 175 181 177
9.57 -3.68 -1.61 174 185 179
9.57 -3.79 -1.61 175 187 183
9.57 -3.89 -1.61 173 188 185
9.57 -4.00 -1.61 171 187 184
9.57 -4.11 -1.61 174 190 187
9.31 -4.23 -1.42 179 194 187
9.31 -4.34 -1.42 181 194 187
9.31 -4.44 -1.42 180 191 185
9.31 -4.55 -1.42 179 190 186
9.31 -4.66 -1.42 181 192 188
9.06 -4.78 -1.22 184 194 195
9.06 -4.88 -1.22 183 195 195
9.06 -4.99 -1.22 182 193 195
8.81 -5.11 -1.03 183 195 195
8.81 -5.21 -1.03 185 197 197
8.54 20.92 -0.95 68 65 60
8.54 20.81 -0.95 88 83 80
8.54 20.71 -0.95 134 133 129
8.54 20.60 -0.95 147 146 142
8.76 20.63 -1.12 153 152 148
8.76 20.52 -1.12 147 146 142
8.76 20.42 -1.12 145 144 139
9.01 20.45 -1.31 151 150 145
9.01 20.35 -1.31 154 151 144
9.01 20.24 -1.31 148 145 138
9.01 20.14 -1.31 153 150 141
9.01 20.03 -1.31 153 150 141
9.01 19.92 -1.31 154 151 144
9.01 19.82 -1.31 154 151 144
9.01 19.71 -1.31 155 150 144
9.01 19.61 -1.31 156 151 145
9.01 19.50 -1.31 155 150 144
9.01 19.39 -1.31 155 150 144
9.01 19.29 -1.31 152 149 140
9.01 19.18 -1.31 153 150 141
9.01 19.08 -1.31 154 151 142
9.01 18.97 -1.31 154 151 142
9.01 18.86 -1.31 155 152 145
9.01 18.76 -1.31 154 151 144
9.01 18.65 -1.31 154 151 144
9.01 18.55 -1.31 155 152 147
9.01 18.44 -1.31 155 152 147
9.01 18.33 -1.31 155 151 148
9.01 18.23 -1.31 155 151 148
9.01 18.12 -1.31 155 151 150
9.01 18.02 -1.31 156 152 151
9.01 17.91 -1.31 156 152 151
9.01 17.80 -1.31 157 153 152
9.01 17.70 -1.31 155 154 149
9.01 17.59 -1.31 155 154 149
9.01 17.49 -1.31 154 153 148
9.01 17.38 -1.31 155 154 149
9.01 17.27 -1.31 155 154 149
9.26 17.29 -1.51 156 155 150
9.01 17.06 -1.31 156 156 148
9.01 16.96 -1.31 156 156 148
9.01 16.85 -1.31 158 158 148
9.01 16.74 -1.31 156 156 146
9.01 16.64 -1.31 155 155 145
9.01 16.53 -1.31 155 155 145
9.01 16.43 -1.31 156 156 146
9.01 16.32 -1.31 157 157 147
9.01 16.21 -1.31 156 156 146
9.01 16.11 -1.31 157 157 147
9.01 16.00 -1.31 158 158 150
9.01 15.90 -1.31 159 159 151
9.01 15.79 -1.31 160 160 152
9.01 15.68 -1.31 160 160 152
9.01 15.58 -1.31 159 159 151
9.01 15.47 -1.31 159 159 151
9.01 15.37 -1.31 158 158 150
8.76 15.14 -1.12 160 160 152
8.76 15.04 -1.12 159 159 151
9.01 15.05 -1.31 159 159 151
9.01 14.94 -1.31 159 159 151
9.01 14.84 -1.31 159 159 151
9.01 14.73 -1.31 160 160 152
9.01 14.62 -1.31 160 160 152
9.01 14.52 -1.31 160 160 152
9.01 14.41 -1.31 159 161 150
9.26 14.42 -1.51 159 161 150
9.26 14.31 -1.51 160 161 153
9.01 14.09 -1.31 160 161 153
9.01 13.99 -1.31 161 162 156
9.01 13.88 -1.31 161 162 156
9.01 13.78 -1.31 161 162 157
9.01 13.67 -1.31 160 161 156
9.01 13.56 -1.31 161 162 157
9.01 13.46 -1.31 162 163 158
9.01 13.35 -1.31 163 164 159
9.01 13.25 -1.31 163 164 158
9.01 13.14 -1.31 163 164 158
8.76 12.93 -1.12 162 163 157
8.76 12.82 -1.12 162 163 157
8.76 12.72 -1.12 162 163 155
8.76 12.61 -1.12 162 163 155
9.01 12.61 -1.31 163 164 156
9.01 12.50 -1.31 163 164 156
9.01 12.40 -1.31 164 165 157
9.01 12.29 -1.31 164 165 157
9.01 12.19 -1.31 164 165 157
9.01 12.08 -1.31 164 165 157
9.01 11.97 -1.31 163 164 158
9.01 11.87 -1.31 163 164 158
9.01 11.76 -1.31 163 164 158
9.01 11.66 -1.31 164 165 159
9.01 11.55 -1.31 165 166 160
9.01 11.44 -1.31 165 166 160
9.01 11.34 -1.31 165 166 160
9.01 11.23 -1.31 164 165 160
9.01 11.13 -1.31 165 165 165
9.01 11.02 -1.31 165 165 163
9.01 10.91 -1.31 165 165 163
9.01 10.81 -1.31 164 164 162
9.01 10.70 -1.31 164 164 162
9.26 10.69 -1.51 164 165 160
9.26 10.58 -1.51 164 165 160
9.01 10.38 -1.31 165 166 160
9.01 10.28 -1.31 165 166 160
9.26 10.26 -1.51 165 166 158
9.26 10.15 -1.51 166 167 159
9.01 9.96 -1.31 166 168 157
9.01 9.85 -1.31 167 169 158
9.01 9.75 -1.31 167 169 158
9.01 9.64 -1.31 167 170 161
9.01 9.53 -1.31 161 166 159
9.01 9.43 -1.31 164 169 163
9.01 9.32 -1.31 166 171 165
9.01 9.22 -1.31 168 170 165
9.01 9.11 -1.31 169 169 167
9.01 9.00 -1.31 169 169 167
9.01 8.90 -1.31 167 169 168
9.01 8.79 -1.31 163 167 166
9.01 8.69 -1.31 165 171 169
9.01 8.58 -1.31 163 174 170
9.01 8.47 -1.31 162 173 169
9.01 8.37 -1.31 163 172 167
9.01 8.26 -1.31 163 172 167
9.01 8.16 -1.31 166 172 168
9.01 8.05 -1.31 166 173 166
9.01 7.94 -1.31 162 174 164
9.01 7.84 -1.31 162 174 162
9.01 7.73 -1.31 161 171 160
9.01 7.63 -1.31 160 170 159
9.01 7.52 -1.31 157 167 158
8.76 7.34 -1.12 151 161 153
8.76 7.23 -1.12 141 154 145
-5.03 3.00 9.57 136 148 144
-5.03 2.93 9.57 125 141 138
-5.03 2.85 9.57 118 134 133
-5.03 2.78 9.57 111 125 125
-5.03 2.70 9.57 111 123 123
-5.03 2.63 9.57 119 130 126
-5.17 2.51 9.68 136 142 138
-5.17 2.44 9.68 154 159 153
-5.17 2.36 9.68 166 169 162
-5.17 2.29 9.68 170 177 169
-5.17 2.21 9.68 171 178 170
-5.17 2.14 9.68 172 179 171
-5.17 2.06 9.68 171 176 169
-5.17 1.98 9.68 170 175 168
-5.28 1.88 9.77 172 177 170
-5.28 1.80 9.77 173 178 171
-5.17 1.76 9.68 172 177 170
-5.17 1.68 9.68 172 177 170
-5.17 1.61 9.68 172 179 171
-5.17 1.53 9.68 172 179 171
-5.17 1.46 9.68 170 180 171
-5.17 1.38 9.68 170 180 171
-5.03 1.34 9.57 169 181 171
-5.03 1.27 9.57 169 181 171
8.54 4.12 -0.95 171 181 173
8.54 4.02 -0.95 172 182 174
8.54 3.91 -0.95 171 181 173
8.54 3.81 -0.95 169 179 171
8.54 3.70 -0.95 170 179 174
8.54 3.60 -0.95 171 180 175
8.76 3.54 -1.12 173 182 177
8.76 3.44 -1.12 173 182 177
8.76 3.33 -1.12 173 182 177
8.76 3.22 -1.12 173 182 177
9.01 2.96 -1.31 173 182 179
9.01 2.86 -1.31 174 183 180
9.01 2.75 -1.31 174 183 180
9.01 2.64 -1.31 173 182 179
9.01 2.54 -1.31 173 182 179
9.01 2.43 -1.31 173 182 179
9.01 2.33 -1.31 173 182 179
9.01 2.22 -1.31 173 182 179
9.01 2.11 -1.31 174 183 180
9.01 2.01 -1.31 175 184 181
9.01 1.90 -1.31 175 184 181
9.01 1.80 -1.31 174 183 180
9.01 1.69 -1.31 174 183 180
9.01 1.58 -1.31 175 184 181
9.01 1.48 -1.31 176 185 182
8.76 1.33 -1.12 173 185 181
8.76 1.22 -1.12 173 185 181
8.76 1.12 -1.12 174 185 181
8.76 1.01 -1.12 174 185 181
8.76 0.90 -1.12 174 185 181
8.76 0.80 -1.12 175 186 182
8.76 0.69 -1.12 175 186 182
8.76 0.59 -1.12 177 186 183
8.76 0.48 -1.12 177 186 183
9.01 0.42 -1.31 177 186 183
9.01 0.31 -1.31 176 185 182
9.01 0.21 -1.31 176 185 182
9.01 0.10 -1.31 176 185 182
9.01 -0.01 -1.31 176 185 182
9.01 -0.11 -1.31 176 185 182
9.01 -0.22 -1.31 176 188 184
9.01 -0.33 -1.31 176 188 184
9.01 -0.43 -1.31 175 187 183
9.01 -0.54 -1.31 176 188 184
9.01 -0.64 -1.31 177 189 185
9.01 -0.75 -1.31 177 189 185
8.76 -0.89 -1.12 174 189 184
8.76 -0.99 -1.12 173 188 183
8.76 -1.10 -1.12 175 190 185
8.76 -1.21 -1.12 173 188 183
8.76 -1.31 -1.12 172 187 182
8.76 -1.42 -1.12 171 186 181
8.76 -1.52 -1.12 172 187 182
8.76 -1.63 -1.12 172 187 182
8.76 -1.73 -1.12 171 186 181
8.76 -1.84 -1.12 168 183 178
8.76 -1.94 -1.12 171 183 179
8.76 -2.05 -1.12 172 184 180
8.76 -2.15 -1.12 172 184 180
9.26 -2.21 -1.51 171 183 179
9.26 -2.31 -1.51 171 183 179
9.01 -2.45 -1.31 171 183 179
9.01 -2.55 -1.31 172 184 180
9.01 -2.66 -1.31 171 183 179
9.01 -2.76 -1.31 171 183 179
9.01 -2.87 -1.31 171 183 179
9.01 -2.98 -1.31 171 183 179
9.01 -3.08 -1.31 171 183 179
9.26 -3.17 -1.51 172 184 180
9.26 -3.27 -1.51 172 184 180
9.26 -3.38 -1.51 172 184 180
9.26 -3.49 -1.51 172 185 178
9.26 -3.59 -1.51 172 185 178
9.26 -3.70 -1.51 174 187 180
9.26 -3.81 -1.51 175 188 181
9.26 -3.91 -1.51 177 190 183
9.26 -4.02 -1.51 178 191 184
9.26 -4.13 -1.51 179 192 185
9.26 -4.23 -1.51 181 194 187
9.26 -4.34 -1.51 181 194 187
9.26 -4.44 -1.51 181 194 187
9.01 -4.57 -1.31 180 193 186
9.01 -4.67 -1.31 180 193 186
9.01 -4.78 -1.31 181 194 187
9.01 -4.88 -1.31 182 195 188
8.76 -5.00 -1.12 184 197 190
8.76 -5.11 -1.12 182 194 190
8.76 -5.21 -1.12 182 194 190
8.23 20.98 -0.84 68 69 61
8.23 20.88 -0.84 52 48 45
8.23 20.77 -0.84 75 71 68
8.48 20.81 -1.04 146 140 140
8.48 20.71 -1.04 154 153 149
8.48 20.60 -1.04 156 155 151
8.48 20.50 -1.04 155 154 149
8.71 20.52 -1.21 152 151 146
8.71 20.42 -1.21 150 150 142
8.71 20.31 -1.21 151 151 143
8.71 20.21 -1.21 154 151 144
8.71 20.10 -1.21 153 150 143
8.96 20.14 -1.41 152 149 140
8.96 20.03 -1.41 152 149 140
8.71 19.78 -1.21 152 149 142
8.71 19.68 -1.21 153 150 143
8.71 19.57 -1.21 153 150 143
8.96 19.61 -1.41 153 150 143
8.96 19.50 -1.41 154 149 143
8.96 19.39 -1.41 153 148 142
8.96 19.29 -1.41 154 151 142
8.96 19.18 -1.41 154 151 142
8.96 19.08 -1.41 154 151 144
8.96 18.97 -1.41 155 152 145
8.96 18.86 -1.41 155 152 145
8.96 18.76 -1.41 155 152 145
8.71 18.52 -1.21 155 152 145
8.71 18.41 -1.21 155 152 147
8.71 18.31 -1.21 155 152 147
8.71 18.20 -1.21 156 153 148
8.71 18.10 -1.21 156 153 148
8.71 17.99 -1.21 157 153 150
8.71 17.89 -1.21 157 153 150
8.71 17.78 -1.21 158 154 151
8.71 17.67 -1.21 158 154 151
8.71 17.57 -1.21 156 155 151
8.71 17.46 -1.21 155 154 150
8.71 17.36 -1.21 155 154 149
8.71 17.25 -1.21 156 155 150
8.71 17.15 -1.21 157 156 151
8.96 17.17 -1.41 157 156 151
8.96 17.06 -1.41 157 157 149
8.96 16.96 -1.41 157 157 149
8.71 16.73 -1.21 156 156 146
8.71 16.62 -1.21 155 155 145
8.71 16.51 -1.21 155 155 145
8.71 16.41 -1.21 155 155 145
8.71 16.30 -1.21 157 157 145
8.71 16.20 -1.21 158 158 146
8.71 16.09 -1.21 158 158 148
8.71 15.99 -1.21 159 159 149
8.71 15.88 -1.21 159 159 151
8.71 15.78 -1.21 160 160 152
8.71 15.67 -1.21 160 160 152
8.96 15.68 -1.41 160 160 152
8.71 15.46 -1.21 160 160 152
8.71 15.35 -1.21 160 160 152
8.71 15.25 -1.21 160 160 152
8.71 15.14 -1.21 160 160 152
8.71 15.04 -1.21 160 160 152
8.71 14.93 -1.21 160 160 152
8.71 14.83 -1.21 159 159 151
8.71 14.72 -1.21 159 159 151
8.71 14.62 -1.21 160 160 152
8.71 14.51 -1.21 160 160 152
8.71 14.40 -1.21 160 160 152
8.71 14.30 -1.21 157 159 148
8.96 14.31 -1.41 158 160 149
8.96 14.20 -1.41 159 160 152
8.96 14.09 -1.41 160 161 153
8.96 13.99 -1.41 161 162 156
8.96 13.88 -1.41 162 163 157
8.96 13.78 -1.41 162 163 158
8.96 13.67 -1.41 160 161 156
8.96 13.56 -1.41 160 161 156
8.96 13.46 -1.41 160 161 156
8.96 13.35 -1.41 160 161 156
8.96 13.25 -1.41 160 161 155
8.71 13.03 -1.21 159 160 154
8.71 12.93 -1.21 159 160 154
8.71 12.82 -1.21 159 160 154
8.71 12.72 -1.21 162 163 155
8.71 12.61 -1.21 163 164 156
8.71 12.51 -1.21 163 164 156
8.71 12.40 -1.21 163 164 156
8.71 12.30 -1.21 163 164 156
8.71 12.19 -1.21 163 164 156
8.71 12.08 -1.21 163 164 156
8.71 11.98 -1.21 163 164 156
8.71 11.87 -1.21 164 165 159
8.71 11.77 -1.21 164 165 159
8.71 11.66 -1.21 164 165 159
8.96 11.66 -1.41 164 165 159
8.96 11.55 -1.41 165 166 160
8.96 11.44 -1.41 165 166 160
8.96 11.34 -1.41 165 166 160
8.96 11.23 -1.41 164 165 160
8.96 11.13 -1.41 165 165 163
8.96 11.02 -1.41 165 165 163
8.96 10.91 -1.41 164 164 162
8.96 10.81 -1.41 164 165 160
8.96 10.70 -1.41 164 165 160
8.96 10.59 -1.41 164 165 160
8.96 10.49 -1.41 165 166 161
8.96 10.38 -1.41 166 167 161
8.96 10.28 -1.41 166 167 161
8.96 10.17 -1.41 166 167 159
8.96 10.06 -1.41 166 167 159
8.96 9.96 -1.41 166 168 157
8.96 9.85 -1.41 167 169 158
8.96 9.75 -1.41 167 169 158
8.96 9.64 -1.41 167 170 161
8.96 9.53 -1.41 163 169 159
8.71 9.34 -1.21 165 170 163
8.71 9.24 -1.21 166 171 165
8.96 9.22 -1.41 167 169 164
8.96 9.11 -1.41 169 169 167
8.71 8.92 -1.21 170 170 168
8.71 8.81 -1.21 169 171 168
8.71 8.71 -1.21 165 170 166
8.71 8.60 -1.21 164 170 168
8.96 8.58 -1.41 162 173 169
8.96 8.47 -1.41 162 173 169
8.96 8.37 -1.41 162 171 166
8.71 8.18 -1.21 164 170 166
8.71 8.08 -1.21 165 171 167
8.71 7.97 -1.21 166 171 165
8.71 7.87 -1.21 166 176 167
8.71 7.76 -1.21 165 175 164
8.71 7.65 -1.21 163 173 162
8.71 7.55 -1.21 161 171 160
8.71 7.44 -1.21 159 167 156
8.71 7.34 -1.21 154 161 153
8.71 7.23 -1.21 145 157 147
8.48 7.06 -1.04 142 153 147
8.48 6.96 -1.04 126 141 136
-5.07 2.85 9.51 130 145 142
-5.07 2.78 9.51 137 152 149
-5.07 2.70 9.51 149 161 159
-5.07 2.63 9.51 159 170 164
-5.07 2.55 9.51 170 177 170
-5.21 2.44 9.62 176 181 174
-5.21 2.36 9.62 180 183 174
-5.21 2.29 9.62 172 179 171
-5.21 2.21 9.62 172 179 171
-5.21 2.14 9.62 173 180 172
-5.21 2.06 9.62 170 175 168
-5.21 1.98 9.62 170 175 168
-5.32 1.88 9.70 172 177 170
-5.32 1.80 9.70 174 179 172
-5.21 1.76 9.62 170 175 168
-5.21 1.68 9.62 171 176 169
8.23 4.27 -0.84 172 182 174
8.23 4.17 -0.84 170 180 172
8.48 4.12 -1.04 170 180 172
8.48 4.02 -1.04 172 182 174
8.48 3.91 -1.04 172 182 174
8.48 3.81 -1.04 170 180 172
8.48 3.70 -1.04 171 180 175
8.48 3.60 -1.04 172 181 176
8.71 3.54 -1.21 172 181 176
8.71 3.44 -1.21 172 181 176
8.71 3.33 -1.21 173 182 177
8.71 3.22 -1.21 173 182 177
8.71 3.12 -1.21 174 183 178
8.71 3.01 -1.21 171 180 177
8.96 2.96 -1.41 172 181 178
8.96 2.86 -1.41 172 181 178
8.96 2.75 -1.41 172 181 178
8.96 2.64 -1.41 172 181 178
8.96 2.54 -1.41 173 182 179
8.96 2.43 -1.41 174 183 180
8.96 2.33 -1.41 175 184 181
8.96 2.22 -1.41 173 182 179
8.96 2.11 -1.41 174 183 180
8.96 2.01 -1.41 175 184 181
8.96 1.90 -1.41 175 184 181
8.96 1.80 -1.41 174 183 180
8.96 1.69 -1.41 174 183 180
8.71 1.54 -1.21 175 184 181
8.71 1.43 -1.21 176 185 182
8.71 1.33 -1.21 175 186 182
8.71 1.22 -1.21 175 186 182
8.71 1.12 -1.21 175 186 182
8.71 1.01 -1.21 174 185 181
8.71 0.90 -1.21 175 186 182
8.71 0.80 -1.21 175 186 182
8.71 0.69 -1.21 175 186 182
8.71 0.59 -1.21 177 186 183
8.71 0.48 -1.21 177 186 183
8.96 0.21 -1.41 177 186 183
8.96 0.10 -1.41 177 186 183
8.96 -0.01 -1.41 177 186 183
8.96 -0.11 -1.41 177 186 183
8.96 -0.22 -1.41 175 187 183
8.96 -0.33 -1.41 174 186 182
8.71 -0.47 -1.21 174 186 182
8.71 -0.57 -1.21 175 187 183
8.71 -0.68 -1.21 176 188 184
8.71 -0.78 -1.21 177 189 185
8.71 -0.89 -1.21 176 188 184
8.71 -0.99 -1.21 175 187 183
8.48 -1.13 -1.04 177 189 185
8.48 -1.23 -1.04 176 188 184
8.48 -1.34 -1.04 173 188 183
8.48 -1.44 -1.04 172 187 182
8.48 -1.55 -1.04 173 188 183
8.48 -1.65 -1.04 173 188 183
8.48 -1.76 -1.04 172 187 182
8.48 -1.86 -1.04 172 184 180
8.48 -1.97 -1.04 173 185 181
8.48 -2.07 -1.04 173 185 181
8.48 -2.18 -1.04 173 185 181
8.71 -2.26 -1.21 172 184 180
8.96 -2.34 -1.41 172 184 180
8.96 -2.45 -1.41 172 184 180
8.71 -2.58 -1.21 172 184 180
8.71 -2.68 -1.21 172 184 180
8.71 -2.79 -1.21 172 184 180
8.71 -2.89 -1.21 171 183 179
8.71 -3.00 -1.21 171 183 179
8.71 -3.10 -1.21 172 184 180
8.96 -3.19 -1.41 172 184 180
8.96 -3.29 -1.41 172 184 180
8.96 -3.40 -1.41 173 185 181
8.96 -3.51 -1.41 173 186 179
8.96 -3.61 -1.41 174 187 180
8.96 -3.72 -1.41 175 188 181
8.96 -3.82 -1.41 177 190 183
8.96 -3.93 -1.41 178 191 184
8.96 -4.04 -1.41 180 193 186
8.96 -4.14 -1.41 180 193 186
8.96 -4.25 -1.41 181 194 187
8.96 -4.35 -1.41 181 194 187
8.96 -4.46 -1.41 182 195 188
8.96 -4.57 -1.41 182 195 188
8.96 -4.67 -1.41 182 195 188
8.71 -4.79 -1.21 182 195 188
8.71 -4.90 -1.21 183 196 189
8.71 -5.00 -1.21 183 196 189
8.71 -5.11 -1.21 182 194 190
8.71 -5.21 -1.21 182 194 190
8.23 -5.34 -0.84 183 195 191
8.23 -5.44 -0.84 183 195 191
8.23 -5.55 -0.84 184 195 191
8.23 -5.65 -0.84 184 195 191
8.23 -5.76 -0.84 183 194 190
8.23 -5.86 -0.84 183 194 190
8.18 20.98 -0.93 50 51 45
8.18 20.88 -0.93 81 77 74
8.43 20.92 -1.13 134 130 129
8.43 20.81 -1.13 165 159 159
8.43 20.71 -1.13 154 153 149
8.43 20.60 -1.13 147 146 142
8.43 20.50 -1.13 144 143 138
8.65 20.52 -1.30 148 147 142
8.65 20.42 -1.30 149 149 141
8.65 20.31 -1.30 147 147 139
8.65 20.21 -1.30 149 146 137
8.65 20.10 -1.30 153 150 141
8.65 20.00 -1.30 152 149 140
8.65 19.89 -1.30 152 149 140
8.65 19.78 -1.30 152 149 142
8.65 19.68 -1.30 152 149 142
8.65 19.57 -1.30 153 150 143
8.65 19.47 -1.30 152 149 142
8.65 19.36 -1.30 152 149 142
8.65 19.26 -1.30 152 149 142
8.65 19.15 -1.30 154 151 144
8.65 19.05 -1.30 154 151 144
8.65 18.94 -1.30 154 151 144
8.65 18.83 -1.30 154 151 144
8.65 18.73 -1.30 154 151 146
8.65 18.62 -1.30 155 152 147
8.65 18.52 -1.30 155 152 147
8.65 18.41 -1.30 156 153 148
8.65 18.31 -1.30 156 153 148
8.65 18.20 -1.30 156 153 148
8.65 18.10 -1.30 157 154 149
8.65 17.99 -1.30 158 155 150
8.65 17.89 -1.30 159 156 151
8.65 17.78 -1.30 159 156 151
8.43 17.56 -1.13 160 157 152
8.43 17.45 -1.13 155 154 150
8.43 17.35 -1.13 155 154 150
8.43 17.24 -1.13 156 155 151
8.65 17.25 -1.30 156 155 151
8.65 17.15 -1.30 157 156 151
8.65 17.04 -1.30 157 156 151
8.65 16.94 -1.30 157 157 149
8.65 16.83 -1.30 156 156 148
8.65 16.73 -1.30 155 155 145
8.65 16.62 -1.30 155 155 145
8.65 16.51 -1.30 155 155 145
8.65 16.41 -1.30 156 156 146
8.65 16.30 -1.30 158 158 146
8.65 16.20 -1.30 159 159 147
8.65 16.09 -1.30 159 159 149
8.65 15.99 -1.30 160 160 150
8.65 15.88 -1.30 160 160 152
8.65 15.78 -1.30 160 160 152
8.65 15.67 -1.30 159 159 151
8.65 15.57 -1.30 160 160 152
8.65 15.46 -1.30 160 160 152
8.65 15.35 -1.30 161 161 153
8.65 15.25 -1.30 162 162 154
8.65 15.14 -1.30 160 160 152
8.65 15.04 -1.30 160 160 152
8.65 14.93 -1.30 160 160 152
8.65 14.83 -1.30 160 160 152
8.43 14.62 -1.13 159 159 151
8.43 14.51 -1.13 159 159 151
8.43 14.41 -1.13 159 159 151
8.65 14.40 -1.30 159 159 151
8.65 14.30 -1.30 157 158 150
8.65 14.19 -1.30 158 159 151
8.90 14.20 -1.50 159 160 152
8.90 14.09 -1.50 160 161 153
8.65 13.88 -1.30 161 162 156
8.65 13.77 -1.30 161 162 156
8.65 13.67 -1.30 162 163 157
8.65 13.56 -1.30 162 163 158
8.65 13.46 -1.30 161 162 157
8.65 13.35 -1.30 161 162 157
8.65 13.24 -1.30 160 161 156
8.65 13.14 -1.30 160 161 155
8.65 13.03 -1.30 161 162 156
8.65 12.93 -1.30 161 162 156
8.65 12.82 -1.30 161 162 156
8.65 12.72 -1.30 163 164 158
8.43 12.52 -1.13 163 164 158
8.43 12.41 -1.13 163 164 158
8.65 12.40 -1.30 163 164 158
8.65 12.30 -1.30 163 164 158
8.65 12.19 -1.30 163 164 158
8.65 12.08 -1.30 162 163 157
8.65 11.98 -1.30 162 163 157
