ply
format ascii 1.0
element vertex 1687
property float x
property float y
property float z
property uchar red
property uchar green
property uchar blue
end_header
14.43 4.48 -0.54 59 127 174
14.43 4.37 -0.54 60 128 175
14.43 4.26 -0.54 60 128 175
14.43 4.14 -0.54 59 127 176
14.43 4.03 -0.54 59 127 176
14.43 3.92 -0.54 59 127 176
14.43 3.80 -0.54 59 131 179
14.43 3.69 -0.54 58 130 178
14.43 3.58 -0.54 59 129 178
14.43 3.46 -0.54 59 129 178
14.43 3.35 -0.54 62 130 179
14.14 3.18 -0.34 64 132 181
14.14 3.07 -0.34 66 132 182
14.14 2.95 -0.34 67 133 183
14.14 2.84 -0.34 65 131 181
14.14 2.73 -0.34 65 131 181
14.14 2.61 -0.34 64 132 181
14.14 2.50 -0.34 64 132 181
14.14 2.39 -0.34 62 133 179
14.14 2.28 -0.34 62 133 179
14.14 2.16 -0.34 62 133 179
14.14 2.05 -0.34 62 133 179
14.14 1.94 -0.34 60 134 181
14.14 1.82 -0.34 60 134 181
13.85 1.66 -0.14 62 134 182
13.85 1.55 -0.14 62 134 182
13.85 1.44 -0.14 63 135 183
13.85 1.33 -0.14 64 135 181
13.85 1.21 -0.14 64 135 181
13.85 1.10 -0.14 65 133 180
13.85 0.99 -0.14 67 135 182
13.85 0.88 -0.14 67 135 182
13.85 0.76 -0.14 65 133 180
13.56 0.61 0.06 64 132 179
13.56 0.50 0.06 66 134 181
13.56 0.39 0.06 67 135 182
13.56 0.27 0.06 68 136 183
13.56 0.16 0.06 66 135 177
13.56 0.05 0.06 66 135 177
13.56 -0.06 0.06 66 135 177
13.56 -0.17 0.06 67 136 178
13.30 -0.32 0.24 68 136 181
13.30 -0.43 0.24 69 137 182
13.30 -0.54 0.24 69 137 182
13.30 -0.65 0.24 69 137 182
13.30 -0.76 0.24 64 135 179
13.30 -0.87 0.24 66 137 181
13.01 -1.02 0.43 68 139 183
13.01 -1.13 0.43 67 138 182
13.01 -1.24 0.43 67 138 184
13.01 -1.35 0.43 68 139 185
13.01 -1.46 0.43 67 138 184
13.01 -1.57 0.43 65 138 183
13.01 -1.68 0.43 66 139 184
12.72 -1.82 0.63 67 138 184
12.72 -1.93 0.63 70 138 185
12.72 -2.04 0.63 70 138 183
12.72 -2.15 0.63 74 138 184
12.72 -2.26 0.63 75 139 185
12.72 -2.37 0.63 77 139 186
12.72 -2.48 0.63 77 138 185
12.72 -2.59 0.63 78 139 186
12.72 -2.70 0.63 77 139 186
12.46 -2.84 0.81 76 138 185
12.46 -2.95 0.81 75 139 187
12.46 -3.06 0.81 76 140 188
12.20 -3.19 0.99 76 140 188
12.20 -3.29 0.99 73 137 185
12.20 -3.40 0.99 72 140 187
12.20 -3.51 0.99 71 139 186
11.91 -3.64 1.19 69 137 184
11.91 -3.75 1.19 68 136 183
11.91 -3.86 1.19 66 137 183
11.65 -3.98 1.36 66 137 183
11.65 -4.09 1.36 63 136 181
11.65 -4.20 1.36 65 138 183
11.65 -4.31 1.36 60 133 178
11.65 -4.41 1.36 60 131 177
11.39 -4.54 1.54 63 134 180
11.39 -4.64 1.54 63 134 180
11.39 -4.75 1.54 61 132 178
11.39 -4.86 1.54 68 136 185
11.39 -4.97 1.54 80 143 186
-2.13 9.79 10.69 170 170 146
-2.13 9.71 10.69 177 177 149
-2.13 9.63 10.69 183 182 151
-2.13 9.55 10.69 185 185 149
-2.13 9.47 10.69 182 182 144
-2.13 9.39 10.69 179 180 140
-2.13 9.31 10.69 171 172 128
-2.13 9.23 10.69 159 160 116
-2.13 9.15 10.69 150 151 107
-2.13 9.08 10.69 140 141 97
-2.13 9.00 10.69 125 128 83
-2.27 8.85 10.79 112 114 77
-2.27 8.78 10.79 58 60 36
-2.27 8.70 10.79 35 36 20
-2.13 8.68 10.69 25 26 12
-2.13 8.60 10.69 41 42 28
-2.13 8.52 10.69 69 71 57
-2.13 8.44 10.69 86 88 75
14.66 10.82 -0.83 84 94 83
14.66 10.71 -0.83 83 94 88
14.66 10.59 -0.83 78 100 98
14.66 10.48 -0.83 74 104 114
14.66 10.37 -0.83 66 107 125
14.66 10.25 -0.83 59 109 136
14.66 10.14 -0.83 53 107 141
14.66 10.02 -0.83 48 106 144
14.66 9.91 -0.83 49 111 148
14.66 9.80 -0.83 51 110 150
14.66 9.68 -0.83 49 108 150
14.66 9.57 -0.83 45 107 148
14.66 9.45 -0.83 44 105 149
14.66 9.34 -0.83 44 108 152
14.66 9.22 -0.83 45 109 153
14.66 9.11 -0.83 45 110 152
14.66 9.00 -0.83 49 114 156
14.66 8.88 -0.83 51 118 160
14.66 8.77 -0.83 52 119 161
14.66 8.65 -0.83 50 118 157
14.66 8.54 -0.83 50 118 157
14.66 8.43 -0.83 52 120 159
14.66 8.31 -0.83 55 123 162
14.66 8.20 -0.83 51 120 161
14.66 8.08 -0.83 52 121 162
14.66 7.97 -0.83 52 121 163
14.66 7.86 -0.83 50 119 161
14.66 7.74 -0.83 50 118 163
14.66 7.63 -0.83 52 120 165
14.66 7.51 -0.83 51 122 168
14.66 7.40 -0.83 51 122 166
14.66 7.29 -0.83 51 122 164
14.66 7.17 -0.83 50 122 162
14.66 7.06 -0.83 50 122 162
14.66 6.94 -0.83 53 122 164
14.66 6.83 -0.83 54 123 165
14.66 6.72 -0.83 56 123 166
14.66 6.60 -0.83 57 124 167
14.66 6.49 -0.83 57 121 165
14.66 6.37 -0.83 58 122 166
14.66 6.26 -0.83 57 124 169
14.66 6.14 -0.83 57 124 169
14.66 6.03 -0.83 56 123 168
14.66 5.92 -0.83 55 122 167
14.66 5.80 -0.83 55 122 167
14.66 5.69 -0.83 56 123 168
14.66 5.57 -0.83 55 124 166
14.66 5.46 -0.83 56 125 167
14.66 5.35 -0.83 57 126 168
14.66 5.23 -0.83 57 126 168
14.66 5.12 -0.83 58 127 169
14.66 5.00 -0.83 59 128 170
14.66 4.89 -0.83 60 128 173
14.66 4.78 -0.83 60 128 173
14.66 4.66 -0.83 58 126 173
14.66 4.55 -0.83 59 127 174
14.37 4.37 -0.64 59 127 174
14.37 4.26 -0.64 60 128 175
14.37 4.14 -0.64 62 128 178
14.37 4.03 -0.64 63 129 179
14.37 3.92 -0.64 64 130 180
14.37 3.80 -0.64 62 132 183
14.37 3.69 -0.64 61 131 182
14.37 3.58 -0.64 60 130 181
14.37 3.46 -0.64 60 130 181
14.37 3.35 -0.64 63 131 180
14.08 3.18 -0.44 63 131 180
14.08 3.07 -0.44 63 131 180
14.08 2.95 -0.44 62 130 179
14.08 2.84 -0.44 65 133 182
14.08 2.73 -0.44 65 133 182
14.08 2.61 -0.44 65 133 180
14.08 2.50 -0.44 65 133 180
14.08 2.39 -0.44 63 134 180
14.08 2.28 -0.44 63 134 180
14.08 2.16 -0.44 63 133 182
14.08 2.05 -0.44 63 133 182
14.08 1.94 -0.44 60 133 178
14.08 1.82 -0.44 60 133 178
13.79 1.66 -0.24 61 134 179
13.79 1.55 -0.24 61 134 179
13.79 1.44 -0.24 61 133 181
13.79 1.33 -0.24 63 135 183
13.79 1.21 -0.24 63 135 183
13.79 1.10 -0.24 63 133 182
13.79 0.99 -0.24 65 135 184
13.79 0.88 -0.24 66 136 185
13.79 0.76 -0.24 64 134 183
13.50 0.61 -0.04 66 134 183
13.50 0.50 -0.04 67 135 184
13.50 0.39 -0.04 67 135 184
13.50 0.27 -0.04 66 134 183
13.50 0.16 -0.04 67 135 180
13.50 0.05 -0.04 66 134 179
13.50 -0.06 -0.04 66 134 179
13.50 -0.17 -0.04 66 134 179
13.24 -0.32 0.14 67 135 180
13.24 -0.43 0.14 68 136 181
13.24 -0.54 0.14 68 136 181
13.24 -0.65 0.14 68 136 181
13.24 -0.76 0.14 67 135 182
13.24 -0.87 0.14 68 136 183
12.95 -1.02 0.34 67 138 184
12.95 -1.13 0.34 65 136 182
12.95 -1.24 0.34 65 136 182
12.95 -1.35 0.34 67 138 184
12.95 -1.46 0.34 68 139 185
12.95 -1.57 0.34 65 138 183
12.95 -1.68 0.34 66 139 184
12.95 -1.79 0.34 67 138 184
12.66 -1.93 0.54 69 137 184
12.66 -2.04 0.54 69 137 182
12.66 -2.15 0.54 72 136 182
12.66 -2.26 0.54 74 138 184
12.66 -2.37 0.54 76 138 185
12.66 -2.48 0.54 76 138 185
12.66 -2.59 0.54 77 139 186
12.40 -2.73 0.72 76 138 185
12.40 -2.84 0.72 75 137 184
12.40 -2.95 0.72 76 138 187
12.40 -3.06 0.72 77 139 188
12.14 -3.19 0.89 75 139 187
12.14 -3.29 0.89 73 137 185
12.14 -3.40 0.89 74 140 190
12.14 -3.51 0.89 73 139 189
11.85 -3.64 1.09 71 137 185
11.85 -3.75 1.09 71 137 185
11.85 -3.86 1.09 70 138 185
11.59 -3.98 1.27 69 137 184
11.59 -4.09 1.27 65 136 182
11.59 -4.20 1.27 61 134 179
11.59 -4.31 1.27 60 133 178
11.59 -4.41 1.27 61 132 178
11.59 -4.52 1.27 61 132 178
11.33 -4.64 1.45 62 133 179
11.33 -4.75 1.45 64 135 181
11.33 -4.86 1.45 68 139 185
11.33 -4.97 1.45 77 142 182
14.60 19.04 -0.93 60 65 61
14.60 18.92 -0.93 69 71 68
14.60 18.81 -0.93 108 110 107
14.60 18.69 -0.93 162 164 159
14.60 18.35 -0.93 151 154 145
14.60 18.24 -0.93 151 153 140
14.60 18.12 -0.93 152 154 141
14.60 18.01 -0.93 156 158 144
14.60 17.90 -0.93 155 156 142
14.60 17.78 -0.93 156 157 141
-2.17 9.79 10.62 162 164 140
-2.17 9.71 10.62 168 171 142
-2.17 9.63 10.62 170 171 139
-2.17 9.55 10.62 167 169 132
-2.17 9.47 10.62 171 173 134
-2.17 9.39 10.62 175 177 137
-2.17 9.31 10.62 177 180 137
-2.17 9.23 10.62 177 180 137
-2.17 9.15 10.62 180 183 140
-2.17 9.08 10.62 184 187 144
-2.17 9.00 10.62 185 188 145
-2.17 8.92 10.62 183 185 148
-2.31 8.78 10.72 175 177 155
-2.31 8.70 10.72 161 162 146
-2.17 8.68 10.62 144 145 131
-2.17 8.60 10.62 115 116 102
-2.17 8.52 10.62 81 83 70
-2.17 8.44 10.62 57 59 46
14.60 11.05 -0.93 72 84 74
14.60 10.94 -0.93 67 79 69
14.60 10.82 -0.93 71 83 73
14.60 10.71 -0.93 67 82 77
14.60 10.59 -0.93 66 90 90
14.60 10.48 -0.93 67 100 109
14.60 10.37 -0.93 60 103 122
14.60 10.25 -0.93 55 106 133
14.60 10.14 -0.93 53 109 144
14.60 10.02 -0.93 48 107 147
14.60 9.91 -0.93 47 111 149
14.60 9.80 -0.93 47 109 150
14.60 9.68 -0.93 47 109 150
14.60 9.57 -0.93 46 109 152
14.60 9.45 -0.93 45 108 152
14.60 9.34 -0.93 43 110 153
14.60 9.22 -0.93 45 112 157
14.60 9.11 -0.93 42 109 152
14.60 9.00 -0.93 45 112 155
14.60 8.88 -0.93 49 116 158
14.60 8.77 -0.93 51 118 160
14.60 8.65 -0.93 50 118 157
14.60 8.54 -0.93 50 118 157
14.60 8.43 -0.93 52 120 159
14.60 8.31 -0.93 53 121 160
14.60 8.20 -0.93 51 119 158
14.60 8.08 -0.93 52 119 161
14.60 7.97 -0.93 52 119 161
14.60 7.86 -0.93 50 117 160
14.60 7.74 -0.93 48 116 161
14.60 7.63 -0.93 50 118 163
14.60 7.51 -0.93 51 119 166
14.60 7.40 -0.93 51 119 164
14.60 7.29 -0.93 49 122 163
14.60 7.17 -0.93 48 122 161
14.60 7.06 -0.93 49 121 161
14.60 6.94 -0.93 52 121 162
14.60 6.83 -0.93 53 122 163
14.60 6.72 -0.93 56 123 166
14.60 6.60 -0.93 56 123 166
14.60 6.49 -0.93 55 122 165
14.60 6.37 -0.93 57 124 167
14.60 6.26 -0.93 58 125 170
14.60 6.14 -0.93 57 124 169
14.60 6.03 -0.93 54 122 167
14.60 5.92 -0.93 53 121 166
14.60 5.80 -0.93 55 123 168
14.60 5.69 -0.93 57 125 170
14.60 5.57 -0.93 53 124 166
14.60 5.46 -0.93 53 124 166
14.60 5.35 -0.93 54 125 167
14.60 5.23 -0.93 55 126 168
14.60 5.12 -0.93 55 126 170
14.60 5.00 -0.93 56 127 171
14.60 4.89 -0.93 59 127 172
14.60 4.78 -0.93 60 128 173
14.60 4.66 -0.93 60 128 175
14.60 4.55 -0.93 60 128 175
14.60 4.43 -0.93 61 127 175
14.32 4.26 -0.73 61 127 175
14.32 4.14 -0.73 61 127 175
14.32 4.03 -0.73 62 128 178
14.32 3.92 -0.73 63 129 179
14.32 3.80 -0.73 59 126 178
14.32 3.69 -0.73 59 126 178
14.32 3.58 -0.73 60 128 177
14.32 3.46 -0.73 63 131 180
14.32 3.35 -0.73 65 133 182
14.03 3.18 -0.53 65 133 182
14.03 3.07 -0.53 63 131 178
14.03 2.95 -0.53 61 129 176
14.03 2.84 -0.53 60 128 175
14.03 2.73 -0.53 60 128 175
14.03 2.61 -0.53 58 129 175
14.03 2.50 -0.53 59 130 176
14.03 2.39 -0.53 59 130 176
14.03 2.28 -0.53 60 131 177
14.03 2.16 -0.53 60 131 177
14.03 2.05 -0.53 60 131 177
14.03 1.94 -0.53 58 131 176
14.03 1.82 -0.53 58 131 176
13.74 1.66 -0.34 59 132 177
13.74 1.55 -0.34 59 132 177
13.74 1.44 -0.34 59 131 179
13.74 1.33 -0.34 61 133 181
13.74 1.21 -0.34 62 134 182
13.74 1.10 -0.34 60 132 180
13.74 0.99 -0.34 61 133 181
13.74 0.88 -0.34 63 133 182
13.45 0.72 -0.14 62 132 181
13.45 0.61 -0.14 62 132 181
13.45 0.50 -0.14 63 133 182
13.45 0.39 -0.14 64 132 181
13.45 0.27 -0.14 62 130 179
13.45 0.16 -0.14 69 135 183
13.45 0.05 -0.14 68 134 182
13.45 -0.06 -0.14 67 133 181
13.45 -0.17 -0.14 67 133 181
13.19 -0.32 0.04 66 134 181
13.19 -0.43 0.04 66 134 181
13.19 -0.54 0.04 66 134 181
13.19 -0.65 0.04 65 133 180
13.19 -0.76 0.04 67 135 184
13.19 -0.87 0.04 68 136 185
12.90 -1.02 0.24 68 136 185
12.90 -1.13 0.24 67 135 184
12.90 -1.24 0.24 65 135 184
12.90 -1.35 0.24 67 137 186
12.90 -1.46 0.24 68 138 187
12.90 -1.57 0.24 68 139 185
12.90 -1.68 0.24 69 140 186
12.90 -1.79 0.24 71 139 186
12.90 -1.90 0.24 70 138 185
12.61 -2.04 0.44 70 137 182
12.61 -2.15 0.44 70 137 182
12.61 -2.26 0.44 73 137 183
12.61 -2.37 0.44 74 138 184
12.61 -2.48 0.44 74 138 184
12.61 -2.59 0.44 75 139 185
12.35 -2.73 0.62 75 139 185
12.35 -2.84 0.62 74 138 184
12.35 -2.95 0.62 74 138 186
12.35 -3.06 0.62 75 139 187
12.09 -3.19 0.80 72 138 186
12.09 -3.29 0.80 70 136 184
12.09 -3.40 0.80 73 139 189
12.09 -3.51 0.80 71 137 187
11.80 -3.64 1.00 70 136 186
11.80 -3.75 1.00 71 137 187
11.80 -3.86 1.00 70 138 187
11.54 -3.98 1.18 68 136 185
11.54 -4.09 1.18 64 135 181
11.54 -4.20 1.18 59 132 177
11.54 -4.31 1.18 61 134 179
11.54 -4.41 1.18 61 134 179
11.28 -4.54 1.36 59 132 177
11.28 -4.64 1.36 61 132 176
11.28 -4.75 1.36 65 136 180
11.28 -4.86 1.36 69 140 184
11.28 -4.97 1.36 76 140 176
14.55 19.04 -1.03 76 78 73
14.55 18.92 -1.03 117 119 114
14.55 18.81 -1.03 164 166 161
14.55 18.69 -1.03 158 161 154
14.55 18.35 -1.03 151 152 144
14.55 18.24 -1.03 155 157 144
14.55 18.12 -1.03 157 159 146
14.55 18.01 -1.03 154 154 142
14.55 17.90 -1.03 155 155 143
14.55 17.78 -1.03 158 156 144
-2.21 9.79 10.55 159 161 139
-2.21 9.71 10.55 170 173 146
-2.21 9.63 10.55 172 175 144
-2.21 9.55 10.55 168 172 137
-2.21 9.47 10.55 170 172 135
-2.21 9.39 10.55 172 174 135
-2.21 9.31 10.55 172 174 134
-2.21 9.23 10.55 169 171 131
-2.21 9.15 10.55 167 169 130
-2.21 9.08 10.55 168 170 131
-2.21 9.00 10.55 169 169 131
-2.21 8.92 10.55 167 166 135
-2.21 8.84 10.55 167 169 147
-2.21 8.76 10.55 164 165 149
-2.21 8.68 10.55 175 176 162
-2.21 8.60 10.55 182 183 169
-2.21 8.52 10.55 188 190 177
-2.21 8.44 10.55 192 194 181
14.55 11.05 -1.03 75 87 77
14.55 10.94 -1.03 88 100 90
14.55 10.82 -1.03 84 97 87
14.55 10.71 -1.03 76 93 87
14.55 10.59 -1.03 73 102 100
14.55 10.48 -1.03 71 108 117
14.55 10.37 -1.03 59 106 124
14.55 10.25 -1.03 51 107 134
14.55 10.14 -1.03 49 109 143
14.55 10.02 -1.03 42 106 144
14.55 9.91 -1.03 47 112 152
14.55 9.80 -1.03 46 109 152
14.55 9.68 -1.03 47 110 153
14.55 9.57 -1.03 47 111 155
14.55 9.45 -1.03 46 110 156
14.55 9.34 -1.03 43 111 156
14.55 9.22 -1.03 44 112 157
14.55 9.11 -1.03 43 110 153
14.55 9.00 -1.03 46 113 155
14.55 8.88 -1.03 48 115 157
14.55 8.77 -1.03 49 116 158
14.55 8.65 -1.03 49 117 156
14.55 8.54 -1.03 49 117 156
14.55 8.43 -1.03 50 118 155
14.55 8.31 -1.03 52 120 157
14.55 8.20 -1.03 52 120 159
14.55 8.08 -1.03 53 121 160
14.55 7.97 -1.03 53 120 162
14.55 7.86 -1.03 50 117 160
14.55 7.74 -1.03 49 116 159
14.55 7.63 -1.03 51 118 163
14.55 7.51 -1.03 52 118 166
14.55 7.40 -1.03 52 120 165
14.55 7.29 -1.03 49 121 161
14.55 7.17 -1.03 48 122 159
14.55 7.06 -1.03 50 122 160
14.55 6.94 -1.03 54 123 164
14.55 6.83 -1.03 55 124 165
14.55 6.72 -1.03 55 124 165
14.55 6.60 -1.03 55 124 165
14.55 6.49 -1.03 55 122 165
14.55 6.37 -1.03 56 123 166
14.55 6.26 -1.03 56 124 169
14.55 6.14 -1.03 56 124 169
14.55 6.03 -1.03 55 123 168
14.55 5.92 -1.03 55 123 168
14.55 5.80 -1.03 54 125 169
14.55 5.69 -1.03 55 126 170
14.55 5.57 -1.03 53 126 169
14.55 5.46 -1.03 53 126 169
14.55 5.35 -1.03 53 126 169
14.55 5.23 -1.03 53 126 169
14.55 5.12 -1.03 54 125 169
14.55 5.00 -1.03 54 125 169
14.55 4.89 -1.03 56 127 171
14.55 4.78 -1.03 57 128 172
14.55 4.66 -1.03 60 128 173
14.55 4.55 -1.03 60 128 173
14.55 4.43 -1.03 61 127 175
14.26 4.26 -0.83 61 127 175
14.26 4.14 -0.83 60 126 174
14.26 4.03 -0.83 60 126 174
14.26 3.92 -0.83 61 127 175
14.26 3.80 -0.83 58 124 174
14.26 3.69 -0.83 58 124 174
14.26 3.58 -0.83 58 124 174
14.26 3.46 -0.83 61 127 177
14.26 3.35 -0.83 64 130 178
13.97 3.18 -0.63 65 131 179
13.97 3.07 -0.63 63 131 176
13.97 2.95 -0.63 62 130 175
13.97 2.84 -0.63 62 130 175
13.97 2.73 -0.63 62 130 175
13.97 2.61 -0.63 63 131 176
13.97 2.50 -0.63 63 131 176
13.97 2.39 -0.63 64 132 179
13.97 2.28 -0.63 64 132 179
13.97 2.16 -0.63 62 133 179
13.97 2.05 -0.63 62 133 179
13.97 1.94 -0.63 59 130 176
13.97 1.82 -0.63 60 131 177
13.68 1.66 -0.43 59 132 177
13.68 1.55 -0.43 59 132 177
13.68 1.44 -0.43 59 131 179
13.68 1.33 -0.43 59 133 180
13.68 1.21 -0.43 61 135 182
13.68 1.10 -0.43 58 132 179
13.68 0.99 -0.43 59 133 180
13.68 0.88 -0.43 60 132 182
13.39 0.72 -0.23 59 131 181
13.39 0.61 -0.23 60 130 181
13.39 0.50 -0.23 61 131 182
13.39 0.39 -0.23 62 129 181
13.39 0.27 -0.23 60 127 179
13.39 0.16 -0.23 68 134 184
13.39 0.05 -0.23 67 133 183
13.39 -0.06 -0.23 66 132 182
13.39 -0.17 -0.23 66 132 182
13.13 -0.32 -0.05 66 132 182
13.13 -0.43 -0.05 67 133 183
13.13 -0.54 -0.05 65 132 184
13.13 -0.65 -0.05 65 132 184
13.13 -0.76 -0.05 65 132 184
13.13 -0.87 -0.05 67 134 186
12.84 -1.02 0.15 68 135 187
12.84 -1.13 0.15 67 134 186
12.84 -1.24 0.15 67 134 186
12.84 -1.35 0.15 68 135 187
12.84 -1.46 0.15 69 136 188
12.84 -1.57 0.15 68 136 183
12.84 -1.68 0.15 69 137 184
12.84 -1.79 0.15 71 139 186
12.84 -1.90 0.15 70 138 185
12.55 -2.04 0.35 70 137 182
12.55 -2.15 0.35 70 137 182
12.55 -2.26 0.35 71 138 183
12.55 -2.37 0.35 72 139 184
12.55 -2.48 0.35 72 139 184
12.29 -2.62 0.53 73 140 185
12.29 -2.73 0.53 72 139 184
12.29 -2.84 0.53 71 138 183
12.29 -2.95 0.53 71 139 186
12.29 -3.06 0.53 72 140 187
12.03 -3.19 0.71 71 139 186
12.03 -3.29 0.71 69 137 186
12.03 -3.40 0.71 71 137 187
12.03 -3.51 0.71 69 135 187
11.75 -3.64 0.91 68 135 187
11.75 -3.75 0.91 69 136 188
11.75 -3.86 0.91 67 137 186
11.49 -3.98 1.08 64 134 183
11.49 -4.09 1.08 60 133 178
11.49 -4.20 1.08 61 134 179
11.49 -4.31 1.08 59 132 177
11.49 -4.41 1.08 59 132 175
11.23 -4.54 1.26 61 134 177
11.23 -4.64 1.26 61 134 177
11.23 -4.75 1.26 62 135 178
11.23 -4.86 1.26 67 140 181
11.23 -4.97 1.26 78 144 178
14.20 19.35 -0.93 93 95 82
14.20 19.24 -0.93 82 84 73
14.20 19.12 -0.93 61 62 54
14.49 19.15 -1.13 52 53 45
14.49 19.04 -1.13 117 118 112
14.49 18.92 -1.13 164 165 159
14.49 18.81 -1.13 159 160 154
14.49 18.69 -1.13 153 154 148
14.20 18.44 -0.93 149 150 144
14.49 18.47 -1.13 153 154 146
14.49 18.35 -1.13 156 157 149
14.49 18.24 -1.13 150 152 139
14.49 18.12 -1.13 151 153 140
14.49 18.01 -1.13 153 153 141
14.49 17.90 -1.13 151 150 145
14.49 17.78 -1.13 160 157 152
14.49 17.67 -1.13 163 160 151
14.49 17.55 -1.13 161 159 146
-2.10 9.85 10.38 163 162 142
-2.10 9.77 10.38 170 170 146
-2.10 9.69 10.38 169 172 143
-2.10 9.61 10.38 165 169 136
-2.10 9.53 10.38 169 173 138
-2.10 9.46 10.38 171 175 138
-2.10 9.38 10.38 173 175 138
-2.10 9.30 10.38 170 172 135
-2.25 9.15 10.48 170 170 136
-2.25 9.08 10.48 171 171 137
-2.25 9.00 10.48 170 169 138
-2.25 8.92 10.48 167 166 138
-2.25 8.84 10.48 161 163 142
-2.25 8.76 10.48 156 157 141
-2.25 8.68 10.48 161 162 148
-2.25 8.60 10.48 155 156 142
14.49 11.05 -1.13 88 98 87
14.49 10.94 -1.13 89 101 89
14.49 10.82 -1.13 84 97 87
14.49 10.71 -1.13 73 92 86
14.49 10.59 -1.13 71 101 99
14.49 10.48 -1.13 69 107 116
14.49 10.37 -1.13 57 106 123
14.49 10.25 -1.13 50 107 134
14.49 10.14 -1.13 47 110 145
14.49 10.02 -1.13 41 106 146
14.49 9.91 -1.13 45 113 152
14.49 9.80 -1.13 43 107 151
14.49 9.68 -1.13 45 109 153
14.49 9.57 -1.13 44 111 156
14.49 9.45 -1.13 43 109 157
14.49 9.34 -1.13 39 110 156
14.49 9.22 -1.13 39 110 156
14.49 9.11 -1.13 44 113 155
14.49 9.00 -1.13 45 114 155
14.49 8.88 -1.13 47 116 155
14.49 8.77 -1.13 47 116 155
14.49 8.65 -1.13 47 117 153
14.49 8.54 -1.13 47 117 153
14.49 8.43 -1.13 49 117 152
14.49 8.08 -1.13 55 123 162
14.49 7.97 -1.13 56 121 161
14.49 7.86 -1.13 54 118 162
14.49 7.74 -1.13 53 117 161
14.49 7.63 -1.13 54 118 164
14.49 7.51 -1.13 56 120 168
14.49 7.40 -1.13 54 121 166
14.49 7.29 -1.13 47 119 159
14.49 7.17 -1.13 47 121 158
14.49 7.06 -1.13 50 122 160
14.49 6.94 -1.13 55 124 165
14.49 6.83 -1.13 55 124 165
14.49 6.72 -1.13 54 123 164
14.49 6.60 -1.13 54 123 164
14.49 6.49 -1.13 52 121 163
14.49 6.37 -1.13 52 121 163
14.49 6.26 -1.13 53 121 166
14.49 6.14 -1.13 54 122 167
14.49 6.03 -1.13 52 123 167
14.49 5.92 -1.13 53 124 168
14.49 5.80 -1.13 52 123 167
14.49 5.69 -1.13 52 123 167
14.49 5.57 -1.13 54 127 172
14.49 5.46 -1.13 54 127 172
14.49 5.35 -1.13 54 127 172
14.49 5.23 -1.13 53 126 171
14.49 5.12 -1.13 53 124 170
14.49 5.00 -1.13 53 124 170
14.49 4.89 -1.13 55 126 170
14.49 4.78 -1.13 57 128 172
14.49 4.66 -1.13 55 123 168
14.49 4.55 -1.13 57 125 170
14.49 4.43 -1.13 60 127 172
14.20 4.26 -0.93 62 129 174
14.20 4.14 -0.93 63 130 175
14.20 4.03 -0.93 65 129 175
14.20 3.92 -0.93 66 130 178
14.20 3.80 -0.93 67 131 179
14.20 3.69 -0.93 64 127 178
14.20 3.58 -0.93 58 124 172
14.20 3.46 -0.93 57 123 171
14.20 3.35 -0.93 58 125 170
13.91 3.18 -0.73 60 127 172
13.91 3.07 -0.73 60 129 171
13.91 2.95 -0.73 60 129 171
13.91 2.84 -0.73 61 130 172
13.91 2.73 -0.73 61 130 172
13.91 2.61 -0.73 61 130 172
13.91 2.50 -0.73 60 129 171
13.91 2.39 -0.73 60 128 173
13.91 2.28 -0.73 60 128 173
13.91 2.16 -0.73 60 128 175
13.91 2.05 -0.73 60 128 175
13.91 1.94 -0.73 61 132 178
13.91 1.82 -0.73 62 133 179
13.91 1.71 -0.73 61 134 179
13.63 1.55 -0.53 60 133 178
13.63 1.44 -0.53 59 131 179
13.63 1.33 -0.53 60 134 181
13.63 1.21 -0.53 61 135 182
13.63 1.10 -0.53 60 134 181
13.63 0.99 -0.53 61 135 182
13.63 0.88 -0.53 62 134 184
13.34 0.72 -0.33 61 133 183
13.34 0.61 -0.33 62 132 183
13.34 0.50 -0.33 63 133 184
13.34 0.39 -0.33 64 131 183
13.34 0.27 -0.33 62 129 181
13.34 0.16 -0.33 65 131 183
13.34 0.05 -0.33 64 130 182
13.34 -0.06 -0.33 64 130 182
13.34 -0.17 -0.33 65 131 183
13.34 -0.28 -0.33 66 132 184
13.08 -0.43 -0.15 67 133 185
13.08 -0.54 -0.15 66 133 185
13.08 -0.65 -0.15 66 133 185
13.08 -0.76 -0.15 63 130 182
12.79 -0.91 0.05 65 132 184
12.79 -1.02 0.05 67 134 187
12.79 -1.13 0.05 66 133 186
12.79 -1.24 0.05 66 133 186
12.79 -1.35 0.05 67 134 187
12.79 -1.46 0.05 67 134 186
12.79 -1.57 0.05 64 132 181
12.79 -1.68 0.05 66 134 181
12.79 -1.79 0.05 69 137 184
12.79 -1.90 0.05 69 137 184
12.50 -2.04 0.25 69 137 182
12.50 -2.15 0.25 69 137 182
12.50 -2.26 0.25 72 139 184
12.50 -2.37 0.25 73 140 185
12.50 -2.48 0.25 71 139 184
12.24 -2.62 0.43 71 139 184
12.24 -2.73 0.43 71 139 184
12.24 -2.84 0.43 70 138 183
12.24 -2.95 0.43 68 139 185
12.24 -3.06 0.43 69 140 186
11.98 -3.19 0.61 68 139 185
11.98 -3.29 0.61 68 136 185
11.98 -3.40 0.61 71 139 188
11.98 -3.51 0.61 70 136 188
11.69 -3.64 0.81 69 136 188
11.69 -3.75 0.81 71 138 190
11.69 -3.86 0.81 69 139 188
11.43 -3.98 0.99 65 135 184
11.43 -4.09 0.99 61 133 181
11.43 -4.20 0.99 63 137 182
11.43 -4.31 0.99 57 131 176
11.17 -4.43 1.17 57 132 174
11.17 -4.54 1.17 61 136 178
11.17 -4.64 1.17 62 137 179
11.17 -4.75 1.17 59 134 176
11.17 -4.86 1.17 65 138 179
11.17 -4.97 1.17 82 147 179
11.17 -5.07 1.17 99 151 165
11.17 -5.18 1.17 92 127 133
14.15 19.35 -1.03 78 76 64
14.15 19.24 -1.03 55 53 41
14.15 19.12 -1.03 57 55 43
14.15 19.01 -1.03 125 125 115
14.15 18.90 -1.03 164 164 154
14.43 18.92 -1.23 162 162 152
14.15 18.67 -1.03 152 152 142
14.15 18.56 -1.03 154 154 144
14.15 18.44 -1.03 153 153 143
14.15 18.33 -1.03 154 154 142
14.15 18.21 -1.03 155 155 143
14.43 18.24 -1.23 156 158 144
14.43 18.12 -1.23 157 159 145
14.43 18.01 -1.23 156 157 143
14.43 17.90 -1.23 159 155 144
14.43 17.78 -1.23 161 154 146
14.43 17.67 -1.23 159 155 143
14.43 17.55 -1.23 160 157 142
-2.14 9.85 10.31 164 163 143
-2.14 9.77 10.31 169 169 145
-2.14 9.69 10.31 172 171 143
-2.14 9.61 10.31 174 171 140
-2.14 9.53 10.31 174 171 138
-2.14 9.46 10.31 175 171 136
-2.14 9.38 10.31 177 172 134
-2.14 9.30 10.31 178 173 135
-2.14 9.22 10.31 177 175 136
-2.28 9.08 10.41 173 174 134
-2.28 9.00 10.41 169 171 131
-2.28 8.92 10.41 165 169 134
-2.28 8.84 10.41 159 161 140
-2.28 8.76 10.41 161 162 148
-2.28 8.68 10.41 160 162 149
-2.28 8.60 10.41 157 159 146
14.43 11.05 -1.23 92 100 85
14.43 10.94 -1.23 81 93 79
14.43 10.82 -1.23 75 93 81
14.43 10.71 -1.23 76 101 98
14.43 10.59 -1.23 74 106 121
14.43 10.48 -1.23 64 103 134
14.43 10.37 -1.23 53 100 146
14.43 10.25 -1.23 48 101 153
14.43 10.14 -1.23 48 105 158
14.43 10.02 -1.23 52 110 160
14.43 9.91 -1.23 54 112 158
14.43 9.80 -1.23 46 100 147
14.43 9.68 -1.23 49 101 149
14.43 9.57 -1.23 49 106 151
14.43 9.45 -1.23 48 107 149
14.43 9.34 -1.23 47 109 148
14.43 9.22 -1.23 48 111 152
14.43 9.11 -1.23 43 105 154
14.43 9.00 -1.23 48 109 163
14.43 8.88 -1.23 51 115 163
14.43 8.77 -1.23 51 115 163
14.43 8.65 -1.23 51 115 159
14.43 8.54 -1.23 52 116 160
14.43 8.43 -1.23 51 119 158
14.43 8.08 -1.23 49 119 155
14.43 7.97 -1.23 48 118 154
14.43 7.86 -1.23 50 120 156
14.43 7.74 -1.23 49 121 159
14.43 7.63 -1.23 47 119 157
14.43 7.51 -1.23 47 119 159
14.43 7.40 -1.23 51 120 161
14.43 7.29 -1.23 51 120 162
14.43 7.17 -1.23 53 120 163
14.43 7.06 -1.23 52 121 163
14.43 6.94 -1.23 50 121 163
14.43 6.83 -1.23 49 120 162
14.43 6.72 -1.23 48 121 162
14.43 6.60 -1.23 47 120 161
14.43 6.49 -1.23 51 124 165
14.43 6.37 -1.23 51 124 165
14.43 6.26 -1.23 52 125 166
14.43 6.14 -1.23 54 127 168
14.43 6.03 -1.23 52 125 166
14.43 5.92 -1.23 49 122 163
14.43 5.80 -1.23 50 121 163
14.43 5.69 -1.23 52 123 165
14.43 5.57 -1.23 52 125 166
14.43 5.46 -1.23 52 125 166
14.43 5.35 -1.23 53 126 167
14.43 5.23 -1.23 53 126 167
14.43 5.12 -1.23 55 126 170
14.43 5.00 -1.23 55 126 170
14.43 4.89 -1.23 55 126 172
14.43 4.78 -1.23 55 126 172
14.43 4.66 -1.23 54 125 171
14.43 4.55 -1.23 55 126 172
14.43 4.43 -1.23 57 125 172
14.15 4.26 -1.03 58 126 173
14.15 4.14 -1.03 57 125 172
14.15 4.03 -1.03 56 124 169
14.15 3.92 -1.03 55 123 168
14.15 3.80 -1.03 57 128 174
14.15 3.69 -1.03 57 128 174
14.15 3.58 -1.03 57 127 176
14.15 3.46 -1.03 57 127 176
14.15 3.35 -1.03 57 127 176
13.86 3.18 -0.83 58 128 177
13.86 3.07 -0.83 58 128 177
13.86 2.95 -0.83 58 128 177
13.86 2.84 -0.83 56 126 175
13.86 2.73 -0.83 56 126 175
13.86 2.61 -0.83 55 127 175
13.86 2.50 -0.83 55 127 175
13.86 2.39 -0.83 51 128 174
13.86 2.28 -0.83 51 128 174
13.86 2.16 -0.83 52 129 175
13.86 2.05 -0.83 53 130 176
13.86 1.94 -0.83 53 130 176
13.86 1.82 -0.83 55 132 178
13.86 1.71 -0.83 56 133 179
13.86 1.60 -0.83 54 131 177
13.57 1.44 -0.63 55 129 178
13.57 1.33 -0.63 57 131 180
13.57 1.21 -0.63 56 130 179
13.57 1.10 -0.63 58 130 180
13.57 0.99 -0.63 58 130 180
13.57 0.88 -0.63 61 131 183
13.28 0.72 -0.43 62 132 184
13.28 0.61 -0.43 64 131 184
13.28 0.50 -0.43 64 131 184
13.28 0.39 -0.43 63 130 183
13.28 0.27 -0.43 62 129 182
13.28 0.16 -0.43 62 132 183
13.28 0.05 -0.43 61 131 182
13.28 -0.06 -0.43 61 131 182
13.28 -0.17 -0.43 61 131 182
13.28 -0.28 -0.43 64 131 183
13.02 -0.43 -0.25 64 131 183
13.02 -0.54 -0.25 63 130 183
13.02 -0.65 -0.25 62 129 182
13.02 -0.76 -0.25 65 132 185
12.73 -0.91 -0.05 66 133 186
12.73 -1.02 -0.05 67 134 187
12.73 -1.13 -0.05 67 134 187
12.73 -1.24 -0.05 65 135 187
12.73 -1.35 -0.05 64 134 186
12.73 -1.46 -0.05 64 135 187
12.73 -1.57 -0.05 63 137 184
12.73 -1.68 -0.05 62 139 185
12.73 -1.79 -0.05 62 139 185
12.73 -1.90 -0.05 62 139 185
12.44 -2.04 0.16 64 138 187
12.44 -2.15 0.16 64 138 187
12.44 -2.26 0.16 65 139 188
12.44 -2.37 0.16 65 139 188
12.44 -2.48 0.16 66 138 188
12.19 -2.62 0.34 67 139 189
12.19 -2.73 0.34 69 141 191
12.19 -2.84 0.34 70 142 192
12.19 -2.95 0.34 70 142 192
12.19 -3.06 0.34 68 140 190
11.93 -3.19 0.52 67 137 188
11.93 -3.29 0.52 65 135 186
11.93 -3.40 0.52 67 139 187
11.93 -3.51 0.52 66 138 186
11.64 -3.64 0.72 65 135 184
11.64 -3.75 0.72 65 135 184
11.64 -3.86 0.72 66 133 185
11.38 -3.98 0.90 65 132 184
11.38 -4.09 0.90 62 132 183
11.38 -4.20 0.90 62 136 183
11.38 -4.31 0.90 59 136 182
11.12 -4.43 1.08 57 136 179
11.12 -4.54 1.08 57 134 178
11.12 -4.64 1.08 55 133 172
11.12 -4.75 1.08 59 132 173
11.12 -4.86 1.08 66 140 177
11.12 -4.97 1.08 86 145 175
11.12 -5.07 1.08 111 145 155
11.12 -5.18 1.08 98 119 120
14.09 19.58 -1.13 75 76 62
14.38 19.61 -1.33 81 79 67
14.09 19.35 -1.13 75 73 61
14.09 19.24 -1.13 93 93 83
14.09 19.12 -1.13 132 132 122
14.09 19.01 -1.13 163 163 153
14.09 18.90 -1.13 161 161 151
14.09 18.78 -1.13 154 154 146
14.09 18.67 -1.13 152 152 144
14.09 18.56 -1.13 155 155 147
14.09 18.44 -1.13 156 156 148
14.09 18.33 -1.13 155 157 146
14.09 18.21 -1.13 155 157 146
14.09 18.10 -1.13 155 157 146
14.38 18.12 -1.33 154 156 145
14.38 18.01 -1.33 155 155 143
14.38 17.90 -1.33 158 154 145
14.38 17.78 -1.33 162 155 145
14.38 17.67 -1.33 161 159 146
14.38 17.55 -1.33 163 162 144
-1.89 9.98 10.04 166 165 144
-2.04 9.84 10.14 169 169 143
-2.18 9.69 10.24 169 168 137
-2.18 9.61 10.24 169 166 131
-2.18 9.53 10.24 177 175 137
-2.18 9.46 10.24 177 173 135
-2.18 9.38 10.24 178 173 133
-2.18 9.30 10.24 178 173 133
-2.18 9.22 10.24 176 175 131
-2.18 9.14 10.24 174 173 129
-2.32 9.00 10.34 168 171 126
-2.32 8.92 10.34 166 168 131
-2.32 8.84 10.34 160 162 138
-2.32 8.76 10.34 161 162 146
13.51 14.80 -0.72 155 158 151
13.51 14.69 -0.72 155 157 152
13.51 14.57 -0.72 155 157 152
13.51 14.46 -0.72 156 157 152
13.80 14.47 -0.93 157 158 153
13.80 14.35 -0.93 158 159 154
14.38 11.05 -1.33 84 92 77
14.38 10.94 -1.33 75 83 70
14.38 10.82 -1.33 82 94 80
14.38 10.71 -1.33 80 96 93
14.38 10.59 -1.33 72 99 108
14.38 10.48 -1.33 63 101 124
14.38 10.37 -1.33 53 104 135
14.38 10.25 -1.33 45 108 143
14.38 10.14 -1.33 40 110 144
14.38 10.02 -1.33 35 110 142
14.38 9.91 -1.33 35 111 143
14.38 9.80 -1.33 37 110 151
14.38 9.68 -1.33 36 108 156
14.38 9.57 -1.33 33 109 161
14.38 9.45 -1.33 33 108 163
14.38 9.34 -1.33 29 108 164
14.38 9.22 -1.33 31 107 159
14.38 9.11 -1.33 39 107 154
14.38 9.00 -1.33 46 110 154
14.38 8.88 -1.33 50 115 157
14.38 8.77 -1.33 51 116 158
14.38 8.65 -1.33 51 116 154
14.38 8.54 -1.33 51 116 154
14.38 8.43 -1.33 49 115 150
14.38 8.31 -1.33 46 112 147
14.38 8.20 -1.33 56 122 157
14.38 8.08 -1.33 52 118 153
14.38 7.97 -1.33 51 116 154
14.38 7.86 -1.33 54 119 159
14.38 7.74 -1.33 54 119 159
14.38 7.63 -1.33 52 117 159
14.38 7.51 -1.33 50 117 160
14.38 7.40 -1.33 52 119 162
14.38 7.29 -1.33 52 119 162
14.38 7.17 -1.33 52 119 162
14.38 7.06 -1.33 51 120 162
14.38 6.94 -1.33 49 120 162
14.38 6.83 -1.33 49 120 162
14.38 6.72 -1.33 47 120 161
14.38 6.60 -1.33 46 119 160
14.38 6.49 -1.33 50 123 164
14.38 6.37 -1.33 49 122 163
14.38 6.26 -1.33 51 124 165
14.38 6.14 -1.33 53 126 167
14.38 6.03 -1.33 53 124 166
14.38 5.92 -1.33 51 122 164
14.38 5.80 -1.33 51 122 164
14.38 5.69 -1.33 54 125 167
14.38 5.12 -1.33 54 125 169
14.38 5.00 -1.33 54 125 169
14.38 4.89 -1.33 54 125 171
14.38 4.78 -1.33 54 125 171
14.38 4.66 -1.33 55 126 172
14.38 4.55 -1.33 55 126 172
14.38 4.43 -1.33 57 125 172
14.38 4.32 -1.33 58 126 173
14.09 4.14 -1.13 58 126 173
14.09 4.03 -1.13 58 126 171
14.09 3.92 -1.13 58 126 171
14.09 3.80 -1.13 56 127 173
14.09 3.69 -1.13 56 127 173
14.09 3.58 -1.13 58 126 173
14.09 3.46 -1.13 57 125 172
14.09 3.35 -1.13 57 125 172
13.80 3.18 -0.93 58 126 173
13.80 3.07 -0.93 58 126 173
13.80 2.95 -0.93 59 127 174
13.80 2.84 -0.93 56 127 173
13.80 2.73 -0.93 57 128 174
13.80 2.61 -0.93 56 128 176
13.80 2.50 -0.93 56 128 176
13.80 2.39 -0.93 55 129 176
13.80 2.28 -0.93 56 130 177
13.80 2.16 -0.93 55 132 178
13.80 2.05 -0.93 56 133 179
13.80 1.94 -0.93 54 128 175
13.80 1.82 -0.93 56 130 177
13.80 1.71 -0.93 57 131 178
13.80 1.60 -0.93 55 129 176
13.80 1.49 -0.93 55 129 178
13.51 1.33 -0.72 59 131 181
13.51 1.21 -0.72 58 130 180
13.51 1.10 -0.72 60 132 182
13.51 0.99 -0.72 60 132 182
13.51 0.88 -0.72 63 133 185
13.51 0.76 -0.72 63 133 185
13.23 0.61 -0.52 64 134 186
13.23 0.50 -0.52 64 134 186
13.23 0.39 -0.52 63 133 185
13.23 0.27 -0.52 63 133 185
13.23 0.16 -0.52 63 135 183
13.23 0.05 -0.52 62 134 182
13.23 -0.06 -0.52 62 132 183
13.23 -0.17 -0.52 62 132 183
12.97 -0.32 -0.34 64 131 183
12.97 -0.43 -0.34 64 131 183
12.97 -0.54 -0.34 63 130 182
12.97 -0.65 -0.34 63 130 182
12.97 -0.76 -0.34 66 133 185
12.68 -0.91 -0.14 66 133 185
12.68 -1.02 -0.14 66 133 186
12.68 -1.13 -0.14 66 133 186
12.68 -1.24 -0.14 64 134 186
12.68 -1.35 -0.14 64 134 186
12.68 -1.46 -0.14 66 136 188
12.68 -1.57 -0.14 63 137 184
12.68 -1.68 -0.14 63 137 184
12.68 -1.79 -0.14 64 136 184
12.68 -1.90 -0.14 65 137 185
12.39 -2.04 0.06 65 137 185
12.39 -2.15 0.06 65 137 185
12.39 -2.26 0.06 65 137 185
12.39 -2.37 0.06 65 137 185
12.39 -2.48 0.06 67 139 187
12.13 -2.62 0.24 67 139 187
12.13 -2.73 0.24 67 139 187
12.13 -2.84 0.24 67 139 187
12.13 -2.95 0.24 67 139 187
12.13 -3.06 0.24 68 140 188
11.87 -3.19 0.42 68 140 188
11.87 -3.29 0.42 68 140 188
11.87 -3.40 0.42 68 141 186
11.87 -3.51 0.42 66 139 184
11.87 -3.62 0.42 65 135 184
11.58 -3.75 0.62 64 134 183
11.58 -3.86 0.62 66 133 185
11.32 -3.98 0.81 65 132 184
11.32 -4.09 0.81 61 133 183
11.32 -4.20 0.81 58 134 183
11.32 -4.31 0.81 58 134 183
11.07 -4.43 0.99 57 135 181
11.07 -4.54 0.99 57 134 180
11.07 -4.64 0.99 55 132 174
11.07 -4.75 0.99 60 133 176
11.07 -4.86 0.99 67 140 181
11.07 -4.97 0.99 86 145 177
11.07 -5.07 0.99 111 145 155
11.07 -5.18 0.99 99 121 119
14.32 19.72 -1.43 77 77 69
14.03 19.46 -1.23 70 70 60
14.03 19.35 -1.23 100 100 90
14.03 19.24 -1.23 141 141 133
14.03 19.12 -1.23 168 168 160
14.03 19.01 -1.23 163 163 155
14.03 18.90 -1.23 154 154 146
14.03 18.78 -1.23 151 150 145
14.03 18.67 -1.23 157 156 151
14.03 18.56 -1.23 153 152 147
14.03 18.44 -1.23 155 154 149
14.03 18.33 -1.23 156 157 151
14.03 18.21 -1.23 156 157 151
14.03 18.10 -1.23 155 156 148
14.03 17.99 -1.23 154 155 147
14.32 18.01 -1.43 157 157 149
14.32 17.90 -1.43 155 152 143
14.32 17.78 -1.43 157 153 142
14.32 17.67 -1.43 156 154 141
14.32 17.55 -1.43 158 157 139
-1.93 9.98 9.97 161 163 139
-1.93 9.90 9.97 169 169 141
-2.08 9.76 10.07 173 174 142
-2.08 9.68 10.07 176 173 138
-2.22 9.53 10.18 175 173 134
-2.22 9.46 10.18 175 172 131
-2.22 9.38 10.18 176 171 129
-2.22 9.30 10.18 176 171 129
-2.22 9.22 10.18 174 173 129
-2.22 9.14 10.18 174 173 129
-2.22 9.06 10.18 169 172 127
-2.36 8.92 10.28 167 169 130
-2.36 8.84 10.28 162 162 138
-2.36 8.76 10.28 163 162 144
13.46 14.80 -0.82 157 159 154
13.46 14.69 -0.82 156 158 155
13.46 14.57 -0.82 156 158 155
13.46 14.46 -0.82 155 157 154
13.46 14.35 -0.82 155 157 154
13.74 14.35 -1.02 156 156 154
14.32 11.05 -1.43 74 82 69
14.32 10.94 -1.43 75 85 74
14.32 10.82 -1.43 84 97 90
14.32 10.71 -1.43 83 101 105
14.32 10.59 -1.43 78 105 124
14.32 10.48 -1.43 67 101 136
14.32 10.37 -1.43 51 98 144
14.32 10.25 -1.43 41 96 150
14.32 10.14 -1.43 39 100 154
14.32 10.02 -1.43 38 103 157
14.32 9.91 -1.43 36 102 152
14.32 9.80 -1.43 45 105 159
14.32 9.68 -1.43 42 99 154
14.32 9.57 -1.43 42 98 149
14.32 9.45 -1.43 46 102 151
14.32 9.34 -1.43 50 107 150
14.32 9.22 -1.43 48 107 147
14.32 9.11 -1.43 46 111 151
14.32 9.00 -1.43 45 113 152
14.32 8.88 -1.43 45 113 150
14.32 8.77 -1.43 46 114 151
14.32 8.65 -1.43 49 117 152
14.32 8.54 -1.43 52 120 155
14.32 8.43 -1.43 55 121 156
14.32 8.31 -1.43 53 119 154
14.32 8.20 -1.43 58 124 159
14.32 8.08 -1.43 55 120 158
14.32 7.97 -1.43 55 119 157
14.32 7.86 -1.43 56 119 160
14.32 7.74 -1.43 56 119 162
14.32 7.63 -1.43 54 117 160
14.32 7.51 -1.43 54 115 160
14.32 7.40 -1.43 55 118 162
14.32 7.29 -1.43 55 119 163
14.32 7.17 -1.43 52 119 162
14.32 7.06 -1.43 50 119 161
14.32 6.94 -1.43 50 121 163
14.32 6.83 -1.43 50 121 163
14.32 6.72 -1.43 48 119 161
14.32 6.60 -1.43 47 118 160
14.32 6.49 -1.43 49 122 163
14.32 6.37 -1.43 49 122 163
14.32 6.26 -1.43 50 121 163
14.32 6.14 -1.43 50 121 163
14.32 6.03 -1.43 50 121 163
14.64 5.99 -1.65 48 119 161
14.64 5.88 -1.65 50 119 161
14.64 5.76 -1.65 52 121 163
14.32 5.12 -1.43 52 123 167
14.32 5.00 -1.43 52 123 167
14.32 4.89 -1.43 52 123 169
14.32 4.78 -1.43 52 123 169
14.32 4.66 -1.43 53 124 170
14.32 4.55 -1.43 53 124 170
14.32 4.43 -1.43 55 123 170
14.32 4.32 -1.43 55 123 170
14.32 4.21 -1.43 56 124 169
14.03 4.03 -1.23 57 125 170
14.03 3.92 -1.23 57 125 170
14.03 3.80 -1.23 58 126 171
14.03 3.69 -1.23 58 126 171
14.03 3.58 -1.23 57 125 170
14.03 3.46 -1.23 56 124 169
14.03 3.35 -1.23 57 124 169
14.03 3.24 -1.23 58 125 170
13.74 3.07 -1.02 58 125 170
13.74 2.95 -1.02 59 126 171
13.74 2.84 -1.02 55 123 170
13.74 2.73 -1.02 56 124 171
13.74 2.61 -1.02 55 126 172
13.74 2.50 -1.02 56 127 173
13.74 2.39 -1.02 55 128 173
13.74 2.28 -1.02 55 128 173
13.74 2.16 -1.02 56 129 174
13.74 2.05 -1.02 57 130 175
13.74 1.94 -1.02 54 126 174
13.74 1.82 -1.02 56 128 176
13.74 1.71 -1.02 57 129 177
13.74 1.60 -1.02 56 128 176
13.74 1.49 -1.02 57 129 177
13.46 1.33 -0.82 59 131 181
13.46 1.21 -0.82 59 131 181
13.46 1.10 -0.82 58 130 180
13.46 0.99 -0.82 59 131 181
13.46 0.88 -0.82 59 131 181
13.46 0.76 -0.82 60 132 182
13.17 0.61 -0.62 60 132 182
13.17 0.50 -0.62 61 133 183
13.17 0.39 -0.62 61 133 183
13.17 0.27 -0.62 61 133 183
13.17 0.16 -0.62 62 134 182
13.17 0.05 -0.62 61 133 181
13.17 -0.06 -0.62 61 133 181
12.91 -0.21 -0.44 60 132 180
12.91 -0.32 -0.44 62 132 181
12.91 -0.43 -0.44 62 132 181
12.91 -0.54 -0.44 64 132 181
12.91 -0.65 -0.44 64 132 181
12.91 -0.76 -0.44 62 130 179
12.62 -0.91 -0.24 62 130 179
12.62 -1.02 -0.24 61 128 180
12.62 -1.13 -0.24 60 127 179
12.62 -1.24 -0.24 60 127 179
12.62 -1.35 -0.24 61 128 180
12.62 -1.46 -0.24 63 133 184
12.62 -1.57 -0.24 65 135 184
12.62 -1.68 -0.24 65 135 184
12.62 -1.79 -0.24 65 135 184
12.34 -1.93 -0.03 65 135 184
12.34 -2.04 -0.03 66 136 185
12.34 -2.15 -0.03 66 136 185
12.34 -2.26 -0.03 66 136 185
12.34 -2.37 -0.03 66 136 185
12.34 -2.48 -0.03 68 138 187
12.08 -2.62 0.15 67 137 186
12.08 -2.73 0.15 67 138 184
12.08 -2.84 0.15 67 138 184
12.08 -2.95 0.15 66 139 184
12.08 -3.06 0.15 67 140 185
12.08 -3.16 0.15 68 141 186
11.82 -3.29 0.33 68 141 186
11.82 -3.40 0.33 68 141 186
11.82 -3.51 0.33 66 139 184
11.82 -3.62 0.33 65 135 184
11.53 -3.75 0.53 63 133 182
11.53 -3.86 0.53 65 132 184
11.27 -3.98 0.71 65 132 184
11.27 -4.09 0.71 62 133 185
11.27 -4.20 0.71 56 132 182
11.27 -4.31 0.71 56 132 182
11.01 -4.43 0.89 56 132 181
11.01 -4.54 0.89 58 132 181
11.01 -4.64 0.89 57 131 176
11.01 -4.75 0.89 61 132 178
11.01 -4.86 0.89 69 140 186
11.01 -4.97 0.89 88 144 179
11.01 -5.07 0.89 108 140 151
11.01 -5.18 0.89 94 114 112
13.98 19.80 -1.32 84 83 79
14.26 19.83 -1.53 68 67 63
13.98 19.58 -1.32 61 60 56
13.98 19.46 -1.32 93 93 85
13.98 19.35 -1.32 146 146 138
13.98 19.24 -1.32 161 161 153
13.98 19.12 -1.32 150 150 142
13.98 19.01 -1.32 145 144 139
13.98 18.90 -1.32 156 155 150
13.98 18.78 -1.32 150 149 144
13.98 18.67 -1.32 156 155 150
13.98 18.56 -1.32 151 152 146
13.98 18.44 -1.32 152 153 147
13.98 18.33 -1.32 154 155 147
13.98 18.21 -1.32 154 155 147
13.98 18.10 -1.32 154 155 147
13.98 17.99 -1.32 154 155 147
13.98 17.87 -1.32 156 156 146
13.98 17.76 -1.32 159 159 147
13.98 17.65 -1.32 160 158 145
13.98 17.53 -1.32 157 158 142
13.98 17.42 -1.32 156 158 137
-1.83 10.05 9.80 159 161 137
-1.97 9.90 9.90 164 167 138
-2.12 9.76 10.01 169 170 136
-2.12 9.68 10.01 170 170 132
-2.12 9.60 10.01 175 173 134
-2.12 9.52 10.01 175 172 131
-2.26 9.38 10.11 176 171 129
-2.26 9.30 10.11 177 172 130
-2.26 9.22 10.11 175 173 132
-2.26 9.14 10.11 175 173 132
-2.26 9.06 10.11 170 173 130
-2.26 8.98 10.11 168 170 133
-2.40 8.84 10.21 163 163 137
-2.40 8.76 10.21 163 162 142
13.40 14.80 -0.92 157 159 156
13.40 14.69 -0.92 157 159 156
13.40 14.57 -0.92 157 159 158
13.40 14.46 -0.92 158 160 159
13.40 14.35 -0.92 159 161 160
13.40 14.24 -0.92 160 160 160
13.40 14.12 -0.92 160 160 158
13.40 14.01 -0.92 156 157 149
13.40 13.90 -0.92 156 158 147
13.40 13.79 -0.92 157 159 148
13.40 13.45 -0.92 156 159 148
13.40 13.34 -0.92 157 160 151
13.98 10.95 -1.32 36 46 35
14.26 10.94 -1.53 40 56 46
14.26 10.82 -1.53 30 60 50
14.26 10.71 -1.53 37 73 73
14.26 10.59 -1.53 47 89 103
14.26 10.48 -1.53 54 100 126
14.26 10.37 -1.53 54 103 143
14.26 10.25 -1.53 52 106 152
14.26 10.14 -1.53 53 112 156
14.26 10.02 -1.53 53 114 159
14.26 9.91 -1.53 39 102 145
14.26 9.80 -1.53 45 107 154
14.26 9.68 -1.53 42 104 153
14.26 9.57 -1.53 36 103 148
14.26 9.45 -1.53 36 103 146
14.26 9.34 -1.53 33 105 143
14.26 9.22 -1.53 32 105 140
14.26 9.11 -1.53 40 109 148
14.26 9.00 -1.53 40 109 148
14.26 8.88 -1.53 41 110 149
14.26 8.77 -1.53 41 110 149
14.26 8.65 -1.53 43 111 148
14.26 8.54 -1.53 45 113 150
14.26 8.43 -1.53 45 113 148
14.26 8.31 -1.53 45 113 148
14.26 8.20 -1.53 52 118 153
14.26 8.08 -1.53 50 116 151
14.26 7.97 -1.53 50 114 152
14.26 7.86 -1.53 52 116 154
14.26 7.74 -1.53 52 115 156
14.26 7.63 -1.53 51 114 155
14.26 7.51 -1.53 51 112 156
14.26 7.40 -1.53 52 115 158
14.26 7.29 -1.53 54 119 161
14.26 7.17 -1.53 51 118 160
14.26 7.06 -1.53 50 119 160
14.26 6.94 -1.53 50 121 163
14.26 6.83 -1.53 51 122 164
14.26 6.72 -1.53 49 120 162
14.26 6.60 -1.53 48 119 161
14.26 6.49 -1.53 48 119 161
14.26 6.37 -1.53 48 119 161
14.26 6.26 -1.53 48 119 161
14.26 6.14 -1.53 48 119 161
14.26 6.03 -1.53 50 119 161
14.58 5.99 -1.75 50 119 161
14.58 5.88 -1.75 51 120 162
14.58 5.76 -1.75 51 120 162
14.26 5.12 -1.53 51 122 166
14.26 5.00 -1.53 51 122 166
14.26 4.89 -1.53 50 121 167
14.26 4.78 -1.53 50 121 167
14.26 4.66 -1.53 52 123 169
14.26 4.55 -1.53 52 123 169
14.26 4.43 -1.53 52 123 167
14.26 4.32 -1.53 52 123 167
14.26 4.21 -1.53 53 124 168
14.26 4.09 -1.53 53 124 166
14.26 3.98 -1.53 54 125 167
13.98 3.80 -1.32 58 127 169
13.98 3.69 -1.32 58 127 169
13.98 3.58 -1.32 58 125 168
13.98 3.46 -1.32 58 125 168
13.98 3.35 -1.32 58 125 168
13.98 3.24 -1.32 58 125 168
13.69 3.07 -1.12 58 125 168
13.69 2.95 -1.12 58 125 168
13.69 2.84 -1.12 53 120 165
13.69 2.73 -1.12 54 121 166
13.69 2.61 -1.12 55 123 168
13.69 2.50 -1.12 56 124 169
13.69 2.39 -1.12 54 125 171
13.69 2.28 -1.12 54 125 171
13.69 2.16 -1.12 55 126 172
13.69 2.05 -1.12 55 126 172
13.69 1.94 -1.12 55 125 174
13.69 1.82 -1.12 56 126 175
13.69 1.71 -1.12 57 127 176
13.69 1.60 -1.12 57 127 176
13.69 1.49 -1.12 57 127 176
13.40 1.33 -0.92 59 129 178
13.40 1.21 -0.92 60 130 179
13.40 1.10 -0.92 56 128 176
13.40 0.99 -0.92 56 128 176
13.40 0.88 -0.92 57 129 177
13.40 0.76 -0.92 57 129 177
13.11 0.61 -0.72 58 130 178
13.11 0.50 -0.72 58 130 178
13.11 0.39 -0.72 57 131 178
13.11 0.27 -0.72 58 132 179
13.11 0.16 -0.72 58 132 177
13.11 0.05 -0.72 57 131 176
13.11 -0.06 -0.72 58 131 176
12.85 -0.21 -0.53 58 131 176
12.85 -0.32 -0.53 61 132 178
12.85 -0.43 -0.53 62 133 179
12.85 -0.54 -0.53 64 132 179
12.85 -0.65 -0.53 64 132 179
12.85 -0.76 -0.53 65 133 182
12.85 -0.87 -0.53 65 133 182
12.57 -1.02 -0.33 64 132 181
12.57 -1.13 -0.33 63 131 180
12.57 -1.24 -0.33 63 131 180
12.57 -1.35 -0.33 64 132 181
12.57 -1.46 -0.33 68 136 185
12.57 -1.57 -0.33 67 133 183
12.57 -1.68 -0.33 67 133 183
12.28 -1.82 -0.13 67 133 181
12.28 -1.93 -0.13 68 134 182
12.28 -2.04 -0.13 67 135 182
12.28 -2.15 -0.13 67 135 182
12.28 -2.26 -0.13 68 136 183
12.28 -2.37 -0.13 68 136 183
12.02 -2.51 0.05 66 137 183
12.02 -2.62 0.05 67 138 184
12.02 -2.73 0.05 68 139 185
12.02 -2.84 0.05 68 139 185
12.02 -2.95 0.05 68 139 185
12.02 -3.06 0.05 67 138 184
11.76 -3.19 0.23 65 138 183
11.76 -3.29 0.23 64 137 182
11.76 -3.40 0.23 68 139 183
11.76 -3.51 0.23 67 138 182
11.76 -3.62 0.23 65 136 182
11.48 -3.75 0.44 64 134 183
11.48 -3.86 0.44 65 133 182
11.22 -3.98 0.62 65 132 184
11.22 -4.09 0.62 61 132 184
11.22 -4.20 0.62 55 131 181
11.22 -4.31 0.62 55 131 181
10.96 -4.43 0.80 55 131 181
10.96 -4.54 0.80 56 129 180
10.96 -4.64 0.80 56 130 179
10.96 -4.75 0.80 61 131 182
10.96 -4.86 0.80 70 138 187
10.96 -4.97 0.80 87 141 179
10.96 -5.07 0.80 114 143 159
10.96 -5.18 0.80 95 113 115
13.92 19.80 -1.42 65 64 62
13.92 19.69 -1.42 103 102 100
13.92 19.58 -1.42 160 159 157
13.92 19.46 -1.42 168 167 162
13.92 19.35 -1.42 150 149 144
13.92 19.24 -1.42 148 149 141
13.92 19.12 -1.42 158 159 151
13.92 19.01 -1.42 150 151 143
13.92 18.90 -1.42 150 151 143
13.92 18.78 -1.42 153 155 142
13.92 18.67 -1.42 154 156 143
13.92 18.56 -1.42 155 158 141
13.92 18.44 -1.42 154 157 140
13.92 18.33 -1.42 153 158 136
13.92 18.21 -1.42 155 160 137
13.92 18.10 -1.42 157 163 137
13.92 17.99 -1.42 158 164 136
13.92 17.87 -1.42 156 163 132
13.92 17.76 -1.42 152 156 129
13.92 17.65 -1.42 152 156 129
13.92 17.53 -1.42 149 156 123
13.92 17.42 -1.42 149 156 122
-1.87 10.05 9.73 153 161 122
-1.87 9.97 9.73 160 167 125
-2.01 9.82 9.84 165 171 127
-2.01 9.74 9.84 169 170 126
-2.16 9.60 9.94 174 173 127
-2.16 9.52 9.94 174 171 128
-2.16 9.44 9.94 176 171 129
-2.30 9.30 10.04 177 172 134
-2.30 9.22 10.04 177 173 136
-2.30 9.14 10.04 177 172 140
-2.30 9.06 10.04 172 172 138
-2.30 8.98 10.04 171 170 140
-2.30 8.90 10.04 167 166 138
-2.30 8.82 10.04 164 162 139
13.34 14.80 -1.02 158 159 154
13.34 14.69 -1.02 156 158 153
13.34 14.57 -1.02 156 158 153
13.34 14.46 -1.02 156 158 153
13.34 14.35 -1.02 156 158 153
13.34 14.24 -1.02 158 159 153
13.34 14.12 -1.02 159 160 154
13.34 14.01 -1.02 152 155 146
13.34 13.90 -1.02 153 156 147
13.34 13.79 -1.02 155 158 149
13.34 13.45 -1.02 161 164 155
13.34 13.34 -1.02 158 161 152
14.21 11.05 -1.62 164 174 166
13.92 10.84 -1.42 164 173 168
13.92 10.73 -1.42 180 192 192
14.21 10.71 -1.62 179 188 193
14.21 10.59 -1.62 178 187 196
14.21 10.48 -1.62 176 182 194
14.21 10.37 -1.62 168 172 183
14.21 10.25 -1.62 150 154 163
14.21 10.14 -1.62 126 136 137
14.21 10.02 -1.62 112 124 124
14.21 9.91 -1.62 78 97 101
14.21 9.80 -1.62 31 65 90
14.21 9.68 -1.62 17 57 93
14.21 9.57 -1.62 9 57 103
14.21 9.45 -1.62 11 64 116
14.21 9.34 -1.62 18 79 133
14.21 9.22 -1.62 34 92 142
14.21 9.11 -1.62 47 99 136
14.21 9.00 -1.62 53 99 132
14.21 8.88 -1.62 55 104 136
14.21 8.77 -1.62 57 106 138
14.21 8.65 -1.62 54 107 139
14.21 8.54 -1.62 54 107 139
14.21 8.43 -1.62 56 113 143
14.21 8.31 -1.62 58 117 147
14.21 8.20 -1.62 53 114 143
14.21 8.08 -1.62 51 115 143
14.21 7.97 -1.62 49 116 145
14.21 7.86 -1.62 49 116 145
14.21 7.74 -1.62 45 114 145
14.21 7.63 -1.62 44 113 144
14.21 7.51 -1.62 42 113 143
14.21 7.40 -1.62 43 114 146
14.21 7.29 -1.62 45 114 153
14.21 7.17 -1.62 46 115 156
14.21 7.06 -1.62 47 116 157
14.21 6.94 -1.62 47 119 159
14.21 6.83 -1.62 47 119 159
14.21 6.72 -1.62 47 118 160
14.21 6.60 -1.62 47 118 160
14.21 6.49 -1.62 48 119 161
14.21 6.37 -1.62 49 120 162
14.21 6.26 -1.62 51 119 164
14.21 6.14 -1.62 50 118 163
14.21 6.03 -1.62 52 119 164
14.52 5.99 -1.85 53 120 165
14.52 5.88 -1.85 53 120 165
14.52 5.76 -1.85 52 119 164
14.21 5.12 -1.62 52 120 165
14.21 5.00 -1.62 53 121 166
14.21 4.89 -1.62 52 123 167
14.21 4.78 -1.62 52 123 167
14.21 4.66 -1.62 51 122 166
14.21 4.55 -1.62 52 123 167
14.21 4.43 -1.62 53 124 166
14.21 4.32 -1.62 53 124 166
14.21 4.21 -1.62 52 124 164
14.21 4.09 -1.62 51 123 163
14.21 3.98 -1.62 50 122 162
13.92 3.80 -1.42 53 122 163
13.92 3.69 -1.42 53 122 163
13.92 3.58 -1.42 54 123 164
13.92 3.46 -1.42 55 124 165
13.92 3.35 -1.42 56 123 166
13.92 3.24 -1.42 56 123 166
13.92 3.12 -1.42 55 122 165
13.63 2.95 -1.22 55 122 165
13.63 2.84 -1.22 57 124 169
13.63 2.73 -1.22 58 125 170
13.63 2.61 -1.22 58 124 172
13.63 2.50 -1.22 58 124 172
13.63 2.39 -1.22 56 124 171
13.63 2.28 -1.22 56 124 171
13.63 2.16 -1.22 54 124 173
13.63 2.05 -1.22 54 124 173
13.63 1.94 -1.22 58 126 175
13.63 1.82 -1.22 57 125 174
13.63 1.71 -1.22 57 125 174
13.63 1.60 -1.22 58 126 175
13.63 1.49 -1.22 55 126 172
13.34 1.33 -1.02 54 125 171
13.34 1.21 -1.02 56 127 173
13.34 1.10 -1.02 56 127 173
13.34 0.99 -1.02 57 128 174
13.34 0.88 -1.02 56 129 174
13.34 0.76 -1.02 57 130 175
13.34 0.65 -1.02 58 131 176
13.06 0.50 -0.81 58 131 176
13.06 0.39 -0.81 58 131 176
13.06 0.27 -0.81 58 131 176
13.06 0.16 -0.81 58 131 176
13.06 0.05 -0.81 58 131 176
13.06 -0.06 -0.81 58 131 176
13.06 -0.17 -0.81 59 132 177
12.80 -0.32 -0.63 61 132 178
12.80 -0.43 -0.63 61 132 178
12.80 -0.54 -0.63 60 131 177
12.80 -0.65 -0.63 60 131 177
12.80 -0.76 -0.63 58 128 177
12.80 -0.87 -0.63 59 129 178
12.51 -1.02 -0.43 60 130 179
12.51 -1.13 -0.43 60 130 179
12.51 -1.24 -0.43 59 131 179
12.51 -1.35 -0.43 59 131 179
12.51 -1.46 -0.43 61 131 180
12.51 -1.57 -0.43 63 133 184
12.51 -1.68 -0.43 65 132 184
12.51 -1.79 -0.43 65 132 184
12.23 -1.93 -0.23 66 133 185
12.23 -2.04 -0.23 66 134 183
12.23 -2.15 -0.23 67 135 184
12.23 -2.26 -0.23 67 135 184
12.23 -2.37 -0.23 67 135 184
11.97 -2.51 -0.04 67 135 182
11.97 -2.62 -0.04 67 135 182
11.97 -2.73 -0.04 64 135 181
11.97 -2.84 -0.04 64 135 181
11.97 -2.95 -0.04 65 136 182
11.97 -3.06 -0.04 66 137 183
11.71 -3.19 0.14 67 138 182
11.71 -3.29 0.14 67 138 182
11.71 -3.40 0.14 63 134 178
11.71 -3.51 0.14 64 135 179
11.71 -3.62 0.14 67 135 182
11.42 -3.75 0.34 67 135 182
11.42 -3.86 0.34 64 134 183
11.16 -3.98 0.53 62 132 183
11.16 -4.09 0.53 60 132 182
11.16 -4.20 0.53 56 132 182
11.16 -4.31 0.53 57 133 183
10.90 -4.43 0.71 59 133 182
10.90 -4.54 0.71 58 130 180
10.90 -4.64 0.71 60 130 179
10.90 -4.75 0.71 67 133 183
10.90 -4.86 0.71 75 138 189
10.90 -4.97 0.71 90 139 180
10.90 -5.07 0.71 107 134 155
10.90 -5.18 0.71 89 103 112
13.58 19.88 -1.32 61 60 56
13.86 19.92 -1.52 76 75 71
13.86 19.80 -1.52 133 132 128
13.86 19.69 -1.52 166 165 161
13.86 19.58 -1.52 157 156 152
13.86 19.46 -1.52 152 153 147
13.86 19.35 -1.52 142 143 137
13.86 19.24 -1.52 151 152 144
13.86 19.12 -1.52 155 156 148
13.86 19.01 -1.52 147 149 136
13.86 18.90 -1.52 148 150 137
13.86 18.78 -1.52 163 166 149
13.86 18.67 -1.52 162 165 146
13.86 18.56 -1.52 161 165 142
13.58 18.30 -1.32 162 166 139
13.58 18.19 -1.32 164 171 140
13.86 18.21 -1.52 168 175 141
13.86 18.10 -1.52 172 180 143
13.86 17.99 -1.52 176 184 145
13.86 17.87 -1.52 178 187 144
13.86 17.76 -1.52 181 190 145
13.86 17.65 -1.52 178 187 142
-1.62 10.34 9.46 170 182 132
-1.62 10.26 9.46 165 178 125
-1.62 10.18 9.46 165 175 122
-1.77 10.04 9.56 168 177 122
-1.91 9.89 9.66 168 178 118
-2.05 9.74 9.77 169 174 116
-2.05 9.66 9.77 173 173 119
-2.20 9.52 9.87 173 171 120
-2.20 9.44 9.87 173 169 121
-2.20 9.36 9.87 174 170 125
-2.20 9.28 9.87 175 172 131
-2.20 9.20 9.87 176 172 135
-2.34 9.06 9.97 175 172 137
-2.34 8.98 9.97 175 172 141
