ply
format ascii 1.0
element vertex 1661
property float x
property float y
property float z
property uchar red
property uchar green
property uchar blue
end_header
12.85 -0.54 -0.53 62 134 184
12.85 -0.65 -0.53 62 134 184
12.85 -0.76 -0.53 59 130 182
12.85 -0.87 -0.53 59 130 182
12.57 -1.02 -0.33 60 131 185
12.57 -1.13 -0.33 61 132 186
12.57 -1.24 -0.33 61 132 188
12.57 -1.35 -0.33 62 133 189
12.57 -1.46 -0.33 62 133 187
12.57 -1.57 -0.33 64 136 184
12.28 -1.71 -0.13 64 137 182
12.28 -1.82 -0.13 65 138 183
12.28 -1.93 -0.13 64 137 182
12.28 -2.04 -0.13 64 137 182
12.28 -2.15 -0.13 64 137 182
12.28 -2.26 -0.13 65 136 182
12.02 -2.40 0.05 66 137 183
12.02 -2.51 0.05 65 136 182
12.02 -2.62 0.05 66 137 183
12.02 -2.73 0.05 68 138 187
12.02 -2.84 0.05 68 138 187
12.02 -2.95 0.05 67 137 186
12.02 -3.06 0.05 66 136 185
11.76 -3.19 0.23 67 137 186
11.76 -3.29 0.23 67 137 186
11.76 -3.40 0.23 68 138 189
11.76 -3.51 0.23 68 138 189
11.48 -3.64 0.44 70 138 187
11.48 -3.75 0.44 69 137 186
11.48 -3.86 0.44 68 136 185
11.22 -3.98 0.62 67 135 184
11.22 -4.09 0.62 63 135 185
11.22 -4.20 0.62 57 130 181
11.22 -4.31 0.62 57 130 183
11.22 -4.41 0.62 56 129 180
10.96 -4.54 0.80 62 134 184
10.96 -4.64 0.80 59 131 179
10.96 -4.75 0.80 63 131 176
10.96 -4.86 0.80 75 142 185
10.96 -4.97 0.80 87 141 175
10.96 -5.07 0.80 101 137 153
10.96 -5.18 0.80 90 113 119
-0.06 18.77 8.46 142 122 87
-0.38 18.48 8.68 139 119 84
-0.38 18.40 8.68 137 122 81
-0.38 18.31 8.68 139 124 83
-0.38 18.23 8.68 136 125 80
-0.38 18.15 8.68 133 121 79
-0.38 18.07 8.68 134 122 82
-0.38 17.98 8.68 123 110 76
-0.38 17.90 8.68 113 98 69
-0.38 17.82 8.68 106 89 69
-0.38 17.73 8.68 100 81 67
-0.38 17.65 8.68 89 69 62
-0.38 17.57 8.68 77 53 53
-0.38 17.48 8.68 64 44 45
-0.38 17.40 8.68 65 52 46
-0.38 17.32 8.68 64 55 48
-0.38 17.23 8.68 79 73 61
-0.38 17.15 8.68 148 148 120
-0.38 17.07 8.68 158 162 125
-0.38 16.98 8.68 155 163 114
-0.38 16.90 8.68 137 147 95
-0.38 16.82 8.68 88 102 53
-0.20 16.84 8.56 77 89 51
-0.20 16.75 8.56 70 82 58
-0.20 16.67 8.56 68 78 69
-0.20 16.59 8.56 60 69 68
-0.06 16.59 8.46 55 62 68
-0.06 16.51 8.46 52 61 66
-0.06 16.42 8.46 52 59 65
-0.06 16.34 8.46 63 64 68
-0.06 16.25 8.46 61 60 65
-0.06 16.17 8.46 59 59 59
-0.06 16.09 8.46 62 62 60
0.11 16.10 8.33 65 66 61
13.92 19.80 -1.42 70 70 68
13.92 19.69 -1.42 109 109 109
13.63 19.43 -1.22 156 156 156
13.63 19.32 -1.22 165 164 162
13.63 19.21 -1.22 152 151 147
13.92 19.24 -1.42 147 146 142
13.92 19.12 -1.42 157 156 152
13.92 19.01 -1.42 156 155 151
13.92 18.90 -1.42 152 151 147
13.92 18.78 -1.42 151 148 143
13.92 18.67 -1.42 154 151 146
13.92 18.56 -1.42 158 155 150
13.92 18.44 -1.42 158 155 150
13.92 18.33 -1.42 158 155 148
13.92 18.21 -1.42 158 155 148
13.92 18.10 -1.42 157 154 147
13.92 17.99 -1.42 158 155 148
13.92 17.87 -1.42 160 157 150
13.92 17.76 -1.42 160 158 146
13.92 17.65 -1.42 160 158 146
13.92 17.53 -1.42 160 157 148
13.92 17.42 -1.42 160 157 148
13.92 17.31 -1.42 158 158 150
13.92 17.19 -1.42 158 158 150
13.92 17.08 -1.42 158 157 152
13.92 16.97 -1.42 158 157 152
13.92 16.85 -1.42 156 157 152
13.92 16.74 -1.42 156 157 152
13.63 16.50 -1.22 157 158 153
13.63 16.38 -1.22 157 158 153
13.63 16.27 -1.22 156 159 152
13.63 16.16 -1.22 156 159 152
13.63 16.05 -1.22 155 158 151
13.63 15.93 -1.22 155 158 151
13.63 15.82 -1.22 156 159 148
13.63 15.71 -1.22 155 158 147
13.63 15.59 -1.22 155 158 147
13.63 15.48 -1.22 155 158 147
13.63 15.37 -1.22 156 159 148
13.63 15.26 -1.22 156 159 148
13.63 15.14 -1.22 157 159 148
13.63 15.03 -1.22 157 159 148
13.63 14.92 -1.22 159 161 150
13.63 14.80 -1.22 160 161 153
13.34 14.57 -1.02 159 160 152
13.34 14.46 -1.02 157 158 152
13.34 14.35 -1.02 157 158 152
13.34 14.24 -1.02 160 159 155
13.34 14.12 -1.02 160 159 155
13.34 14.01 -1.02 157 158 150
13.34 13.90 -1.02 158 159 151
13.34 13.79 -1.02 159 160 154
14.21 11.05 -1.62 161 164 153
14.21 10.94 -1.62 160 163 154
14.21 10.82 -1.62 175 178 169
14.21 10.71 -1.62 178 180 175
14.21 10.59 -1.62 181 188 181
14.21 10.48 -1.62 182 191 188
14.21 10.37 -1.62 171 183 181
14.21 10.25 -1.62 145 161 161
14.21 10.14 -1.62 114 135 138
14.21 10.02 -1.62 93 118 125
14.21 9.91 -1.62 71 101 111
14.21 9.80 -1.62 26 64 83
14.21 9.68 -1.62 8 50 72
14.21 9.57 -1.62 4 48 73
14.21 9.45 -1.62 13 58 87
14.21 9.34 -1.62 25 72 100
14.21 9.22 -1.62 30 81 110
14.21 9.11 -1.62 43 100 129
14.21 9.00 -1.62 45 106 134
14.21 8.88 -1.62 51 113 136
14.21 8.77 -1.62 53 115 138
14.21 8.65 -1.62 50 115 137
14.21 8.54 -1.62 48 112 137
14.21 8.43 -1.62 46 112 136
14.21 8.31 -1.62 46 111 139
14.21 8.20 -1.62 48 114 146
14.21 8.08 -1.62 46 112 147
14.21 7.97 -1.62 48 116 151
14.21 7.86 -1.62 44 112 149
14.21 7.74 -1.62 39 112 147
14.21 7.63 -1.62 43 116 151
14.21 7.51 -1.62 42 117 149
14.21 7.40 -1.62 48 122 157
14.21 7.29 -1.62 44 116 156
14.21 7.17 -1.62 43 114 156
14.21 7.06 -1.62 43 114 158
14.21 6.94 -1.62 44 115 159
14.21 6.83 -1.62 45 116 160
14.21 6.72 -1.62 47 118 164
14.21 6.60 -1.62 48 119 165
14.21 6.49 -1.62 46 117 161
14.21 6.37 -1.62 47 118 162
14.21 6.26 -1.62 49 120 162
14.52 6.22 -1.85 49 120 162
14.52 6.11 -1.85 49 121 161
14.52 5.99 -1.85 48 120 160
14.52 5.88 -1.85 48 120 158
14.52 5.76 -1.85 48 120 160
14.21 5.12 -1.62 51 120 161
14.21 5.00 -1.62 52 121 162
14.21 4.89 -1.62 52 121 162
14.21 4.78 -1.62 53 122 163
14.21 4.66 -1.62 53 122 161
14.21 4.55 -1.62 53 122 161
14.21 4.43 -1.62 51 124 159
14.21 4.32 -1.62 51 124 159
14.21 4.21 -1.62 52 125 160
14.21 4.09 -1.62 52 125 160
13.92 3.92 -1.42 51 124 159
13.92 3.80 -1.42 54 123 162
13.92 3.69 -1.42 55 124 163
13.92 3.58 -1.42 57 124 166
13.92 3.46 -1.42 57 124 166
13.92 3.35 -1.42 57 124 167
13.92 3.24 -1.42 57 124 167
13.92 3.12 -1.42 56 123 168
13.92 3.01 -1.42 56 123 168
13.92 2.90 -1.42 56 122 170
13.92 2.78 -1.42 59 125 173
13.92 2.67 -1.42 60 126 174
13.63 2.50 -1.22 58 124 172
13.63 2.39 -1.22 58 124 172
13.63 2.28 -1.22 59 125 173
13.63 2.16 -1.22 58 124 172
13.63 2.05 -1.22 55 121 169
13.63 1.94 -1.22 55 126 170
13.63 1.82 -1.22 54 125 169
13.63 1.71 -1.22 54 125 169
13.63 1.60 -1.22 54 125 169
13.34 1.44 -1.02 55 126 170
13.34 1.33 -1.02 55 128 173
13.34 1.21 -1.02 54 127 172
13.34 1.10 -1.02 57 130 175
13.34 0.99 -1.02 56 129 174
13.34 0.88 -1.02 55 129 176
13.34 0.76 -1.02 55 129 176
13.34 0.65 -1.02 55 129 176
13.06 0.50 -0.81 55 129 176
13.06 0.39 -0.81 55 129 176
13.06 0.27 -0.81 54 128 175
13.06 0.16 -0.81 57 130 175
13.06 0.05 -0.81 57 130 175
13.06 -0.06 -0.81 57 130 175
13.06 -0.17 -0.81 57 130 175
13.06 -0.28 -0.81 57 129 177
12.80 -0.43 -0.63 57 129 177
12.80 -0.54 -0.63 57 129 177
12.80 -0.65 -0.63 57 129 177
12.80 -0.76 -0.63 57 129 179
12.80 -0.87 -0.63 58 130 180
12.51 -1.02 -0.43 59 130 182
12.51 -1.13 -0.43 59 130 182
12.51 -1.24 -0.43 60 131 183
12.51 -1.35 -0.43 60 131 183
12.51 -1.46 -0.43 61 132 184
12.51 -1.57 -0.43 59 133 180
12.51 -1.68 -0.43 60 134 181
12.23 -1.82 -0.23 62 134 182
12.23 -1.93 -0.23 63 135 183
12.23 -2.04 -0.23 63 135 183
12.23 -2.15 -0.23 62 134 182
12.23 -2.26 -0.23 62 134 182
11.97 -2.40 -0.04 62 134 182
11.97 -2.51 -0.04 61 133 181
11.97 -2.62 -0.04 62 134 182
11.97 -2.73 -0.04 65 135 184
11.97 -2.84 -0.04 66 136 185
11.97 -2.95 -0.04 67 138 184
11.97 -3.06 -0.04 67 138 184
11.71 -3.19 0.14 67 138 184
11.71 -3.29 0.14 67 137 186
11.71 -3.40 0.14 66 134 183
11.71 -3.51 0.14 67 134 186
11.71 -3.62 0.14 66 134 183
11.42 -3.75 0.34 65 133 182
11.42 -3.86 0.34 64 132 181
11.16 -3.98 0.53 65 133 182
11.16 -4.09 0.53 60 132 182
11.16 -4.20 0.53 57 133 183
11.16 -4.31 0.53 57 133 185
11.16 -4.41 0.53 54 130 182
10.90 -4.54 0.71 58 131 182
10.90 -4.64 0.71 57 129 179
10.90 -4.75 0.71 62 130 177
10.90 -4.86 0.71 78 142 188
10.90 -4.97 0.71 90 140 177
10.90 -5.07 0.71 100 129 145
11.16 -5.17 0.53 84 101 109
-0.42 18.56 8.61 149 114 86
-0.42 18.48 8.61 150 115 87
-0.42 18.40 8.61 150 115 83
-0.42 18.31 8.61 149 114 82
-0.42 18.23 8.61 148 115 80
-0.42 18.15 8.61 149 116 83
-0.42 18.07 8.61 139 109 75
-0.42 17.98 8.61 138 107 78
-0.42 17.90 8.61 142 110 85
-0.42 17.82 8.61 147 115 94
-0.42 17.73 8.61 145 113 98
-0.42 17.65 8.61 132 100 89
-0.42 17.57 8.61 114 82 71
-0.42 17.48 8.61 99 69 58
-0.42 17.40 8.61 87 60 41
-0.42 17.32 8.61 83 58 36
-0.42 17.23 8.61 90 68 45
-0.42 17.15 8.61 158 142 109
-0.42 17.07 8.61 177 161 125
-0.42 16.98 8.61 176 165 120
-0.42 16.90 8.61 157 145 103
-0.25 16.92 8.49 124 116 77
-0.25 16.84 8.49 101 92 63
-0.25 16.75 8.49 84 77 59
-0.25 16.67 8.49 82 73 64
-0.10 16.67 8.38 76 69 63
-0.10 16.59 8.38 69 62 56
-0.10 16.51 8.38 68 62 50
-0.10 16.42 8.38 68 61 51
-0.10 16.34 8.38 70 66 65
13.29 19.74 -1.11 69 70 56
13.29 19.63 -1.11 72 74 61
13.29 19.51 -1.11 114 115 107
13.58 19.55 -1.32 156 157 151
13.58 19.43 -1.32 162 163 158
13.58 19.32 -1.32 155 154 150
13.58 19.21 -1.32 149 148 144
13.58 19.09 -1.32 157 156 152
13.58 18.98 -1.32 159 158 154
13.58 18.87 -1.32 153 152 148
13.58 18.76 -1.32 150 149 145
13.58 18.64 -1.32 158 157 152
13.58 18.53 -1.32 158 157 152
13.58 18.42 -1.32 154 153 148
13.58 18.30 -1.32 155 154 149
13.58 18.19 -1.32 158 155 148
13.86 18.21 -1.52 158 155 148
13.86 18.10 -1.52 158 155 148
13.86 17.99 -1.52 157 154 147
13.86 17.87 -1.52 159 156 147
13.86 17.76 -1.52 161 159 147
13.86 17.65 -1.52 161 159 146
13.86 17.53 -1.52 161 159 147
13.58 17.29 -1.32 160 158 146
13.86 17.31 -1.52 158 158 148
13.86 17.19 -1.52 158 158 148
13.86 17.08 -1.52 158 158 150
13.86 16.97 -1.52 158 158 150
13.86 16.85 -1.52 157 158 152
13.58 16.61 -1.32 157 158 152
13.58 16.50 -1.32 156 157 151
13.58 16.38 -1.32 156 157 151
13.58 16.27 -1.32 155 158 151
13.58 16.16 -1.32 155 158 151
13.58 16.05 -1.32 156 159 150
13.58 15.93 -1.32 156 159 150
13.58 15.82 -1.32 157 160 149
13.58 15.71 -1.32 156 159 148
13.29 15.47 -1.11 155 159 145
13.29 15.36 -1.11 155 159 145
13.29 15.25 -1.11 157 161 147
13.29 15.13 -1.11 157 161 147
13.58 15.14 -1.32 158 160 147
13.58 15.03 -1.32 156 158 145
13.58 14.92 -1.32 158 160 147
13.29 14.69 -1.11 159 161 150
13.29 14.57 -1.11 159 160 152
13.29 14.46 -1.11 159 160 152
13.29 14.35 -1.11 161 162 156
13.29 14.24 -1.11 163 162 157
13.29 14.12 -1.11 161 160 155
13.29 14.01 -1.11 163 166 159
13.29 13.90 -1.11 160 163 156
13.00 13.67 -0.91 157 160 153
13.29 13.68 -1.11 156 159 152
13.29 13.56 -1.11 157 158 153
13.29 13.45 -1.11 159 160 155
13.29 13.34 -1.11 161 161 159
13.29 13.23 -1.11 162 162 160
13.29 13.11 -1.11 160 161 156
13.29 13.00 -1.11 158 159 154
13.29 12.89 -1.11 156 157 151
13.29 12.78 -1.11 156 157 151
13.29 12.66 -1.11 157 159 148
13.29 12.33 -1.11 159 161 148
13.29 12.22 -1.11 157 160 149
13.29 12.10 -1.11 155 158 147
13.29 11.99 -1.11 152 155 144
13.29 11.88 -1.11 153 155 144
13.29 11.77 -1.11 156 158 147
13.29 11.65 -1.11 157 159 148
13.00 11.44 -0.91 157 159 148
13.00 11.33 -0.91 157 159 148
13.00 11.22 -0.91 152 154 143
13.29 11.21 -1.11 152 154 143
13.29 11.09 -1.11 158 160 149
13.86 11.18 -1.52 157 159 148
13.86 11.07 -1.52 151 153 142
13.86 10.95 -1.52 155 157 146
14.15 10.94 -1.72 164 168 154
14.15 10.82 -1.72 150 163 143
14.15 10.71 -1.72 148 162 139
14.15 10.59 -1.72 147 160 140
14.15 10.48 -1.72 151 163 143
14.15 10.37 -1.72 160 169 152
14.15 10.25 -1.72 168 176 161
14.15 10.14 -1.72 177 185 174
14.15 10.02 -1.72 184 191 184
14.15 9.91 -1.72 180 189 186
14.15 9.80 -1.72 170 180 182
14.15 9.68 -1.72 160 169 174
14.15 9.57 -1.72 143 150 158
14.15 9.45 -1.72 115 122 130
14.15 9.34 -1.72 86 91 97
14.15 9.22 -1.72 62 71 80
14.15 9.11 -1.72 45 62 72
14.15 9.00 -1.72 41 60 74
14.15 8.88 -1.72 42 64 75
14.15 8.77 -1.72 47 69 82
14.15 8.65 -1.72 50 76 89
14.15 8.54 -1.72 57 84 101
14.15 8.43 -1.72 66 97 117
14.15 8.31 -1.72 74 108 133
14.15 8.20 -1.72 70 107 136
14.15 8.08 -1.72 64 104 139
14.15 7.97 -1.72 64 108 147
14.15 7.86 -1.72 59 106 148
14.15 7.74 -1.72 57 109 149
14.15 7.63 -1.72 59 112 154
14.15 7.51 -1.72 53 111 149
14.15 7.40 -1.72 54 113 153
14.15 7.29 -1.72 45 113 152
14.15 7.17 -1.72 44 113 154
14.15 7.06 -1.72 44 113 155
14.15 6.94 -1.72 45 113 158
14.15 6.83 -1.72 46 114 159
14.15 6.72 -1.72 47 115 162
14.15 6.60 -1.72 47 115 162
14.15 6.49 -1.72 48 116 161
14.15 6.37 -1.72 49 117 162
14.15 6.26 -1.72 49 118 159
14.46 6.22 -1.95 50 119 160
14.46 6.11 -1.95 49 119 155
14.46 5.99 -1.95 49 119 155
14.46 5.88 -1.95 49 119 153
14.46 5.76 -1.95 49 119 155
14.46 5.65 -1.95 50 118 157
14.46 5.54 -1.95 50 117 159
14.15 5.35 -1.72 50 119 160
14.15 5.23 -1.72 50 119 160
14.15 5.12 -1.72 51 120 161
14.15 5.00 -1.72 51 120 161
14.15 4.89 -1.72 52 121 160
14.15 4.78 -1.72 52 121 160
14.15 4.66 -1.72 52 124 162
14.15 4.55 -1.72 51 123 161
14.15 4.43 -1.72 50 123 158
14.15 4.32 -1.72 49 122 157
14.15 4.21 -1.72 50 123 158
14.15 4.09 -1.72 48 122 157
13.86 3.92 -1.52 48 121 156
13.86 3.80 -1.52 53 122 161
13.86 3.69 -1.52 54 122 161
13.86 3.58 -1.52 55 122 164
13.86 3.46 -1.52 56 123 165
13.86 3.35 -1.52 55 124 166
13.86 3.24 -1.52 55 124 166
13.86 3.12 -1.52 55 123 168
13.86 3.01 -1.52 55 123 168
13.86 2.90 -1.52 54 122 167
13.86 2.78 -1.52 57 125 170
13.86 2.67 -1.52 58 126 171
13.86 2.56 -1.52 55 123 168
13.58 2.39 -1.32 55 123 168
13.58 1.82 -1.32 54 125 169
13.58 1.71 -1.32 53 124 168
13.58 1.60 -1.32 52 123 167
13.29 1.44 -1.11 53 124 168
13.29 1.33 -1.11 54 127 172
13.29 1.21 -1.11 54 127 172
13.29 1.10 -1.11 56 129 174
13.29 0.99 -1.11 55 128 173
13.29 0.88 -1.11 54 128 175
13.29 0.76 -1.11 55 129 176
13.29 0.65 -1.11 55 129 176
13.00 0.50 -0.91 55 129 176
13.00 0.39 -0.91 52 129 175
13.00 0.27 -0.91 53 127 174
13.00 0.16 -0.91 54 128 173
13.00 0.05 -0.91 56 129 174
13.00 -0.06 -0.91 56 129 174
13.00 -0.17 -0.91 57 130 175
13.00 -0.28 -0.91 57 130 175
12.74 -0.43 -0.73 57 130 175
12.74 -0.54 -0.73 56 128 176
12.74 -0.65 -0.73 56 128 176
12.74 -0.76 -0.73 58 130 178
12.74 -0.87 -0.73 58 130 178
12.74 -0.99 -0.73 59 131 179
12.46 -1.13 -0.52 59 131 179
12.46 -1.24 -0.52 60 132 182
12.46 -1.35 -0.52 60 132 182
12.46 -1.46 -0.52 60 132 182
12.46 -1.57 -0.52 57 131 180
12.46 -1.68 -0.52 58 132 181
12.17 -1.82 -0.32 59 133 182
12.17 -1.93 -0.32 60 134 183
12.17 -2.04 -0.32 62 134 184
12.17 -2.15 -0.32 63 135 185
12.17 -2.26 -0.32 65 137 185
11.91 -2.40 -0.14 66 138 186
11.91 -2.51 -0.14 61 133 181
11.91 -2.62 -0.14 62 134 182
11.91 -2.73 -0.14 63 135 183
11.91 -2.84 -0.14 64 136 184
11.91 -2.95 -0.14 67 138 184
11.91 -3.06 -0.14 67 138 184
11.65 -3.19 0.05 67 138 184
11.65 -3.29 0.05 66 136 185
11.65 -3.40 0.05 66 134 183
11.65 -3.51 0.05 66 133 185
11.65 -3.62 0.05 65 133 182
11.37 -3.75 0.25 64 132 181
11.37 -3.86 0.25 64 132 181
11.11 -3.98 0.43 63 133 184
11.11 -4.09 0.43 60 132 182
11.11 -4.20 0.43 55 132 184
11.11 -4.31 0.43 56 133 185
11.11 -4.41 0.43 55 131 183
11.11 -4.52 0.43 58 131 182
10.85 -4.64 0.62 58 128 179
11.11 -4.74 0.43 63 129 177
11.11 -4.85 0.43 77 141 187
11.11 -4.95 0.43 89 139 176
11.11 -5.06 0.43 106 132 149
11.11 -5.17 0.43 91 104 113
-0.46 18.56 8.54 149 115 87
-0.46 18.48 8.54 151 117 89
-0.60 18.30 8.64 150 116 88
-0.46 18.31 8.54 145 111 83
-0.46 18.23 8.54 145 111 84
-0.46 18.15 8.54 149 115 88
-0.46 18.07 8.54 147 115 90
-0.46 17.98 8.54 144 114 88
-0.46 17.90 8.54 142 114 90
-0.46 17.82 8.54 140 114 89
-0.46 17.73 8.54 136 114 90
-0.46 17.65 8.54 135 113 89
-0.46 17.57 8.54 135 118 92
-0.46 17.48 8.54 142 122 98
-0.46 17.40 8.54 137 116 95
-0.46 17.32 8.54 125 103 82
-0.46 17.23 8.54 113 93 69
-0.46 17.15 8.54 144 131 87
-0.46 17.07 8.54 161 149 97
-0.46 16.98 8.54 163 157 95
-0.46 16.90 8.54 150 144 82
-0.29 16.92 8.41 120 118 61
-0.29 16.84 8.41 90 86 41
-0.29 16.75 8.41 69 66 35
-0.14 16.76 8.31 69 64 45
-0.14 16.67 8.31 67 63 52
-0.14 16.59 8.31 64 59 53
-0.14 16.51 8.31 65 61 50
-0.14 16.42 8.31 68 63 57
-0.14 16.34 8.31 69 65 64
13.23 19.74 -1.21 64 67 50
13.23 19.63 -1.21 126 129 112
13.23 19.51 -1.21 163 165 152
13.23 19.40 -1.21 153 155 144
13.23 19.29 -1.21 148 149 143
13.52 19.32 -1.41 147 148 143
13.52 19.21 -1.41 148 148 146
13.52 19.09 -1.41 151 152 147
13.52 18.98 -1.41 146 147 142
13.52 18.87 -1.41 156 157 152
13.52 18.76 -1.41 153 154 149
13.52 18.64 -1.41 156 155 150
13.52 18.53 -1.41 154 153 148
13.52 18.42 -1.41 153 152 147
13.52 18.30 -1.41 155 154 149
13.52 18.19 -1.41 157 157 149
13.52 18.08 -1.41 157 157 149
13.52 17.97 -1.41 156 156 148
13.52 17.85 -1.41 156 156 148
13.52 17.74 -1.41 158 155 146
13.52 17.63 -1.41 160 158 146
13.52 17.51 -1.41 160 158 145
13.52 17.40 -1.41 160 158 146
13.52 17.29 -1.41 160 158 146
13.52 17.17 -1.41 157 157 147
13.52 17.06 -1.41 157 157 147
13.81 17.08 -1.62 157 157 149
13.52 16.84 -1.41 157 157 149
13.52 16.72 -1.41 157 158 150
13.52 16.61 -1.41 157 158 150
13.52 16.50 -1.41 156 157 151
13.23 16.26 -1.21 155 156 150
13.23 16.14 -1.21 154 157 148
13.23 16.03 -1.21 155 158 149
13.23 15.92 -1.21 156 159 150
13.23 15.81 -1.21 157 160 151
13.23 15.70 -1.21 158 162 148
13.23 15.58 -1.21 157 161 147
13.23 15.47 -1.21 156 160 146
13.23 15.36 -1.21 157 161 147
13.23 15.25 -1.21 158 162 147
13.23 15.13 -1.21 159 163 148
13.23 15.02 -1.21 160 162 148
13.23 14.91 -1.21 160 162 149
13.23 14.80 -1.21 160 162 149
13.23 14.69 -1.21 158 160 149
13.23 14.57 -1.21 156 158 147
13.23 14.46 -1.21 157 158 150
13.23 14.35 -1.21 160 161 153
13.23 14.24 -1.21 161 160 155
13.23 14.12 -1.21 159 158 153
12.95 13.90 -1.01 156 159 152
12.95 13.78 -1.01 156 159 152
12.95 13.67 -1.01 157 160 153
12.95 13.56 -1.01 157 159 154
13.23 13.56 -1.21 158 160 155
13.23 13.45 -1.21 158 160 157
13.23 13.34 -1.21 158 160 157
13.23 13.23 -1.21 158 160 157
13.23 13.11 -1.21 156 158 153
13.23 13.00 -1.21 157 159 154
13.23 12.89 -1.21 157 160 153
13.23 12.78 -1.21 155 158 151
13.23 12.66 -1.21 152 154 143
13.23 12.33 -1.21 154 156 142
13.23 12.22 -1.21 154 158 144
13.23 12.10 -1.21 157 159 146
13.23 11.99 -1.21 157 159 146
13.23 11.88 -1.21 156 158 145
13.23 11.77 -1.21 157 159 146
13.23 11.65 -1.21 156 158 147
12.95 11.44 -1.01 154 156 145
12.95 11.33 -1.01 159 161 150
12.95 11.22 -1.01 156 158 147
12.95 11.10 -1.01 156 158 147
13.23 11.09 -1.21 159 161 150
13.52 11.08 -1.41 161 163 152
13.81 11.07 -1.62 159 161 150
13.81 10.95 -1.62 158 160 149
13.81 10.84 -1.62 157 160 151
13.81 10.73 -1.62 152 162 151
13.81 10.61 -1.62 153 163 154
13.81 10.50 -1.62 156 166 155
13.81 10.38 -1.62 159 167 156
13.81 10.27 -1.62 157 162 155
13.81 10.16 -1.62 154 159 153
13.81 10.04 -1.62 154 161 154
14.09 10.02 -1.82 157 163 161
14.09 9.91 -1.82 156 167 163
14.09 9.80 -1.82 161 175 175
14.09 9.68 -1.82 167 181 181
14.09 9.57 -1.82 172 187 182
14.09 9.45 -1.82 176 191 186
14.09 9.34 -1.82 181 194 185
14.09 9.22 -1.82 183 194 186
14.09 9.11 -1.82 185 197 187
14.09 9.00 -1.82 172 182 174
14.09 8.88 -1.82 154 167 158
14.09 8.77 -1.82 137 152 147
14.09 8.65 -1.82 112 131 129
14.09 8.54 -1.82 81 102 105
14.09 8.43 -1.82 53 80 87
14.09 8.31 -1.82 39 71 84
14.09 8.20 -1.82 34 70 92
14.09 8.08 -1.82 28 72 99
14.09 7.97 -1.82 35 84 117
14.09 7.86 -1.82 39 93 131
14.09 7.74 -1.82 43 105 142
14.09 7.63 -1.82 49 114 152
14.09 7.51 -1.82 43 111 150
14.09 7.40 -1.82 43 112 151
14.09 7.29 -1.82 43 112 153
14.09 7.17 -1.82 45 114 155
14.09 7.06 -1.82 47 116 158
14.09 6.94 -1.82 48 116 161
14.09 6.83 -1.82 46 114 159
14.09 6.72 -1.82 44 112 157
14.09 6.60 -1.82 42 110 155
14.09 6.49 -1.82 48 116 161
14.09 6.37 -1.82 48 116 161
14.09 6.26 -1.82 48 117 158
14.41 6.22 -2.05 47 116 157
14.41 6.11 -2.05 46 116 152
14.41 5.99 -2.05 46 116 152
14.41 5.88 -2.05 46 117 149
14.41 5.76 -2.05 47 117 151
14.41 5.65 -2.05 51 119 156
14.41 5.54 -2.05 51 119 158
14.09 5.35 -1.82 51 119 158
14.09 5.23 -1.82 51 119 158
14.09 5.12 -1.82 50 119 158
14.09 5.00 -1.82 50 119 158
14.09 4.89 -1.82 49 118 157
14.09 4.78 -1.82 49 118 157
14.09 4.66 -1.82 48 120 158
14.09 4.55 -1.82 47 119 157
14.09 4.43 -1.82 46 120 155
14.09 4.32 -1.82 47 121 156
14.09 4.21 -1.82 50 124 159
14.09 4.09 -1.82 50 124 159
13.81 3.92 -1.62 50 122 160
13.81 3.80 -1.62 51 120 159
13.81 3.69 -1.62 52 119 161
13.81 3.58 -1.62 52 119 161
13.81 3.46 -1.62 53 120 162
13.81 3.35 -1.62 52 121 163
13.81 3.24 -1.62 53 122 164
13.81 3.12 -1.62 54 122 167
13.81 3.01 -1.62 55 123 168
13.81 2.90 -1.62 51 119 164
13.81 2.78 -1.62 54 122 167
13.81 2.67 -1.62 53 124 168
13.81 2.56 -1.62 51 122 166
13.52 2.39 -1.41 51 122 164
13.52 1.82 -1.41 54 125 167
13.52 1.71 -1.41 52 123 167
13.52 1.60 -1.41 51 122 166
13.52 1.49 -1.41 53 124 168
13.23 1.33 -1.21 54 127 172
13.23 1.21 -1.21 54 127 172
13.23 1.10 -1.21 55 128 173
13.23 0.99 -1.21 55 128 173
13.23 0.88 -1.21 54 128 175
13.23 0.76 -1.21 55 129 176
13.23 0.65 -1.21 55 132 178
12.95 0.50 -1.01 55 132 178
12.95 0.39 -1.01 54 131 177
12.95 0.27 -1.01 52 129 175
12.95 0.16 -1.01 54 128 173
12.95 0.05 -1.01 54 128 173
12.95 -0.06 -1.01 56 130 175
12.95 -0.17 -1.01 57 131 176
12.95 -0.28 -1.01 57 131 176
12.69 -0.43 -0.82 57 131 176
12.69 -0.54 -0.82 56 130 175
12.69 -0.65 -0.82 56 130 175
12.69 -0.76 -0.82 57 131 176
12.69 -0.87 -0.82 57 131 176
12.69 -0.99 -0.82 58 132 177
12.40 -1.13 -0.62 58 132 177
12.40 -1.24 -0.62 59 133 178
12.40 -1.35 -0.62 59 133 178
12.40 -1.46 -0.62 59 133 180
12.40 -1.57 -0.62 61 135 182
12.40 -1.68 -0.62 61 135 184
12.12 -1.82 -0.42 61 135 184
12.12 -1.93 -0.42 60 134 183
12.12 -2.04 -0.42 60 134 183
12.12 -2.15 -0.42 60 134 183
12.12 -2.26 -0.42 63 135 183
12.12 -2.37 -0.42 64 136 184
11.86 -2.51 -0.23 63 135 183
11.86 -2.62 -0.23 62 134 182
11.86 -2.73 -0.23 63 135 183
11.86 -2.84 -0.23 64 136 184
11.86 -2.95 -0.23 66 139 184
11.86 -3.06 -0.23 66 139 184
11.60 -3.19 -0.05 65 136 182
11.60 -3.29 -0.05 64 134 183
11.60 -3.40 -0.05 67 135 184
11.60 -3.51 -0.05 67 134 186
11.60 -3.62 -0.05 66 134 183
11.31 -3.75 0.16 64 132 181
11.31 -3.86 0.16 65 133 182
11.31 -3.97 0.16 64 134 185
11.06 -4.09 0.34 61 133 183
11.06 -4.20 0.34 53 130 182
11.06 -4.31 0.34 55 132 184
11.06 -4.41 0.34 54 130 182
11.06 -4.52 0.34 59 132 183
11.06 -4.63 0.34 58 128 179
11.06 -4.74 0.34 64 130 178
11.06 -4.85 0.34 78 142 188
11.06 -4.95 0.34 89 139 176
11.06 -5.06 0.34 108 134 151
11.06 -5.17 0.34 94 107 116
-0.64 18.30 8.57 148 119 89
-0.64 18.22 8.57 145 116 86
-0.64 18.14 8.57 144 115 85
-0.50 18.15 8.46 146 117 87
-0.50 18.07 8.46 145 114 85
-0.50 17.98 8.46 147 116 87
-0.50 17.90 8.46 148 117 88
-0.50 17.82 8.46 147 116 87
-0.50 17.73 8.46 145 114 85
-0.50 17.65 8.46 144 113 84
-0.50 17.57 8.46 146 112 84
-0.50 17.48 8.46 147 113 85
-0.50 17.40 8.46 141 112 82
-0.50 17.32 8.46 143 114 84
-0.50 17.23 8.46 142 113 81
-0.50 17.15 8.46 145 117 80
-0.50 17.07 8.46 152 124 87
-0.50 16.98 8.46 154 128 91
-0.33 17.01 8.34 152 128 92
-0.33 16.92 8.34 126 103 69
-0.33 16.84 8.34 106 87 55
-0.33 16.75 8.34 80 65 36
-0.19 16.76 8.24 66 54 28
-0.19 16.67 8.24 72 61 41
-0.19 16.59 8.24 79 72 54
-0.19 16.51 8.24 77 71 55
-0.19 16.42 8.24 67 63 51
-0.19 16.34 8.24 72 73 59
12.63 19.68 -0.92 67 62 56
12.63 19.57 -0.92 79 76 67
12.89 19.59 -1.10 127 124 115
12.89 19.48 -1.10 161 163 152
12.89 19.37 -1.10 156 158 147
12.89 19.26 -1.10 144 147 136
12.89 19.14 -1.10 154 157 146
13.18 19.18 -1.31 152 153 145
13.18 19.06 -1.31 153 154 146
13.18 18.95 -1.31 153 154 148
13.18 18.84 -1.31 153 154 148
13.18 18.73 -1.31 152 154 149
13.18 18.61 -1.31 153 155 150
13.18 18.50 -1.31 154 156 153
13.46 18.53 -1.51 155 157 154
13.46 18.42 -1.51 153 155 152
13.46 18.30 -1.51 154 156 153
13.46 18.19 -1.51 156 157 152
13.46 18.08 -1.51 155 156 151
13.46 17.97 -1.51 154 155 147
13.46 17.85 -1.51 155 156 148
13.46 17.74 -1.51 158 158 146
13.46 17.63 -1.51 160 157 148
13.46 17.51 -1.51 160 157 148
13.18 17.27 -1.31 160 157 150
13.18 17.16 -1.31 160 157 150
13.18 17.04 -1.31 160 157 150
13.18 16.93 -1.31 160 157 150
13.46 16.95 -1.51 158 158 150
13.46 16.84 -1.51 158 158 150
13.18 16.59 -1.31 158 157 152
13.18 16.48 -1.31 157 156 151
13.18 16.37 -1.31 156 157 151
13.18 16.26 -1.31 157 158 152
13.18 16.14 -1.31 158 159 153
13.18 16.03 -1.31 159 160 154
13.18 15.92 -1.31 159 160 154
13.18 15.81 -1.31 158 159 153
13.18 15.70 -1.31 158 160 149
13.18 15.58 -1.31 158 160 149
13.18 15.47 -1.31 158 160 147
13.18 15.36 -1.31 158 160 147
13.18 15.25 -1.31 158 160 146
13.18 15.13 -1.31 158 160 146
13.18 15.02 -1.31 159 161 147
13.18 14.91 -1.31 160 162 148
13.18 14.80 -1.31 159 161 148
13.18 14.69 -1.31 158 160 147
12.89 14.45 -1.10 159 160 152
12.89 14.34 -1.10 160 161 153
12.89 14.23 -1.10 161 162 157
12.89 14.12 -1.10 160 161 156
12.89 14.01 -1.10 160 160 158
12.89 13.90 -1.10 161 162 157
12.89 13.78 -1.10 161 162 157
12.89 13.67 -1.10 160 161 156
12.89 13.56 -1.10 159 160 155
12.89 13.45 -1.10 159 160 154
12.89 13.34 -1.10 160 161 155
12.89 13.23 -1.10 161 162 154
12.89 13.11 -1.10 161 162 154
13.18 13.11 -1.31 159 161 150
13.18 13.00 -1.31 158 160 149
13.18 12.89 -1.31 158 160 147
13.18 12.78 -1.31 158 160 147
13.18 12.66 -1.31 158 160 147
13.18 12.55 -1.31 158 160 147
13.18 12.44 -1.31 157 159 146
13.18 12.33 -1.31 156 158 144
13.18 12.22 -1.31 155 160 140
13.18 12.10 -1.31 157 160 143
13.18 11.99 -1.31 158 160 146
12.89 11.77 -1.10 159 161 147
12.89 11.66 -1.10 160 162 151
12.89 11.55 -1.10 160 162 151
12.89 11.44 -1.10 161 162 154
12.89 11.33 -1.10 156 159 152
12.89 11.22 -1.10 157 160 153
12.89 11.10 -1.10 156 161 154
12.89 10.99 -1.10 158 163 156
13.18 10.98 -1.31 157 164 156
13.18 10.87 -1.31 157 164 156
13.46 10.85 -1.51 157 164 156
13.46 10.74 -1.51 157 162 155
13.46 10.63 -1.51 160 163 156
13.75 10.61 -1.72 160 161 155
13.75 10.50 -1.72 159 162 155
13.75 10.38 -1.72 160 163 156
13.75 10.27 -1.72 161 164 157
13.75 10.16 -1.72 162 165 158
13.75 10.04 -1.72 160 165 159
13.75 9.93 -1.72 159 164 158
14.03 9.91 -1.92 160 167 160
14.03 9.80 -1.92 161 170 165
14.03 9.68 -1.92 161 170 165
14.03 9.57 -1.92 159 170 164
14.03 9.45 -1.92 159 170 164
14.03 9.34 -1.92 161 172 166
14.03 9.22 -1.92 163 174 168
14.03 9.11 -1.92 166 175 170
14.03 9.00 -1.92 171 180 177
14.03 8.88 -1.92 178 187 184
14.03 8.77 -1.92 187 196 195
14.03 8.65 -1.92 191 201 200
14.03 8.54 -1.92 192 202 201
14.03 8.43 -1.92 188 198 197
14.03 8.31 -1.92 184 194 193
14.03 8.20 -1.92 160 171 165
14.03 8.08 -1.92 141 152 146
14.03 7.97 -1.92 113 124 120
14.03 7.86 -1.92 89 99 98
14.03 7.74 -1.92 73 85 83
14.03 7.63 -1.92 66 77 79
14.03 7.51 -1.92 61 72 76
14.03 7.40 -1.92 57 67 76
14.03 7.29 -1.92 63 76 84
14.03 7.17 -1.92 68 84 99
14.03 7.06 -1.92 71 98 119
14.03 6.94 -1.92 61 109 147
14.03 6.83 -1.92 56 110 154
14.03 6.72 -1.92 51 113 160
14.03 6.60 -1.92 52 116 162
14.03 6.49 -1.92 51 114 158
14.03 6.37 -1.92 49 112 153
14.03 6.26 -1.92 50 112 149
14.35 6.22 -2.15 50 114 149
14.35 6.11 -2.15 49 115 149
14.35 5.99 -2.15 45 115 149
14.35 5.88 -2.15 44 119 151
14.35 5.76 -2.15 48 121 156
14.35 5.65 -2.15 51 117 151
14.35 5.54 -2.15 52 115 150
14.03 5.35 -1.92 50 116 150
14.03 5.23 -1.92 49 118 151
14.03 5.12 -1.92 50 120 154
14.03 5.00 -1.92 49 122 157
14.03 4.89 -1.92 47 121 156
14.03 4.78 -1.92 46 120 157
14.03 4.66 -1.92 50 122 160
14.03 4.55 -1.92 49 121 159
14.03 4.43 -1.92 49 121 161
14.03 4.32 -1.92 49 121 161
14.03 4.21 -1.92 47 122 162
14.03 4.09 -1.92 45 124 163
13.75 3.92 -1.72 45 124 165
13.75 3.80 -1.72 46 122 171
13.75 3.69 -1.72 45 121 171
13.75 3.58 -1.72 44 120 170
13.75 3.46 -1.72 45 121 171
13.75 3.35 -1.72 47 121 170
13.75 3.24 -1.72 46 120 169
13.75 3.12 -1.72 49 122 167
13.75 3.01 -1.72 53 126 171
13.75 2.90 -1.72 48 121 164
13.75 2.78 -1.72 51 124 167
13.75 2.67 -1.72 54 125 167
13.75 2.56 -1.72 50 121 163
13.46 2.39 -1.51 50 119 161
13.46 2.28 -1.51 50 119 161
13.46 2.16 -1.51 52 121 163
13.46 2.05 -1.51 53 122 164
13.46 1.94 -1.51 52 123 167
13.46 1.82 -1.51 54 125 169
13.46 1.71 -1.51 52 123 167
13.46 1.60 -1.51 52 123 167
13.46 1.49 -1.51 55 126 168
13.18 1.33 -1.31 55 124 166
13.18 1.21 -1.31 58 127 169
13.18 1.10 -1.31 57 126 168
13.18 0.99 -1.31 56 124 169
13.18 0.88 -1.31 55 123 168
13.18 0.76 -1.31 56 124 171
13.18 0.65 -1.31 57 125 174
13.18 0.54 -1.31 58 126 175
12.89 0.39 -1.10 57 124 176
12.89 0.27 -1.10 54 124 175
12.89 0.16 -1.10 52 126 173
12.89 0.05 -1.10 52 129 175
12.89 -0.06 -1.10 56 130 175
12.89 -0.17 -1.10 56 130 175
12.89 -0.28 -1.10 56 129 174
12.63 -0.43 -0.92 56 129 174
12.63 -0.54 -0.92 58 129 173
12.63 -0.65 -0.92 59 130 174
12.63 -0.76 -0.92 59 130 174
12.63 -0.87 -0.92 59 130 174
12.63 -0.99 -0.92 61 132 178
12.63 -1.10 -0.92 61 132 178
12.63 -1.21 -0.92 60 130 179
12.35 -1.35 -0.72 59 129 178
12.35 -1.46 -0.72 59 129 180
12.35 -1.57 -0.72 59 129 178
12.35 -1.68 -0.72 62 130 179
12.06 -1.82 -0.51 61 131 180
12.06 -1.93 -0.51 62 132 181
12.06 -2.04 -0.51 63 133 184
12.06 -2.15 -0.51 63 133 184
12.06 -2.26 -0.51 62 133 185
12.06 -2.37 -0.51 62 133 185
11.80 -2.51 -0.33 59 132 183
11.80 -2.62 -0.33 60 133 184
11.80 -2.73 -0.33 62 136 185
11.80 -2.84 -0.33 64 138 187
11.80 -2.95 -0.33 62 139 185
11.80 -3.06 -0.33 62 139 185
11.55 -3.19 -0.14 61 138 182
11.55 -3.29 -0.14 62 136 183
11.55 -3.40 -0.14 60 134 181
11.55 -3.51 -0.14 63 133 184
11.55 -3.62 -0.14 66 134 183
11.26 -3.75 0.06 66 134 183
11.26 -3.86 0.06 61 133 181
11.26 -3.97 0.06 59 133 180
11.26 -4.07 0.06 59 131 181
11.00 -4.20 0.25 62 129 182
11.00 -4.31 0.25 61 128 181
11.00 -4.41 0.25 57 133 182
11.00 -4.52 0.25 55 133 179
11.00 -4.63 0.25 54 131 173
11.00 -4.74 0.25 66 133 175
11.00 -4.85 0.25 86 137 180
11.00 -4.95 0.25 101 136 168
11.00 -5.06 0.25 101 126 131
11.00 -5.17 0.25 95 112 106
-0.86 18.19 8.62 147 118 88
-0.69 18.22 8.49 146 117 87
-0.69 18.14 8.49 146 117 87
-0.69 18.06 8.49 148 119 89
-0.54 18.07 8.39 146 115 86
-0.54 17.98 8.39 146 115 86
-0.54 17.90 8.39 146 115 86
-0.54 17.82 8.39 146 115 86
-0.54 17.73 8.39 146 115 86
-0.54 17.65 8.39 146 115 86
-0.37 17.67 8.27 145 114 85
-0.37 17.59 8.27 145 114 85
-0.37 17.51 8.27 140 111 81
-0.37 17.42 8.27 142 113 83
-0.37 17.34 8.27 141 112 78
-0.37 17.26 8.27 140 112 75
-0.37 17.17 8.27 145 117 80
-0.37 17.09 8.27 145 119 82
-0.37 17.01 8.27 143 117 82
-0.37 16.92 8.27 140 118 81
-0.37 16.84 8.27 130 110 77
-0.23 16.84 8.17 114 95 63
-0.23 16.76 8.17 95 80 51
-0.23 16.67 8.17 86 71 48
-0.23 16.59 8.17 83 70 51
-0.23 16.51 8.17 79 71 52
-0.23 16.42 8.17 74 67 49
-0.23 16.34 8.17 58 55 38
12.58 19.68 -1.02 88 84 75
12.58 19.57 -1.02 137 134 125
12.83 19.59 -1.20 163 160 151
12.83 19.48 -1.20 153 155 144
12.83 19.37 -1.20 150 152 141
12.83 19.26 -1.20 153 156 145
12.83 19.14 -1.20 146 148 137
12.83 19.03 -1.20 152 153 145
12.83 18.92 -1.20 153 153 145
12.83 18.81 -1.20 152 153 147
12.83 18.70 -1.20 152 153 147
12.83 18.59 -1.20 152 154 149
12.83 18.47 -1.20 153 155 150
12.83 18.36 -1.20 154 156 153
13.12 18.39 -1.41 156 158 155
13.12 18.28 -1.41 153 155 152
13.12 18.17 -1.41 153 155 152
13.12 18.05 -1.41 154 156 151
13.12 17.94 -1.41 154 156 151
13.12 17.83 -1.41 154 155 149
13.12 17.72 -1.41 155 156 150
13.12 17.60 -1.41 158 158 150
13.12 17.49 -1.41 158 158 148
13.12 17.38 -1.41 160 157 148
13.12 17.27 -1.41 160 157 150
13.12 17.16 -1.41 160 157 150
13.12 17.04 -1.41 160 157 150
13.12 16.93 -1.41 160 157 150
13.12 16.82 -1.41 158 158 150
13.12 16.71 -1.41 158 158 150
13.12 16.59 -1.41 158 158 150
12.83 16.35 -1.20 158 158 150
12.83 16.24 -1.20 157 158 152
12.83 16.13 -1.20 158 159 153
12.83 16.02 -1.20 159 160 154
12.83 15.91 -1.20 160 161 155
12.83 15.79 -1.20 159 160 154
12.83 15.68 -1.20 158 159 153
13.12 15.70 -1.41 159 160 152
13.12 15.58 -1.41 159 160 152
12.83 15.35 -1.20 159 161 150
12.83 15.24 -1.20 158 160 149
12.83 15.12 -1.20 158 160 147
12.83 15.01 -1.20 158 160 147
12.83 14.90 -1.20 160 162 148
12.83 14.79 -1.20 161 163 150
12.83 14.68 -1.20 160 162 151
12.83 14.57 -1.20 159 161 150
12.83 14.45 -1.20 159 160 152
12.83 14.34 -1.20 160 161 155
12.83 14.23 -1.20 161 162 157
12.83 14.12 -1.20 161 162 157
12.83 14.01 -1.20 160 160 158
12.83 13.90 -1.20 161 162 157
12.83 13.78 -1.20 161 162 157
12.83 13.67 -1.20 160 161 156
12.83 13.56 -1.20 160 161 156
12.83 13.45 -1.20 160 161 155
12.83 13.34 -1.20 160 161 155
12.83 13.23 -1.20 161 162 154
12.83 13.11 -1.20 161 162 154
12.83 13.00 -1.20 161 163 152
12.83 12.89 -1.20 160 162 151
13.12 12.89 -1.41 159 161 150
13.12 12.78 -1.41 159 161 150
12.83 12.56 -1.20 159 161 148
12.83 12.44 -1.20 159 161 148
12.83 12.33 -1.20 159 161 148
12.83 12.22 -1.20 159 161 148
12.83 12.11 -1.20 156 160 143
12.83 12.00 -1.20 157 159 145
12.83 11.89 -1.20 158 160 146
12.83 11.77 -1.20 158 160 147
12.83 11.66 -1.20 158 160 149
12.83 11.55 -1.20 159 161 150
12.83 11.44 -1.20 159 160 152
12.58 11.24 -1.02 160 163 156
12.58 11.13 -1.02 160 163 156
12.83 11.10 -1.20 160 165 158
12.83 10.99 -1.20 161 166 159
12.83 10.88 -1.20 160 168 157
12.83 10.77 -1.20 160 168 157
13.12 10.76 -1.41 160 168 157
13.12 10.64 -1.41 161 167 157
13.41 10.63 -1.61 159 165 155
13.41 10.52 -1.61 160 163 154
13.41 10.40 -1.61 160 163 156
13.69 10.38 -1.81 161 164 157
13.69 10.27 -1.81 161 166 159
13.69 10.16 -1.81 163 168 161
13.69 10.04 -1.81 163 168 162
13.69 9.93 -1.81 162 167 161
13.69 9.82 -1.81 159 166 159
13.98 9.80 -2.02 160 169 164
13.98 9.68 -2.02 160 169 164
13.98 9.57 -2.02 158 169 163
13.98 9.45 -2.02 159 170 164
13.98 9.34 -2.02 160 171 167
13.98 9.22 -2.02 162 173 169
13.98 9.11 -2.02 163 172 169
13.98 9.00 -2.02 163 172 169
13.98 8.88 -2.02 163 172 171
13.98 8.77 -2.02 163 172 171
13.98 8.65 -2.02 163 173 174
13.98 8.54 -2.02 167 177 178
13.98 8.43 -2.02 170 180 179
13.98 8.31 -2.02 173 183 182
13.98 8.20 -2.02 177 188 182
13.98 8.08 -2.02 186 197 191
13.98 7.97 -2.02 201 212 206
13.98 7.86 -2.02 211 222 218
13.98 7.74 -2.02 207 219 215
13.98 7.63 -2.02 191 203 203
14.29 7.60 -2.25 169 180 182
14.29 7.49 -2.25 150 164 173
14.29 7.37 -2.25 97 123 136
13.98 7.17 -2.02 77 109 130
13.98 7.06 -2.02 46 87 115
13.98 6.94 -2.02 4 62 102
13.98 6.83 -2.02 4 66 113
13.98 6.72 -2.02 12 80 129
13.98 6.60 -2.02 20 90 141
13.98 6.49 -2.02 38 106 153
13.98 6.37 -2.02 38 106 151
13.98 6.26 -2.02 44 111 154
14.29 6.22 -2.25 50 119 160
14.29 6.11 -2.25 52 125 166
14.29 5.99 -2.25 48 125 167
14.29 5.88 -2.25 43 125 165
14.29 5.76 -2.25 44 121 163
14.29 5.65 -2.25 47 117 153
14.29 5.54 -2.25 52 116 152
13.98 5.35 -2.02 50 118 153
13.98 5.23 -2.02 50 118 153
13.98 5.12 -2.02 49 119 155
13.98 5.00 -2.02 48 118 154
13.98 4.89 -2.02 46 116 152
13.98 4.78 -2.02 45 115 151
13.98 4.66 -2.02 51 119 156
13.98 4.55 -2.02 52 120 157
13.98 4.43 -2.02 55 120 158
13.98 4.32 -2.02 54 119 157
13.98 4.21 -2.02 50 120 156
13.98 4.09 -2.02 48 122 157
13.98 3.98 -2.02 53 123 157
13.69 3.80 -1.81 55 122 149
13.69 3.69 -1.81 55 119 146
13.69 3.58 -1.81 54 118 146
13.69 3.46 -1.81 55 118 149
13.69 3.35 -1.81 55 118 149
13.69 3.24 -1.81 55 118 151
13.69 3.12 -1.81 56 119 154
13.69 3.01 -1.81 58 120 157
13.69 2.90 -1.81 54 116 155
13.69 2.78 -1.81 56 117 161
13.69 2.67 -1.81 58 119 163
13.69 2.56 -1.81 58 119 164
13.41 2.39 -1.61 58 119 166
13.41 2.28 -1.61 59 120 167
13.41 2.16 -1.61 59 119 169
13.41 2.05 -1.61 57 119 168
13.41 1.94 -1.61 53 121 166
13.41 1.82 -1.61 53 124 168
13.41 1.71 -1.61 51 122 164
13.41 1.60 -1.61 49 120 162
13.41 1.49 -1.61 54 123 165
13.12 1.33 -1.41 53 122 164
13.12 1.21 -1.41 57 126 168
13.12 1.10 -1.41 56 124 169
13.12 0.99 -1.41 56 124 169
13.12 0.88 -1.41 57 125 172
13.12 0.76 -1.41 56 124 171
13.12 0.65 -1.41 56 124 173
13.12 0.54 -1.41 56 124 173
12.83 0.39 -1.20 56 123 175
12.83 0.27 -1.20 55 125 176
12.83 0.16 -1.20 52 125 170
12.83 0.05 -1.20 52 126 171
12.83 -0.06 -1.20 53 127 172
12.83 -0.17 -1.20 54 128 173
12.83 -0.28 -1.20 55 128 171
12.83 -0.40 -1.20 56 129 172
12.58 -0.54 -1.02 57 128 172
12.58 -0.65 -1.02 58 129 173
12.58 -0.76 -1.02 56 127 171
12.58 -0.87 -1.02 57 128 172
12.58 -0.99 -1.02 59 130 176
12.29 -1.13 -0.81 60 131 177
12.29 -1.24 -0.81 58 130 178
12.29 -1.35 -0.81 57 129 177
12.29 -1.46 -0.81 56 128 178
12.29 -1.57 -0.81 58 128 177
12.29 -1.68 -0.81 58 128 177
12.01 -1.82 -0.61 58 128 179
12.01 -1.93 -0.61 59 129 180
12.01 -2.04 -0.61 60 130 181
12.01 -2.15 -0.61 61 131 182
12.01 -2.26 -0.61 61 132 184
12.01 -2.37 -0.61 61 132 184
11.75 -2.51 -0.42 61 132 184
11.75 -2.62 -0.42 61 132 184
11.75 -2.73 -0.42 61 135 184
11.75 -2.84 -0.42 62 136 185
11.75 -2.95 -0.42 62 136 183
11.49 -3.08 -0.24 62 136 183
11.49 -3.19 -0.24 61 135 182
11.49 -3.29 -0.24 61 135 182
11.49 -3.40 -0.24 61 133 183
11.49 -3.51 -0.24 63 133 184
11.49 -3.62 -0.24 65 133 182
11.21 -3.75 -0.03 65 133 182
11.21 -3.86 -0.03 60 132 180
11.21 -3.97 -0.03 58 132 179
11.21 -4.07 -0.03 59 131 181
10.95 -4.20 0.15 61 128 181
10.95 -4.31 0.15 60 127 180
10.95 -4.41 0.15 56 132 181
10.95 -4.52 0.15 54 132 178
10.95 -4.63 0.15 54 131 173
10.95 -4.74 0.15 67 134 176
10.95 -4.85 0.15 87 138 181
10.95 -4.95 0.15 103 138 170
10.95 -5.06 0.15 93 120 127
10.95 -5.17 0.15 94 113 109
-0.58 17.90 8.32 144 115 85
-0.58 17.82 8.32 145 116 86
-0.58 17.73 8.32 147 118 88
-0.41 17.76 8.20 147 118 88
-0.41 17.67 8.20 145 116 86
-0.41 17.59 8.20 143 114 84
-0.41 17.51 8.20 144 113 82
-0.41 17.42 8.20 145 114 83
-0.41 17.34 8.20 144 114 80
-0.41 17.26 8.20 142 112 74
-0.41 17.17 8.20 144 114 76
-0.41 17.09 8.20 143 115 76
-0.41 17.01 8.20 141 113 74
-0.41 16.92 8.20 143 117 80
-0.41 16.84 8.20 148 124 88
-0.27 16.84 8.09 152 129 95
-0.27 16.76 8.09 150 129 98
-0.27 16.67 8.09 143 126 96
12.52 19.90 -1.11 70 67 58
12.52 19.79 -1.11 98 95 86
12.52 19.68 -1.11 140 137 128
12.52 19.57 -1.11 166 166 156
12.78 19.37 -1.30 151 153 142
12.78 19.26 -1.30 152 155 144
12.78 19.14 -1.30 151 153 142
12.78 19.03 -1.30 153 153 143
12.78 18.92 -1.30 155 152 143
12.78 18.81 -1.30 153 153 145
12.78 18.70 -1.30 153 152 147
12.78 18.59 -1.30 153 154 148
12.78 18.47 -1.30 154 155 150
12.78 18.36 -1.30 155 157 154
12.78 18.25 -1.30 156 158 155
12.78 18.14 -1.30 153 155 154
12.78 18.03 -1.30 153 155 154
12.78 17.92 -1.30 154 156 153
12.78 17.80 -1.30 154 156 153
12.78 17.69 -1.30 154 156 151
12.78 17.58 -1.30 154 156 151
12.78 17.47 -1.30 158 157 153
12.78 17.36 -1.30 158 158 150
12.78 17.25 -1.30 160 157 150
12.78 17.13 -1.30 160 157 150
12.78 17.02 -1.30 160 157 150
12.78 16.91 -1.30 160 157 150
12.78 16.80 -1.30 159 156 149
12.78 16.69 -1.30 157 157 149
12.78 16.58 -1.30 157 157 149
12.78 16.46 -1.30 159 159 151
12.78 16.35 -1.30 159 159 151
12.78 16.24 -1.30 158 159 151
12.78 16.13 -1.30 159 160 152
12.78 16.02 -1.30 160 161 155
12.78 15.91 -1.30 160 161 155
12.78 15.79 -1.30 159 160 154
12.78 15.68 -1.30 158 159 153
12.78 15.57 -1.30 160 161 153
12.78 15.46 -1.30 160 161 153
12.78 15.35 -1.30 159 160 152
12.78 15.24 -1.30 158 159 151
12.78 15.12 -1.30 158 160 149
12.78 15.01 -1.30 159 161 150
12.78 14.90 -1.30 162 164 151
12.78 14.79 -1.30 161 163 152
12.78 14.68 -1.30 160 162 151
12.78 14.57 -1.30 160 161 153
12.78 14.45 -1.30 160 161 155
12.78 14.34 -1.30 161 162 156
12.78 14.23 -1.30 161 162 157
12.78 14.12 -1.30 161 161 159
12.78 14.01 -1.30 161 161 159
12.78 13.90 -1.30 161 162 157
12.78 13.78 -1.30 161 162 157
12.78 13.67 -1.30 161 162 157
12.78 13.56 -1.30 161 162 157
12.78 13.45 -1.30 161 162 156
12.78 13.34 -1.30 161 162 156
12.78 13.23 -1.30 161 162 156
12.78 13.11 -1.30 161 162 156
12.78 13.00 -1.30 162 163 155
12.78 12.89 -1.30 161 162 154
12.78 12.78 -1.30 159 161 150
12.78 12.67 -1.30 159 161 150
12.78 12.56 -1.30 159 161 148
12.78 12.44 -1.30 160 162 149
12.78 12.33 -1.30 161 163 150
12.78 12.22 -1.30 161 163 150
12.78 12.11 -1.30 157 161 147
12.78 12.00 -1.30 159 161 148
12.78 11.89 -1.30 159 161 148
12.78 11.77 -1.30 159 161 150
12.78 11.66 -1.30 160 162 151
12.78 11.55 -1.30 160 161 153
12.52 11.35 -1.11 160 161 153
12.52 11.24 -1.11 160 163 154
12.52 11.13 -1.11 161 164 155
12.52 11.01 -1.11 160 166 156
12.52 10.90 -1.11 161 167 157
12.52 10.79 -1.11 160 168 157
12.78 10.77 -1.30 160 168 157
12.78 10.66 -1.30 160 168 155
13.06 10.64 -1.50 161 167 155
13.06 10.53 -1.50 160 166 156
13.06 10.42 -1.50 162 165 156
13.06 10.31 -1.50 162 165 156
13.06 10.19 -1.50 163 166 157
13.35 10.18 -1.71 163 168 161
13.35 10.06 -1.71 164 169 162
13.63 10.04 -1.91 163 170 163
13.63 9.93 -1.91 163 170 163
13.63 9.82 -1.91 160 167 160
13.63 9.70 -1.91 160 169 164
13.63 9.59 -1.91 160 169 164
13.63 9.48 -1.91 159 170 166
13.92 9.45 -2.12 159 170 166
13.92 9.34 -2.12 160 170 169
13.92 9.22 -2.12 162 172 171
13.92 9.11 -2.12 165 174 171
13.92 9.00 -2.12 165 174 173
13.92 8.88 -2.12 165 174 173
13.92 8.77 -2.12 163 171 173
13.92 8.65 -2.12 160 170 172
13.92 8.54 -2.12 161 171 173
13.92 8.43 -2.12 163 173 172
13.92 8.31 -2.12 166 176 175
13.92 8.20 -2.12 164 175 169
13.92 8.08 -2.12 162 173 167
13.92 7.97 -2.12 160 171 163
13.92 7.86 -2.12 158 169 163
13.92 7.74 -2.12 160 173 166
13.92 7.63 -2.12 166 178 176
14.23 7.60 -2.34 175 187 185
14.23 7.49 -2.34 185 191 187
14.23 7.37 -2.34 201 197 185
13.92 7.17 -2.12 210 202 189
13.92 7.06 -2.12 213 213 201
13.92 6.94 -2.12 200 211 207
13.92 6.83 -2.12 175 186 188
13.92 6.72 -2.12 142 156 157
13.92 6.60 -2.12 120 134 137
13.92 6.49 -2.12 72 84 84
13.92 6.37 -2.12 57 69 69
13.92 6.26 -2.12 39 54 51
14.23 6.22 -2.34 32 48 47
14.23 6.11 -2.34 36 56 55
14.23 5.99 -2.34 46 70 72
14.23 5.88 -2.34 57 85 88
14.23 5.76 -2.34 59 95 109
14.23 5.65 -2.34 53 107 135
14.23 5.54 -2.34 51 111 148
13.92 5.35 -2.12 51 115 151
13.92 5.23 -2.12 55 119 155
13.92 5.12 -2.12 55 121 156
13.92 5.00 -2.12 54 120 155
13.92 4.89 -2.12 52 118 153
13.92 4.78 -2.12 52 116 152
13.92 4.66 -2.12 54 118 154
13.92 4.55 -2.12 52 114 151
13.92 4.43 -2.12 51 111 148
13.92 4.32 -2.12 52 112 149
13.92 4.21 -2.12 55 119 155
13.92 4.09 -2.12 51 119 154
13.92 3.98 -2.12 48 117 158
13.63 3.80 -1.91 48 118 170
13.63 3.69 -1.91 44 114 173
13.63 3.58 -1.91 43 113 172
13.63 3.46 -1.91 45 115 174
13.63 3.35 -1.91 45 118 173
13.63 3.24 -1.91 45 118 173
13.63 3.12 -1.91 45 118 169
13.63 3.01 -1.91 45 118 169
13.63 2.90 -1.91 52 128 177
13.63 2.78 -1.91 49 125 174
13.63 2.67 -1.91 45 122 166
13.35 2.50 -1.71 41 118 162
13.35 2.39 -1.71 42 119 161
13.63 2.33 -1.91 45 122 164
13.35 2.16 -1.71 46 125 164
13.35 2.05 -1.71 47 125 164
13.35 1.94 -1.71 51 122 164
13.35 1.82 -1.71 54 123 165
13.35 1.71 -1.71 51 120 162
13.35 1.60 -1.71 50 119 161
13.35 1.49 -1.71 52 121 163
13.06 1.33 -1.50 52 121 163
13.06 1.21 -1.50 56 125 167
13.06 1.10 -1.50 53 121 166
13.06 0.99 -1.50 55 123 168
13.06 0.88 -1.50 56 124 171
13.06 0.76 -1.50 56 124 171
13.06 0.65 -1.50 54 122 169
13.06 0.54 -1.50 54 122 169
13.06 0.43 -1.50 53 123 172
12.78 0.27 -1.30 55 125 174
12.78 0.16 -1.30 52 125 168
12.78 0.05 -1.30 52 125 168
12.78 -0.06 -1.30 53 126 169
12.78 -0.17 -1.30 53 126 169
12.78 -0.28 -1.30 55 126 170
12.78 -0.40 -1.30 56 127 171
12.52 -0.54 -1.11 55 126 170
12.52 -0.65 -1.11 55 126 170
12.52 -0.76 -1.11 56 127 173
12.52 -0.87 -1.11 57 128 174
12.52 -0.99 -1.11 57 129 177
12.52 -1.10 -1.11 58 130 178
12.24 -1.46 -0.91 55 128 179
12.24 -1.57 -0.91 57 129 179
12.24 -1.68 -0.91 56 128 178
11.95 -1.82 -0.70 55 127 177
11.95 -1.93 -0.70 55 127 177
11.95 -2.04 -0.70 56 127 179
11.95 -2.15 -0.70 58 129 181
11.95 -2.26 -0.70 60 131 183
11.95 -2.37 -0.70 62 133 185
11.69 -2.51 -0.52 61 132 184
11.69 -2.62 -0.52 61 132 184
11.69 -2.73 -0.52 61 132 184
11.69 -2.84 -0.52 61 132 184
11.69 -2.95 -0.52 61 133 183
11.44 -3.08 -0.33 61 133 183
11.44 -3.19 -0.33 61 133 183
11.44 -3.29 -0.33 60 132 182
11.44 -3.40 -0.33 60 132 180
11.44 -3.51 -0.33 61 131 180
11.44 -3.62 -0.33 63 131 180
11.15 -3.75 -0.13 62 130 179
11.15 -3.86 -0.13 58 130 178
11.15 -3.97 -0.13 56 130 177
11.15 -4.07 -0.13 58 130 180
10.89 -4.20 0.06 59 126 179
10.89 -4.31 0.06 58 125 180
10.89 -4.41 0.06 54 130 179
10.89 -4.52 0.06 54 131 177
10.89 -4.63 0.06 53 130 172
10.89 -4.74 0.06 69 136 178
10.89 -4.85 0.06 91 139 185
10.89 -4.95 0.06 104 138 175
-0.31 18.10 8.02 146 117 85
-0.45 17.93 8.12 146 117 85
-0.45 17.84 8.12 147 118 88
-0.45 17.76 8.12 147 118 88
-0.31 17.77 8.02 143 116 86
-0.31 17.68 8.02 144 115 85
-0.31 17.60 8.02 145 116 84
-0.31 17.51 8.02 147 116 85
-0.45 17.34 8.12 147 117 83
-0.45 17.26 8.12 146 116 78
-0.45 17.17 8.12 147 117 79
-0.45 17.09 8.12 146 117 77
-0.45 17.01 8.12 144 115 75
-0.45 16.92 8.12 147 119 80
-0.31 16.93 8.02 144 116 79
-0.31 16.84 8.02 137 111 74
-0.31 16.76 8.02 135 109 76
-0.31 16.67 8.02 137 113 79
12.47 19.90 -1.21 96 96 84
12.47 19.79 -1.21 148 148 136
12.47 19.68 -1.21 164 164 152
12.47 19.57 -1.21 158 158 148
12.72 19.37 -1.39 152 154 143
12.47 19.13 -1.21 150 153 142
12.47 19.01 -1.21 157 159 148
12.47 18.90 -1.21 155 152 143
12.47 18.79 -1.21 157 153 144
12.47 18.68 -1.21 157 154 147
12.47 18.57 -1.21 157 154 147
12.47 18.46 -1.21 155 154 149
12.47 18.35 -1.21 155 154 150
12.47 18.24 -1.21 155 156 151
12.72 18.25 -1.39 156 156 154
12.72 18.14 -1.39 153 155 154
12.72 18.03 -1.39 154 156 155
12.72 17.92 -1.39 154 156 155
12.72 17.80 -1.39 155 157 156
12.72 17.69 -1.39 155 157 156
12.72 17.58 -1.39 155 157 156
12.72 17.47 -1.39 157 158 153
12.72 17.36 -1.39 158 157 152
12.72 17.25 -1.39 160 157 150
12.72 17.13 -1.39 160 157 150
12.72 17.02 -1.39 160 157 150
12.72 16.91 -1.39 159 156 149
12.72 16.80 -1.39 159 156 149
12.72 16.69 -1.39 157 157 149
12.72 16.58 -1.39 157 157 149
12.72 16.46 -1.39 158 158 150
12.72 16.35 -1.39 158 158 150
12.72 16.24 -1.39 158 159 151
12.72 16.13 -1.39 159 160 152
12.72 16.02 -1.39 160 161 153
12.72 15.91 -1.39 160 161 153
12.72 15.79 -1.39 159 160 152
12.72 15.68 -1.39 158 159 151
12.72 15.57 -1.39 159 160 154
12.72 15.46 -1.39 159 160 154
12.72 15.35 -1.39 159 160 152
12.72 15.24 -1.39 159 160 152
12.72 15.12 -1.39 159 160 152
12.72 15.01 -1.39 160 161 153
12.72 14.90 -1.39 161 163 152
12.72 14.79 -1.39 161 162 154
12.72 14.68 -1.39 161 162 154
12.72 14.57 -1.39 160 161 155
12.72 14.45 -1.39 160 161 155
12.72 14.34 -1.39 161 162 157
12.72 14.23 -1.39 161 162 157
12.72 14.12 -1.39 161 161 159
12.72 14.01 -1.39 161 161 159
12.72 13.90 -1.39 160 161 155
12.72 13.78 -1.39 161 162 156
12.72 13.67 -1.39 162 163 157
12.72 13.56 -1.39 162 163 157
12.72 13.45 -1.39 162 163 158
12.72 13.34 -1.39 162 163 158
12.72 13.23 -1.39 161 162 156
12.72 13.11 -1.39 161 162 156
12.72 13.00 -1.39 161 162 156
12.72 12.89 -1.39 160 161 155
12.72 12.78 -1.39 159 160 152
12.72 12.67 -1.39 159 160 152
12.72 12.56 -1.39 159 161 150
12.72 12.44 -1.39 160 162 151
12.72 12.33 -1.39 161 163 150
12.72 12.22 -1.39 161 163 152
12.72 12.11 -1.39 159 162 153
12.72 12.00 -1.39 160 161 153
12.72 11.89 -1.39 161 162 154
12.72 11.77 -1.39 162 163 155
12.72 11.66 -1.39 162 163 155
12.47 11.46 -1.21 163 164 156
12.47 11.35 -1.21 163 164 156
12.47 11.24 -1.21 160 163 154
12.47 11.13 -1.21 161 164 155
12.47 11.01 -1.21 159 165 155
12.47 10.90 -1.21 159 165 155
12.47 10.79 -1.21 159 167 154
12.47 10.68 -1.21 158 166 153
12.47 10.57 -1.21 158 166 153
12.72 10.55 -1.39 158 166 153
12.72 10.43 -1.39 161 167 155
12.72 10.32 -1.39 161 167 155
12.72 10.21 -1.39 161 167 155
12.72 10.10 -1.39 161 167 155
12.72 9.99 -1.39 162 168 158
13.01 9.97 -1.60 162 168 158
13.01 9.86 -1.60 161 168 160
13.29 9.84 -1.81 161 168 161
13.29 9.73 -1.81 160 170 162
13.58 9.70 -2.01 162 171 168
13.58 9.59 -2.01 162 171 168
13.58 9.48 -2.01 161 171 170
13.58 9.36 -2.01 161 171 170
13.58 9.25 -2.01 162 172 171
13.86 9.22 -2.22 163 173 172
13.86 9.11 -2.22 161 170 169
13.86 9.00 -2.22 163 172 171
13.86 8.88 -2.22 166 174 176
13.86 8.77 -2.22 166 174 176
13.86 8.65 -2.22 164 174 176
13.86 8.54 -2.22 162 172 174
13.86 8.43 -2.22 161 171 170
13.86 8.31 -2.22 161 171 170
13.86 8.20 -2.22 162 173 167
13.86 8.08 -2.22 163 174 168
13.86 7.97 -2.22 164 175 167
13.86 7.86 -2.22 163 174 166
13.86 7.74 -2.22 161 174 167
13.86 7.63 -2.22 162 174 170
13.86 7.51 -2.22 164 176 172
14.18 7.49 -2.44 166 177 173
14.18 7.37 -2.44 169 180 172
13.86 7.17 -2.22 164 175 167
13.86 7.06 -2.22 160 173 166
13.86 6.94 -2.22 167 186 184
13.86 6.83 -2.22 177 195 195
13.86 6.72 -2.22 184 200 200
13.86 6.60 -2.22 186 202 202
13.86 6.49 -2.22 208 222 222
13.86 6.37 -2.22 201 215 215
13.86 6.26 -2.22 189 205 205
13.86 6.14 -2.22 173 191 193
14.18 6.11 -2.44 150 171 174
14.18 5.99 -2.44 120 145 150
14.18 5.88 -2.44 89 118 124
14.18 5.76 -2.44 64 101 117
14.18 5.65 -2.44 28 81 112
14.18 5.54 -2.44 20 80 117
13.86 5.35 -2.22 14 78 114
13.86 5.23 -2.22 15 79 115
13.86 5.12 -2.22 22 87 125
13.86 5.00 -2.22 34 99 137
13.86 4.89 -2.22 42 110 149
13.86 4.78 -2.22 47 115 154
13.86 4.66 -2.22 50 115 157
13.86 4.55 -2.22 51 116 158
13.86 4.43 -2.22 53 117 161
13.86 4.32 -2.22 53 120 163
13.86 4.21 -2.22 47 120 163
