ply
format ascii 1.0
element vertex 1598
property float x
property float y
property float z
property uchar red
property uchar green
property uchar blue
end_header
-4.41 -6.22 -1.11 180 186 182
-4.41 -6.31 -1.11 180 186 182
-4.41 -6.39 -1.11 180 186 182
-4.41 -6.48 -1.11 180 186 182
-4.41 -6.56 -1.11 177 186 181
-4.41 -6.65 -1.11 177 186 181
-4.41 -6.74 -1.11 178 187 182
-4.41 -6.82 -1.11 180 189 184
-4.56 -6.91 -0.95 179 188 185
-4.56 -6.99 -0.95 180 189 186
-4.56 -7.08 -0.95 181 190 187
-4.56 -7.17 -0.95 181 190 187
-4.41 -7.25 -1.11 182 191 188
-4.41 -7.34 -1.11 184 190 188
-4.41 -7.42 -1.11 184 190 188
-4.56 -7.51 -0.95 182 188 186
-4.56 -7.59 -0.95 182 188 186
-4.56 -7.68 -0.95 182 188 184
-4.56 -7.76 -0.95 181 187 183
-4.41 -7.85 -1.11 181 187 183
-4.41 -7.94 -1.11 182 188 184
-4.41 -8.02 -1.11 185 190 186
-4.56 -8.10 -0.95 186 191 187
-4.41 -8.19 -1.11 186 192 190
-4.41 -8.28 -1.11 185 191 189
-4.41 -8.36 -1.11 183 189 187
-4.41 -8.45 -1.11 183 189 187
-4.41 -8.54 -1.11 183 192 189
-4.41 -8.62 -1.11 185 194 191
-4.41 -8.71 -1.11 187 196 193
-4.41 -8.79 -1.11 187 196 193
-4.41 -8.88 -1.11 186 195 192
-4.41 -8.96 -1.11 189 195 193
-4.41 -9.05 -1.11 189 195 193
-4.41 -9.14 -1.11 189 193 192
-4.41 -9.22 -1.11 189 193 192
-4.41 -9.31 -1.11 190 194 193
-4.56 -9.38 -0.95 191 195 194
-4.56 -9.47 -0.95 189 195 193
-4.56 -9.56 -0.95 189 195 193
-4.56 -9.64 -0.95 190 196 192
-4.56 -9.73 -0.95 189 195 191
-4.56 -9.81 -0.95 190 195 191
-4.56 -9.90 -0.95 191 196 192
-4.71 -9.97 -0.79 192 197 193
-4.71 -10.06 -0.79 192 197 193
-4.71 -10.14 -0.79 192 197 193
-4.56 -10.24 -0.95 192 197 193
-4.56 -10.32 -0.95 192 197 193
-4.56 -10.41 -0.95 191 196 192
-4.56 -10.49 -0.95 190 196 192
-4.56 -10.58 -0.95 191 197 193
-4.56 -10.66 -0.95 192 198 196
-4.56 -10.75 -0.95 194 200 198
-4.56 -10.84 -0.95 192 198 196
-4.56 -10.92 -0.95 193 199 197
-4.41 -11.02 -1.11 192 198 196
-4.41 -11.11 -1.11 192 198 196
-4.56 -11.18 -0.95 192 198 196
-4.56 -11.26 -0.95 193 199 197
-4.56 -11.35 -0.95 194 200 198
-4.56 -11.43 -0.95 194 200 198
-4.56 -11.52 -0.95 194 200 198
-4.56 -11.60 -0.95 194 200 198
-4.56 -11.69 -0.95 194 200 198
-4.56 -11.77 -0.95 194 200 198
-4.56 -11.86 -0.95 194 200 198
-4.56 -11.95 -0.95 195 201 199
-4.56 -12.03 -0.95 195 201 199
-4.56 -12.12 -0.95 199 205 203
-4.41 -12.22 -1.11 198 204 202
-4.41 -12.31 -1.11 197 203 201
-4.41 -12.39 -1.11 197 203 201
-4.41 -12.48 -1.11 197 203 201
-4.41 -12.56 -1.11 197 203 201
-4.56 -12.63 -0.95 197 203 201
-4.56 -12.71 -0.95 196 202 200
-4.56 -12.80 -0.95 195 201 199
-4.56 -12.88 -0.95 198 204 202
-4.56 -12.97 -0.95 196 202 200
-4.56 -13.05 -0.95 194 200 198
-4.56 -13.14 -0.95 194 200 198
-4.56 -13.23 -0.95 189 195 193
-4.56 -13.31 -0.95 185 191 189
-4.56 -13.40 -0.95 192 198 194
-4.71 -13.46 -0.79 213 221 224
-4.71 -13.54 -0.79 131 138 156
-4.71 -13.63 -0.79 34 42 79
-4.56 -13.74 -0.95 14 19 83
-4.56 -13.82 -0.95 32 38 116
-4.56 -13.91 -0.95 44 53 130
-4.71 -13.97 -0.79 40 49 126
-4.71 -14.05 -0.79 48 60 132
-4.71 -14.14 -0.79 49 61 133
-4.56 -14.25 -0.95 52 61 138
-4.56 -14.33 -0.95 48 57 134
-4.71 -14.39 -0.79 43 51 124
-4.71 -14.48 -0.79 44 51 123
-4.71 -14.56 -0.79 46 52 126
-4.86 -14.61 -0.63 40 44 108
-4.86 -14.70 -0.63 15 17 58
-4.86 -14.78 -0.63 4 0 7
-4.86 -14.87 -0.63 19 0 0
-4.99 -14.93 -0.50 194 164 104
-4.99 -15.01 -0.50 206 171 113
-5.14 -15.06 -0.34 186 162 116
-5.26 -15.12 -0.21 169 148 117
-5.26 -15.20 -0.21 181 160 141
-5.26 -15.28 -0.21 189 171 157
-5.26 -15.37 -0.21 190 178 164
-5.41 -15.42 -0.05 184 177 158
-5.41 -15.50 -0.05 170 171 140
-5.41 -15.58 -0.05 150 151 120
-5.41 -15.67 -0.05 131 129 104
-5.41 -15.75 -0.05 126 122 97
-5.26 -15.87 -0.21 102 97 67
-4.99 -16.19 -0.50 73 71 33
-4.99 -16.27 -0.50 57 53 15
-5.14 -16.32 -0.34 67 62 24
-5.26 -16.37 -0.21 106 101 63
-5.26 -16.46 -0.21 146 136 101
-5.26 -16.54 -0.21 202 189 155
-5.26 -16.62 -0.21 229 212 184
-5.41 -16.67 -0.05 212 195 169
-5.41 -16.75 -0.05 206 185 164
-5.41 -16.83 -0.05 191 174 154
-5.41 -16.92 -0.05 84 71 54
-5.41 -17.00 -0.05 90 77 68
-5.41 -17.08 -0.05 76 67 68
-5.54 -17.13 0.08 72 67 73
-5.54 -17.21 0.08 74 72 77
-5.54 -17.30 0.08 56 55 60
-5.54 -17.38 0.08 34 38 37
-5.54 -17.46 0.08 44 46 43
-5.54 -17.55 0.08 84 85 79
-5.54 -17.63 0.08 138 135 128
-5.54 -17.71 0.08 159 152 142
-5.54 -17.79 0.08 156 147 138
-5.54 -17.88 0.08 138 129 120
-5.41 -18.00 -0.05 144 137 129
-5.41 -18.08 -0.05 181 178 173
-5.41 -18.17 -0.05 45 45 43
-5.41 -18.25 -0.05 47 51 50
-5.41 -18.33 -0.05 74 79 82
-5.41 -18.42 -0.05 77 81 84
-5.26 -18.55 -0.21 94 97 102
-5.14 -18.67 -0.34 88 91 96
-4.71 -18.89 -0.79 55 58 63
-4.71 -18.98 -0.79 27 28 32
-4.86 -19.01 -0.63 11 12 16
-4.71 -19.15 -0.79 16 16 18
-4.71 -19.23 -0.79 11 11 11
-4.56 -19.37 -0.95 15 15 15
-4.56 -19.46 -0.95 21 21 19
-4.56 -19.54 -0.95 29 29 27
-4.56 -19.63 -0.95 40 41 36
-4.56 -19.71 -0.95 49 50 45
-4.71 -19.74 -0.79 57 58 52
-4.41 -19.94 -1.11 63 63 61
-4.41 -20.02 -1.11 75 74 79
-4.41 -20.11 -1.11 79 78 86
-4.56 -20.14 -0.95 73 72 80
-4.56 -20.22 -0.95 65 64 72
-4.56 -20.31 -0.95 34 33 39
-4.56 -20.39 -0.95 106 105 111
-4.56 -20.48 -0.95 230 229 234
-4.56 -20.57 -0.95 230 229 234
-4.56 -20.65 -0.95 217 218 220
-4.56 -20.74 -0.95 219 220 222
-4.56 -20.82 -0.95 221 223 222
-4.56 -20.91 -0.95 222 224 223
-4.71 -20.93 -0.79 222 224 221
-4.71 -21.02 -0.79 222 224 221
-4.71 -21.10 -0.79 223 225 222
-4.71 -21.19 -0.79 223 223 223
-4.71 -21.27 -0.79 225 225 225
-4.71 -21.36 -0.79 223 223 223
-4.71 -21.44 -0.79 223 223 223
-4.71 -21.53 -0.79 226 226 226
-4.56 -21.67 -0.95 225 225 225
-4.56 -21.76 -0.95 222 222 222
-4.56 -21.85 -0.95 223 223 223
-4.56 -21.93 -0.95 228 228 228
-4.56 -22.02 -0.95 229 229 229
-4.56 -22.10 -0.95 229 229 229
-4.56 -22.19 -0.95 227 227 227
-4.56 -22.27 -0.95 227 227 227
-4.56 -22.36 -0.95 228 228 228
-4.56 -22.44 -0.95 228 228 228
-4.56 -22.53 -0.95 226 226 226
-4.56 -22.61 -0.95 227 227 227
-4.56 -22.70 -0.95 227 227 227
-4.56 -22.78 -0.95 228 228 228
-4.56 -22.87 -0.95 228 228 228
-4.71 -22.89 -0.79 228 228 228
-4.71 -22.97 -0.79 227 227 227
-4.71 -23.06 -0.79 226 226 226
-4.71 -23.14 -0.79 225 225 225
-4.71 -23.23 -0.79 230 230 230
-4.71 -23.31 -0.79 230 230 230
-4.56 -23.81 -0.95 229 229 229
-4.56 -23.89 -0.95 229 229 229
-4.71 -23.91 -0.79 228 228 228
-4.71 -23.99 -0.79 228 228 228
-4.71 -24.08 -0.79 229 229 229
-4.71 -24.16 -0.79 230 230 230
-4.71 -24.25 -0.79 230 230 230
-4.71 -24.33 -0.79 229 229 229
-4.71 -24.42 -0.79 228 228 228
-4.71 -24.50 -0.79 228 228 228
-4.71 -24.59 -0.79 228 228 228
-4.71 -24.67 -0.79 227 227 227
-4.71 -24.76 -0.79 227 227 227
-4.71 -24.84 -0.79 227 227 227
-4.71 -24.93 -0.79 227 227 227
-4.71 -25.01 -0.79 227 227 227
-4.71 -25.10 -0.79 227 227 227
-4.71 -25.18 -0.79 225 225 225
-4.86 -25.19 -0.63 228 226 227
-4.71 -25.35 -0.79 228 226 227
-4.86 -25.53 -0.63 229 227 228
-4.86 -25.62 -0.63 230 228 229
-4.86 -25.70 -0.63 227 225 226
-4.86 -25.78 -0.63 227 225 226
-4.86 -25.87 -0.63 227 227 227
-4.86 -25.95 -0.63 228 228 228
-4.86 -26.04 -0.63 229 229 229
-4.86 -26.12 -0.63 230 230 230
-4.86 -26.21 -0.63 229 231 230
-4.86 -26.29 -0.63 230 232 231
-4.86 -26.38 -0.63 231 233 232
-4.86 -26.46 -0.63 231 233 232
-4.86 -26.55 -0.63 232 234 233
-4.86 -26.63 -0.63 232 234 233
-4.86 -26.72 -0.63 232 234 233
-4.86 -26.80 -0.63 231 233 232
-4.86 -26.88 -0.63 231 231 231
-4.86 -26.97 -0.63 231 231 231
-4.71 -27.14 -0.79 235 235 235
-4.86 -27.14 -0.63 234 234 234
-4.86 -27.22 -0.63 233 233 233
-4.86 -27.31 -0.63 234 234 234
-4.86 -27.39 -0.63 234 234 234
-4.86 -27.48 -0.63 234 232 233
-4.86 -27.56 -0.63 233 231 232
-4.86 -27.65 -0.63 237 233 234
-4.86 -27.73 -0.63 236 232 233
-4.86 -27.82 -0.63 236 232 233
-4.86 -27.90 -0.63 236 232 233
-4.86 -27.98 -0.63 237 233 234
-4.86 -28.07 -0.63 237 233 234
-4.86 -28.15 -0.63 237 233 234
-4.86 -28.24 -0.63 238 234 235
-4.86 -28.32 -0.63 238 234 235
-4.86 -28.41 -0.63 238 234 235
-4.86 -28.49 -0.63 238 234 235
-4.71 -28.67 -0.79 239 235 236
-4.71 -28.75 -0.79 240 236 237
-4.71 -28.84 -0.79 241 237 238
-4.71 -28.92 -0.79 241 237 238
-4.71 -29.01 -0.79 240 236 237
-4.71 -29.09 -0.79 239 237 238
-4.71 -29.18 -0.79 239 237 238
-4.86 -29.17 -0.63 238 236 237
-4.86 -29.25 -0.63 237 235 236
-4.86 -29.34 -0.63 237 235 236
-4.86 -29.42 -0.63 239 237 238
-4.86 -29.51 -0.63 240 238 239
-4.86 -29.59 -0.63 239 237 238
-4.86 -29.68 -0.63 240 238 239
-4.86 -29.76 -0.63 241 239 240
-4.86 -29.85 -0.63 242 240 241
-4.86 -29.93 -0.63 242 240 241
-4.86 -30.02 -0.63 242 240 241
-4.86 -30.10 -0.63 243 241 242
-4.86 -30.18 -0.63 243 241 242
-4.71 -30.37 -0.79 242 242 242
-4.71 -30.45 -0.79 242 242 242
-4.71 -30.54 -0.79 241 241 241
-4.56 -30.72 -0.95 241 241 241
-4.56 -30.81 -0.95 240 240 240
-4.56 -30.89 -0.95 240 240 240
-4.71 -30.88 -0.79 240 240 240
-4.71 -30.96 -0.79 239 239 239
-4.86 -30.95 -0.63 241 239 240
-4.86 -31.03 -0.63 241 239 240
-4.86 -31.12 -0.63 241 239 240
-4.86 -31.20 -0.63 241 239 240
-4.86 -31.28 -0.63 244 240 241
-4.99 -31.28 -0.50 244 240 241
-4.99 -31.37 -0.50 244 240 241
-4.86 -31.54 -0.63 240 236 237
-4.86 -31.62 -0.63 240 236 237
-4.86 -31.71 -0.63 237 236 234
-4.86 -31.79 -0.63 243 242 240
-4.86 -31.88 -0.63 244 243 241
-4.71 -32.07 -0.79 240 236 235
-4.71 -32.15 -0.79 249 245 244
-4.71 -32.24 -0.79 250 241 242
-4.56 -32.43 -0.95 195 185 184
-4.56 -32.51 -0.95 125 113 113
-4.56 -32.60 -0.95 138 124 124
-4.71 -32.58 -0.79 139 125 125
-4.71 -32.66 -0.79 129 117 117
-4.71 -32.75 -0.79 133 121 121
-4.86 -32.72 -0.63 130 122 120
-4.86 -32.81 -0.63 123 115 113
-4.86 -32.89 -0.63 0 0 0
-4.46 20.35 -1.19 0 0 0
-4.46 20.26 -1.19 0 0 0
-4.46 20.18 -1.19 0 0 0
-4.46 20.09 -1.19 0 0 0
-4.46 20.01 -1.19 0 0 0
-4.46 19.92 -1.19 0 0 0
-4.46 19.83 -1.19 0 0 0
-4.46 19.75 -1.19 0 0 0
-4.46 19.66 -1.19 0 0 0
-4.46 19.58 -1.19 141 137 128
-4.46 19.49 -1.19 141 137 128
-4.46 19.41 -1.19 142 138 129
-4.46 19.32 -1.19 143 139 130
-4.46 19.23 -1.19 142 138 129
-4.46 19.15 -1.19 144 137 129
-4.46 19.06 -1.19 145 138 130
-4.46 18.98 -1.19 147 140 132
-4.46 18.89 -1.19 149 142 134
-4.46 18.81 -1.19 147 140 132
-4.46 18.72 -1.19 147 140 132
-4.46 18.63 -1.19 148 139 132
-4.61 18.44 -1.03 147 138 131
-4.61 18.35 -1.03 147 138 131
-4.46 18.38 -1.19 147 138 131
-4.46 18.29 -1.19 147 138 131
-4.46 18.21 -1.19 147 138 131
-4.61 18.01 -1.03 147 138 133
-4.46 18.03 -1.19 148 139 134
-4.46 17.95 -1.19 147 140 134
-4.46 17.86 -1.19 143 138 132
-4.46 17.78 -1.19 141 136 130
-4.46 17.69 -1.19 140 135 131
-4.46 17.61 -1.19 139 134 130
-4.46 17.52 -1.19 135 130 126
-4.46 17.43 -1.19 133 128 124
-4.46 17.35 -1.19 130 125 121
-4.46 17.26 -1.19 127 122 118
-4.46 17.18 -1.19 126 121 118
-4.46 17.09 -1.19 124 119 116
-4.46 17.01 -1.19 125 117 115
-4.46 16.92 -1.19 125 117 115
-4.46 16.83 -1.19 122 117 111
-4.46 16.75 -1.19 123 118 112
-4.46 16.66 -1.19 122 117 111
-4.46 16.58 -1.19 120 115 109
-4.46 16.49 -1.19 120 116 107
-4.46 16.41 -1.19 122 118 109
-4.46 16.32 -1.19 122 119 110
-4.46 16.23 -1.19 120 117 108
-4.46 16.15 -1.19 121 118 109
-4.46 16.06 -1.19 119 116 107
-4.46 15.98 -1.19 119 116 109
-4.46 15.89 -1.19 121 118 111
-4.46 15.81 -1.19 120 117 112
-4.33 15.80 -1.32 121 117 114
-4.33 15.72 -1.32 122 118 115
-4.33 15.63 -1.32 121 118 113
-4.46 15.46 -1.19 124 121 116
-4.46 15.38 -1.19 123 120 113
-4.46 15.29 -1.19 124 121 114
-4.46 15.21 -1.19 129 126 117
-4.46 15.12 -1.19 130 127 118
-4.46 15.03 -1.19 128 128 118
-4.46 14.95 -1.19 131 131 121
-4.46 14.86 -1.19 133 130 121
-4.46 14.78 -1.19 134 131 122
-4.46 14.69 -1.19 137 132 126
-4.46 14.61 -1.19 139 134 128
-4.46 14.52 -1.19 140 135 131
-4.46 14.43 -1.19 141 136 132
-4.46 14.35 -1.19 145 137 134
-4.46 14.26 -1.19 147 139 136
-4.46 14.18 -1.19 149 142 136
-4.46 14.09 -1.19 151 144 138
-4.46 14.01 -1.19 153 146 140
-4.46 13.92 -1.19 155 148 142
-4.46 13.83 -1.19 156 149 143
-4.46 13.75 -1.19 157 150 144
-4.46 13.66 -1.19 158 151 145
-4.46 13.58 -1.19 159 152 146
-4.61 13.40 -1.03 159 152 146
-4.61 13.32 -1.03 158 151 145
-4.46 13.32 -1.19 158 151 145
-4.46 13.23 -1.19 159 152 146
-4.46 13.15 -1.19 159 152 146
-4.46 13.06 -1.19 159 152 146
-4.46 12.98 -1.19 159 152 146
-4.46 12.89 -1.19 159 156 149
-4.46 12.81 -1.19 158 155 148
-4.46 12.72 -1.19 158 155 148
-4.46 12.63 -1.19 160 157 150
-4.46 12.55 -1.19 161 158 151
-4.46 12.46 -1.19 162 159 152
-4.46 12.38 -1.19 160 160 152
-4.46 12.29 -1.19 160 160 152
-4.46 12.21 -1.19 161 161 153
-4.46 12.12 -1.19 160 160 152
-4.46 12.03 -1.19 159 159 151
-4.46 11.95 -1.19 161 161 153
-4.46 11.86 -1.19 161 161 153
-4.46 11.78 -1.19 161 161 153
-4.46 11.69 -1.19 164 163 158
-4.46 11.61 -1.19 163 160 155
-4.46 11.52 -1.19 164 160 157
-4.46 11.43 -1.19 165 161 158
-4.46 11.35 -1.19 165 161 158
-4.46 11.26 -1.19 165 162 157
-4.46 11.18 -1.19 165 162 157
-4.46 11.09 -1.19 165 162 157
-4.46 11.01 -1.19 166 163 158
-4.46 10.92 -1.19 165 162 157
-4.46 10.83 -1.19 166 163 158
-4.46 10.75 -1.19 167 164 159
-4.46 10.66 -1.19 167 164 159
-4.46 10.58 -1.19 168 164 161
-4.46 10.49 -1.19 168 164 161
-4.46 10.41 -1.19 168 164 161
-4.33 10.38 -1.32 168 165 160
-4.33 10.30 -1.32 165 165 157
-4.46 10.15 -1.19 165 165 157
-4.46 10.06 -1.19 166 166 158
-4.46 9.98 -1.19 166 165 160
-4.46 9.89 -1.19 165 164 160
-4.46 9.81 -1.19 166 165 161
-4.46 9.72 -1.19 168 165 160
-4.46 9.63 -1.19 170 167 158
-4.46 9.55 -1.19 170 167 158
-4.46 9.46 -1.19 170 168 156
-4.46 9.38 -1.19 170 168 156
-4.46 9.29 -1.19 171 167 158
-4.46 9.21 -1.19 170 165 159
-4.46 9.12 -1.19 170 165 159
-4.46 9.04 -1.19 170 165 159
-4.46 8.95 -1.19 170 167 158
-4.46 8.86 -1.19 170 168 156
-4.46 8.78 -1.19 171 168 159
-4.46 8.69 -1.19 171 168 159
-4.46 8.61 -1.19 172 169 160
-4.61 8.45 -1.03 172 169 160
-4.61 8.37 -1.03 171 171 161
-4.61 8.28 -1.03 171 171 161
-4.46 8.26 -1.19 170 170 162
-4.46 8.18 -1.19 170 170 162
-4.46 8.09 -1.19 170 170 162
-4.46 8.01 -1.19 170 170 162
-4.46 7.92 -1.19 171 170 165
-4.46 7.84 -1.19 171 170 165
-4.46 7.75 -1.19 170 171 165
-4.46 7.66 -1.19 170 171 165
-4.46 7.58 -1.19 170 171 163
-4.46 7.49 -1.19 170 171 163
-4.46 7.41 -1.19 171 172 164
-4.46 7.32 -1.19 171 172 166
-4.46 7.24 -1.19 172 173 167
-4.46 7.15 -1.19 172 173 168
-4.46 7.06 -1.19 172 173 168
-4.46 6.98 -1.19 172 173 168
-4.46 6.89 -1.19 171 172 167
-4.46 6.81 -1.19 172 173 167
-4.46 6.72 -1.19 173 174 168
-4.46 6.64 -1.19 174 175 167
-4.46 6.55 -1.19 172 173 165
-4.46 6.46 -1.19 172 174 163
-4.46 6.38 -1.19 173 174 166
-4.46 6.29 -1.19 174 175 167
-4.46 6.21 -1.19 174 175 169
-4.46 6.12 -1.19 174 175 169
-4.46 6.04 -1.19 174 175 169
-4.46 5.95 -1.19 175 176 170
-4.46 5.86 -1.19 175 176 170
-4.46 5.78 -1.19 175 176 170
-4.46 5.69 -1.19 175 176 170
-4.46 5.61 -1.19 174 175 169
-4.46 5.52 -1.19 174 175 170
-4.61 5.38 -1.03 173 174 169
-4.61 5.30 -1.03 173 174 169
-4.61 5.21 -1.03 173 174 169
-4.61 5.12 -1.03 173 173 171
-4.61 5.04 -1.03 174 174 172
-4.61 4.95 -1.03 175 175 173
-4.61 4.87 -1.03 175 175 173
-4.46 4.84 -1.19 175 175 173
-4.46 4.75 -1.19 174 174 172
-4.46 4.66 -1.19 173 173 171
-4.46 4.58 -1.19 173 173 171
-4.46 4.49 -1.19 174 174 172
-4.46 4.41 -1.19 175 175 173
-4.46 4.32 -1.19 174 174 172
-4.46 4.24 -1.19 174 174 172
-4.46 4.15 -1.19 175 175 175
-4.46 4.06 -1.19 175 175 175
-4.46 3.98 -1.19 175 175 175
-4.46 3.89 -1.19 176 176 176
-4.46 3.81 -1.19 175 175 175
-4.46 3.72 -1.19 175 175 175
-4.46 3.64 -1.19 175 176 171
-4.46 3.55 -1.19 175 176 171
-4.46 3.46 -1.19 175 175 173
-4.46 3.38 -1.19 174 174 172
-4.46 3.29 -1.19 175 175 173
-4.46 3.21 -1.19 175 175 175
-4.46 3.12 -1.19 175 175 175
-4.46 3.04 -1.19 173 173 173
-4.46 2.95 -1.19 174 174 174
-4.46 2.86 -1.19 175 175 173
-4.46 2.78 -1.19 175 175 173
-4.46 2.69 -1.19 173 174 169
-4.46 2.61 -1.19 173 174 169
-4.46 2.52 -1.19 175 176 171
-4.46 2.44 -1.19 176 177 172
-4.46 2.35 -1.19 175 178 169
-4.46 2.26 -1.19 176 179 170
-4.46 2.18 -1.19 176 179 172
-4.46 2.09 -1.19 176 179 172
-4.46 2.01 -1.19 175 177 172
-4.46 1.92 -1.19 174 176 171
-4.46 1.84 -1.19 174 176 171
-4.46 1.75 -1.19 174 176 171
-4.46 1.66 -1.19 175 175 173
-4.46 1.58 -1.19 175 175 173
-4.46 1.49 -1.19 175 175 173
-4.46 1.41 -1.19 176 176 174
-4.46 1.32 -1.19 175 176 171
-4.46 1.24 -1.19 174 175 170
-4.46 1.15 -1.19 174 175 170
-4.46 1.06 -1.19 175 175 173
-4.46 0.98 -1.19 175 175 173
-4.46 0.89 -1.19 175 176 171
-4.46 0.81 -1.19 175 176 171
-4.46 0.72 -1.19 176 177 171
-4.46 0.64 -1.19 175 176 170
-4.61 0.52 -1.03 174 177 168
-4.61 0.43 -1.03 174 177 168
-4.61 0.35 -1.03 174 177 168
-4.61 0.26 -1.03 174 177 170
-4.61 0.17 -1.03 175 178 171
-4.61 0.09 -1.03 175 177 172
-4.61 0.00 -1.03 175 177 174
-4.61 -0.25 -1.03 176 178 177
-4.61 -0.34 -1.03 172 178 174
-4.61 -0.42 -1.03 173 179 175
-4.61 -0.51 -1.03 173 179 175
-4.46 -0.56 -1.19 173 179 175
-4.46 -0.65 -1.19 173 180 173
-4.46 -0.74 -1.19 173 180 172
-4.46 -0.82 -1.19 173 180 172
-4.46 -0.91 -1.19 171 178 170
-4.46 -0.99 -1.19 173 180 172
-4.46 -1.08 -1.19 175 182 174
-4.46 -1.16 -1.19 175 182 174
-4.46 -1.25 -1.19 175 182 175
-4.46 -1.34 -1.19 174 181 174
-4.46 -1.42 -1.19 173 180 173
-4.46 -1.51 -1.19 173 179 175
-4.46 -1.59 -1.19 174 179 175
-4.46 -1.68 -1.19 175 179 178
-4.46 -1.76 -1.19 176 180 179
-4.46 -1.85 -1.19 176 180 179
-4.46 -1.94 -1.19 174 180 178
-4.46 -2.02 -1.19 173 179 177
-4.46 -2.28 -1.19 176 182 180
-4.46 -2.36 -1.19 176 182 180
-4.46 -2.45 -1.19 173 182 179
-4.61 -2.56 -1.03 173 182 179
-4.61 -2.64 -1.03 173 182 179
-4.61 -2.73 -1.03 173 182 179
-4.61 -2.81 -1.03 173 182 179
-4.61 -2.90 -1.03 176 183 176
-4.61 -2.98 -1.03 175 182 175
-4.61 -3.07 -1.03 175 182 175
-4.61 -3.15 -1.03 175 182 175
-4.61 -3.24 -1.03 175 180 173
-4.61 -3.32 -1.03 175 180 173
-4.61 -3.41 -1.03 176 181 174
-4.61 -3.50 -1.03 176 181 174
-4.61 -3.58 -1.03 177 182 175
-4.61 -3.67 -1.03 178 183 176
-4.61 -3.75 -1.03 179 184 178
-4.61 -3.84 -1.03 178 183 177
-4.61 -3.92 -1.03 178 180 177
-4.61 -4.01 -1.03 178 180 177
-4.61 -4.09 -1.03 180 182 179
-4.61 -4.18 -1.03 183 185 182
-4.61 -4.26 -1.03 180 185 179
-4.61 -4.35 -1.03 180 185 179
-4.61 -4.43 -1.03 180 185 179
-4.61 -4.52 -1.03 180 185 179
-4.61 -4.61 -1.03 180 185 179
-4.76 -4.70 -0.87 180 185 179
-4.76 -4.79 -0.87 178 184 180
-4.76 -4.87 -0.87 179 185 181
-4.76 -4.96 -0.87 179 185 181
-4.76 -5.04 -0.87 179 185 183
-4.76 -5.13 -0.87 179 185 183
-4.76 -5.21 -0.87 180 186 184
-4.76 -5.30 -0.87 181 187 185
-4.76 -5.38 -0.87 181 187 185
-4.76 -5.47 -0.87 181 187 185
-4.76 -5.55 -0.87 180 184 183
-4.76 -5.64 -0.87 180 184 183
-4.76 -5.72 -0.87 181 185 184
-4.61 -5.80 -1.03 181 185 184
-4.61 -5.89 -1.03 181 185 184
-4.61 -5.97 -1.03 181 185 184
-4.61 -6.06 -1.03 180 186 182
-4.61 -6.14 -1.03 180 186 182
-4.61 -6.23 -1.03 181 187 183
-4.61 -6.31 -1.03 180 186 182
-4.46 -6.39 -1.19 179 185 181
-4.61 -6.48 -1.03 180 186 182
-4.61 -6.57 -1.03 180 186 182
-4.61 -6.65 -1.03 181 187 183
-4.61 -6.74 -1.03 181 187 183
-4.61 -6.82 -1.03 181 187 185
-4.61 -6.91 -1.03 179 188 187
-4.61 -6.99 -1.03 180 189 188
-4.61 -7.08 -1.03 180 189 188
-4.61 -7.17 -1.03 181 190 189
-4.61 -7.25 -1.03 181 190 189
-4.61 -7.34 -1.03 183 189 187
-4.61 -7.42 -1.03 183 189 187
-4.61 -7.51 -1.03 184 190 188
-4.61 -7.59 -1.03 182 188 186
-4.61 -7.68 -1.03 181 187 183
-4.61 -7.76 -1.03 182 188 184
-4.61 -7.85 -1.03 185 191 187
-4.61 -7.93 -1.03 185 191 187
-4.61 -8.02 -1.03 186 191 187
-4.61 -8.10 -1.03 184 189 185
-4.61 -8.19 -1.03 188 194 192
-4.61 -8.28 -1.03 186 192 190
-4.61 -8.36 -1.03 184 190 188
-4.61 -8.45 -1.03 183 189 187
-4.61 -8.53 -1.03 182 191 188
-4.61 -8.62 -1.03 183 192 189
-4.61 -8.70 -1.03 183 192 189
-4.61 -8.79 -1.03 183 192 189
-4.61 -8.87 -1.03 186 195 192
-4.61 -8.96 -1.03 189 195 193
-4.61 -9.04 -1.03 189 195 193
-4.61 -9.13 -1.03 189 195 193
-4.61 -9.21 -1.03 189 195 193
-4.61 -9.30 -1.03 190 194 193
-4.61 -9.38 -1.03 191 195 194
-4.61 -9.47 -1.03 189 195 193
-4.61 -9.56 -1.03 189 195 193
-4.76 -9.63 -0.87 189 195 191
-4.76 -9.72 -0.87 189 195 191
-4.76 -9.80 -0.87 191 196 192
-4.76 -9.89 -0.87 191 196 192
-4.76 -9.97 -0.87 193 195 190
-4.76 -10.06 -0.87 193 195 190
-4.76 -10.14 -0.87 192 194 189
-4.76 -10.23 -0.87 193 195 190
-4.61 -10.32 -1.03 192 197 193
-4.61 -10.41 -1.03 192 197 193
-4.61 -10.49 -1.03 190 196 192
-4.61 -10.58 -1.03 190 196 192
-4.61 -10.66 -1.03 190 196 194
-4.61 -10.75 -1.03 191 197 195
-4.61 -10.84 -1.03 191 197 195
-4.61 -10.92 -1.03 191 197 195
-4.61 -11.01 -1.03 192 198 196
-4.61 -11.09 -1.03 192 198 196
-4.61 -11.18 -1.03 192 198 196
-4.61 -11.26 -1.03 193 199 197
-4.61 -11.35 -1.03 194 200 198
-4.61 -11.43 -1.03 195 201 199
-4.61 -11.52 -1.03 195 201 199
-4.61 -11.60 -1.03 195 201 199
-4.61 -11.69 -1.03 195 201 199
-4.61 -11.77 -1.03 195 201 199
-4.61 -11.86 -1.03 195 201 199
-4.61 -11.95 -1.03 196 202 200
-4.61 -12.03 -1.03 196 202 200
-4.61 -12.12 -1.03 197 203 201
-4.61 -12.20 -1.03 197 203 201
-4.61 -12.29 -1.03 197 203 201
-4.46 -12.39 -1.19 196 202 200
-4.61 -12.46 -1.03 196 202 200
-4.61 -12.54 -1.03 195 201 199
-4.61 -12.63 -1.03 195 201 199
-4.61 -12.71 -1.03 196 202 200
-4.76 -12.78 -0.87 194 200 198
-4.76 -12.86 -0.87 198 204 202
-4.76 -12.95 -0.87 194 200 198
-4.76 -13.03 -0.87 192 198 196
-4.76 -13.12 -0.87 189 195 193
-4.76 -13.20 -0.87 185 191 189
-4.76 -13.29 -0.87 186 192 192
-4.76 -13.37 -0.87 207 216 215
-4.76 -13.46 -0.87 176 183 199
-4.76 -13.54 -0.87 24 29 71
-4.76 -13.63 -0.87 23 29 91
-4.76 -13.71 -0.87 36 43 115
-4.76 -13.80 -0.87 35 44 123
-4.76 -13.88 -0.87 42 53 135
-4.76 -13.97 -0.87 46 58 142
-4.76 -14.05 -0.87 36 49 128
-4.91 -14.11 -0.71 41 54 132
-4.76 -14.22 -0.87 47 59 133
-4.76 -14.31 -0.87 48 57 132
-4.76 -14.39 -0.87 46 53 131
-4.91 -14.45 -0.71 48 54 130
-4.91 -14.53 -0.71 41 46 114
-5.03 -14.59 -0.57 31 36 92
-5.03 -14.67 -0.57 45 47 88
-5.03 -14.76 -0.57 23 17 29
-5.03 -14.84 -0.57 26 6 0
-5.03 -14.93 -0.57 213 184 128
-5.18 -14.98 -0.41 196 165 110
-5.31 -15.03 -0.28 183 161 120
-5.46 -15.08 -0.12 176 159 133
-5.46 -15.17 -0.12 183 166 150
-5.46 -15.25 -0.12 180 166 155
-5.46 -15.33 -0.12 176 168 157
-5.46 -15.42 -0.12 177 174 157
-5.46 -15.50 -0.12 178 182 155
-5.46 -15.58 -0.12 177 182 152
-5.46 -15.67 -0.12 173 172 151
-5.46 -15.75 -0.12 170 167 150
-5.31 -15.87 -0.28 155 149 135
-5.18 -16.15 -0.41 92 89 74
-5.18 -16.24 -0.41 84 81 66
-5.18 -16.32 -0.41 82 76 62
-5.31 -16.37 -0.28 71 65 53
-5.31 -16.46 -0.28 61 51 42
-5.31 -16.54 -0.28 66 51 44
-5.46 -16.58 -0.12 82 64 62
-5.46 -16.67 -0.12 116 96 97
-5.46 -16.75 -0.12 151 130 135
-5.46 -16.83 -0.12 142 123 129
-5.46 -16.92 -0.12 133 117 127
-5.58 -16.96 0.01 116 103 113
-5.58 -17.05 0.01 103 94 99
-5.58 -17.13 0.01 85 80 84
-5.58 -17.21 0.01 75 75 77
-5.58 -17.30 0.01 70 74 75
-5.58 -17.38 0.01 64 70 68
-5.58 -17.46 0.01 51 57 55
-5.58 -17.55 0.01 36 43 36
-5.58 -17.63 0.01 37 39 34
-5.73 -17.67 0.17 110 110 102
-5.73 -17.75 0.17 134 131 124
-5.58 -17.88 0.01 108 103 99
-5.58 -17.96 0.01 139 135 132
-5.58 -18.04 0.01 132 130 131
-5.58 -18.13 0.01 34 35 39
-5.58 -18.21 0.01 58 61 68
-5.58 -18.29 0.01 59 64 70
-5.58 -18.37 0.01 49 53 52
-5.58 -18.46 0.01 59 64 60
-5.31 -18.63 -0.28 65 67 66
-5.18 -18.76 -0.41 63 65 64
-5.03 -18.89 -0.57 63 63 63
-5.03 -18.97 -0.57 55 55 55
-5.03 -19.06 -0.57 11 11 13
-5.03 -19.14 -0.57 5 5 7
-5.03 -19.23 -0.57 2 2 4
-4.91 -19.35 -0.71 6 5 10
-4.91 -19.44 -0.71 14 13 18
-4.91 -19.52 -0.71 18 17 22
-4.91 -19.61 -0.71 22 21 26
-4.91 -19.69 -0.71 30 31 35
-4.91 -19.78 -0.71 39 40 45
-4.76 -19.91 -0.87 47 48 53
-4.61 -20.05 -1.03 53 53 61
-4.76 -20.08 -0.87 75 75 83
-4.76 -20.17 -0.87 96 96 104
-4.76 -20.25 -0.87 63 64 69
-4.76 -20.34 -0.87 145 146 151
-4.76 -20.42 -0.87 247 248 252
-4.76 -20.51 -0.87 228 229 233
-4.76 -20.59 -0.87 218 218 220
-4.76 -20.68 -0.87 220 220 222
-4.76 -20.76 -0.87 222 222 222
-4.76 -20.85 -0.87 223 223 223
-4.76 -20.93 -0.87 223 223 221
-4.76 -21.02 -0.87 223 223 221
-4.76 -21.10 -0.87 224 224 222
-4.76 -21.19 -0.87 223 223 223
-4.76 -21.27 -0.87 225 225 225
-4.76 -21.36 -0.87 223 223 223
-4.76 -21.44 -0.87 223 223 223
-4.76 -21.53 -0.87 227 227 227
-4.76 -21.61 -0.87 226 226 226
-4.61 -21.76 -1.03 224 224 224
-4.61 -21.85 -1.03 225 225 225
-4.61 -21.93 -1.03 225 225 225
-4.76 -21.95 -0.87 227 227 227
-4.76 -22.04 -0.87 229 229 229
-4.76 -22.12 -0.87 228 228 228
-4.76 -22.21 -0.87 228 228 228
-4.76 -22.29 -0.87 228 228 228
-4.76 -22.38 -0.87 227 227 227
-4.76 -22.46 -0.87 225 225 225
-4.76 -22.55 -0.87 227 227 227
-4.76 -22.63 -0.87 227 227 227
-4.76 -22.72 -0.87 226 226 226
-4.76 -22.80 -0.87 226 226 226
-4.76 -22.89 -0.87 226 226 226
-4.76 -22.97 -0.87 226 226 226
-4.76 -23.06 -0.87 227 227 227
-4.76 -23.14 -0.87 227 227 227
-4.76 -23.23 -0.87 228 228 228
-4.76 -23.31 -0.87 229 229 229
-4.76 -23.74 -0.87 228 228 228
-4.76 -23.82 -0.87 227 227 227
-4.76 -23.91 -0.87 228 228 228
-4.76 -23.99 -0.87 229 229 229
-4.76 -24.08 -0.87 229 229 229
-4.76 -24.16 -0.87 228 228 228
-4.76 -24.25 -0.87 228 228 228
-4.76 -24.33 -0.87 229 229 229
-4.76 -24.42 -0.87 229 229 229
-4.76 -24.50 -0.87 227 227 227
-4.76 -24.59 -0.87 227 227 227
-4.91 -24.60 -0.71 227 227 227
-4.91 -24.68 -0.71 226 226 226
-4.91 -24.77 -0.71 226 226 226
-4.91 -24.85 -0.71 226 226 226
-4.91 -24.94 -0.71 226 226 226
-4.91 -25.02 -0.71 226 226 226
-4.91 -25.11 -0.71 226 224 225
-4.91 -25.19 -0.71 226 224 225
-4.91 -25.28 -0.71 227 225 226
-4.91 -25.53 -0.71 229 225 226
-4.91 -25.62 -0.71 229 225 226
-4.91 -25.70 -0.71 226 224 225
-4.91 -25.78 -0.71 226 224 225
-4.91 -25.87 -0.71 227 225 226
-4.91 -25.95 -0.71 228 226 227
-4.91 -26.04 -0.71 228 228 228
-4.91 -26.12 -0.71 229 229 229
-4.91 -26.21 -0.71 229 231 230
-4.91 -26.29 -0.71 230 232 231
-4.91 -26.38 -0.71 230 232 231
-4.91 -26.46 -0.71 231 233 232
-4.91 -26.55 -0.71 232 234 233
-4.91 -26.63 -0.71 232 234 233
-4.91 -26.72 -0.71 232 234 233
-4.91 -26.80 -0.71 231 233 232
-4.91 -26.88 -0.71 231 231 231
-4.91 -26.97 -0.71 231 231 231
-4.91 -27.05 -0.71 232 232 232
-4.91 -27.14 -0.71 233 233 233
-4.91 -27.22 -0.71 234 234 234
-4.91 -27.31 -0.71 233 233 233
-5.03 -27.32 -0.57 232 232 232
-5.03 -27.40 -0.57 233 231 232
-4.91 -27.56 -0.71 234 232 233
-4.91 -27.65 -0.71 237 233 234
-4.91 -27.73 -0.71 236 232 233
-4.91 -27.82 -0.71 235 231 232
-4.91 -27.90 -0.71 235 231 232
-4.91 -27.98 -0.71 235 231 232
-4.91 -28.07 -0.71 236 232 233
-4.91 -28.15 -0.71 236 232 233
-4.91 -28.24 -0.71 236 232 233
-4.91 -28.32 -0.71 238 234 235
-4.91 -28.41 -0.71 237 233 234
-4.91 -28.49 -0.71 237 233 234
-4.91 -28.58 -0.71 238 234 235
-4.91 -28.66 -0.71 239 235 236
-4.91 -28.75 -0.71 240 236 237
-4.91 -28.83 -0.71 240 236 237
-4.91 -28.92 -0.71 240 236 237
-4.76 -29.09 -0.87 238 236 237
-4.91 -29.08 -0.71 238 236 237
-4.91 -29.17 -0.71 238 236 237
-4.91 -29.25 -0.71 237 235 236
-4.91 -29.34 -0.71 237 235 236
-5.03 -29.34 -0.57 238 236 237
-5.03 -29.43 -0.57 239 237 238
-4.91 -29.59 -0.71 238 236 237
-4.91 -29.68 -0.71 238 236 237
-4.91 -29.76 -0.71 239 237 238
-4.91 -29.85 -0.71 239 237 238
-4.91 -29.93 -0.71 240 238 239
-4.91 -30.02 -0.71 240 238 239
-4.91 -30.10 -0.71 240 238 239
-4.91 -30.18 -0.71 240 238 239
-4.91 -30.27 -0.71 242 242 242
-4.91 -30.35 -0.71 242 242 242
-4.91 -30.44 -0.71 241 241 241
-4.91 -30.52 -0.71 241 241 241
-4.76 -30.71 -0.87 241 239 240
-4.76 -30.79 -0.87 241 239 240
-4.91 -30.78 -0.71 242 240 241
-5.03 -30.78 -0.57 242 240 241
-5.03 -30.86 -0.57 243 239 240
-4.91 -31.03 -0.71 243 239 240
-4.91 -31.12 -0.71 243 239 240
-5.03 -31.11 -0.57 243 239 240
-5.03 -31.20 -0.57 244 240 241
-5.03 -31.28 -0.57 244 240 241
-5.03 -31.37 -0.57 244 240 241
-5.03 -31.45 -0.57 240 236 235
-5.03 -31.54 -0.57 242 238 237
-4.91 -31.71 -0.71 237 236 234
-4.91 -31.79 -0.71 243 242 240
-4.91 -31.88 -0.71 243 242 240
-4.91 -31.96 -0.71 241 237 236
-4.91 -32.05 -0.71 244 240 239
-4.76 -32.24 -0.87 253 244 245
-4.76 -32.32 -0.87 212 202 203
-4.76 -32.41 -0.87 134 122 124
-4.76 -32.49 -0.87 135 120 123
-4.76 -32.58 -0.87 140 125 128
-4.91 -32.55 -0.71 131 119 121
-4.91 -32.64 -0.71 135 123 125
-4.91 -32.72 -0.71 133 125 123
-4.91 -32.81 -0.71 126 118 116
-4.91 -32.89 -0.71 0 0 0
-4.50 20.18 -1.26 0 0 0
-4.50 20.09 -1.26 0 0 0
-4.50 20.01 -1.26 0 0 0
-4.50 19.92 -1.26 0 0 0
-4.50 19.83 -1.26 0 0 0
-4.50 19.75 -1.26 0 0 0
-4.50 19.66 -1.26 0 0 0
-4.50 19.58 -1.26 142 138 127
-4.50 19.49 -1.26 142 138 127
-4.50 19.41 -1.26 142 138 127
-4.50 19.32 -1.26 142 138 127
-4.65 19.12 -1.10 142 138 127
-4.65 19.04 -1.10 143 139 128
-4.65 18.95 -1.10 144 140 129
-4.65 18.87 -1.10 147 140 132
-4.65 18.78 -1.10 148 141 133
-4.65 18.70 -1.10 147 140 132
-4.65 18.61 -1.10 147 140 132
-4.65 18.52 -1.10 148 139 132
-4.65 18.44 -1.10 148 139 132
-4.65 18.35 -1.10 148 139 132
-4.65 18.27 -1.10 149 140 133
-4.65 18.18 -1.10 150 141 134
-4.65 18.10 -1.10 150 141 134
-4.65 18.01 -1.10 146 137 132
-4.65 17.93 -1.10 147 138 133
-4.65 17.84 -1.10 146 139 133
-4.50 17.86 -1.26 142 137 131
-4.65 17.67 -1.10 142 137 131
-4.65 17.59 -1.10 140 135 129
-4.65 17.50 -1.10 138 133 127
-4.65 17.41 -1.10 136 131 125
-4.65 17.33 -1.10 134 129 123
-4.65 17.24 -1.10 132 127 121
-4.65 17.16 -1.10 130 125 119
-4.65 17.07 -1.10 131 124 118
-4.65 16.99 -1.10 129 122 116
-4.65 16.90 -1.10 127 120 114
-4.65 16.82 -1.10 126 119 113
-4.65 16.73 -1.10 125 120 116
-4.65 16.65 -1.10 125 120 116
-4.65 16.56 -1.10 122 117 111
-4.65 16.48 -1.10 118 113 107
-4.50 16.49 -1.26 117 114 105
-4.50 16.41 -1.26 121 118 109
-4.50 16.32 -1.26 123 120 111
-4.50 16.23 -1.26 122 119 110
-4.50 16.15 -1.26 121 118 109
-4.50 16.06 -1.26 120 117 110
-4.50 15.98 -1.26 121 118 111
-4.50 15.89 -1.26 124 121 116
-4.50 15.81 -1.26 122 118 115
-4.50 15.72 -1.26 123 119 118
-4.50 15.63 -1.26 126 122 121
-4.50 15.55 -1.26 122 119 114
-4.50 15.46 -1.26 125 122 117
-4.50 15.38 -1.26 124 123 118
-4.65 15.20 -1.10 126 125 120
-4.65 15.11 -1.10 131 131 123
-4.65 15.03 -1.10 133 133 125
-4.65 14.94 -1.10 133 133 123
-4.65 14.85 -1.10 136 136 126
-4.65 14.77 -1.10 135 132 123
-4.65 14.68 -1.10 136 133 124
-4.65 14.60 -1.10 138 135 128
-4.65 14.51 -1.10 139 136 131
-4.65 14.43 -1.10 141 136 132
-4.65 14.34 -1.10 141 136 133
-4.65 14.26 -1.10 144 135 136
-4.65 14.17 -1.10 145 136 137
-4.65 14.09 -1.10 150 142 139
-4.65 14.00 -1.10 150 142 139
-4.65 13.92 -1.10 152 144 141
-4.65 13.83 -1.10 153 145 142
-4.65 13.74 -1.10 155 148 142
-4.65 13.66 -1.10 156 149 143
-4.65 13.57 -1.10 156 149 143
-4.65 13.49 -1.10 158 151 145
-4.65 13.40 -1.10 158 151 145
-4.65 13.32 -1.10 159 152 146
-4.65 13.23 -1.10 160 153 147
-4.50 13.23 -1.26 161 154 148
-4.50 13.15 -1.26 162 155 149
-4.65 12.98 -1.10 162 155 149
-4.65 12.89 -1.10 163 156 150
-4.65 12.81 -1.10 162 157 153
-4.65 12.72 -1.10 161 156 152
-4.65 12.64 -1.10 159 156 151
-4.65 12.55 -1.10 159 156 151
-4.65 12.46 -1.10 161 158 151
-4.65 12.38 -1.10 162 159 152
-4.65 12.29 -1.10 159 159 151
-4.65 12.21 -1.10 157 157 149
-4.65 12.12 -1.10 161 161 153
-4.65 12.04 -1.10 160 160 152
-4.65 11.95 -1.10 160 160 152
-4.65 11.87 -1.10 161 161 153
-4.65 11.78 -1.10 164 161 154
-4.65 11.70 -1.10 163 160 153
-4.65 11.61 -1.10 166 163 158
-4.65 11.53 -1.10 163 160 155
-4.65 11.44 -1.10 164 160 157
-4.65 11.36 -1.10 165 161 158
-4.65 11.27 -1.10 165 161 158
-4.50 11.26 -1.26 165 162 157
-4.50 11.18 -1.26 164 161 156
-4.50 11.09 -1.26 165 162 157
-4.50 11.01 -1.26 165 162 157
-4.50 10.92 -1.26 165 162 157
-4.50 10.83 -1.26 166 163 158
-4.50 10.75 -1.26 167 164 159
-4.50 10.66 -1.26 168 165 160
-4.50 10.58 -1.26 168 164 161
-4.50 10.49 -1.26 168 164 161
-4.50 10.41 -1.26 168 164 161
-4.50 10.32 -1.26 168 165 160
-4.50 10.23 -1.26 167 164 157
-4.50 10.15 -1.26 167 164 155
-4.50 10.06 -1.26 168 165 158
-4.50 9.98 -1.26 167 164 157
-4.50 9.89 -1.26 167 164 159
-4.50 9.81 -1.26 167 164 159
-4.50 9.72 -1.26 168 165 158
-4.50 9.63 -1.26 169 167 155
-4.50 9.55 -1.26 170 168 156
-4.50 9.46 -1.26 170 168 156
-4.50 9.38 -1.26 170 167 158
-4.50 9.29 -1.26 170 167 158
-4.50 9.21 -1.26 170 167 162
-4.50 9.12 -1.26 170 167 162
-4.65 8.97 -1.10 169 166 161
-4.65 8.88 -1.10 171 168 161
-4.65 8.79 -1.10 171 168 159
-4.65 8.71 -1.10 172 169 160
-4.65 8.62 -1.10 172 169 160
-4.65 8.54 -1.10 172 169 160
-4.65 8.45 -1.10 172 169 160
-4.65 8.37 -1.10 171 171 163
-4.65 8.28 -1.10 171 171 163
-4.65 8.20 -1.10 171 171 163
-4.65 8.11 -1.10 171 171 163
-4.65 8.03 -1.10 169 170 162
-4.65 7.94 -1.10 170 171 163
-4.50 7.92 -1.26 171 172 166
-4.50 7.84 -1.26 172 173 167
-4.50 7.75 -1.26 172 173 167
-4.50 7.66 -1.26 172 173 167
-4.50 7.58 -1.26 169 172 161
-4.50 7.49 -1.26 169 172 163
-4.50 7.41 -1.26 170 173 164
-4.50 7.32 -1.26 171 174 167
-4.65 7.17 -1.10 171 174 167
-4.65 7.09 -1.10 172 174 169
-4.65 7.00 -1.10 172 174 169
-4.65 6.92 -1.10 173 175 170
-4.50 6.89 -1.26 172 174 169
-4.50 6.81 -1.26 172 175 168
-4.65 6.66 -1.10 174 177 170
-4.65 6.58 -1.10 173 176 167
-4.50 6.55 -1.26 172 175 166
-4.50 6.46 -1.26 172 175 164
-4.50 6.38 -1.26 173 176 167
-4.50 6.29 -1.26 173 174 166
-4.50 6.21 -1.26 173 174 168
-4.50 6.12 -1.26 173 174 168
-4.50 6.04 -1.26 173 174 168
-4.65 5.89 -1.10 174 175 169
-4.65 5.81 -1.10 174 175 169
-4.65 5.72 -1.10 175 176 170
-4.65 5.64 -1.10 176 177 171
-4.65 5.55 -1.10 174 175 169
-4.65 5.47 -1.10 174 175 170
-4.65 5.38 -1.10 175 176 171
-4.65 5.30 -1.10 175 175 173
-4.65 5.21 -1.10 176 176 174
-4.65 5.12 -1.10 177 177 177
-4.65 5.04 -1.10 177 177 177
-4.65 4.95 -1.10 176 176 176
-4.65 4.87 -1.10 177 177 177
-4.65 4.78 -1.10 177 177 177
-4.65 4.70 -1.10 175 175 175
-4.65 4.61 -1.10 174 174 172
-4.65 4.53 -1.10 174 174 172
-4.65 4.44 -1.10 175 175 173
-4.65 4.36 -1.10 177 177 175
-4.50 4.32 -1.26 175 175 173
-4.50 4.24 -1.26 175 175 173
-4.50 4.15 -1.26 176 176 174
-4.65 4.02 -1.10 175 175 173
-4.65 3.93 -1.10 175 175 175
-4.65 3.84 -1.10 175 175 175
-4.65 3.76 -1.10 174 174 174
-4.65 3.67 -1.10 174 174 174
-4.65 3.59 -1.10 176 177 172
-4.65 3.50 -1.10 175 176 171
-4.65 3.42 -1.10 175 175 173
-4.65 3.33 -1.10 174 174 172
-4.65 3.25 -1.10 174 174 172
-4.65 3.16 -1.10 174 174 174
-4.65 3.08 -1.10 175 175 175
-4.65 2.99 -1.10 174 174 172
-4.65 2.91 -1.10 175 175 173
-4.65 2.82 -1.10 176 176 174
-4.65 2.73 -1.10 176 176 174
-4.65 2.65 -1.10 175 176 171
-4.65 2.56 -1.10 175 176 171
-4.65 2.48 -1.10 176 177 171
-4.65 2.39 -1.10 177 178 172
-4.65 2.31 -1.10 174 177 168
-4.65 2.22 -1.10 175 178 169
-4.65 2.14 -1.10 176 179 172
-4.50 2.09 -1.26 176 179 172
-4.50 2.01 -1.26 175 177 172
-4.50 1.92 -1.26 174 176 171
-4.50 1.84 -1.26 175 177 174
-4.50 1.75 -1.26 175 177 174
-4.50 1.66 -1.26 174 174 172
-4.50 1.58 -1.26 175 175 173
-4.50 1.49 -1.26 175 175 173
-4.50 1.41 -1.26 176 176 174
-4.50 1.32 -1.26 175 175 173
-4.50 1.24 -1.26 174 175 170
-4.65 1.11 -1.10 174 175 170
-4.65 1.03 -1.10 175 176 171
-4.65 0.94 -1.10 174 175 170
-4.65 0.86 -1.10 174 175 169
-4.65 0.77 -1.10 175 176 170
-4.65 0.69 -1.10 175 176 168
-4.65 0.60 -1.10 175 176 168
-4.65 0.52 -1.10 175 176 168
-4.65 0.43 -1.10 174 175 167
-4.65 0.35 -1.10 176 177 169
-4.65 0.26 -1.10 176 177 171
-4.65 0.17 -1.10 175 178 171
-4.65 0.09 -1.10 175 177 172
-4.65 0.00 -1.10 175 177 174
-4.65 -0.08 -1.10 175 177 174
-4.65 -0.17 -1.10 175 177 176
-4.65 -0.25 -1.10 176 178 177
-4.65 -0.34 -1.10 173 179 177
-4.65 -0.42 -1.10 173 179 177
-4.65 -0.51 -1.10 173 179 175
-4.65 -0.59 -1.10 173 179 175
-4.65 -0.68 -1.10 173 180 173
-4.65 -0.76 -1.10 172 179 171
-4.65 -0.85 -1.10 172 179 171
-4.65 -0.94 -1.10 174 181 173
-4.65 -1.02 -1.10 175 182 174
-4.50 -1.08 -1.26 177 184 176
-4.50 -1.16 -1.26 176 183 175
-4.50 -1.25 -1.26 175 182 175
-4.50 -1.34 -1.26 173 180 173
-4.50 -1.42 -1.26 173 180 173
-4.50 -1.51 -1.26 173 179 175
-4.50 -1.59 -1.26 172 177 173
-4.65 -1.70 -1.10 174 178 177
-4.65 -1.79 -1.10 176 180 179
-4.65 -1.87 -1.10 176 180 179
-4.65 -1.96 -1.10 175 179 178
-4.65 -2.04 -1.10 174 178 177
-4.80 -2.32 -0.94 177 183 181
-4.65 -2.39 -1.10 177 183 181
-4.65 -2.47 -1.10 174 183 180
-4.65 -2.56 -1.10 174 183 180
-4.65 -2.64 -1.10 174 183 180
-4.65 -2.73 -1.10 173 182 179
-4.65 -2.81 -1.10 174 183 180
-4.65 -2.90 -1.10 177 183 179
-4.65 -2.98 -1.10 176 182 178
-4.65 -3.07 -1.10 176 182 178
-4.65 -3.15 -1.10 176 182 178
-4.65 -3.24 -1.10 175 182 175
-4.65 -3.32 -1.10 175 182 175
-4.65 -3.41 -1.10 175 182 175
-4.65 -3.50 -1.10 175 182 175
-4.65 -3.58 -1.10 176 181 175
-4.65 -3.67 -1.10 177 182 176
-4.65 -3.75 -1.10 178 183 177
-4.65 -3.84 -1.10 178 183 177
-4.65 -3.92 -1.10 177 182 178
-4.65 -4.01 -1.10 177 182 178
-4.65 -4.09 -1.10 179 184 180
-4.80 -4.53 -0.94 180 185 179
-4.80 -4.62 -0.94 180 185 181
-4.80 -4.70 -0.94 180 185 181
-4.80 -4.79 -0.94 178 184 180
-4.80 -4.87 -0.94 179 185 181
-4.80 -4.96 -0.94 178 184 180
-4.80 -5.04 -0.94 178 184 182
-4.80 -5.13 -0.94 178 184 182
-4.95 -5.22 -0.78 179 185 183
-4.95 -5.31 -0.78 180 186 184
-4.80 -5.38 -0.94 180 186 184
-4.80 -5.47 -0.94 180 184 183
-4.80 -5.55 -0.94 180 184 183
-4.80 -5.64 -0.94 181 183 182
-4.80 -5.72 -0.94 179 183 182
-4.80 -5.81 -0.94 179 183 182
-4.80 -5.89 -0.94 180 184 183
-4.80 -5.98 -0.94 180 184 183
-4.80 -6.06 -0.94 180 186 184
-4.80 -6.15 -0.94 181 187 185
-4.80 -6.23 -0.94 182 188 184
-4.65 -6.31 -1.10 181 187 183
-4.65 -6.40 -1.10 180 186 182
-4.65 -6.48 -1.10 180 186 182
-4.65 -6.57 -1.10 181 187 183
-4.65 -6.65 -1.10 181 187 183
-4.65 -6.74 -1.10 182 187 183
-4.65 -6.82 -1.10 181 185 184
-4.65 -6.91 -1.10 179 187 189
-4.65 -6.99 -1.10 179 188 187
-4.65 -7.08 -1.10 180 189 188
-4.65 -7.17 -1.10 181 190 189
-4.65 -7.25 -1.10 181 190 189
-4.65 -7.34 -1.10 183 189 189
-4.65 -7.42 -1.10 183 189 189
-4.65 -7.51 -1.10 186 192 190
-4.65 -7.59 -1.10 182 188 186
-4.65 -7.68 -1.10 181 187 185
-4.65 -7.76 -1.10 184 190 188
-4.65 -7.85 -1.10 187 193 189
-4.65 -7.93 -1.10 186 192 188
-4.65 -8.02 -1.10 185 190 186
-4.65 -8.10 -1.10 183 188 184
-4.65 -8.19 -1.10 187 191 190
-4.65 -8.28 -1.10 187 191 190
-4.65 -8.36 -1.10 186 192 190
-4.65 -8.45 -1.10 187 193 191
-4.65 -8.53 -1.10 187 193 191
-4.65 -8.62 -1.10 187 193 191
-4.65 -8.70 -1.10 185 194 191
-4.65 -8.79 -1.10 184 193 190
-4.65 -8.87 -1.10 185 194 191
-4.65 -8.96 -1.10 186 195 192
-4.65 -9.04 -1.10 186 195 192
-4.65 -9.13 -1.10 186 195 192
-4.65 -9.21 -1.10 186 195 192
-4.65 -9.30 -1.10 188 194 192
-4.65 -9.38 -1.10 188 194 192
-4.80 -9.46 -0.94 188 194 192
-4.80 -9.55 -0.94 188 194 192
-4.80 -9.63 -0.94 188 194 190
-4.80 -9.72 -0.94 189 194 190
-4.80 -9.80 -0.94 190 195 189
-4.80 -9.89 -0.94 192 194 189
-4.80 -9.97 -0.94 192 195 188
-4.80 -10.06 -0.94 191 194 187
-4.80 -10.14 -0.94 191 194 187
-4.80 -10.23 -0.94 192 195 188
-4.80 -10.31 -0.94 193 195 190
-4.80 -10.40 -0.94 194 196 191
-4.80 -10.48 -0.94 190 196 192
-4.80 -10.57 -0.94 190 196 192
-4.80 -10.65 -0.94 189 195 193
-4.80 -10.74 -0.94 189 195 193
-4.80 -10.82 -0.94 191 197 195
-4.80 -10.91 -0.94 192 198 196
-4.80 -10.99 -0.94 193 199 197
-4.80 -11.08 -0.94 193 199 197
-4.80 -11.16 -0.94 194 200 198
-4.80 -11.25 -0.94 195 201 199
-4.80 -11.33 -0.94 196 202 200
-4.80 -11.42 -0.94 195 201 199
-4.80 -11.50 -0.94 195 201 199
-4.80 -11.59 -0.94 195 201 199
-4.80 -11.67 -0.94 195 201 199
-4.80 -11.76 -0.94 196 202 200
-4.80 -11.84 -0.94 196 202 200
-4.80 -11.93 -0.94 196 202 200
-4.80 -12.01 -0.94 195 201 199
-4.80 -12.10 -0.94 195 201 199
-4.80 -12.18 -0.94 196 202 200
-4.65 -12.29 -1.10 196 202 200
-4.65 -12.37 -1.10 196 202 200
-4.80 -12.44 -0.94 195 201 199
-4.80 -12.52 -0.94 195 201 199
-4.80 -12.61 -0.94 195 201 199
-4.80 -12.69 -0.94 195 201 199
-4.80 -12.78 -0.94 194 200 198
-4.80 -12.86 -0.94 198 204 202
-4.80 -12.95 -0.94 193 199 197
-4.80 -13.03 -0.94 190 196 194
-4.80 -13.12 -0.94 185 191 189
-4.80 -13.20 -0.94 184 190 188
-4.80 -13.29 -0.94 195 200 203
-4.80 -13.37 -0.94 200 209 218
-4.95 -13.43 -0.78 91 96 126
-4.95 -13.51 -0.78 29 33 97
-4.95 -13.60 -0.78 35 38 119
-4.95 -13.68 -0.78 40 47 127
-4.95 -13.77 -0.78 54 65 145
-4.95 -13.85 -0.78 42 55 134
-4.95 -13.94 -0.78 47 62 145
-4.95 -14.02 -0.78 51 66 149
-4.95 -14.11 -0.78 47 59 143
-4.95 -14.19 -0.78 41 55 130
-4.95 -14.28 -0.78 41 50 125
-4.95 -14.36 -0.78 42 49 127
-4.95 -14.45 -0.78 50 54 127
-5.07 -14.50 -0.65 34 41 96
-5.07 -14.59 -0.65 29 34 76
-5.22 -14.64 -0.49 41 43 68
-5.22 -14.73 -0.49 18 12 12
-5.22 -14.81 -0.49 54 34 0
-5.22 -14.89 -0.49 206 176 122
-5.35 -14.95 -0.35 195 167 119
-5.50 -15.00 -0.19 179 159 122
-5.50 -15.08 -0.19 179 165 138
-5.50 -15.17 -0.19 185 172 155
-5.50 -15.25 -0.19 179 169 157
-5.50 -15.33 -0.19 173 169 157
-5.50 -15.42 -0.19 169 170 154
-5.50 -15.50 -0.19 169 173 148
-5.50 -15.58 -0.19 172 176 149
-5.50 -15.67 -0.19 178 176 155
-5.50 -15.75 -0.19 180 175 155
-5.50 -15.83 -0.19 181 176 154
-5.35 -15.95 -0.35 184 180 155
-5.35 -16.04 -0.35 175 173 148
-5.35 -16.12 -0.35 157 155 130
-5.35 -16.20 -0.35 135 135 109
-5.35 -16.29 -0.35 118 116 91
-5.35 -16.37 -0.35 97 95 72
-5.35 -16.46 -0.35 82 75 56
-5.35 -16.54 -0.35 80 73 54
-5.50 -16.58 -0.19 75 66 51
-5.50 -16.67 -0.19 72 59 50
-5.50 -16.75 -0.19 70 57 51
-5.50 -16.83 -0.19 91 80 76
-5.62 -16.88 -0.06 110 100 99
-5.62 -16.96 -0.06 137 127 128
-5.62 -17.05 -0.06 141 135 137
-5.62 -17.13 -0.06 132 128 129
-5.62 -17.21 -0.06 123 123 123
-5.77 -17.25 0.10 116 118 117
-5.77 -17.34 0.10 99 105 101
-5.77 -17.42 0.10 81 87 83
-5.77 -17.50 0.10 74 79 72
-5.77 -17.58 0.10 78 81 74
-5.77 -17.67 0.10 132 132 124
-5.77 -17.75 0.10 141 136 130
-5.77 -17.83 0.10 61 56 52
-5.77 -17.91 0.10 139 134 131
-5.77 -18.00 0.10 96 91 95
-5.77 -18.08 0.10 45 44 50
-5.62 -18.21 -0.06 70 73 82
-5.62 -18.29 -0.06 59 62 69
-5.62 -18.37 -0.06 60 64 63
-5.62 -18.46 -0.06 61 63 58
-5.62 -18.54 -0.06 59 61 56
-5.50 -18.66 -0.19 58 60 55
-5.35 -18.80 -0.35 67 67 65
-5.35 -18.88 -0.35 77 77 77
-5.35 -18.97 -0.35 74 74 76
-5.35 -19.05 -0.35 58 57 62
-5.07 -19.23 -0.65 38 37 43
-5.07 -19.31 -0.65 18 17 23
-5.22 -19.34 -0.49 7 6 14
-5.22 -19.43 -0.49 4 4 14
-5.22 -19.51 -0.49 10 10 20
-5.22 -19.59 -0.49 13 13 23
-5.22 -19.68 -0.49 7 7 17
-5.22 -19.76 -0.49 17 18 23
-4.95 -19.95 -0.78 21 22 27
-4.95 -20.03 -0.78 33 34 39
-4.95 -20.11 -0.78 39 40 45
-4.95 -20.20 -0.78 54 55 59
-4.95 -20.28 -0.78 183 184 188
-4.95 -20.37 -0.78 254 255 255
-4.95 -20.45 -0.78 220 221 223
-4.95 -20.54 -0.78 220 220 222
-4.95 -20.62 -0.78 221 221 223
-4.95 -20.71 -0.78 223 223 223
-4.95 -20.79 -0.78 224 224 224
-4.95 -20.88 -0.78 224 224 222
-4.95 -20.96 -0.78 224 224 222
-4.95 -21.05 -0.78 224 224 222
-4.95 -21.13 -0.78 221 221 221
-4.95 -21.21 -0.78 224 224 224
-4.95 -21.30 -0.78 222 222 222
-4.95 -21.38 -0.78 222 222 222
-4.95 -21.47 -0.78 225 225 225
-4.95 -21.55 -0.78 224 224 224
-4.80 -21.70 -0.94 223 223 223
-4.80 -21.78 -0.94 226 226 226
-4.80 -21.87 -0.94 224 224 224
-4.95 -21.89 -0.78 226 226 226
-4.80 -22.04 -0.94 226 226 226
-4.95 -22.06 -0.78 225 225 225
-4.95 -22.15 -0.78 224 224 224
-4.95 -22.23 -0.78 226 226 226
-4.95 -22.31 -0.78 226 226 226
-4.80 -22.46 -0.94 226 226 226
-4.80 -22.55 -0.94 228 228 228
-4.80 -22.63 -0.94 227 227 227
-4.80 -22.72 -0.94 227 227 227
-4.95 -22.74 -0.78 226 226 226
-4.95 -22.82 -0.78 226 226 226
-4.95 -22.91 -0.78 227 227 227
-4.95 -22.99 -0.78 228 228 228
-4.95 -23.08 -0.78 229 229 229
-4.95 -23.16 -0.78 226 226 226
-4.95 -23.25 -0.78 227 227 227
-4.95 -23.33 -0.78 227 227 227
-4.95 -23.41 -0.78 226 226 226
-4.80 -23.57 -0.94 226 226 226
-4.80 -23.65 -0.94 226 226 226
-4.95 -23.67 -0.78 226 226 226
-4.95 -23.75 -0.78 226 226 226
-4.95 -23.84 -0.78 227 227 227
-4.95 -23.92 -0.78 228 228 228
-4.95 -24.01 -0.78 227 227 227
-4.95 -24.09 -0.78 226 226 226
-4.95 -24.18 -0.78 227 227 227
-4.95 -24.26 -0.78 228 228 228
-4.95 -24.35 -0.78 229 229 229
-4.95 -24.43 -0.78 228 228 228
-4.95 -24.52 -0.78 228 228 228
-4.95 -24.60 -0.78 228 228 228
-4.95 -24.68 -0.78 226 226 226
-4.95 -24.77 -0.78 225 225 225
-4.95 -24.85 -0.78 224 224 224
-4.95 -24.94 -0.78 224 224 224
-4.95 -25.02 -0.78 225 225 225
-4.95 -25.11 -0.78 226 224 225
-4.95 -25.19 -0.78 226 224 225
-5.07 -25.21 -0.65 226 224 225
-5.07 -25.47 -0.65 227 223 224
-5.07 -25.55 -0.65 227 223 224
-5.07 -25.63 -0.65 230 226 227
-5.07 -25.72 -0.65 230 226 227
-5.07 -25.80 -0.65 227 225 226
-5.07 -25.89 -0.65 227 225 226
-5.07 -25.97 -0.65 227 227 227
-5.07 -26.06 -0.65 228 228 228
-4.95 -26.21 -0.78 229 229 229
-4.95 -26.29 -0.78 230 230 230
-4.95 -26.38 -0.78 227 229 228
-4.95 -26.46 -0.78 227 229 228
-4.95 -26.55 -0.78 228 230 229
-4.95 -26.63 -0.78 229 231 230
-4.95 -26.72 -0.78 230 232 231
-4.95 -26.80 -0.78 230 232 231
-4.95 -26.88 -0.78 231 231 231
-4.95 -26.97 -0.78 231 231 231
-5.07 -27.32 -0.65 231 231 231
-5.07 -27.40 -0.65 233 231 232
-5.07 -27.49 -0.65 234 232 233
-5.07 -27.57 -0.65 236 232 233
-5.07 -27.66 -0.65 236 232 233
-5.07 -27.74 -0.65 235 231 232
-5.07 -27.83 -0.65 234 230 231
-5.07 -27.91 -0.65 235 231 232
-5.07 -28.00 -0.65 236 232 233
-5.07 -28.08 -0.65 236 232 233
-4.95 -28.24 -0.78 234 230 231
-4.95 -28.32 -0.78 237 233 234
-4.95 -28.41 -0.78 235 231 232
-4.95 -28.49 -0.78 235 231 232
-4.95 -28.58 -0.78 237 233 234
-4.95 -28.66 -0.78 238 234 235
-4.95 -28.75 -0.78 238 234 235
-4.95 -28.83 -0.78 238 234 235
-4.95 -28.92 -0.78 238 234 235
-4.95 -29.00 -0.78 234 232 233
-4.95 -29.08 -0.78 236 234 235
-4.95 -29.17 -0.78 238 236 237
-4.95 -29.25 -0.78 240 238 239
-5.07 -29.26 -0.65 239 237 238
-5.07 -29.34 -0.65 239 237 238
-5.07 -29.43 -0.65 239 237 238
-5.07 -29.51 -0.65 238 236 237
-5.07 -29.60 -0.65 238 236 237
-4.95 -29.76 -0.78 237 235 236
-4.95 -29.85 -0.78 237 235 236
-4.95 -29.93 -0.78 238 236 237
-5.07 -29.93 -0.65 238 236 237
-5.07 -30.02 -0.65 238 236 237
-5.07 -30.10 -0.65 238 236 237
-4.95 -30.27 -0.78 239 237 238
-4.95 -30.35 -0.78 239 237 238
-4.95 -30.44 -0.78 239 237 238
-4.95 -30.52 -0.78 239 237 238
-4.95 -30.61 -0.78 242 238 239
-4.95 -30.69 -0.78 243 239 240
-5.07 -30.69 -0.65 244 240 241
-5.07 -30.78 -0.65 244 240 241
-5.07 -30.86 -0.65 243 239 240
-5.07 -30.95 -0.65 243 239 240
-5.07 -31.03 -0.65 244 240 241
-5.07 -31.11 -0.65 244 240 241
-5.07 -31.20 -0.65 244 240 241
-5.07 -31.28 -0.65 244 240 241
-5.07 -31.37 -0.65 244 240 241
-5.07 -31.45 -0.65 243 239 238
-5.07 -31.54 -0.65 244 240 239
-5.07 -31.62 -0.65 236 235 233
-4.95 -31.79 -0.78 239 238 236
-4.95 -31.88 -0.78 238 237 235
-4.95 -31.96 -0.78 240 236 235
-4.95 -32.05 -0.78 241 237 236
-4.95 -32.13 -0.78 254 245 246
-4.95 -32.22 -0.78 228 218 219
-4.80 -32.41 -0.94 143 131 133
-4.80 -32.49 -0.94 122 107 110
-4.95 -32.47 -0.78 139 124 127
-4.95 -32.55 -0.78 132 120 122
-4.95 -32.64 -0.78 128 116 118
-4.95 -32.72 -0.78 126 117 118
-4.95 -32.81 -0.78 130 121 122
-4.95 -32.89 -0.78 0 0 0
-4.54 20.18 -1.34 0 0 0
-4.54 20.09 -1.34 0 0 0
-4.54 20.01 -1.34 0 0 0
-4.54 19.92 -1.34 0 0 0
-4.54 19.83 -1.34 0 0 0
-4.54 19.75 -1.34 0 0 0
-4.54 19.66 -1.34 0 0 0
-4.54 19.58 -1.34 143 141 128
-4.54 19.49 -1.34 143 141 128
-4.54 19.41 -1.34 141 139 126
-4.69 19.21 -1.18 142 138 126
-4.69 19.12 -1.18 143 139 127
-4.69 19.04 -1.18 144 140 128
-4.69 18.95 -1.18 145 141 129
-4.69 18.87 -1.18 146 139 129
-4.69 18.78 -1.18 145 138 128
-4.69 18.70 -1.18 147 140 130
-4.69 18.61 -1.18 147 140 130
-4.69 18.52 -1.18 147 138 129
-4.69 18.44 -1.18 147 138 129
-4.69 18.35 -1.18 148 139 132
-4.84 18.16 -1.01 149 140 133
-4.84 18.07 -1.01 149 140 133
-4.84 17.99 -1.01 150 141 134
-4.84 17.90 -1.01 146 137 132
-4.84 17.82 -1.01 147 138 133
-4.69 17.84 -1.18 147 140 132
-4.69 17.76 -1.18 142 138 129
-4.69 17.67 -1.18 142 138 129
-4.69 17.59 -1.18 141 137 128
-4.69 17.50 -1.18 139 135 126
-4.69 17.41 -1.18 138 134 125
-4.69 17.33 -1.18 136 132 123
-4.69 17.24 -1.18 136 129 121
-4.84 17.05 -1.01 134 127 119
-4.84 16.97 -1.01 132 125 117
-4.84 16.88 -1.01 130 123 115
-4.84 16.80 -1.01 129 120 113
-4.84 16.71 -1.01 128 119 114
-4.84 16.63 -1.01 123 118 112
-4.84 16.54 -1.01 124 119 115
-4.84 16.46 -1.01 122 117 111
-4.84 16.37 -1.01 119 114 108
-4.69 16.39 -1.18 118 115 106
-4.69 16.31 -1.18 122 119 110
-4.69 16.22 -1.18 123 120 111
-4.69 16.13 -1.18 121 118 109
-4.69 16.05 -1.18 122 119 110
-4.69 15.96 -1.18 122 119 112
-4.69 15.88 -1.18 123 123 115
-4.69 15.79 -1.18 126 125 121
-4.69 15.71 -1.18 123 122 120
-4.69 15.62 -1.18 125 123 124
-4.69 15.54 -1.18 130 128 129
-4.54 15.55 -1.34 125 124 120
-4.54 15.46 -1.34 129 128 124
-4.69 15.28 -1.18 129 128 123
-4.69 15.20 -1.18 131 130 125
-4.84 15.01 -1.01 136 136 128
-4.84 14.93 -1.01 136 136 128
-4.84 14.84 -1.01 135 135 125
-4.84 14.76 -1.01 137 137 127
-4.84 14.67 -1.01 136 136 126
-4.84 14.59 -1.01 137 137 129
