ply
format ascii 1.0
element vertex 1774
property float x
property float y
property float z
property uchar red
property uchar green
property uchar blue
end_header
13.01 -3.84 2.40 71 138 183
12.72 -3.97 2.59 71 138 183
12.72 -4.07 2.59 69 137 182
12.72 -4.18 2.59 64 135 181
12.72 -4.29 2.59 65 136 182
12.45 -4.41 2.76 63 136 181
12.45 -4.52 2.76 63 136 181
12.45 -4.63 2.76 63 135 183
12.19 -4.75 2.93 64 136 184
12.19 -4.86 2.93 63 135 183
12.19 -4.97 2.93 61 132 178
12.19 -5.07 2.93 76 140 184
12.19 -5.18 2.93 78 140 177
2.08 17.80 9.37 70 70 72
2.08 17.71 9.37 68 68 70
2.08 17.63 9.37 68 68 70
2.08 17.54 9.37 69 69 69
2.08 17.46 9.37 71 71 71
2.08 17.37 9.37 74 75 70
2.08 17.28 9.37 75 76 71
2.08 17.20 9.37 75 74 69
2.08 17.11 9.37 74 74 66
2.08 17.02 9.37 73 73 63
2.08 16.94 9.37 73 73 61
2.08 16.85 9.37 73 75 62
2.08 16.76 9.37 75 77 64
2.08 16.68 9.37 77 79 68
2.08 16.59 9.37 76 78 67
2.08 16.51 9.37 71 72 64
2.08 16.42 9.37 67 68 60
2.08 16.33 9.37 67 70 61
2.08 16.25 9.37 73 76 67
2.26 16.26 9.25 74 77 68
2.26 16.17 9.25 79 82 73
2.26 16.09 9.25 75 78 69
2.26 16.00 9.25 72 78 68
2.08 15.81 9.37 65 70 63
2.08 15.73 9.37 66 75 72
2.08 15.64 9.37 69 78 77
2.08 15.55 9.37 66 75 72
1.91 15.37 9.48 66 75 70
1.91 15.29 9.48 74 84 76
1.91 15.20 9.48 88 98 87
1.76 15.03 9.58 106 117 100
1.76 14.95 9.58 123 135 111
1.76 14.86 9.58 134 147 117
1.76 14.78 9.58 142 157 118
1.76 14.69 9.58 155 168 124
1.76 14.61 9.58 162 176 125
15.52 10.82 0.65 93 107 90
15.52 10.71 0.65 91 103 89
15.22 10.50 0.84 86 98 84
15.22 10.38 0.84 82 95 85
15.22 10.27 0.84 82 102 93
15.22 10.16 0.84 81 111 113
15.22 10.04 0.84 73 114 136
15.22 9.93 0.84 63 113 146
15.22 9.82 0.84 55 118 149
15.22 9.70 0.84 52 115 156
15.22 9.59 0.84 54 117 158
15.22 9.48 0.84 52 118 150
15.22 9.36 0.84 48 117 150
15.22 9.25 0.84 45 118 153
15.22 9.14 0.84 48 120 160
15.52 9.11 0.65 48 121 156
15.52 9.00 0.65 51 121 157
15.52 8.88 0.65 51 124 159
15.52 8.77 0.65 51 124 159
15.52 8.65 0.65 51 123 161
15.52 8.54 0.65 51 123 161
15.22 8.34 0.84 54 123 162
15.22 8.23 0.84 55 124 163
15.22 8.12 0.84 57 126 165
15.22 8.00 0.84 58 126 165
15.22 7.89 0.84 57 125 162
15.22 7.77 0.84 59 124 162
15.22 7.66 0.84 61 125 161
15.22 7.55 0.84 61 125 161
15.22 7.43 0.84 63 125 162
15.22 7.32 0.84 64 126 165
15.22 7.21 0.84 64 126 167
15.22 7.09 0.84 65 126 170
15.22 6.98 0.84 63 126 167
15.22 6.87 0.84 62 127 167
15.22 6.75 0.84 63 128 168
15.22 6.64 0.84 60 128 165
15.22 6.53 0.84 59 127 164
15.22 6.41 0.84 61 131 167
15.22 6.30 0.84 62 132 168
15.22 6.19 0.84 62 132 168
15.22 6.07 0.84 61 131 167
15.52 6.03 0.65 62 130 169
15.52 5.92 0.65 62 130 169
15.22 5.73 0.84 63 131 170
15.22 5.62 0.84 64 132 171
15.22 5.51 0.84 62 130 169
15.22 5.39 0.84 63 131 170
15.22 5.28 0.84 64 131 173
15.22 5.17 0.84 64 131 173
15.22 5.05 0.84 64 131 174
14.93 4.87 1.03 64 131 174
14.93 4.76 1.03 63 131 176
14.93 4.65 1.03 64 132 177
14.93 4.53 1.03 63 131 178
14.93 4.42 1.03 64 132 179
14.93 4.31 1.03 62 133 179
14.93 4.19 1.03 63 134 180
15.22 4.14 0.84 63 134 180
15.22 4.03 0.84 62 133 179
15.22 3.92 0.84 62 133 179
15.22 3.80 0.84 65 138 181
15.22 3.69 0.84 64 137 180
15.22 3.58 0.84 64 135 179
15.22 3.46 0.84 64 135 179
14.93 3.29 1.03 67 135 180
14.93 3.18 1.03 67 135 180
14.93 3.07 1.03 68 135 180
14.93 2.95 1.03 67 134 179
14.93 2.84 1.03 69 136 181
14.93 2.73 1.03 67 134 179
14.93 2.61 1.03 66 133 178
14.93 2.50 1.03 66 133 178
14.93 2.39 1.03 68 136 181
14.64 2.22 1.22 70 138 183
14.64 2.11 1.22 69 137 182
14.64 2.00 1.22 69 136 181
14.64 1.89 1.22 69 135 183
14.64 1.33 1.22 73 138 180
14.64 1.21 1.22 73 138 180
14.64 1.10 1.22 72 137 179
14.64 0.99 1.22 72 137 179
14.64 0.88 1.22 72 137 179
14.34 0.72 1.41 73 138 180
14.34 0.61 1.41 71 138 180
14.34 0.50 1.41 71 138 180
14.34 0.39 1.41 72 139 181
14.34 0.27 1.41 72 139 181
14.34 0.16 1.41 69 140 182
14.34 0.05 1.41 70 139 181
14.34 -0.06 1.41 71 138 181
14.34 -0.17 1.41 74 137 181
14.34 -0.28 1.41 75 138 181
14.34 -0.40 1.41 76 137 181
14.34 -0.51 1.41 75 138 181
14.08 -0.65 1.58 75 138 181
14.08 -0.76 1.58 69 136 178
14.08 -0.87 1.58 71 138 180
14.08 -0.99 1.58 71 140 181
14.08 -1.10 1.58 72 141 182
14.08 -1.21 1.58 72 139 181
13.78 -1.35 1.77 72 139 181
13.78 -1.46 1.77 77 141 185
13.78 -1.57 1.77 74 136 183
13.78 -1.68 1.77 74 136 185
13.78 -1.79 1.77 74 136 183
13.78 -1.90 1.77 75 137 184
13.78 -2.02 1.77 75 137 184
13.49 -2.15 1.96 75 137 184
13.49 -2.26 1.96 75 139 185
13.49 -2.37 1.96 75 139 185
13.49 -2.48 1.96 73 137 183
13.49 -2.59 1.96 73 137 183
13.49 -2.70 1.96 73 137 183
13.49 -2.81 1.96 74 138 184
13.49 -2.92 1.96 75 137 184
13.22 -3.06 2.14 75 137 184
13.22 -3.16 2.14 75 137 184
13.22 -3.27 2.14 75 137 184
12.96 -3.40 2.31 74 137 181
12.96 -3.51 2.31 74 137 181
12.96 -3.62 2.31 73 137 183
12.96 -3.73 2.31 73 137 183
12.96 -3.84 2.31 71 138 183
12.96 -3.95 2.31 70 137 182
12.67 -4.07 2.50 67 138 184
12.67 -4.18 2.50 63 136 181
12.67 -4.29 2.50 64 137 182
12.40 -4.41 2.67 63 135 183
12.40 -4.52 2.67 63 135 183
12.40 -4.63 2.67 64 136 184
12.14 -4.75 2.84 66 138 186
12.14 -4.86 2.84 64 136 184
12.14 -4.97 2.84 63 134 180
12.14 -5.07 2.84 76 141 183
12.14 -5.18 2.84 80 143 178
2.04 17.80 9.29 70 70 72
2.04 17.71 9.29 69 69 69
2.04 17.63 9.29 68 68 68
1.86 17.44 9.41 69 69 67
1.86 17.35 9.41 71 71 69
1.86 17.26 9.41 72 73 67
1.86 17.18 9.41 72 73 67
2.04 17.20 9.29 70 71 63
2.04 17.11 9.29 67 68 60
1.86 16.92 9.41 70 72 59
1.86 16.83 9.41 71 73 60
1.86 16.75 9.41 74 76 63
1.86 16.66 9.41 77 79 68
2.04 16.68 9.29 79 81 70
2.04 16.59 9.29 78 79 71
2.04 16.51 9.29 75 76 70
2.04 16.42 9.29 73 74 68
2.04 16.33 9.29 71 74 67
2.04 16.25 9.29 72 75 68
2.04 16.16 9.29 70 73 66
2.21 16.17 9.18 76 79 72
2.21 16.09 9.18 75 78 71
2.04 15.90 9.29 74 77 70
2.04 15.81 9.29 67 72 66
2.04 15.73 9.29 68 77 74
2.04 15.64 9.29 67 77 76
2.04 15.55 9.29 63 74 68
1.86 15.37 9.41 66 77 69
1.86 15.29 9.41 80 92 82
1.86 15.20 9.41 98 110 96
1.72 15.03 9.50 116 129 109
1.72 14.95 9.50 131 145 119
1.72 14.86 9.50 136 150 117
1.72 14.78 9.50 150 162 122
1.72 14.69 9.50 164 177 131
1.86 14.68 9.41 171 184 131
15.46 10.82 0.55 84 98 83
15.46 10.71 0.55 85 97 83
15.17 10.50 0.74 83 95 83
15.17 10.38 0.74 79 92 83
15.17 10.27 0.74 77 96 90
15.17 10.16 0.74 76 105 109
15.17 10.04 0.74 70 110 135
15.17 9.93 0.74 61 111 146
15.17 9.82 0.74 54 117 150
15.17 9.70 0.74 53 116 159
15.17 9.59 0.74 53 116 159
15.17 9.48 0.74 51 117 152
15.17 9.36 0.74 48 116 151
15.17 9.25 0.74 45 117 155
15.17 9.14 0.74 45 117 157
15.17 9.02 0.74 48 120 158
15.46 9.00 0.55 52 122 158
15.46 8.88 0.55 52 125 160
15.46 8.77 0.55 52 125 160
15.46 8.65 0.55 51 123 161
15.46 8.54 0.55 50 122 160
15.46 8.43 0.55 53 122 161
15.46 8.31 0.55 54 123 162
15.46 8.20 0.55 55 124 163
15.46 8.08 0.55 57 125 164
15.46 7.97 0.55 58 126 163
15.46 7.86 0.55 60 125 163
15.17 7.66 0.74 61 125 161
15.17 7.55 0.74 61 125 161
15.17 7.43 0.74 62 124 161
15.17 7.32 0.74 61 123 162
15.17 7.21 0.74 63 125 166
15.17 7.09 0.74 64 125 169
15.17 6.98 0.74 63 126 169
15.17 6.87 0.74 62 127 167
15.17 6.75 0.74 64 129 169
15.17 6.64 0.74 60 128 167
15.17 6.53 0.74 57 125 164
15.17 6.41 0.74 60 129 168
15.17 6.30 0.74 61 130 169
15.17 6.19 0.74 62 131 170
15.46 6.14 0.55 62 131 170
15.46 6.03 0.55 61 130 171
15.46 5.92 0.55 60 129 170
15.17 5.73 0.74 62 129 172
15.17 5.62 0.74 63 130 173
15.17 5.51 0.74 64 129 171
15.17 5.39 0.74 65 130 172
15.17 5.28 0.74 65 132 175
15.17 5.17 0.74 65 132 175
15.17 5.05 0.74 64 131 176
14.87 4.87 0.93 64 131 176
14.87 4.76 0.93 64 132 179
14.87 4.65 0.93 65 133 180
15.17 4.60 0.74 64 132 179
14.87 4.42 0.93 64 132 179
14.87 4.31 0.93 62 133 179
14.87 4.19 0.93 62 133 179
15.17 4.14 0.74 62 133 179
15.17 4.03 0.74 62 133 177
15.17 3.92 0.74 62 133 177
15.17 3.80 0.74 65 136 178
15.17 3.69 0.74 65 136 178
15.17 3.58 0.74 65 136 178
14.87 3.40 0.93 64 135 177
14.87 3.29 0.93 66 134 179
14.87 3.18 0.93 66 134 179
14.87 3.07 0.93 67 134 179
14.87 2.95 0.93 67 134 179
14.87 2.84 0.93 67 134 179
14.87 2.73 0.93 65 132 177
14.87 2.61 0.93 63 131 178
14.87 2.50 0.93 64 132 179
14.87 2.39 0.93 66 134 181
14.87 2.28 0.93 67 135 182
14.58 2.11 1.12 65 136 182
14.58 2.00 1.12 67 135 182
14.58 1.89 1.12 69 135 183
14.58 1.33 1.12 70 137 180
14.58 1.21 1.12 69 136 179
14.58 1.10 1.12 71 138 180
14.58 0.99 1.12 71 138 180
14.58 0.88 1.12 70 139 180
14.29 0.72 1.31 70 139 180
14.29 0.61 1.31 70 139 181
14.29 0.50 1.31 70 139 181
14.29 0.39 1.31 70 139 181
14.29 0.27 1.31 70 139 181
14.29 0.16 1.31 68 139 181
14.29 0.05 1.31 69 138 180
14.29 -0.06 1.31 69 138 180
14.29 -0.17 1.31 72 136 180
14.29 -0.28 1.31 73 137 181
14.29 -0.40 1.31 75 138 182
14.29 -0.51 1.31 75 138 182
14.02 -0.65 1.49 74 137 181
14.02 -0.76 1.49 69 136 178
14.02 -0.87 1.49 71 138 180
14.02 -0.99 1.49 71 140 181
14.02 -1.10 1.49 71 140 181
14.02 -1.21 1.49 70 139 180
13.73 -1.35 1.68 70 137 179
13.73 -1.46 1.68 75 139 183
13.73 -1.57 1.68 72 136 182
13.73 -1.68 1.68 72 136 184
13.73 -1.79 1.68 72 136 184
13.73 -1.90 1.68 72 136 184
13.73 -2.02 1.68 73 137 185
13.43 -2.15 1.87 74 138 186
13.43 -2.26 1.87 75 139 185
13.43 -2.37 1.87 75 139 185
13.43 -2.48 1.87 73 137 183
13.43 -2.59 1.87 73 137 183
13.43 -2.70 1.87 72 136 182
13.43 -2.81 1.87 72 136 182
13.17 -2.95 2.04 72 136 182
13.17 -3.06 2.04 73 137 183
13.17 -3.16 2.04 73 137 181
13.17 -3.27 2.04 74 138 182
12.91 -3.40 2.21 71 135 181
12.91 -3.51 2.21 72 136 182
12.91 -3.62 2.21 71 138 183
12.91 -3.73 2.21 72 139 184
12.91 -3.84 2.21 71 139 184
12.91 -3.95 2.21 70 138 183
12.61 -4.07 2.40 67 138 184
12.61 -4.18 2.40 66 139 184
12.61 -4.29 2.40 65 138 183
12.35 -4.41 2.58 63 135 183
12.35 -4.52 2.58 61 133 181
12.35 -4.63 2.58 61 133 181
12.08 -4.75 2.75 63 135 183
12.08 -4.86 2.75 62 134 182
12.08 -4.97 2.75 61 132 178
12.08 -5.07 2.75 69 136 178
12.08 -5.18 2.75 78 142 177
2.00 17.97 9.22 64 66 63
2.17 17.99 9.10 64 66 65
2.00 17.80 9.22 64 66 65
2.00 17.71 9.22 69 69 67
1.82 17.52 9.33 67 67 65
1.82 17.44 9.33 67 68 62
1.82 17.35 9.33 68 69 63
1.82 17.26 9.33 71 73 62
1.82 17.18 9.33 73 75 64
1.82 17.09 9.33 72 74 61
1.82 17.01 9.33 72 74 61
1.82 16.92 9.33 72 76 62
1.82 16.83 9.33 74 78 64
1.82 16.75 9.33 77 81 67
1.82 16.66 9.33 78 81 70
1.82 16.58 9.33 77 80 69
1.82 16.49 9.33 75 78 69
1.82 16.40 9.33 74 77 70
1.82 16.32 9.33 73 76 69
1.82 16.23 9.33 74 75 70
2.00 16.25 9.22 69 70 65
2.00 16.16 9.22 62 63 58
2.00 16.07 9.22 69 70 65
2.00 15.99 9.22 73 74 69
2.00 15.90 9.22 75 76 70
2.00 15.81 9.22 71 73 68
2.00 15.73 9.22 67 78 74
2.00 15.64 9.22 65 77 75
2.00 15.55 9.22 63 76 69
1.82 15.37 9.33 71 84 75
1.82 15.29 9.33 91 104 94
1.82 15.20 9.33 109 123 108
1.82 15.11 9.33 123 137 114
1.82 15.03 9.33 132 146 120
1.82 14.94 9.33 149 163 128
1.82 14.86 9.33 156 168 128
2.00 14.69 9.22 180 191 131
2.00 14.60 9.22 189 199 136
15.11 10.73 0.64 79 91 77
15.11 10.61 0.64 86 97 83
15.11 10.50 0.64 89 99 88
15.11 10.38 0.64 87 98 90
15.11 10.27 0.64 82 101 97
15.11 10.16 0.64 79 108 114
15.11 10.04 0.64 72 112 138
15.11 9.93 0.64 63 113 150
15.11 9.82 0.64 53 116 151
15.11 9.70 0.64 53 116 160
15.11 9.59 0.64 52 115 159
15.11 9.48 0.64 50 116 151
15.11 9.36 0.64 49 117 152
15.11 9.25 0.64 45 117 157
15.11 9.14 0.64 43 115 155
15.11 9.02 0.64 47 119 157
15.11 8.91 0.64 51 121 157
15.11 8.80 0.64 51 124 159
15.40 8.77 0.45 52 125 160
15.40 8.65 0.45 51 123 161
15.40 8.54 0.45 51 123 161
15.40 8.43 0.45 54 123 162
15.40 8.31 0.45 55 124 163
15.40 8.20 0.45 54 123 162
15.40 8.08 0.45 56 124 163
15.40 7.97 0.45 58 126 163
15.40 7.86 0.45 61 126 164
15.40 7.74 0.45 62 126 162
15.11 7.55 0.64 61 125 161
15.11 7.43 0.64 61 124 159
15.11 7.32 0.64 59 121 158
15.11 7.21 0.64 64 126 167
15.11 7.09 0.64 65 126 170
15.11 6.98 0.64 65 128 171
15.11 6.87 0.64 64 129 169
15.11 6.75 0.64 65 130 170
15.11 6.64 0.64 61 129 168
15.11 6.53 0.64 57 125 164
15.11 6.41 0.64 58 127 166
15.11 6.30 0.64 60 129 168
15.40 6.26 0.45 62 131 172
15.40 6.14 0.45 62 131 172
15.40 6.03 0.45 61 130 172
15.40 5.92 0.45 60 129 171
15.11 5.73 0.64 60 128 173
15.11 5.62 0.64 61 128 173
15.11 5.51 0.64 61 128 171
15.11 5.39 0.64 64 128 172
15.11 5.28 0.64 66 130 174
15.11 5.17 0.64 67 131 175
15.11 5.05 0.64 64 131 176
14.82 4.87 0.83 64 131 176
14.82 4.76 0.83 65 131 179
15.11 4.71 0.64 66 132 180
15.11 4.60 0.64 66 134 181
15.11 4.48 0.64 65 133 180
15.11 4.37 0.64 63 134 180
15.11 4.26 0.64 62 133 179
15.11 4.14 0.64 61 132 176
15.11 4.03 0.64 61 132 176
15.11 3.92 0.64 61 132 176
15.11 3.80 0.64 62 133 175
15.11 3.69 0.64 64 135 177
15.11 3.58 0.64 65 136 178
14.82 3.40 0.83 64 135 177
14.82 3.29 0.83 63 132 174
14.82 3.18 0.83 63 132 174
14.82 3.07 0.83 65 132 177
14.82 2.95 0.83 67 134 179
14.82 2.84 0.83 65 133 180
14.82 2.73 0.83 65 133 180
14.82 2.61 0.83 65 133 180
14.82 2.50 0.83 65 133 180
14.82 2.39 0.83 64 134 183
14.52 2.22 1.03 64 134 183
14.52 2.11 1.03 65 135 184
14.52 2.00 1.03 68 136 185
14.52 1.89 1.03 68 136 183
14.52 1.78 1.03 68 134 182
14.52 1.66 1.03 67 133 181
14.52 1.55 1.03 68 134 182
14.52 1.44 1.03 69 136 181
14.52 1.33 1.03 69 136 179
14.52 1.21 1.03 68 135 178
14.52 1.10 1.03 71 140 181
14.52 0.99 1.03 71 140 181
14.52 0.88 1.03 71 140 182
14.52 0.76 1.03 71 140 182
14.23 0.61 1.22 71 140 182
14.23 0.50 1.22 70 139 181
14.23 0.39 1.22 67 138 180
14.23 0.27 1.22 67 138 180
14.23 0.16 1.22 67 140 183
14.23 0.05 1.22 68 139 183
14.23 -0.06 1.22 69 137 182
14.23 -0.17 1.22 72 136 182
14.23 -0.28 1.22 73 137 181
14.23 -0.40 1.22 75 138 182
14.23 -0.51 1.22 75 138 182
13.97 -0.65 1.39 75 138 182
13.97 -0.76 1.39 71 138 181
13.97 -0.87 1.39 72 139 182
13.97 -0.99 1.39 72 141 182
13.97 -1.10 1.39 71 140 181
13.97 -1.21 1.39 68 137 178
13.67 -1.35 1.58 67 136 177
13.67 -1.46 1.58 70 137 180
13.67 -1.57 1.58 71 138 183
13.67 -1.68 1.58 71 137 185
13.67 -1.79 1.58 70 136 184
13.67 -1.90 1.58 70 136 184
13.67 -2.02 1.58 71 137 185
13.38 -2.15 1.77 72 138 186
13.38 -2.26 1.77 75 139 187
13.38 -2.37 1.77 76 140 188
13.38 -2.48 1.77 73 137 183
13.38 -2.59 1.77 72 136 182
13.38 -2.70 1.77 71 135 181
13.38 -2.81 1.77 70 134 180
13.12 -2.95 1.95 71 135 181
13.12 -3.06 1.95 72 136 182
13.12 -3.16 1.95 71 138 181
13.12 -3.27 1.95 72 139 182
12.85 -3.40 2.12 71 135 181
12.85 -3.51 2.12 72 136 182
12.85 -3.62 2.12 71 138 183
12.85 -3.73 2.12 72 139 184
12.85 -3.84 2.12 71 139 184
12.56 -3.97 2.31 71 139 184
12.56 -4.07 2.31 67 138 184
12.56 -4.18 2.31 67 140 185
12.56 -4.29 2.31 66 139 184
12.29 -4.41 2.48 63 135 183
12.29 -4.52 2.48 60 132 180
12.29 -4.63 2.48 60 132 180
12.03 -4.75 2.66 63 135 183
12.03 -4.86 2.66 64 136 184
12.03 -4.97 2.66 64 135 181
12.03 -5.07 2.66 70 139 178
12.03 -5.18 2.66 82 148 182
1.95 17.97 9.14 67 70 63
1.95 17.89 9.14 68 69 63
1.95 17.80 9.14 69 70 64
1.95 17.71 9.14 67 68 62
1.78 17.52 9.26 68 69 63
1.78 17.44 9.26 68 69 64
1.78 17.35 9.26 67 68 63
1.78 17.26 9.26 69 68 66
1.78 17.18 9.26 72 71 69
1.78 17.09 9.26 73 71 72
1.78 17.01 9.26 72 72 72
1.78 16.92 9.26 73 75 70
1.78 16.83 9.26 71 76 70
1.78 16.75 9.26 71 73 68
1.78 16.66 9.26 70 72 67
1.78 16.58 9.26 69 71 66
1.78 16.49 9.26 70 72 67
1.78 16.40 9.26 72 74 69
1.78 16.32 9.26 74 76 71
1.78 16.23 9.26 66 68 65
1.78 16.15 9.26 67 69 66
1.95 16.16 9.14 66 72 70
1.95 16.07 9.14 69 75 73
1.95 15.99 9.14 75 84 83
1.95 15.90 9.14 71 81 80
1.95 15.81 9.14 65 75 76
1.95 15.73 9.14 66 80 80
1.78 15.54 9.26 61 75 76
1.78 15.46 9.26 62 76 79
1.78 15.37 9.26 76 90 93
1.78 15.29 9.26 98 109 111
1.78 15.20 9.26 115 127 125
1.78 15.11 9.26 130 142 128
1.78 15.03 9.26 139 153 128
1.78 14.94 9.26 155 170 129
1.78 14.86 9.26 158 175 123
1.95 14.69 9.14 184 201 133
1.95 14.60 9.14 184 200 135
15.05 10.73 0.54 83 98 93
15.05 10.61 0.54 92 103 95
15.05 10.50 0.54 92 104 94
15.05 10.38 0.54 89 102 93
15.05 10.27 0.54 78 99 94
15.05 10.16 0.54 81 112 115
15.05 10.04 0.54 65 108 125
15.05 9.93 0.54 62 116 144
15.05 9.82 0.54 53 116 151
15.05 9.70 0.54 51 115 153
15.05 9.59 0.54 54 116 155
15.05 9.48 0.54 55 115 151
15.05 9.36 0.54 49 111 148
15.05 9.25 0.54 49 115 150
15.05 9.14 0.54 53 121 160
15.05 9.02 0.54 48 117 158
15.35 9.00 0.35 49 118 160
15.35 8.88 0.35 50 122 162
15.35 8.77 0.35 52 124 164
15.35 8.65 0.35 54 126 164
15.35 8.54 0.35 54 126 164
15.35 8.43 0.35 53 126 159
15.35 8.31 0.35 52 125 158
15.35 8.20 0.35 54 127 160
15.35 8.08 0.35 55 128 161
15.35 7.97 0.35 59 129 163
15.35 7.86 0.35 59 129 163
15.35 7.74 0.35 59 127 162
15.05 7.55 0.54 58 126 161
15.05 7.43 0.54 60 126 161
15.05 7.32 0.54 60 126 161
15.05 7.21 0.54 60 128 165
15.05 7.09 0.54 59 127 164
15.05 6.98 0.54 57 125 160
15.05 6.87 0.54 59 128 161
15.05 6.75 0.54 61 130 163
15.05 6.64 0.54 62 131 164
15.05 6.53 0.54 62 130 165
15.05 6.41 0.54 63 129 164
15.05 6.30 0.54 63 128 168
15.35 6.26 0.35 64 127 168
15.35 6.14 0.35 64 127 171
15.35 6.03 0.35 64 125 172
15.35 5.92 0.35 64 124 176
15.05 5.73 0.54 67 124 177
15.05 5.62 0.54 67 124 177
15.05 5.51 0.54 65 126 171
15.05 5.39 0.54 66 127 172
15.05 5.28 0.54 66 129 173
15.05 5.17 0.54 66 128 175
15.05 5.05 0.54 66 128 177
14.76 4.87 0.74 66 128 177
14.76 4.76 0.74 67 130 181
15.05 4.71 0.54 69 132 183
15.05 4.60 0.54 65 131 181
15.05 4.48 0.54 64 130 180
15.05 4.37 0.54 62 130 177
15.05 4.26 0.54 62 130 177
15.05 4.14 0.54 62 133 177
15.05 4.03 0.54 62 134 174
15.05 3.92 0.54 65 134 176
15.05 3.80 0.54 64 132 177
15.05 3.69 0.54 65 131 179
15.05 3.58 0.54 68 132 180
15.05 3.46 0.54 67 131 179
14.76 3.29 0.74 67 129 178
14.76 3.18 0.74 67 129 178
14.76 3.07 0.74 67 131 179
14.76 2.95 0.74 67 133 181
14.76 2.84 0.74 67 135 182
14.76 2.73 0.74 63 134 180
14.76 2.61 0.74 64 137 182
14.76 2.50 0.74 63 136 181
14.76 2.39 0.74 61 132 178
14.47 2.22 0.93 62 133 179
14.47 2.11 0.93 68 136 183
14.47 2.00 0.93 68 136 183
14.47 1.89 0.93 66 132 180
14.47 1.78 0.93 68 134 182
14.47 1.66 0.93 70 136 184
14.47 1.55 0.93 70 136 184
14.47 1.44 0.93 68 136 181
14.47 1.33 0.93 66 137 181
14.47 1.21 0.93 67 138 182
14.47 1.10 0.93 68 136 181
14.47 0.99 0.93 69 137 182
14.47 0.88 0.93 71 138 183
14.47 0.76 0.93 69 136 181
14.17 0.61 1.12 71 135 179
14.17 0.50 1.12 73 137 181
14.17 0.39 1.12 75 138 182
14.17 0.27 1.12 74 137 181
14.17 0.16 1.12 70 137 182
14.17 0.05 1.12 71 138 183
14.17 -0.06 1.12 72 139 184
14.17 -0.17 1.12 71 138 183
14.17 -0.28 1.12 69 136 179
14.17 -0.40 1.12 68 135 178
14.17 -0.51 1.12 67 136 178
13.91 -0.65 1.29 68 137 179
13.91 -0.76 1.29 71 140 182
13.91 -0.87 1.29 69 138 180
13.91 -0.99 1.29 69 136 181
13.91 -1.10 1.29 71 138 183
13.91 -1.21 1.29 73 137 185
13.62 -1.35 1.49 72 136 184
13.62 -1.46 1.49 75 138 189
13.62 -1.57 1.49 70 138 185
13.62 -1.68 1.49 70 138 185
13.62 -1.79 1.49 70 138 185
13.62 -1.90 1.49 70 138 185
13.32 -2.04 1.68 70 138 187
13.32 -2.15 1.68 71 139 188
13.32 -2.26 1.68 71 139 188
13.32 -2.37 1.68 71 139 188
13.32 -2.48 1.68 74 142 191
13.32 -2.59 1.68 73 141 190
13.32 -2.70 1.68 73 139 187
13.32 -2.81 1.68 72 138 186
13.06 -2.95 1.85 73 137 183
13.06 -3.06 1.85 73 137 183
13.06 -3.16 1.85 74 136 183
13.06 -3.27 1.85 74 136 183
12.80 -3.40 2.02 74 136 183
12.80 -3.51 2.02 73 135 182
12.80 -3.62 2.02 73 135 182
12.80 -3.73 2.02 74 136 183
12.80 -3.84 2.02 74 136 183
12.50 -3.97 2.22 75 137 184
12.50 -4.07 2.22 74 138 184
12.50 -4.18 2.22 68 135 180
12.24 -4.31 2.39 67 134 179
12.24 -4.41 2.39 66 134 179
12.24 -4.52 2.39 64 132 177
11.98 -4.64 2.56 61 132 178
11.98 -4.75 2.56 62 133 179
11.98 -4.86 2.56 64 137 182
11.98 -4.97 2.56 67 140 185
11.98 -5.07 2.56 64 137 182
11.98 -5.18 2.56 76 144 183
1.91 17.97 9.07 70 71 63
1.91 17.89 9.07 69 70 62
1.91 17.80 9.07 68 69 61
1.73 17.61 9.18 68 69 61
1.73 17.52 9.18 68 69 61
1.73 17.44 9.18 70 71 65
1.73 17.35 9.18 72 73 67
1.73 17.26 9.18 72 73 68
1.73 17.18 9.18 70 71 66
1.73 17.09 9.18 72 73 68
1.73 17.01 9.18 75 76 71
1.73 16.92 9.18 70 72 67
1.73 16.83 9.18 72 74 69
1.73 16.75 9.18 75 77 72
1.59 16.58 9.28 77 79 74
1.59 16.49 9.28 78 79 74
1.73 16.49 9.18 77 78 73
1.73 16.40 9.18 76 77 72
1.73 16.32 9.18 76 77 72
1.73 16.23 9.18 71 73 68
1.73 16.15 9.18 72 74 69
1.73 16.06 9.18 71 76 72
1.73 15.97 9.18 72 77 73
1.73 15.89 9.18 74 80 78
1.73 15.80 9.18 68 77 74
1.73 15.72 9.18 63 74 70
1.73 15.63 9.18 70 83 76
1.73 15.54 9.18 62 77 72
1.73 15.46 9.18 64 78 78
1.73 15.37 9.18 82 96 97
1.73 15.29 9.18 105 119 120
1.73 15.20 9.18 123 138 135
1.73 15.11 9.18 135 148 139
1.73 15.03 9.18 139 154 135
1.73 14.94 9.18 151 166 133
1.73 14.86 9.18 164 179 136
1.73 14.77 9.18 178 193 138
1.91 14.78 9.07 186 197 137
2.08 14.78 8.95 185 197 133
1.91 14.60 9.07 188 197 132
15.00 10.73 0.45 78 93 88
15.00 10.61 0.45 85 96 90
15.00 10.50 0.45 89 100 92
15.00 10.38 0.45 89 102 95
15.00 10.27 0.45 78 98 97
15.00 10.16 0.45 81 111 119
15.00 10.04 0.45 68 111 130
15.00 9.93 0.45 62 115 146
15.00 9.82 0.45 55 118 153
15.00 9.70 0.45 51 115 153
15.00 9.59 0.45 53 117 155
15.00 9.48 0.45 54 117 152
15.29 9.45 0.25 51 115 151
15.29 9.34 0.25 49 117 152
15.29 9.22 0.25 51 120 159
15.29 9.11 0.25 48 117 158
15.29 9.00 0.25 50 119 161
15.29 8.88 0.25 50 122 162
15.29 8.77 0.25 52 124 164
15.29 8.65 0.25 53 125 163
15.29 8.54 0.25 53 125 163
15.29 8.43 0.25 53 126 161
15.29 8.31 0.25 53 126 161
15.29 8.20 0.25 55 125 159
15.29 8.08 0.25 54 124 158
15.29 7.97 0.25 56 125 158
15.29 7.86 0.25 57 126 159
15.29 7.74 0.25 62 128 162
15.29 7.63 0.25 63 129 163
15.00 7.43 0.45 63 129 163
15.00 7.32 0.45 63 129 164
15.00 7.21 0.45 59 127 162
15.00 7.09 0.45 58 126 163
15.00 6.98 0.45 57 125 160
15.00 6.87 0.45 59 128 161
15.00 6.75 0.45 61 130 163
15.00 6.64 0.45 62 131 164
15.00 6.53 0.45 62 131 164
15.00 6.41 0.45 60 128 163
15.00 6.30 0.45 61 129 166
15.29 6.26 0.25 64 129 169
15.29 6.14 0.25 64 128 172
15.29 6.03 0.25 64 127 171
15.29 5.92 0.25 64 126 173
15.00 5.73 0.45 66 126 176
15.00 5.62 0.45 66 127 174
15.00 5.51 0.45 66 129 173
15.00 5.39 0.45 66 129 172
15.00 5.28 0.45 67 130 174
15.00 5.17 0.45 66 128 175
15.00 5.05 0.45 64 128 174
15.00 4.94 0.45 64 128 176
15.00 4.82 0.45 64 130 180
15.00 4.71 0.45 65 131 181
15.00 4.60 0.45 65 133 182
15.00 4.48 0.45 64 132 181
15.00 4.37 0.45 61 132 178
15.00 4.26 0.45 61 132 178
15.00 4.14 0.45 63 134 176
15.00 4.03 0.45 63 135 175
15.00 3.92 0.45 63 134 176
15.00 3.80 0.45 64 132 177
15.00 3.69 0.45 65 131 179
15.00 3.58 0.45 65 131 179
15.00 3.46 0.45 65 129 177
14.70 3.29 0.64 64 126 175
14.70 3.18 0.64 64 126 175
14.70 3.07 0.64 64 128 176
14.70 2.95 0.64 64 130 178
14.70 2.84 0.64 65 133 180
14.70 2.73 0.64 62 133 179
14.70 2.61 0.64 64 137 182
14.41 2.45 0.83 65 138 183
14.41 2.34 0.83 63 134 180
14.41 2.22 0.83 66 134 181
14.41 2.11 0.83 70 138 185
14.41 2.00 0.83 69 135 183
14.41 1.89 0.83 71 135 183
14.41 1.78 0.83 71 135 183
14.41 1.66 0.83 69 135 183
14.41 1.55 0.83 69 135 183
14.41 1.44 0.83 68 136 183
14.41 1.33 0.83 67 135 182
14.41 1.21 0.83 66 134 181
14.41 1.10 0.83 66 134 179
14.41 0.99 0.83 68 136 181
14.41 0.88 0.83 70 138 183
14.12 0.72 1.02 69 137 182
14.12 0.61 1.02 69 136 181
14.12 0.50 1.02 70 137 182
14.12 0.39 1.02 73 137 183
14.12 0.27 1.02 72 136 182
14.12 0.16 1.02 71 138 183
14.12 0.05 1.02 71 138 183
14.12 -0.06 1.02 70 137 180
14.12 -0.17 1.02 70 137 180
14.12 -0.28 1.02 69 138 180
14.12 -0.40 1.02 69 138 180
14.12 -0.51 1.02 68 137 178
13.85 -0.65 1.20 68 137 178
13.85 -0.76 1.20 72 141 183
13.85 -0.87 1.20 70 139 181
13.85 -0.99 1.20 70 137 180
13.85 -1.10 1.20 71 138 181
13.85 -1.21 1.20 73 137 183
13.56 -1.35 1.39 71 135 181
13.56 -1.46 1.39 73 137 185
13.56 -1.57 1.39 71 139 186
13.27 -1.93 1.58 69 137 186
13.27 -2.04 1.58 69 137 186
13.27 -2.15 1.58 70 138 187
13.27 -2.26 1.58 68 138 187
13.27 -2.37 1.58 69 139 188
13.27 -2.48 1.58 72 140 189
13.27 -2.59 1.58 72 140 189
13.27 -2.70 1.58 72 138 186
13.27 -2.81 1.58 72 138 186
13.01 -2.95 1.76 73 137 183
13.01 -3.06 1.76 73 137 183
13.01 -3.16 1.76 73 137 183
12.74 -3.29 1.93 73 137 183
12.74 -3.40 1.93 73 137 183
12.74 -3.51 1.93 72 136 182
12.74 -3.62 1.93 72 136 182
12.74 -3.73 1.93 72 136 182
12.74 -3.84 1.93 73 137 183
12.45 -3.97 2.12 74 138 184
12.45 -4.07 2.12 71 138 183
12.19 -4.20 2.30 70 138 183
12.19 -4.31 2.30 69 137 182
12.19 -4.41 2.30 66 137 183
12.19 -4.52 2.30 63 134 180
11.92 -4.64 2.47 60 133 178
11.92 -4.75 2.47 59 132 177
11.92 -4.86 2.47 61 134 179
11.92 -4.97 2.47 63 136 181
11.92 -5.07 2.47 64 135 179
11.92 -5.18 2.47 78 143 181
2.22 18.19 8.76 73 74 66
1.87 17.89 8.99 71 73 62
1.69 17.69 9.11 69 71 60
1.69 17.61 9.11 69 71 60
1.69 17.52 9.11 66 68 57
1.69 17.44 9.11 68 69 61
1.69 17.35 9.11 73 74 66
1.69 17.26 9.11 72 73 65
1.69 17.18 9.11 68 69 61
1.69 17.09 9.11 70 71 65
1.69 17.01 9.11 76 77 71
1.69 16.92 9.11 69 70 65
1.69 16.83 9.11 72 73 68
1.54 16.66 9.20 77 78 73
1.54 16.58 9.20 80 81 76
1.54 16.49 9.20 80 81 75
1.54 16.41 9.20 78 79 73
1.69 16.40 9.11 76 77 71
1.69 16.32 9.11 74 75 69
1.69 16.23 9.11 74 75 69
1.69 16.15 9.11 74 75 69
1.69 16.06 9.11 73 75 70
1.69 15.97 9.11 73 75 70
1.69 15.89 9.11 73 78 72
1.69 15.80 9.11 72 77 73
1.69 15.72 9.11 68 74 74
1.69 15.63 9.11 62 71 80
1.69 15.54 9.11 47 56 73
1.69 15.46 9.11 38 49 69
1.69 15.37 9.11 54 64 91
1.69 15.29 9.11 87 101 130
1.69 15.20 9.11 127 141 170
1.69 15.11 9.11 161 175 202
1.69 15.03 9.11 182 195 214
1.69 14.94 9.11 177 191 200
1.69 14.86 9.11 182 194 192
1.87 14.86 8.99 183 194 180
2.04 14.87 8.88 184 192 169
2.04 14.78 8.88 189 193 166
2.04 14.70 8.88 196 197 165
14.94 10.73 0.35 86 96 95
14.94 10.61 0.35 85 95 94
14.94 10.50 0.35 93 102 97
14.94 10.38 0.35 92 104 102
14.94 10.27 0.35 79 98 102
14.94 10.16 0.35 81 111 122
14.94 10.04 0.35 69 111 135
14.94 9.93 0.35 58 111 143
14.94 9.82 0.35 55 119 157
14.94 9.70 0.35 49 114 152
14.94 9.59 0.35 52 117 155
15.23 9.57 0.15 53 119 153
15.23 9.45 0.15 49 117 152
15.23 9.34 0.15 48 118 154
15.23 9.22 0.15 47 119 159
15.23 9.11 0.15 49 118 160
15.23 9.00 0.15 50 118 163
15.23 8.88 0.15 49 120 162
15.23 8.77 0.15 51 122 164
15.23 8.65 0.15 52 124 164
15.23 8.54 0.15 53 125 165
15.23 8.43 0.15 53 126 161
15.23 8.31 0.15 53 126 161
15.23 8.20 0.15 58 128 162
15.23 8.08 0.15 55 125 159
15.23 7.97 0.15 55 124 157
15.23 7.86 0.15 56 125 158
15.23 7.74 0.15 61 127 161
15.23 7.63 0.15 63 129 163
14.94 7.43 0.35 63 127 162
14.94 7.32 0.35 61 125 161
14.94 7.21 0.35 61 127 162
14.94 7.09 0.35 60 125 163
14.94 6.98 0.35 58 126 163
14.94 6.87 0.35 60 128 163
14.94 6.75 0.35 61 129 164
14.94 6.64 0.35 60 130 164
14.94 6.53 0.35 60 130 164
14.94 6.41 0.35 59 129 163
14.94 6.30 0.35 60 130 166
15.23 6.26 0.15 62 130 167
15.23 6.14 0.15 62 130 169
15.23 6.03 0.15 64 129 171
15.23 5.92 0.15 64 129 171
15.23 5.80 0.15 64 128 172
14.94 5.62 0.35 64 128 172
14.94 5.51 0.35 66 130 174
14.94 5.39 0.35 66 130 174
14.94 5.28 0.35 66 130 174
14.94 5.17 0.35 65 129 175
14.94 5.05 0.35 63 130 175
14.94 4.94 0.35 62 128 176
14.94 4.82 0.35 62 130 177
14.94 4.71 0.35 63 131 178
14.94 4.60 0.35 65 133 180
14.94 4.48 0.35 64 132 179
14.94 4.37 0.35 62 133 179
14.94 4.26 0.35 62 133 179
14.94 4.14 0.35 62 135 176
14.94 4.03 0.35 63 136 177
14.94 3.92 0.35 63 136 179
14.94 3.80 0.35 65 136 180
14.94 3.69 0.35 67 135 182
14.94 3.58 0.35 65 133 180
14.94 3.46 0.35 65 131 179
14.65 3.29 0.54 65 129 177
14.65 3.18 0.54 65 129 177
14.65 3.07 0.54 64 130 178
14.65 2.95 0.54 65 131 179
14.65 2.84 0.54 64 135 181
14.65 2.73 0.54 62 133 179
14.65 2.61 0.54 66 137 183
14.35 2.45 0.73 67 138 184
14.35 2.34 0.73 67 135 182
14.35 2.22 0.73 69 135 183
14.35 2.11 0.73 71 137 185
14.35 2.00 0.73 71 135 183
14.35 1.89 0.73 73 135 186
14.35 1.78 0.73 72 134 185
14.35 1.66 0.73 70 133 184
14.35 1.55 0.73 70 133 184
14.35 1.44 0.73 69 135 185
14.35 1.33 0.73 66 134 181
14.35 1.21 0.73 64 132 179
14.35 1.10 0.73 66 134 181
14.35 0.99 0.73 69 137 184
14.35 0.88 0.73 71 139 186
14.06 0.72 0.93 70 138 185
14.06 0.61 0.93 70 138 185
14.06 0.50 0.93 70 138 185
14.06 0.39 0.93 70 138 183
14.06 0.27 0.93 68 136 181
14.06 0.16 0.93 74 141 184
14.06 0.05 0.93 72 139 182
14.06 -0.06 0.93 70 139 181
14.06 -0.17 0.93 70 139 181
14.06 -0.28 0.93 72 141 182
14.06 -0.40 0.93 72 141 182
13.80 -0.54 1.10 71 140 181
13.80 -0.65 1.10 69 138 179
13.80 -0.76 1.10 71 140 181
13.80 -0.87 1.10 70 139 180
13.80 -0.99 1.10 71 138 181
13.80 -1.10 1.10 71 138 181
13.80 -1.21 1.10 73 137 183
13.51 -1.35 1.29 72 136 182
13.51 -1.46 1.29 73 137 185
13.51 -1.57 1.29 72 140 187
13.21 -1.93 1.49 69 137 186
13.21 -2.04 1.49 69 136 188
13.21 -2.15 1.49 69 136 188
13.21 -2.26 1.49 68 138 189
13.21 -2.37 1.49 68 138 189
13.21 -2.48 1.49 70 140 191
13.21 -2.59 1.49 70 140 191
13.21 -2.70 1.49 72 140 189
13.21 -2.81 1.49 71 139 188
13.21 -2.92 1.49 72 138 186
12.95 -3.06 1.66 72 138 186
12.95 -3.16 1.66 72 139 184
12.69 -3.29 1.84 72 139 184
12.69 -3.40 1.84 74 141 184
12.69 -3.51 1.84 72 139 182
12.69 -3.62 1.84 71 138 183
12.69 -3.73 1.84 71 138 183
12.40 -3.86 2.03 71 139 184
12.40 -3.97 2.03 71 139 184
12.40 -4.07 2.03 70 138 183
12.13 -4.20 2.20 67 138 184
12.13 -4.31 2.20 66 137 183
12.13 -4.41 2.20 63 136 181
11.87 -4.54 2.38 61 134 179
11.87 -4.64 2.38 60 133 178
11.87 -4.75 2.38 61 134 179
11.87 -4.86 2.38 62 135 180
11.87 -4.97 2.38 65 136 182
11.87 -5.07 2.38 69 136 179
11.87 -5.18 2.38 85 145 182
1.82 17.97 8.92 73 73 65
1.65 17.78 9.03 71 71 61
1.65 17.69 9.03 70 70 60
1.65 17.61 9.03 69 71 58
1.65 17.52 9.03 67 69 56
1.65 17.44 9.03 68 70 59
1.65 17.35 9.03 70 72 61
1.65 17.26 9.03 68 70 59
1.65 17.18 9.03 67 69 58
1.65 17.09 9.03 71 73 62
1.65 17.01 9.03 77 78 70
1.65 16.92 9.03 73 72 67
1.50 16.75 9.13 74 73 69
1.50 16.66 9.13 76 75 70
1.50 16.58 9.13 77 76 71
1.50 16.49 9.13 76 75 70
1.50 16.41 9.13 76 75 70
1.50 16.32 9.13 75 75 67
1.50 16.23 9.13 75 75 67
1.50 16.15 9.13 75 75 67
1.65 16.15 9.03 74 74 66
1.65 16.06 9.03 73 74 68
1.65 15.97 9.03 73 74 68
1.65 15.89 9.03 75 76 70
1.65 15.80 9.03 74 76 71
1.65 15.72 9.03 74 76 75
1.65 15.63 9.03 58 63 67
1.65 15.54 9.03 56 62 74
1.65 15.46 9.03 52 59 75
1.65 15.37 9.03 39 50 72
1.65 15.29 9.03 27 41 67
1.65 15.20 9.03 29 46 74
1.65 15.11 9.03 50 70 94
1.65 15.03 9.03 71 94 112
1.65 14.94 9.03 133 158 163
1.82 14.95 8.92 162 187 183
1.82 14.86 8.92 198 223 204
2.00 14.87 8.80 216 239 210
2.00 14.78 8.80 218 239 198
2.00 14.70 8.80 213 231 183
2.00 14.61 8.80 210 227 172
2.35 14.71 8.57 212 225 171
14.59 10.63 0.44 89 101 97
14.59 10.52 0.44 84 95 91
14.59 10.40 0.44 93 104 100
14.88 10.38 0.25 93 104 106
14.88 10.27 0.25 78 97 104
14.88 10.16 0.25 78 107 125
14.88 10.04 0.25 67 111 138
14.88 9.93 0.25 54 108 144
14.88 9.82 0.25 52 117 157
14.88 9.70 0.25 47 115 154
15.18 9.68 0.05 48 116 153
15.18 9.57 0.05 49 117 152
15.18 9.45 0.05 46 116 152
15.18 9.34 0.05 44 118 155
15.18 9.22 0.05 45 118 159
15.18 9.11 0.05 47 118 162
15.18 9.00 0.05 50 118 165
15.18 8.88 0.05 49 120 164
15.18 8.77 0.05 50 121 165
15.18 8.65 0.05 51 123 163
15.18 8.54 0.05 52 124 164
15.18 8.43 0.05 53 126 161
15.18 8.31 0.05 53 126 161
15.18 8.20 0.05 57 127 161
15.18 8.08 0.05 56 126 160
15.18 7.97 0.05 56 125 158
15.18 7.86 0.05 58 124 158
15.18 7.74 0.05 60 126 160
15.18 7.63 0.05 62 126 161
14.88 7.43 0.25 61 125 160
14.88 7.32 0.25 60 124 160
14.88 7.21 0.25 61 126 164
14.88 7.09 0.25 61 126 166
14.88 6.98 0.25 61 126 164
14.88 6.87 0.25 59 127 162
14.88 6.75 0.25 60 128 163
14.88 6.64 0.25 58 128 162
14.88 6.53 0.25 58 128 162
14.88 6.41 0.25 59 129 163
14.88 6.30 0.25 60 130 164
14.88 6.19 0.25 61 131 167
15.18 6.14 0.05 61 131 167
15.18 6.03 0.05 61 130 169
15.18 5.92 0.05 60 129 168
15.18 5.80 0.05 61 128 170
14.88 5.62 0.25 61 128 170
14.88 5.51 0.25 62 129 172
14.88 5.39 0.25 62 129 172
14.88 5.28 0.25 63 130 173
14.88 5.17 0.25 63 130 173
14.88 5.05 0.25 62 130 175
14.88 4.94 0.25 63 131 176
14.88 4.82 0.25 63 131 178
14.88 4.71 0.25 64 132 179
14.88 4.60 0.25 62 133 179
14.88 4.48 0.25 62 133 179
14.88 4.37 0.25 61 132 176
14.88 4.26 0.25 62 133 177
14.88 4.14 0.25 62 135 176
14.88 4.03 0.25 63 136 177
14.88 3.92 0.25 63 136 179
14.88 3.80 0.25 63 136 179
14.88 3.69 0.25 64 135 181
14.88 3.58 0.25 65 136 182
14.59 3.40 0.44 67 133 181
14.59 3.29 0.44 67 133 181
14.59 3.18 0.44 69 133 181
14.59 3.07 0.44 68 134 182
14.59 2.95 0.44 68 134 182
14.59 2.84 0.44 68 136 183
14.59 2.73 0.44 66 134 181
14.59 2.61 0.44 66 137 183
14.59 2.50 0.44 68 139 185
14.30 2.34 0.64 67 135 182
14.30 2.22 0.64 69 135 183
14.30 2.11 0.64 71 137 185
14.30 2.00 0.64 71 135 183
14.30 1.89 0.64 72 134 185
14.30 1.78 0.64 71 133 184
14.30 1.66 0.64 71 133 184
14.30 1.55 0.64 71 133 184
14.30 1.44 0.64 71 134 185
14.30 1.33 0.64 69 135 185
14.30 1.21 0.64 68 134 184
14.30 1.10 0.64 68 136 183
14.30 0.99 0.64 71 139 186
14.30 0.88 0.64 70 141 187
14.01 0.72 0.83 69 140 186
14.01 0.61 0.83 69 140 186
14.01 0.50 0.83 69 140 186
14.01 0.39 0.83 69 140 186
14.01 0.27 0.83 68 139 183
14.01 0.16 0.83 71 140 182
14.01 0.05 0.83 70 139 180
14.01 -0.06 0.83 70 139 180
14.01 -0.17 0.83 70 139 180
14.01 -0.28 0.83 71 140 181
14.01 -0.40 0.83 72 141 182
13.74 -0.54 1.00 69 141 181
13.74 -0.65 1.00 68 140 180
13.74 -0.76 1.00 69 138 180
13.74 -0.87 1.00 69 138 180
13.74 -0.99 1.00 71 138 181
13.74 -1.10 1.00 71 138 181
13.45 -1.24 1.20 74 138 182
13.45 -1.35 1.20 74 138 182
13.45 -1.46 1.20 74 138 186
13.45 -1.57 1.20 72 138 186
13.16 -1.71 1.39 71 137 187
13.16 -1.82 1.39 70 138 187
13.16 -1.93 1.39 70 138 187
13.16 -2.04 1.39 69 136 188
13.16 -2.15 1.39 69 136 188
13.16 -2.26 1.39 67 137 188
13.16 -2.37 1.39 67 137 188
13.16 -2.48 1.39 70 140 191
13.16 -2.59 1.39 70 140 191
13.16 -2.70 1.39 70 140 189
13.16 -2.81 1.39 70 140 189
13.16 -2.92 1.39 72 140 187
12.90 -3.06 1.57 72 140 187
12.90 -3.16 1.57 72 140 187
12.90 -3.27 1.57 72 140 187
12.63 -3.40 1.74 72 139 182
12.63 -3.51 1.74 72 139 182
12.63 -3.62 1.74 71 139 184
12.63 -3.73 1.74 70 138 183
12.63 -3.84 1.74 66 137 181
12.34 -3.97 1.94 66 137 181
12.34 -4.07 1.94 65 138 183
12.08 -4.20 2.11 61 135 180
12.08 -4.31 2.11 61 135 180
12.08 -4.41 2.11 60 134 179
11.82 -4.54 2.28 59 133 178
11.82 -4.64 2.28 59 133 178
11.82 -4.75 2.28 60 134 179
11.82 -4.86 2.28 62 136 181
11.82 -4.97 2.28 65 136 180
11.82 -5.07 2.28 72 136 180
11.82 -5.18 2.28 89 145 182
1.60 17.87 8.96 69 69 61
1.60 17.78 8.96 69 69 59
1.60 17.69 8.96 68 68 58
1.60 17.61 8.96 68 68 56
1.60 17.52 8.96 71 71 59
1.60 17.44 8.96 72 72 60
1.60 17.35 8.96 69 69 57
1.46 17.18 9.06 69 69 59
1.46 17.09 9.06 72 72 62
1.46 17.01 9.06 75 75 65
1.46 16.92 9.06 75 75 67
1.46 16.83 9.06 78 75 68
1.46 16.75 9.06 78 75 70
1.46 16.66 9.06 76 75 70
1.46 16.58 9.06 75 74 69
1.46 16.49 9.06 74 74 66
1.46 16.41 9.06 75 75 67
1.46 16.32 9.06 76 76 68
1.46 16.23 9.06 77 77 69
1.46 16.15 9.06 76 76 68
1.46 16.06 9.06 75 75 67
1.60 16.06 8.96 73 72 67
1.60 15.97 8.96 73 72 67
1.60 15.89 8.96 73 72 67
1.60 15.80 8.96 73 72 68
1.60 15.72 8.96 73 72 67
1.60 15.63 8.96 70 71 63
1.60 15.54 8.96 61 63 58
1.60 15.46 8.96 48 56 59
1.60 15.37 8.96 44 53 70
1.60 15.29 8.96 35 50 79
1.60 15.20 8.96 22 39 82
1.60 15.11 8.96 1 22 77
1.60 15.03 8.96 0 9 73
1.78 15.04 8.84 0 0 69
1.78 14.95 8.84 0 6 80
1.95 14.96 8.73 12 38 112
1.95 14.87 8.73 53 77 149
1.95 14.78 8.73 85 109 179
1.95 14.70 8.73 108 129 196
2.13 14.70 8.61 122 143 208
2.13 14.62 8.61 134 155 200
14.53 10.63 0.34 87 100 93
14.53 10.52 0.34 78 90 86
14.53 10.40 0.34 88 99 95
14.83 10.38 0.15 85 99 102
14.83 10.27 0.15 76 96 107
14.83 10.16 0.15 75 106 127
14.83 10.04 0.15 68 113 144
14.83 9.93 0.15 55 110 149
14.83 9.82 0.15 50 115 155
14.83 9.70 0.15 48 118 154
15.12 9.68 -0.04 47 117 151
15.12 9.57 -0.04 46 116 150
15.12 9.45 -0.04 43 116 151
15.12 9.34 -0.04 43 116 157
15.12 9.22 -0.04 46 119 162
15.12 9.11 -0.04 46 119 164
15.12 9.00 -0.04 48 119 165
15.12 8.88 -0.04 48 119 163
15.12 8.77 -0.04 49 120 164
15.12 8.65 -0.04 50 122 162
15.12 8.54 -0.04 51 123 163
15.12 8.43 -0.04 54 123 162
15.12 8.31 -0.04 55 124 163
15.12 8.20 -0.04 52 120 155
15.12 8.08 -0.04 54 122 157
15.12 7.97 -0.04 58 124 159
15.12 7.86 -0.04 59 125 160
15.12 7.74 -0.04 61 125 161
15.12 7.63 -0.04 62 126 162
14.83 7.43 0.15 63 125 162
14.83 7.32 0.15 64 126 165
14.83 7.21 0.15 61 125 163
14.83 7.09 0.15 61 124 165
14.83 6.98 0.15 61 126 166
14.83 6.87 0.15 59 127 164
14.83 6.75 0.15 59 127 164
14.83 6.64 0.15 58 128 164
14.83 6.53 0.15 58 128 164
14.83 6.41 0.15 59 129 165
14.83 6.30 0.15 60 130 166
14.83 6.19 0.15 61 131 167
15.12 6.14 -0.04 61 131 167
15.12 6.03 -0.04 60 129 168
15.12 5.92 -0.04 59 128 167
15.12 5.80 -0.04 58 127 166
14.83 5.62 0.15 58 127 168
14.83 5.51 0.15 61 128 170
14.83 5.39 0.15 61 128 171
14.83 5.28 0.15 62 129 172
14.83 5.17 0.15 62 129 172
14.83 5.05 0.15 62 130 175
14.83 4.94 0.15 63 131 176
14.83 4.82 0.15 63 131 176
14.83 4.71 0.15 63 131 176
14.83 4.60 0.15 61 132 176
14.83 4.48 0.15 61 132 176
14.83 4.37 0.15 61 132 176
14.83 4.26 0.15 61 132 176
14.83 4.14 0.15 63 134 176
14.83 4.03 0.15 62 135 176
14.83 3.92 0.15 62 135 178
14.83 3.80 0.15 60 133 176
14.83 3.69 0.15 61 132 178
14.83 3.58 0.15 62 133 179
14.83 3.46 0.15 67 133 181
14.53 3.29 0.34 68 134 182
14.53 3.18 0.34 70 134 182
14.53 3.07 0.34 67 133 181
14.53 2.95 0.34 67 133 181
14.53 2.84 0.34 69 137 184
14.53 2.73 0.34 66 134 181
14.53 2.61 0.34 66 137 183
14.53 2.50 0.34 67 138 184
14.24 2.34 0.54 67 135 182
14.24 2.22 0.54 69 135 183
14.24 2.11 0.54 71 137 185
14.24 2.00 0.54 71 135 183
14.24 1.89 0.54 72 134 185
14.24 1.78 0.54 72 134 185
14.24 1.66 0.54 73 135 186
14.24 1.55 0.54 73 135 186
14.24 1.44 0.54 71 134 185
14.24 1.33 0.54 72 135 186
14.24 1.21 0.54 73 136 187
14.24 1.10 0.54 71 137 185
14.24 0.99 0.54 72 138 186
14.24 0.88 0.54 70 141 187
13.95 0.72 0.73 68 139 185
13.95 0.61 0.73 67 140 185
13.95 0.50 0.73 68 141 186
13.95 0.39 0.73 69 142 187
13.95 0.27 0.73 68 141 184
13.95 0.16 0.73 66 137 179
13.95 0.05 0.73 66 138 178
13.95 -0.06 0.73 67 139 179
13.95 -0.17 0.73 67 139 179
13.95 -0.28 0.73 66 137 179
13.69 -0.43 0.91 66 137 179
13.69 -0.54 0.91 67 138 180
13.69 -0.65 0.91 68 139 181
13.69 -0.76 0.91 69 138 180
13.69 -0.87 0.91 70 139 181
13.69 -0.99 0.91 72 139 182
13.69 -1.10 0.91 72 139 182
13.40 -1.24 1.10 74 138 182
13.40 -1.35 1.10 75 139 183
13.40 -1.46 1.10 75 137 184
13.40 -1.57 1.10 72 136 184
13.10 -1.71 1.30 73 136 187
13.10 -1.82 1.30 71 137 187
13.10 -1.93 1.30 72 138 188
13.10 -2.04 1.30 71 138 190
13.10 -2.15 1.30 70 137 189
13.10 -2.26 1.30 68 138 189
13.10 -2.37 1.30 67 137 188
13.10 -2.48 1.30 69 139 190
13.10 -2.59 1.30 69 139 190
13.10 -2.70 1.30 70 140 189
13.10 -2.81 1.30 70 140 189
12.84 -2.95 1.47 72 140 187
12.84 -3.06 1.47 72 140 187
12.84 -3.16 1.47 72 140 185
12.58 -3.29 1.65 72 140 185
12.58 -3.40 1.65 68 137 179
12.58 -3.51 1.65 70 139 181
12.58 -3.62 1.65 69 140 184
12.58 -3.73 1.65 66 137 181
12.58 -3.84 1.65 61 134 179
12.29 -3.97 1.84 60 133 178
12.29 -4.07 1.84 61 135 182
12.29 -4.18 1.84 62 136 183
12.02 -4.31 2.02 60 134 181
12.02 -4.41 2.02 59 133 180
12.02 -4.52 2.02 58 132 179
11.76 -4.64 2.19 58 132 177
11.76 -4.75 2.19 59 133 178
11.76 -4.86 2.19 61 134 179
11.76 -4.97 2.19 65 133 178
11.50 -5.08 2.37 77 139 180
11.50 -5.19 2.37 93 146 180
1.56 17.87 8.88 68 68 58
1.56 17.78 8.88 69 69 59
1.56 17.69 8.88 70 70 60
1.56 17.61 8.88 63 63 53
1.56 17.52 8.88 70 70 60
1.56 17.44 8.88 72 72 62
1.42 17.26 8.98 68 68 58
1.42 17.18 8.98 71 68 59
1.42 17.09 8.98 75 72 63
1.42 17.01 8.98 76 73 66
1.42 16.92 8.98 71 68 61
1.42 16.83 8.98 76 73 66
1.42 16.75 8.98 76 73 66
1.42 16.66 8.98 75 75 67
1.42 16.58 8.98 75 75 67
1.42 16.49 8.98 75 75 67
1.42 16.41 8.98 75 75 67
1.42 16.32 8.98 75 76 68
1.42 16.23 8.98 75 76 68
1.42 16.15 8.98 73 74 66
1.42 16.06 8.98 70 71 63
1.42 15.98 8.98 70 69 64
1.42 15.89 8.98 72 71 66
1.42 15.81 8.98 73 72 68
1.56 15.80 8.88 73 72 70
1.56 15.72 8.88 73 71 72
1.56 15.63 8.88 60 61 63
1.56 15.54 8.88 58 61 68
1.56 15.46 8.88 53 59 73
1.56 15.37 8.88 48 56 79
1.56 15.29 8.88 37 52 85
1.56 15.20 8.88 28 45 89
1.56 15.11 8.88 20 43 95
1.74 15.12 8.77 16 42 103
1.74 15.04 8.77 14 45 110
1.74 14.95 8.77 5 38 109
1.91 14.96 8.65 0 31 101
1.91 14.87 8.65 0 20 91
1.91 14.78 8.65 0 6 74
2.09 14.79 8.53 0 4 69
2.09 14.70 8.53 0 20 83
2.09 14.62 8.53 12 42 92
14.48 10.63 0.25 87 103 92
14.48 10.52 0.25 77 93 83
14.77 10.50 0.05 85 100 93
14.77 10.38 0.05 81 97 97
14.77 10.27 0.05 76 98 109
14.77 10.16 0.05 73 105 126
14.77 10.04 0.05 67 113 146
14.77 9.93 0.05 56 114 152
14.77 9.82 0.05 47 114 156
14.77 9.70 0.05 49 119 155
15.06 9.68 -0.14 48 118 152
15.06 9.57 -0.14 46 116 152
15.06 9.45 -0.14 43 115 155
15.06 9.34 -0.14 43 118 160
15.06 9.22 -0.14 46 120 167
15.06 9.11 -0.14 46 119 162
15.06 9.00 -0.14 47 118 162
15.06 8.88 -0.14 48 119 161
15.06 8.77 -0.14 49 120 162
15.06 8.65 -0.14 50 122 162
15.06 8.54 -0.14 51 123 163
15.06 8.43 -0.14 54 123 162
15.06 8.31 -0.14 54 123 162
15.06 8.20 -0.14 53 121 158
15.06 8.08 -0.14 55 123 160
15.06 7.97 -0.14 59 124 162
15.06 7.86 -0.14 61 125 163
15.06 7.74 -0.14 60 124 162
15.06 7.63 -0.14 61 123 162
14.77 7.43 0.05 63 122 162
14.77 7.32 0.05 64 123 163
14.77 7.21 0.05 59 122 163
14.77 7.09 0.05 60 123 164
14.77 6.98 0.05 60 125 165
14.77 6.87 0.05 59 127 166
14.77 6.75 0.05 59 127 166
14.77 6.64 0.05 60 128 167
14.77 6.53 0.05 61 129 168
14.77 6.41 0.05 59 128 167
14.77 6.30 0.05 59 128 167
14.77 6.19 0.05 60 129 168
15.06 6.14 -0.14 60 129 168
15.06 6.03 -0.14 60 127 169
15.06 5.92 -0.14 60 127 169
15.06 5.80 -0.14 59 126 168
14.77 5.62 0.05 60 127 169
14.77 5.51 0.05 61 128 171
14.77 5.39 0.05 61 128 171
14.77 5.28 0.05 61 128 171
14.77 5.17 0.05 62 129 172
14.77 5.05 0.05 63 130 173
14.77 4.94 0.05 63 130 173
14.77 4.82 0.05 61 130 172
14.77 4.71 0.05 60 129 171
14.77 4.60 0.05 62 131 173
14.77 4.48 0.05 62 131 173
14.77 4.37 0.05 62 131 173
14.77 4.26 0.05 62 131 173
14.77 4.14 0.05 62 133 175
14.77 4.03 0.05 62 133 175
14.77 3.92 0.05 62 133 175
14.77 3.80 0.05 60 131 175
14.77 3.69 0.05 63 131 176
14.77 3.58 0.05 64 132 177
14.77 3.46 0.05 66 133 178
14.48 3.29 0.25 69 133 179
14.48 3.18 0.25 69 133 179
14.48 3.07 0.25 66 133 178
14.48 2.95 0.25 65 132 177
14.48 2.84 0.25 65 136 180
14.48 2.73 0.25 62 133 177
14.48 2.61 0.25 64 135 179
14.48 2.50 0.25 65 136 180
14.19 2.34 0.44 66 134 179
14.19 2.22 0.44 70 137 182
14.19 2.11 0.44 72 139 184
14.19 2.00 0.44 72 136 184
14.19 1.89 0.44 72 134 183
14.19 1.78 0.44 74 136 187
14.19 1.66 0.44 73 136 187
14.19 1.55 0.44 72 135 186
14.19 1.44 0.44 71 134 185
14.19 1.33 0.44 72 136 184
14.19 1.21 0.44 74 138 186
14.19 1.10 0.44 70 136 184
14.19 0.99 0.44 71 137 185
14.19 0.88 0.44 70 138 185
13.89 0.72 0.64 69 137 184
13.89 0.61 0.64 65 138 183
13.89 0.50 0.64 66 139 184
13.89 0.39 0.64 67 140 183
13.89 0.27 0.64 67 140 183
13.89 0.16 0.64 66 138 178
13.89 0.05 0.64 68 140 180
13.89 -0.06 0.64 69 140 182
13.89 -0.17 0.64 68 139 181
13.63 -0.32 0.81 67 138 182
13.63 -0.43 0.81 66 137 181
13.63 -0.54 0.81 68 139 183
13.63 -0.65 0.81 69 140 184
13.63 -0.76 0.81 70 138 183
13.63 -0.87 0.81 71 139 184
13.63 -0.99 0.81 72 139 184
13.63 -1.10 0.81 71 138 183
13.34 -1.24 1.01 73 137 183
13.34 -1.35 1.01 74 138 184
13.34 -1.46 1.01 74 136 183
13.34 -1.57 1.01 74 136 185
13.05 -1.71 1.20 74 136 185
13.05 -1.82 1.20 75 137 186
13.05 -1.93 1.20 75 137 186
13.05 -2.04 1.20 75 138 189
13.05 -2.15 1.20 74 137 188
13.05 -2.26 1.20 70 138 187
13.05 -2.37 1.20 70 138 187
13.05 -2.48 1.20 69 137 186
13.05 -2.59 1.20 70 138 187
13.05 -2.70 1.20 71 139 186
12.79 -2.84 1.38 71 139 186
12.79 -2.95 1.38 71 139 184
12.79 -3.06 1.38 71 139 184
12.79 -3.16 1.38 71 139 184
12.52 -3.29 1.55 70 138 183
12.52 -3.40 1.55 69 138 180
12.52 -3.51 1.55 72 141 183
12.52 -3.62 1.55 70 141 185
12.52 -3.73 1.55 68 139 183
12.52 -3.84 1.55 62 135 180
12.23 -3.97 1.75 61 134 179
12.23 -4.07 1.75 60 137 183
12.23 -4.18 1.75 58 134 183
12.23 -4.29 1.75 57 133 182
11.97 -4.41 1.92 58 132 179
11.97 -4.52 1.92 58 132 179
11.71 -4.64 2.10 60 133 178
11.71 -4.75 2.10 61 134 179
11.71 -4.86 2.10 62 135 178
11.71 -4.97 2.10 66 135 177
1.52 17.87 8.81 67 69 58
1.52 17.78 8.81 69 69 59
1.52 17.69 8.81 70 70 60
1.52 17.61 8.81 67 64 55
1.37 17.43 8.91 68 65 56
1.37 17.35 8.91 68 65 58
1.37 17.26 8.91 67 64 57
1.37 17.18 8.91 70 65 61
1.37 17.09 8.91 73 68 64
1.37 17.01 8.91 74 69 65
1.37 16.92 8.91 71 66 62
1.37 16.83 8.91 73 70 63
1.37 16.75 8.91 74 71 64
1.37 16.66 8.91 73 73 63
1.37 16.58 8.91 74 74 64
1.37 16.49 8.91 73 74 66
1.37 16.41 8.91 73 74 66
1.37 16.32 8.91 73 74 66
1.37 16.23 8.91 74 75 67
1.37 16.15 8.91 72 73 67
1.37 16.06 8.91 68 69 64
1.37 15.98 8.91 67 68 63
1.37 15.89 8.91 70 70 68
1.37 15.81 8.91 74 72 73
1.37 15.72 8.91 75 70 74
1.52 15.72 8.81 73 71 72
1.52 15.63 8.81 60 65 59
1.52 15.54 8.81 53 63 55
1.52 15.46 8.81 47 57 56
1.52 15.37 8.81 41 55 58
1.52 15.29 8.81 37 54 64
1.52 15.20 8.81 35 53 73
1.52 15.11 8.81 28 52 80
1.69 15.12 8.69 24 50 87
1.69 15.04 8.69 20 51 97
1.69 14.95 8.69 14 47 100
1.87 14.96 8.57 12 47 103
1.87 14.87 8.57 14 53 112
1.87 14.78 8.57 15 55 116
2.04 14.79 8.46 9 51 111
2.04 14.70 8.46 3 48 105
2.04 14.62 8.46 2 47 106
14.42 10.63 0.15 91 109 93
14.71 10.61 -0.05 81 102 85
14.71 10.50 -0.05 87 104 94
14.71 10.38 -0.05 77 97 96
14.71 10.27 -0.05 80 104 114
14.71 10.16 -0.05 71 106 128
14.71 10.04 -0.05 62 111 143
14.71 9.93 -0.05 54 114 151
14.71 9.82 -0.05 46 113 155
14.71 9.70 -0.05 46 116 152
15.00 9.68 -0.24 46 116 150
15.00 9.57 -0.24 45 115 151
15.00 9.45 -0.24 44 116 156
15.00 9.34 -0.24 44 117 162
15.00 9.22 -0.24 45 117 165
15.00 9.11 -0.24 46 119 162
15.00 9.00 -0.24 47 118 160
15.00 8.88 -0.24 48 120 160
15.00 8.77 -0.24 49 121 161
15.00 8.65 -0.24 50 122 160
15.00 8.54 -0.24 51 123 161
15.00 8.43 -0.24 53 122 161
15.00 8.31 -0.24 53 122 161
15.00 8.20 -0.24 57 125 162
15.00 8.08 -0.24 59 124 162
15.00 7.97 -0.24 59 124 162
15.00 7.86 -0.24 60 124 162
15.00 7.74 -0.24 60 122 163
15.00 7.63 -0.24 60 122 163
15.00 7.51 -0.24 61 120 162
15.00 7.40 -0.24 60 119 161
14.71 7.21 -0.05 60 123 164
14.71 7.09 -0.05 61 124 165
14.71 6.98 -0.05 61 126 166
14.71 6.87 -0.05 60 125 165
14.71 6.75 -0.05 60 125 165
14.71 6.64 -0.05 59 126 168
14.71 6.53 -0.05 60 127 169
14.71 6.41 -0.05 59 126 168
14.71 6.30 -0.05 60 127 169
14.71 6.19 -0.05 61 128 171
15.00 6.14 -0.24 61 128 171
15.00 6.03 -0.24 62 126 170
15.00 5.92 -0.24 63 127 171
15.00 5.80 -0.24 63 127 171
15.00 5.69 -0.24 64 128 172
14.71 5.51 -0.05 61 128 171
14.71 5.39 -0.05 61 128 171
14.71 5.28 -0.05 61 128 171
14.71 5.17 -0.05 61 128 171
14.71 5.05 -0.05 62 129 172
14.71 4.94 -0.05 62 129 172
14.71 4.82 -0.05 61 128 171
14.71 4.71 -0.05 59 126 169
14.71 4.60 -0.05 63 130 173
14.71 4.48 -0.05 62 129 172
14.71 4.37 -0.05 62 131 173
14.71 4.26 -0.05 62 131 173
14.71 4.14 -0.05 64 133 175
14.71 4.03 -0.05 64 133 175
14.71 3.92 -0.05 63 132 174
14.71 3.80 -0.05 64 132 177
14.71 3.69 -0.05 65 132 177
14.71 3.58 -0.05 64 131 176
14.71 3.46 -0.05 67 131 177
14.42 3.29 0.15 69 131 178
14.42 3.18 0.15 70 132 179
14.42 3.07 0.15 69 133 179
14.42 2.95 0.15 66 133 178
14.42 2.84 0.15 65 133 178
14.42 2.73 0.15 61 132 176
14.42 2.61 0.15 62 135 178
14.42 2.50 0.15 64 137 180
14.42 2.39 0.15 65 136 180
14.13 2.22 0.34 69 137 182
14.13 2.11 0.34 70 138 183
14.13 2.00 0.34 68 135 180
14.13 1.89 0.34 72 136 184
14.13 1.78 0.34 71 135 183
14.13 1.66 0.34 71 135 183
14.13 1.55 0.34 71 135 183
14.13 1.44 0.34 71 135 183
14.13 1.33 0.34 73 137 185
14.13 1.21 0.34 73 137 185
14.13 1.10 0.34 69 136 181
14.13 0.99 0.34 71 138 183
14.13 0.88 0.34 70 138 183
14.13 0.76 0.34 69 137 182
13.84 0.61 0.54 66 137 181
13.84 0.50 0.54 67 138 182
13.84 0.39 0.54 67 140 183
13.84 0.27 0.54 66 139 182
13.84 0.16 0.54 68 141 182
13.84 0.05 0.54 68 141 182
13.84 -0.06 0.54 68 141 184
13.58 -0.21 0.72 68 141 184
13.58 -0.32 0.72 68 141 186
13.58 -0.43 0.72 67 140 185
13.58 -0.54 0.72 69 140 186
13.58 -0.65 0.72 69 140 186
13.58 -0.76 0.72 68 138 187
13.58 -0.87 0.72 71 139 188
13.58 -0.99 0.72 70 138 185
13.29 -1.13 0.91 70 136 184
13.29 -1.24 0.91 72 136 184
13.29 -1.35 0.91 73 137 185
13.29 -1.46 0.91 75 136 183
13.29 -1.57 0.91 77 138 185
12.99 -1.71 1.11 79 137 185
12.99 -1.82 1.11 76 137 184
12.99 -1.93 1.11 76 137 184
12.99 -2.04 1.11 75 137 186
12.99 -2.15 1.11 75 137 186
12.99 -2.26 1.11 72 138 186
12.99 -2.37 1.11 72 138 186
12.99 -2.48 1.11 70 138 185
12.99 -2.59 1.11 71 139 186
12.99 -2.70 1.11 72 140 185
12.73 -2.84 1.28 72 140 185
