ply
format ascii 1.0
element vertex 1761
property float x
property float y
property float z
property uchar red
property uchar green
property uchar blue
end_header
17.40 3.53 2.44 57 121 159
17.10 3.36 2.62 57 121 159
17.10 3.24 2.62 59 121 160
17.10 3.13 2.62 60 122 161
17.10 3.01 2.62 61 123 162
17.10 2.90 2.62 62 124 163
17.10 2.78 2.62 59 125 160
17.10 2.67 2.62 57 123 158
16.77 2.49 2.82 54 122 157
16.77 2.38 2.82 56 124 159
16.77 2.27 2.82 55 125 159
16.77 2.15 2.82 54 124 158
16.77 2.04 2.82 53 123 159
16.77 1.92 2.82 53 123 159
16.77 1.81 2.82 54 124 160
16.77 1.70 2.82 55 124 163
16.77 1.58 2.82 55 124 163
16.77 1.47 2.82 55 124 166
16.77 1.35 2.82 54 123 165
16.47 1.19 3.00 53 124 168
16.47 1.08 3.00 53 124 168
16.47 0.97 3.00 53 124 168
16.47 0.85 3.00 52 123 167
16.17 0.70 3.18 52 123 167
16.17 0.58 3.18 51 122 166
16.17 0.47 3.18 51 122 166
16.17 0.36 3.18 50 123 168
16.17 0.24 3.18 47 125 171
16.17 0.13 3.18 44 125 172
16.17 0.02 3.18 45 124 167
16.17 -0.09 3.18 43 122 165
16.17 -0.21 3.18 43 122 163
16.17 -0.32 3.18 44 123 164
16.17 -0.43 3.18 41 124 166
16.17 -0.55 3.18 41 124 168
15.87 -0.69 3.36 39 123 167
15.87 -0.81 3.36 40 124 170
15.87 -0.92 3.36 42 124 171
15.57 -1.07 3.54 44 125 172
15.57 -1.18 3.54 46 123 167
15.57 -1.29 3.54 47 120 165
17.35 12.87 2.34 62 70 73
17.35 12.76 2.34 66 71 74
17.35 12.64 2.34 64 73 72
17.35 12.52 2.34 65 76 72
17.35 12.41 2.34 65 77 75
17.35 12.29 2.34 59 77 77
17.35 12.18 2.34 56 79 87
17.35 12.06 2.34 53 82 100
17.35 11.95 2.34 51 86 114
17.35 11.83 2.34 46 88 128
17.35 11.72 2.34 43 89 138
17.35 11.60 2.34 38 89 144
17.35 11.49 2.34 35 87 144
17.35 11.37 2.34 34 89 146
17.35 11.26 2.34 38 93 147
17.35 11.14 2.34 41 96 152
17.35 11.03 2.34 38 93 149
17.35 10.91 2.34 37 92 149
17.35 10.79 2.34 36 93 146
17.35 10.68 2.34 37 94 147
17.35 10.56 2.34 39 97 145
17.35 10.45 2.34 42 100 146
17.35 10.33 2.34 43 104 148
17.35 10.22 2.34 45 107 148
17.35 10.10 2.34 43 107 143
17.35 9.99 2.34 48 112 148
17.35 9.87 2.34 48 112 148
17.35 9.76 2.34 45 111 146
17.35 9.64 2.34 44 110 145
17.35 9.53 2.34 45 111 146
17.35 9.41 2.34 46 112 147
17.35 9.30 2.34 43 113 149
17.35 9.18 2.34 45 115 151
17.35 9.06 2.34 47 117 153
17.68 9.04 2.15 48 118 154
17.68 8.93 2.15 46 119 154
17.68 8.81 2.15 46 119 154
17.68 8.70 2.15 47 120 155
17.68 8.58 2.15 47 120 155
17.68 8.46 2.15 47 120 155
17.68 8.35 2.15 47 120 155
17.68 8.23 2.15 46 119 154
17.68 8.12 2.15 45 118 153
17.68 8.00 2.15 47 117 153
17.68 7.88 2.15 48 118 154
17.68 7.77 2.15 49 119 155
17.35 7.56 2.34 49 119 155
17.35 7.45 2.34 48 121 153
17.35 7.33 2.34 48 121 153
17.35 7.22 2.34 48 121 153
17.35 7.10 2.34 48 121 154
17.35 6.99 2.34 47 120 153
17.35 6.87 2.34 47 120 153
17.35 6.76 2.34 47 120 153
17.35 6.64 2.34 51 121 157
17.35 6.53 2.34 50 120 156
17.35 6.41 2.34 49 118 157
17.35 6.30 2.34 50 119 158
17.35 6.18 2.34 51 120 159
17.68 6.14 2.15 53 122 161
17.68 6.03 2.15 55 123 162
17.68 5.91 2.15 55 122 164
17.68 5.79 2.15 51 119 164
17.68 5.68 2.15 51 119 166
17.35 5.49 2.34 52 120 167
17.35 5.37 2.34 53 121 168
17.35 5.26 2.34 53 121 168
17.35 5.14 2.34 53 121 168
17.35 5.03 2.34 53 121 166
17.35 4.91 2.34 53 121 166
17.35 4.80 2.34 53 122 163
17.35 4.68 2.34 53 122 163
17.35 4.57 2.34 53 122 161
17.35 4.45 2.34 54 123 162
17.35 4.33 2.34 55 125 159
17.35 4.22 2.34 55 126 158
17.35 4.10 2.34 55 125 159
17.35 3.99 2.34 55 123 160
17.35 3.87 2.34 55 123 162
17.35 3.76 2.34 56 121 161
17.35 3.64 2.34 55 120 160
17.35 3.53 2.34 56 120 158
17.05 3.36 2.52 57 121 159
17.05 3.24 2.52 60 122 161
17.05 3.13 2.52 61 123 162
17.05 3.01 2.52 61 125 163
17.05 2.90 2.52 62 126 164
17.05 2.78 2.52 60 126 161
16.72 2.61 2.72 57 123 158
16.72 2.49 2.72 54 124 158
16.72 2.38 2.72 56 126 160
16.72 2.27 2.72 53 128 160
16.72 2.15 2.72 53 126 159
16.72 2.04 2.72 54 124 158
16.72 1.92 2.72 55 123 158
16.72 1.81 2.72 56 124 161
16.72 1.70 2.72 56 124 163
16.72 1.58 2.72 56 124 163
16.72 1.47 2.72 54 123 165
16.42 1.31 2.90 53 122 164
16.42 1.19 2.90 52 120 165
16.42 1.08 2.90 54 122 167
16.42 0.97 2.90 56 124 171
16.11 0.81 3.08 55 123 170
16.11 0.70 3.08 52 123 169
16.11 0.58 3.08 51 122 168
16.11 0.47 3.08 52 123 169
16.11 0.36 3.08 54 125 171
16.11 0.24 3.08 45 120 162
16.11 0.13 3.08 45 120 162
16.11 0.02 3.08 47 121 160
16.11 -0.09 3.08 48 122 161
16.11 -0.21 3.08 50 123 158
16.11 -0.32 3.08 51 124 159
16.11 -0.43 3.08 49 125 161
16.11 -0.55 3.08 49 124 163
15.81 -0.69 3.26 43 122 161
15.81 -0.81 3.26 46 125 168
15.81 -0.92 3.26 46 125 168
15.51 -1.07 3.44 43 120 166
15.51 -1.18 3.44 46 120 165
15.51 -1.29 3.44 51 122 168
17.29 12.87 2.24 68 78 70
17.29 12.76 2.24 70 74 73
17.29 12.64 2.24 62 72 61
17.29 12.52 2.24 61 73 63
17.29 12.41 2.24 63 78 71
17.29 12.29 2.24 61 80 86
17.29 12.18 2.24 55 80 100
17.29 12.06 2.24 54 84 120
17.29 11.95 2.24 48 84 132
17.29 11.83 2.24 43 84 140
17.29 11.72 2.24 39 88 144
17.29 11.60 2.24 40 92 149
17.29 11.49 2.24 41 96 150
17.29 11.37 2.24 39 96 151
17.29 11.26 2.24 38 95 150
17.29 11.14 2.24 37 93 150
17.29 11.03 2.24 39 95 152
17.29 10.91 2.24 38 94 151
17.29 10.79 2.24 37 94 149
17.29 10.68 2.24 37 94 149
17.29 10.56 2.24 39 97 147
17.29 10.45 2.24 42 100 150
17.29 10.33 2.24 43 104 149
17.29 10.22 2.24 45 106 151
17.29 10.10 2.24 43 105 146
17.29 9.99 2.24 42 106 144
17.29 9.87 2.24 45 109 147
17.29 9.76 2.24 45 109 147
17.29 9.64 2.24 45 109 147
17.29 9.53 2.24 44 110 145
17.29 9.41 2.24 45 111 146
17.29 9.30 2.24 47 111 147
17.29 9.18 2.24 47 111 147
17.29 9.06 2.24 46 112 147
17.62 9.04 2.05 46 112 147
17.62 8.93 2.05 44 112 147
17.62 8.81 2.05 46 114 149
17.62 8.70 2.05 47 117 151
17.62 8.58 2.05 49 119 153
17.62 8.46 2.05 45 118 151
17.62 8.35 2.05 45 118 151
17.62 8.23 2.05 45 118 151
17.62 8.12 2.05 45 118 151
17.62 8.00 2.05 47 117 151
17.62 7.88 2.05 47 117 151
17.29 7.68 2.24 48 118 152
17.29 7.56 2.24 48 118 152
17.29 7.45 2.24 48 119 151
17.29 7.33 2.24 49 120 152
17.29 7.22 2.24 51 122 152
17.29 7.10 2.24 50 124 153
17.29 6.99 2.24 49 123 152
17.29 6.87 2.24 48 122 151
17.29 6.76 2.24 48 122 151
17.29 6.64 2.24 48 121 153
17.29 6.53 2.24 47 120 153
17.29 6.41 2.24 46 119 154
17.29 6.30 2.24 47 119 159
17.29 6.18 2.24 48 120 160
17.62 6.14 2.05 48 119 163
17.62 6.03 2.05 48 119 163
17.62 5.91 2.05 48 119 165
17.62 5.79 2.05 49 120 166
17.29 5.60 2.24 50 121 167
17.29 5.49 2.24 52 120 165
17.29 5.37 2.24 52 120 165
17.29 5.26 2.24 52 121 162
17.29 5.14 2.24 52 121 162
17.29 5.03 2.24 52 120 157
17.29 4.91 2.24 52 120 157
17.29 4.80 2.24 55 120 158
17.29 4.68 2.24 57 122 160
17.29 4.57 2.24 58 123 163
17.29 4.45 2.24 56 121 161
17.29 4.33 2.24 55 118 161
17.29 4.22 2.24 56 119 163
17.29 4.10 2.24 57 121 165
17.29 3.99 2.24 52 121 162
17.29 3.87 2.24 51 123 163
17.29 3.76 2.24 53 122 161
17.29 3.64 2.24 54 122 161
17.29 3.53 2.24 54 122 159
16.99 3.36 2.43 57 122 160
16.99 3.24 2.43 58 122 158
16.99 3.13 2.43 58 122 158
16.99 3.01 2.43 59 123 159
16.99 2.90 2.43 59 123 159
16.99 2.78 2.43 58 124 159
16.66 2.61 2.62 57 123 158
16.66 2.49 2.62 54 124 158
16.66 2.38 2.62 53 123 157
16.66 2.27 2.62 50 123 158
16.66 2.15 2.62 50 123 158
16.66 2.04 2.62 53 125 163
16.66 1.92 2.62 51 123 161
16.66 1.81 2.62 51 123 161
16.66 1.70 2.62 52 124 162
16.66 1.58 2.62 52 124 162
16.36 1.42 2.80 52 124 164
16.36 1.31 2.80 53 125 165
16.36 1.19 2.80 49 120 162
16.36 1.08 2.80 52 123 165
16.06 0.92 2.98 53 124 166
16.06 0.81 2.98 51 122 164
16.06 0.70 2.98 51 122 166
16.06 0.58 2.98 52 123 167
16.06 0.47 2.98 53 124 168
16.06 0.36 2.98 53 124 168
16.06 0.24 2.98 55 126 170
16.06 0.13 2.98 53 124 168
16.06 0.02 2.98 52 123 167
16.06 -0.09 2.98 51 122 166
16.06 -0.21 2.98 50 123 166
16.06 -0.32 2.98 50 123 166
16.06 -0.43 2.98 49 124 166
15.76 -0.58 3.16 49 124 166
15.76 -0.69 3.16 45 122 164
15.76 -0.81 3.16 44 121 163
15.76 -0.92 3.16 44 121 165
15.46 -1.07 3.34 43 120 164
15.46 -1.18 3.34 43 120 164
15.46 -1.29 3.34 43 120 164
15.46 -1.40 3.34 45 119 164
15.46 -1.51 3.34 43 121 167
17.23 12.87 2.15 68 79 73
17.23 12.76 2.15 68 72 71
17.23 12.64 2.15 62 72 61
17.23 12.52 2.15 60 72 62
17.23 12.41 2.15 60 75 68
17.23 12.29 2.15 56 75 81
17.23 12.18 2.15 53 78 98
17.23 12.06 2.15 54 84 120
17.23 11.95 2.15 46 84 131
17.23 11.83 2.15 42 85 140
17.23 11.72 2.15 37 88 143
17.23 11.60 2.15 39 91 148
17.23 11.49 2.15 36 93 146
17.23 11.37 2.15 35 92 147
17.23 11.26 2.15 34 91 146
17.23 11.14 2.15 35 91 148
17.23 11.03 2.15 35 91 148
17.23 10.91 2.15 36 92 149
17.23 10.79 2.15 38 95 150
17.23 10.68 2.15 41 98 153
17.23 10.56 2.15 43 101 151
17.23 10.45 2.15 44 102 152
17.23 10.33 2.15 43 104 149
17.23 10.22 2.15 43 104 149
17.23 10.10 2.15 46 108 149
17.23 9.99 2.15 44 108 146
17.23 9.87 2.15 46 110 148
17.23 9.76 2.15 47 111 147
17.23 9.64 2.15 46 110 146
17.23 9.53 2.15 46 110 146
17.23 9.41 2.15 47 111 147
17.23 9.30 2.15 46 110 146
17.23 9.18 2.15 47 111 147
17.56 9.16 1.95 48 114 149
17.56 9.04 1.95 49 115 150
17.56 8.93 1.95 48 116 151
17.56 8.81 1.95 47 115 150
17.56 8.70 1.95 46 116 150
17.56 8.58 1.95 46 116 150
17.56 8.46 1.95 46 119 152
17.56 8.35 1.95 46 119 152
17.56 8.23 1.95 46 119 152
17.56 8.12 1.95 45 118 151
17.23 7.91 2.15 48 118 152
17.23 7.80 2.15 48 118 152
17.23 7.68 2.15 48 118 152
17.23 7.56 2.15 49 119 153
17.23 7.45 2.15 48 119 151
17.23 7.33 2.15 49 120 152
17.23 7.22 2.15 50 121 153
17.23 7.10 2.15 49 123 152
17.23 6.99 2.15 48 122 151
17.23 6.87 2.15 47 121 150
17.23 6.76 2.15 47 121 150
17.23 6.64 2.15 48 121 153
17.23 6.53 2.15 48 121 154
17.23 6.41 2.15 49 122 157
17.23 6.30 2.15 50 122 162
17.23 6.18 2.15 50 122 162
17.23 6.07 2.15 50 121 163
17.56 6.03 1.95 50 121 165
17.56 5.91 1.95 50 121 165
17.23 5.72 2.15 51 122 168
17.23 5.60 2.15 51 122 168
17.23 5.49 2.15 51 122 164
17.23 5.37 2.15 50 121 163
17.23 5.26 2.15 52 121 162
17.23 5.14 2.15 52 121 162
17.23 5.03 2.15 52 122 158
17.23 4.91 2.15 53 123 159
17.23 4.80 2.15 53 121 158
17.23 4.68 2.15 54 122 159
17.23 4.57 2.15 57 122 162
17.23 4.45 2.15 56 121 161
17.23 4.33 2.15 54 119 161
17.23 4.22 2.15 56 120 164
17.23 4.10 2.15 56 123 166
17.23 3.99 2.15 54 123 164
17.23 3.87 2.15 52 124 164
17.23 3.76 2.15 54 123 162
17.23 3.64 2.15 55 123 162
17.23 3.53 2.15 55 123 160
16.93 3.36 2.33 57 122 160
16.93 3.24 2.33 58 122 158
16.93 3.13 2.33 58 122 158
16.93 3.01 2.33 59 123 159
16.93 2.90 2.33 59 123 159
16.93 2.78 2.33 58 124 159
16.60 2.61 2.52 58 124 159
16.60 2.49 2.52 55 125 161
16.60 2.38 2.52 55 125 161
16.60 2.27 2.52 52 125 160
16.60 2.15 2.52 52 125 160
16.60 2.04 2.52 53 125 163
16.60 1.92 2.52 51 123 161
16.60 1.81 2.52 51 123 161
16.60 1.70 2.52 52 124 162
16.60 1.58 2.52 52 124 162
16.30 1.42 2.71 52 124 164
16.30 1.31 2.71 54 126 166
16.30 1.19 2.71 50 121 163
16.30 1.08 2.71 52 123 165
16.00 0.92 2.89 53 124 166
16.00 0.81 2.89 52 123 165
16.00 0.70 2.89 51 122 166
16.00 0.58 2.89 52 123 167
16.00 0.47 2.89 53 124 168
16.00 0.36 2.89 53 124 168
16.00 0.24 2.89 51 122 166
16.00 0.13 2.89 50 121 165
16.00 0.02 2.89 49 120 164
16.00 -0.09 2.89 49 120 164
16.00 -0.21 2.89 49 122 165
16.00 -0.32 2.89 49 122 165
16.00 -0.43 2.89 49 124 166
15.70 -0.58 3.07 48 123 165
15.70 -0.69 3.07 46 123 165
15.70 -0.81 3.07 45 122 164
15.70 -0.92 3.07 44 121 165
15.40 -1.07 3.25 44 121 165
15.40 -1.18 3.25 44 121 165
15.40 -1.29 3.25 44 121 165
15.40 -1.40 3.25 48 122 167
15.40 -1.51 3.25 47 124 170
17.17 12.87 2.05 62 77 72
17.17 12.76 2.05 68 74 72
17.17 12.64 2.05 66 76 67
17.17 12.52 2.05 63 75 65
17.17 12.41 2.05 59 76 68
17.17 12.29 2.05 54 75 78
17.17 12.18 2.05 52 79 96
17.17 12.06 2.05 56 89 122
17.17 11.95 2.05 48 86 131
17.17 11.83 2.05 45 88 141
17.17 11.72 2.05 40 91 144
17.17 11.60 2.05 40 93 147
17.17 11.49 2.05 36 93 146
17.17 11.37 2.05 33 90 145
17.17 11.26 2.05 35 90 146
17.17 11.14 2.05 38 93 150
17.17 11.03 2.05 34 91 146
17.17 10.91 2.05 36 93 148
17.17 10.79 2.05 39 96 149
17.17 10.68 2.05 42 99 152
17.17 10.56 2.05 44 102 150
17.17 10.45 2.05 45 103 151
17.17 10.33 2.05 44 105 149
17.50 10.32 1.85 43 104 148
17.17 10.10 2.05 47 109 150
17.17 9.99 2.05 45 109 147
17.17 9.87 2.05 47 111 149
17.50 9.86 1.85 48 112 148
17.50 9.74 1.85 47 111 147
17.50 9.62 1.85 47 111 147
17.50 9.51 1.85 48 112 148
17.50 9.39 1.85 47 111 147
17.50 9.28 1.85 49 113 149
17.50 9.16 1.85 50 116 151
17.50 9.04 1.85 51 117 152
17.50 8.93 1.85 49 117 152
17.50 8.81 1.85 48 116 151
17.50 8.70 1.85 46 116 150
17.50 8.58 1.85 46 116 150
17.50 8.46 1.85 46 119 152
17.17 8.26 2.05 46 119 152
17.17 8.14 2.05 46 119 152
17.17 8.03 2.05 46 119 152
17.17 7.91 2.05 48 118 152
17.17 7.80 2.05 48 118 152
17.17 7.68 2.05 48 118 152
17.17 7.56 2.05 49 119 153
17.17 7.45 2.05 45 118 150
17.17 7.33 2.05 46 119 151
17.17 7.22 2.05 48 121 153
17.17 7.10 2.05 50 121 153
17.17 6.99 2.05 49 120 152
17.17 6.87 2.05 48 119 151
17.17 6.76 2.05 48 119 151
17.17 6.64 2.05 46 116 150
17.17 6.53 2.05 48 118 152
17.17 6.41 2.05 50 120 156
17.17 6.30 2.05 51 120 159
17.17 6.18 2.05 51 120 159
17.17 6.07 2.05 50 119 160
17.17 5.95 2.05 50 119 161
17.17 5.83 2.05 51 120 162
17.17 5.72 2.05 52 123 167
17.17 5.60 2.05 51 122 166
17.17 5.49 2.05 50 121 163
17.17 5.37 2.05 49 120 162
17.17 5.26 2.05 49 121 159
17.17 5.14 2.05 49 121 159
17.17 5.03 2.05 52 122 158
17.17 4.91 2.05 53 123 159
17.17 4.80 2.05 53 123 159
17.17 4.68 2.05 53 123 159
17.17 4.57 2.05 55 123 162
17.17 4.45 2.05 54 122 161
17.17 4.33 2.05 52 119 161
17.17 4.22 2.05 53 120 163
17.17 4.10 2.05 55 122 165
17.17 3.99 2.05 52 124 164
17.17 3.87 2.05 52 124 164
17.17 3.76 2.05 54 123 162
17.17 3.64 2.05 54 123 162
17.17 3.53 2.05 55 123 160
16.87 3.36 2.23 55 123 160
16.87 3.24 2.23 58 123 161
16.87 3.13 2.23 58 123 161
16.87 3.01 2.23 57 123 158
16.87 2.90 2.23 57 123 158
16.87 2.78 2.23 56 124 161
16.54 2.61 2.43 56 124 161
16.54 2.49 2.43 55 125 161
16.54 2.38 2.43 55 125 161
16.54 2.27 2.43 53 125 163
16.54 2.15 2.43 53 125 163
16.54 2.04 2.43 52 124 162
16.24 1.87 2.61 51 123 161
16.24 1.76 2.61 51 123 161
16.24 1.65 2.61 52 124 162
16.24 1.53 2.61 52 124 164
16.24 1.42 2.61 51 123 163
16.24 1.31 2.61 53 125 165
16.24 1.19 2.61 51 122 164
16.24 1.08 2.61 53 124 166
15.95 0.92 2.79 53 124 166
15.95 0.81 2.79 52 123 165
15.95 0.70 2.79 51 122 166
15.95 0.58 2.79 52 123 167
15.95 0.47 2.79 53 124 168
15.95 0.36 2.79 52 123 167
15.95 0.24 2.79 54 123 165
15.95 0.13 2.79 53 122 164
15.95 0.02 2.79 50 121 163
15.95 -0.09 2.79 50 121 163
15.95 -0.21 2.79 50 123 166
15.95 -0.32 2.79 50 123 166
15.65 -0.47 2.97 49 124 166
15.65 -0.58 2.97 49 124 166
15.65 -0.69 2.97 46 123 165
15.65 -0.81 2.97 45 122 164
15.65 -0.92 2.97 44 121 163
15.65 -1.03 2.97 43 120 162
15.35 -1.18 3.15 44 118 163
15.35 -1.29 3.15 45 119 164
15.35 -1.40 3.15 47 121 166
15.35 -1.51 3.15 42 119 165
15.35 -1.62 3.15 42 119 165
15.35 -1.74 3.15 44 118 163
15.08 -2.10 3.31 48 117 159
15.08 -2.21 3.31 55 120 158
17.12 12.87 1.95 60 75 70
17.12 12.76 1.95 69 75 75
17.12 12.64 1.95 66 78 68
17.12 12.52 1.95 64 77 67
17.12 12.41 1.95 59 79 70
17.12 12.29 1.95 53 77 79
17.12 12.18 1.95 52 81 97
17.12 12.06 1.95 57 92 124
17.12 11.95 1.95 48 90 132
17.12 11.83 1.95 44 90 140
17.12 11.72 1.95 41 92 145
17.12 11.60 1.95 41 94 148
17.12 11.49 1.95 37 94 147
17.12 11.37 1.95 36 93 146
17.12 11.26 1.95 38 93 149
17.12 11.14 1.95 40 95 151
17.12 11.03 1.95 39 94 148
17.12 10.91 1.95 39 94 148
17.12 10.79 1.95 39 95 146
17.12 10.68 1.95 41 97 148
17.12 10.56 1.95 41 99 147
17.12 10.45 1.95 43 101 149
17.44 10.44 1.75 45 104 148
17.44 10.32 1.75 46 105 149
17.44 10.20 1.75 45 107 146
17.44 10.09 1.75 45 107 146
17.44 9.97 1.75 47 109 148
17.44 9.86 1.75 46 110 146
17.44 9.74 1.75 46 110 146
17.44 9.62 1.75 46 110 146
17.44 9.51 1.75 47 111 147
17.44 9.39 1.75 48 112 148
17.44 9.28 1.75 49 113 149
17.44 9.16 1.75 49 115 150
17.44 9.04 1.75 49 115 150
17.44 8.93 1.75 46 114 149
17.44 8.81 1.75 47 115 150
17.44 8.70 1.75 47 117 151
17.44 8.58 1.75 47 117 151
17.44 8.46 1.75 45 118 151
17.12 8.26 1.95 45 118 151
17.12 8.14 1.95 45 118 151
17.12 8.03 1.95 45 118 151
17.12 7.91 1.95 47 117 151
17.12 7.80 1.95 47 117 151
17.12 7.68 1.95 48 118 152
17.12 7.56 1.95 48 118 152
17.12 7.45 1.95 44 117 150
17.12 7.33 1.95 45 118 151
17.12 7.22 1.95 47 120 152
17.12 7.10 1.95 49 120 152
17.12 6.99 1.95 48 119 151
17.12 6.87 1.95 49 120 152
17.12 6.76 1.95 49 120 152
17.12 6.64 1.95 44 114 148
17.12 6.53 1.95 46 116 150
17.12 6.41 1.95 49 119 155
17.12 6.30 1.95 49 119 155
17.12 6.18 1.95 48 117 156
17.12 6.07 1.95 47 116 155
17.12 5.95 1.95 48 117 158
17.12 5.83 1.95 49 118 159
17.12 5.72 1.95 49 121 161
17.12 5.60 1.95 48 120 160
17.12 5.49 1.95 48 120 160
17.12 5.37 1.95 48 120 160
17.12 5.26 1.95 48 120 158
17.12 5.14 1.95 49 121 159
17.12 5.03 1.95 49 122 157
17.12 4.91 1.95 50 123 158
17.12 4.80 1.95 53 122 161
17.12 4.68 1.95 54 123 162
17.12 4.57 1.95 54 123 162
17.12 4.45 1.95 53 122 161
17.12 4.33 1.95 51 120 161
17.12 4.22 1.95 52 121 163
17.12 4.10 1.95 52 121 163
17.12 3.99 1.95 49 121 161
17.12 3.87 1.95 49 121 161
17.12 3.76 1.95 52 121 160
17.12 3.64 1.95 53 122 161
17.12 3.53 1.95 54 122 159
16.82 3.36 2.13 55 123 160
16.82 3.24 2.13 58 123 161
16.82 3.13 2.13 58 123 161
16.82 3.01 2.13 56 121 159
16.82 2.90 2.13 56 121 159
16.82 2.78 2.13 54 122 159
16.49 2.61 2.33 55 123 160
16.49 2.49 2.33 54 123 162
16.49 2.38 2.33 54 123 162
16.49 2.27 2.33 52 124 162
16.49 2.15 2.33 52 124 162
16.49 2.04 2.33 51 123 163
16.19 1.87 2.51 49 121 161
16.19 1.76 2.51 49 121 161
16.19 1.65 2.51 51 123 163
16.19 1.53 2.51 51 123 163
16.19 1.42 2.51 50 121 163
16.19 1.31 2.51 52 123 165
16.19 1.19 2.51 52 123 165
16.19 1.08 2.51 54 125 167
15.89 0.92 2.69 54 125 167
15.89 0.81 2.69 52 123 165
15.89 0.70 2.69 52 123 167
15.89 0.58 2.69 53 124 168
15.89 0.47 2.69 53 124 168
15.89 0.36 2.69 51 122 166
15.89 0.24 2.69 55 124 166
15.89 0.13 2.69 54 123 165
15.89 0.02 2.69 51 122 164
15.89 -0.09 2.69 51 122 164
15.89 -0.21 2.69 50 123 164
15.89 -0.32 2.69 50 123 164
15.59 -0.47 2.87 49 124 166
15.59 -0.58 2.87 48 123 165
15.59 -0.69 2.87 49 124 166
15.59 -0.81 2.87 48 123 165
15.59 -0.92 2.87 47 122 164
15.59 -1.03 2.87 45 120 162
15.29 -1.18 3.05 44 119 161
15.29 -1.29 3.05 44 119 161
15.29 -1.40 3.05 44 118 163
15.29 -1.51 3.05 42 116 161
15.29 -1.62 3.05 45 119 166
15.29 -1.74 3.05 48 122 169
15.02 -2.10 3.22 43 117 164
15.02 -2.21 3.22 42 115 160
17.06 12.87 1.85 62 77 74
17.06 12.76 1.85 65 74 73
17.06 12.64 1.85 64 76 66
17.06 12.52 1.85 61 77 66
17.06 12.41 1.85 57 78 69
17.06 12.29 1.85 50 76 75
17.06 12.18 1.85 48 80 95
17.06 12.06 1.85 54 91 120
17.06 11.95 1.85 46 89 131
17.06 11.83 1.85 40 88 137
17.06 11.72 1.85 36 89 139
17.06 11.60 1.85 36 92 143
17.06 11.49 1.85 37 95 145
17.06 11.37 1.85 37 94 147
17.06 11.26 1.85 38 93 147
17.06 11.14 1.85 39 94 150
17.06 11.03 1.85 41 96 150
17.06 10.91 1.85 40 95 149
17.06 10.79 1.85 40 96 147
17.06 10.68 1.85 40 96 147
17.06 10.56 1.85 40 98 146
17.06 10.45 1.85 42 100 148
17.39 10.44 1.64 44 103 147
17.39 10.32 1.64 45 104 148
17.39 10.20 1.64 44 106 147
17.39 10.09 1.64 44 106 145
17.39 9.97 1.64 46 108 147
17.39 9.86 1.64 46 110 148
17.39 9.74 1.64 45 109 147
17.39 9.62 1.64 45 109 147
17.39 9.51 1.64 47 111 149
17.39 9.39 1.64 47 111 149
17.39 9.28 1.64 47 111 149
17.39 9.16 1.64 47 112 150
17.39 9.04 1.64 47 112 150
17.39 8.93 1.64 45 113 150
17.39 8.81 1.64 46 114 151
17.39 8.70 1.64 46 116 152
17.39 8.58 1.64 47 117 153
17.39 8.46 1.64 45 118 153
17.39 8.35 1.64 45 118 153
17.06 8.14 1.85 45 118 153
17.06 8.03 1.85 45 118 153
17.06 7.91 1.85 47 117 153
17.06 7.80 1.85 47 117 153
17.06 7.68 1.85 48 118 154
17.06 7.56 1.85 48 118 154
17.06 7.45 1.85 44 117 150
17.06 7.33 1.85 45 118 151
17.06 7.22 1.85 46 119 152
17.06 7.10 1.85 49 119 153
17.06 6.99 1.85 49 119 153
17.06 6.87 1.85 49 119 153
17.06 6.76 1.85 50 120 154
17.06 6.64 1.85 47 117 151
17.06 6.53 1.85 49 119 153
17.06 6.41 1.85 51 119 156
17.06 6.30 1.85 50 118 155
17.06 6.18 1.85 48 116 155
17.06 6.07 1.85 48 116 155
17.06 5.95 1.85 50 118 157
17.06 5.83 1.85 51 119 158
17.06 5.72 1.85 48 117 156
17.06 5.60 1.85 49 118 157
17.06 5.49 1.85 49 118 157
17.06 5.37 1.85 50 119 158
17.06 5.26 1.85 51 121 157
17.06 5.14 1.85 51 121 157
17.06 5.03 1.85 51 120 159
17.06 4.91 1.85 51 120 159
17.06 4.80 1.85 50 122 160
17.06 4.68 1.85 50 122 160
17.06 4.57 1.85 50 122 162
17.06 4.45 1.85 50 122 162
17.06 4.33 1.85 49 121 161
17.06 4.22 1.85 50 121 163
16.76 4.04 2.03 50 121 163
16.76 3.93 2.03 50 119 158
17.06 3.87 1.85 51 120 159
17.06 3.76 1.85 51 120 159
17.06 3.64 1.85 52 121 160
16.76 3.47 2.03 54 122 159
16.76 3.36 2.03 55 123 160
16.76 3.24 2.03 55 123 160
16.76 3.13 2.03 56 124 161
16.76 3.01 2.03 54 122 159
16.76 2.90 2.03 54 122 159
16.76 2.78 2.03 55 123 162
16.43 2.61 2.23 55 123 162
16.43 2.49 2.23 54 123 162
16.43 2.38 2.23 53 122 161
16.43 2.27 2.23 53 122 163
16.43 2.15 2.23 53 122 163
16.43 2.04 2.23 51 122 164
16.13 1.87 2.41 49 120 162
16.13 1.76 2.41 50 121 163
16.13 1.65 2.41 51 122 164
16.13 1.53 2.41 52 123 165
16.13 1.42 2.41 51 122 164
16.13 1.31 2.41 52 123 165
16.13 1.19 2.41 53 124 166
16.13 1.08 2.41 53 124 166
15.83 0.92 2.59 53 124 166
15.83 0.81 2.59 52 123 165
15.83 0.70 2.59 52 123 165
15.83 0.58 2.59 53 124 166
15.83 0.47 2.59 52 123 165
15.83 0.36 2.59 51 122 164
15.83 0.24 2.59 53 122 164
15.83 0.13 2.59 52 121 163
15.83 0.02 2.59 49 120 162
15.83 -0.09 2.59 49 120 162
15.83 -0.21 2.59 48 121 162
15.83 -0.32 2.59 48 121 162
15.53 -0.47 2.78 47 122 162
15.53 -0.58 2.78 46 121 161
15.53 -0.69 2.78 50 125 167
15.53 -0.81 2.78 50 125 167
15.53 -0.92 2.78 49 124 166
15.53 -1.03 2.78 49 124 166
15.23 -1.18 2.96 48 123 165
15.23 -1.29 2.96 47 122 164
15.23 -1.40 2.96 45 120 162
15.23 -1.51 2.96 47 121 166
15.23 -1.62 2.96 47 121 166
15.23 -1.74 2.96 46 120 165
15.23 -1.85 2.96 45 119 164
14.97 -1.99 3.12 45 119 166
14.97 -2.10 3.12 44 118 167
14.97 -2.21 3.12 42 118 167
14.97 -2.32 3.12 42 118 168
14.97 -2.43 3.12 41 115 162
14.67 -2.57 3.30 42 113 157
14.67 -2.68 3.30 62 130 169
17.00 12.87 1.75 66 77 73
17.00 12.76 1.75 65 74 73
17.00 12.64 1.75 62 75 66
17.00 12.52 1.75 61 77 66
17.00 12.41 1.75 57 80 70
17.00 12.29 1.75 48 77 75
17.00 12.18 1.75 46 80 92
17.00 12.06 1.75 50 90 116
17.00 11.95 1.75 45 90 129
17.00 11.83 1.75 37 88 135
17.00 11.72 1.75 35 89 136
17.00 11.60 1.75 35 91 140
17.00 11.49 1.75 37 95 145
17.00 11.37 1.75 37 94 147
17.00 11.26 1.75 38 93 147
17.00 11.14 1.75 39 94 150
17.00 11.03 1.75 39 94 150
17.00 10.91 1.75 39 94 150
17.33 10.90 1.54 41 96 150
17.33 10.78 1.54 42 97 151
17.00 10.56 1.75 43 99 148
17.33 10.55 1.54 43 99 148
17.33 10.44 1.54 42 100 146
17.33 10.32 1.54 42 100 146
17.33 10.20 1.54 46 105 149
17.33 10.09 1.54 44 106 147
17.33 9.97 1.54 46 108 149
17.33 9.86 1.54 47 109 150
17.33 9.74 1.54 46 108 149
17.33 9.62 1.54 46 108 149
17.33 9.51 1.54 47 109 150
17.33 9.39 1.54 43 107 145
17.33 9.28 1.54 45 109 147
17.33 9.16 1.54 46 111 149
17.33 9.04 1.54 48 113 151
17.33 8.93 1.54 46 114 151
17.33 8.81 1.54 45 113 150
17.33 8.70 1.54 44 114 150
17.33 8.58 1.54 44 114 150
17.33 8.46 1.54 45 118 153
17.33 8.35 1.54 45 118 153
17.00 8.14 1.75 45 118 153
17.00 8.03 1.75 45 118 153
17.00 7.91 1.75 47 117 153
17.00 7.80 1.75 47 117 153
17.00 7.68 1.75 48 118 154
17.00 7.56 1.75 48 118 154
17.00 7.45 1.75 44 117 150
17.00 7.33 1.75 45 118 151
17.00 7.22 1.75 46 119 152
17.00 7.10 1.75 48 118 152
17.00 6.99 1.75 48 118 152
17.00 6.87 1.75 49 119 153
17.00 6.76 1.75 49 119 153
17.00 6.64 1.75 50 118 153
17.00 6.53 1.75 51 119 154
17.00 6.41 1.75 51 119 156
17.00 6.30 1.75 50 118 155
17.00 6.18 1.75 49 117 154
17.00 6.07 1.75 49 117 154
17.00 5.95 1.75 52 117 155
17.00 5.83 1.75 53 118 156
17.00 5.72 1.75 49 117 152
17.00 5.60 1.75 50 118 153
17.00 5.49 1.75 51 119 156
17.00 5.37 1.75 52 120 157
17.00 5.26 1.75 53 121 158
17.00 5.14 1.75 53 121 158
17.00 5.03 1.75 52 122 158
17.00 4.91 1.75 52 122 158
17.00 4.80 1.75 49 118 157
17.00 4.68 1.75 50 119 158
17.00 4.57 1.75 48 120 160
17.00 4.45 1.75 48 120 160
17.00 4.33 1.75 50 121 163
16.70 4.16 1.93 50 121 163
16.70 4.04 1.93 51 122 164
16.70 3.93 1.93 52 121 160
16.70 3.81 1.93 52 121 160
16.70 3.70 1.93 53 122 161
16.70 3.58 1.93 53 122 161
16.70 3.47 1.93 53 123 159
16.70 3.36 1.93 53 123 159
16.70 3.24 1.93 53 123 159
16.70 3.13 1.93 53 123 159
16.70 3.01 1.93 54 124 160
16.70 2.90 1.93 54 124 160
16.37 2.72 2.13 54 123 162
16.37 2.61 2.13 54 123 162
16.37 2.49 2.13 54 123 164
16.37 2.38 2.13 53 122 163
16.37 2.27 2.13 53 122 163
16.37 2.15 2.13 53 122 163
16.37 2.04 2.13 51 122 164
16.07 1.87 2.31 50 121 163
16.07 1.76 2.31 51 122 164
16.07 1.65 2.31 53 124 166
16.07 1.53 2.31 53 124 166
16.07 1.42 2.31 52 123 165
16.07 1.31 2.31 53 124 166
16.07 1.19 2.31 52 123 165
16.07 1.08 2.31 53 124 166
16.07 0.97 2.31 52 123 165
15.78 0.81 2.50 51 122 164
15.78 0.70 2.50 51 122 164
15.78 0.58 2.50 53 124 166
15.78 0.47 2.50 52 123 165
15.78 0.36 2.50 50 121 163
15.78 0.24 2.50 52 121 163
15.78 0.13 2.50 51 120 162
15.78 0.02 2.50 51 120 162
15.78 -0.09 2.50 52 121 163
15.78 -0.21 2.50 50 121 163
15.78 -0.32 2.50 51 122 164
15.48 -0.47 2.68 49 122 163
15.48 -0.58 2.68 49 122 163
15.48 -0.69 2.68 47 122 162
15.48 -0.81 2.68 48 123 163
15.48 -0.92 2.68 48 123 165
15.18 -1.07 2.86 49 124 166
15.18 -1.18 2.86 49 124 166
15.18 -1.29 2.86 48 123 165
15.18 -1.40 2.86 47 120 163
15.18 -1.51 2.86 44 121 165
15.18 -1.62 2.86 43 120 164
15.18 -1.74 2.86 44 119 161
15.18 -1.85 2.86 44 119 161
14.91 -1.99 3.03 45 118 163
14.91 -2.10 3.03 46 118 166
14.91 -2.21 3.03 43 119 168
14.91 -2.32 3.03 43 119 169
14.61 -2.46 3.21 41 118 170
14.61 -2.57 3.21 48 124 174
14.61 -2.68 3.21 35 108 151
16.64 12.76 1.83 68 74 72
16.64 12.65 1.83 66 76 75
16.94 12.64 1.65 65 78 69
16.94 12.52 1.65 63 81 69
16.94 12.41 1.65 59 82 72
16.94 12.29 1.65 49 78 76
16.94 12.18 1.65 45 81 93
16.94 12.06 1.65 52 94 119
16.94 11.95 1.65 46 92 128
16.94 11.83 1.65 40 91 136
16.94 11.72 1.65 36 92 139
16.94 11.60 1.65 37 95 143
16.94 11.49 1.65 38 96 144
16.94 11.37 1.65 38 94 145
16.94 11.26 1.65 38 93 147
16.94 11.14 1.65 41 93 150
16.94 11.03 1.65 37 92 148
16.94 10.91 1.65 38 93 149
17.27 10.90 1.44 40 95 149
17.27 10.78 1.44 43 98 152
17.27 10.67 1.44 44 100 151
17.27 10.55 1.44 45 101 152
17.27 10.44 1.44 43 101 149
17.27 10.32 1.44 43 101 149
17.27 10.20 1.44 48 107 151
17.27 10.09 1.44 45 106 150
17.27 9.97 1.44 46 107 151
17.27 9.86 1.44 46 107 151
17.27 9.74 1.44 45 106 150
17.27 9.62 1.44 45 106 150
17.27 9.51 1.44 46 107 151
17.27 9.39 1.44 43 107 145
17.27 9.28 1.44 45 109 147
17.27 9.16 1.44 46 111 149
17.27 9.04 1.44 46 111 149
17.27 8.93 1.44 44 112 149
17.27 8.81 1.44 44 112 149
17.27 8.70 1.44 42 112 148
17.27 8.58 1.44 42 112 148
17.27 8.46 1.44 44 117 152
17.27 8.35 1.44 44 117 152
17.27 8.23 1.44 43 116 151
16.94 8.03 1.65 43 116 151
16.94 7.91 1.65 46 116 152
16.94 7.80 1.65 46 116 152
16.94 7.68 1.65 46 116 152
16.94 7.56 1.65 46 116 152
16.94 7.45 1.65 45 118 153
16.94 7.33 1.65 45 118 153
16.94 7.22 1.65 46 119 154
16.94 7.10 1.65 47 117 153
16.94 6.99 1.65 46 116 152
16.94 6.87 1.65 47 117 153
16.94 6.76 1.65 47 117 153
16.94 6.64 1.65 49 117 154
16.94 6.53 1.65 49 117 154
16.94 6.41 1.65 49 117 152
16.94 6.30 1.65 49 117 152
16.94 6.18 1.65 51 117 152
16.94 6.07 1.65 51 117 152
16.94 5.95 1.65 51 117 152
16.94 5.83 1.65 51 117 152
16.94 5.72 1.65 53 119 153
16.94 5.60 1.65 53 119 153
16.94 5.49 1.65 53 119 154
16.94 5.37 1.65 53 119 154
16.94 5.26 1.65 53 118 156
16.94 5.14 1.65 53 118 156
16.94 5.03 1.65 52 120 159
16.94 4.91 1.65 52 120 159
16.94 4.80 1.65 49 118 157
16.94 4.68 1.65 49 118 157
16.94 4.57 1.65 49 118 159
16.94 4.45 1.65 49 118 159
16.64 4.27 1.83 49 120 162
16.64 4.16 1.83 49 120 162
16.64 4.04 1.83 49 120 162
16.64 3.93 1.83 52 121 160
16.64 3.81 1.83 52 121 160
16.64 3.70 1.83 52 121 160
16.64 3.58 1.83 52 121 160
16.64 3.47 1.83 52 122 158
16.64 3.36 1.83 52 122 158
16.64 3.24 1.83 52 122 158
16.64 3.13 1.83 52 122 158
16.32 2.95 2.03 53 122 161
16.32 2.84 2.03 53 122 161
16.32 2.72 2.03 54 123 162
16.32 2.61 2.03 53 122 161
16.32 2.49 2.03 53 122 163
16.32 2.38 2.03 53 122 163
16.32 2.27 2.03 52 121 163
16.32 2.15 2.03 52 121 163
16.32 2.04 2.03 50 121 165
16.02 1.87 2.21 49 120 164
16.02 1.76 2.21 50 121 165
16.02 1.65 2.21 52 123 167
16.02 1.53 2.21 53 124 168
16.02 1.42 2.21 51 122 166
16.02 1.31 2.21 52 123 167
16.02 1.19 2.21 52 123 165
16.02 1.08 2.21 52 123 165
16.02 0.97 2.21 51 122 164
16.02 0.85 2.21 50 121 163
15.72 0.70 2.40 51 122 164
15.72 0.58 2.40 53 124 166
15.72 0.47 2.40 52 123 165
15.72 0.36 2.40 52 121 163
15.72 0.24 2.40 52 121 162
15.72 0.13 2.40 53 120 162
15.72 0.02 2.40 52 121 162
15.72 -0.09 2.40 52 121 162
15.72 -0.21 2.40 51 122 164
15.42 -0.36 2.58 52 123 165
15.42 -0.47 2.58 50 123 164
15.42 -0.58 2.58 50 123 164
15.42 -0.69 2.58 47 122 162
15.42 -0.81 2.58 47 122 162
15.42 -0.92 2.58 47 122 162
15.12 -1.07 2.76 47 122 162
15.12 -1.18 2.76 48 121 164
15.12 -1.29 2.76 48 121 164
15.12 -1.40 2.76 46 121 163
15.12 -1.51 2.76 40 117 161
15.12 -1.62 2.76 42 119 163
15.12 -1.74 2.76 46 121 161
15.12 -1.85 2.76 48 119 161
14.85 -1.99 2.93 47 119 159
14.85 -2.10 2.93 45 116 158
14.85 -2.21 2.93 44 117 162
14.56 -2.35 3.11 41 117 166
14.56 -2.46 3.11 42 120 169
14.56 -2.57 3.11 42 120 169
14.56 -2.68 3.11 36 114 160
14.26 -2.81 3.30 40 113 154
14.26 -2.92 3.30 51 116 148
16.88 12.87 1.55 69 73 72
16.88 12.76 1.55 67 77 78
16.88 12.64 1.55 67 80 73
16.88 12.52 1.55 65 82 72
16.88 12.41 1.55 57 83 70
16.88 12.29 1.55 47 78 73
16.88 12.18 1.55 45 81 93
16.88 12.06 1.55 53 95 120
16.88 11.95 1.55 44 92 128
16.88 11.83 1.55 40 93 137
16.88 11.72 1.55 38 94 141
16.88 11.60 1.55 38 96 144
16.88 11.49 1.55 36 94 142
16.88 11.37 1.55 35 91 142
16.88 11.26 1.55 36 91 145
16.88 11.14 1.55 40 92 149
16.88 11.03 1.55 39 91 149
16.88 10.91 1.55 40 92 150
17.21 10.90 1.34 39 94 150
17.21 10.78 1.34 42 97 153
17.21 10.67 1.34 44 100 151
17.21 10.55 1.34 46 102 153
17.21 10.44 1.34 46 104 152
17.21 10.32 1.34 47 105 153
17.21 10.20 1.34 48 106 152
17.21 10.09 1.34 45 106 151
17.21 9.97 1.34 46 107 152
17.21 9.86 1.34 45 106 151
17.21 9.74 1.34 43 104 149
17.21 9.62 1.34 43 104 149
17.21 9.51 1.34 44 105 149
17.21 9.39 1.34 47 110 151
17.21 9.28 1.34 46 110 148
17.21 9.16 1.34 45 110 148
17.21 9.04 1.34 44 109 147
17.21 8.93 1.34 41 109 146
17.21 8.81 1.34 42 110 147
17.21 8.70 1.34 43 113 149
17.21 8.58 1.34 44 114 150
17.21 8.46 1.34 41 114 149
17.21 8.35 1.34 41 114 149
17.21 8.23 1.34 41 114 149
17.21 8.12 1.34 41 114 149
16.88 7.91 1.55 43 113 149
16.88 7.80 1.55 44 114 150
16.88 7.68 1.55 44 114 150
16.88 7.56 1.55 44 114 150
16.88 7.45 1.55 45 118 153
16.88 7.33 1.55 45 118 153
16.88 7.22 1.55 45 118 153
16.88 7.10 1.55 45 115 151
16.88 6.99 1.55 45 115 151
16.88 6.87 1.55 45 115 151
16.88 6.76 1.55 45 115 151
16.88 6.64 1.55 48 116 153
16.88 6.53 1.55 48 116 153
16.88 6.41 1.55 51 117 152
16.88 6.30 1.55 52 118 153
16.88 6.18 1.55 53 119 154
16.88 6.07 1.55 53 119 154
16.88 5.95 1.55 52 118 153
16.88 5.83 1.55 51 117 152
16.88 5.72 1.55 55 119 154
16.88 5.60 1.55 54 118 153
16.88 5.49 1.55 53 117 152
16.88 5.37 1.55 52 116 151
16.88 5.26 1.55 51 117 152
16.88 5.14 1.55 51 117 152
16.88 5.03 1.55 52 117 155
16.59 4.85 1.73 53 118 158
16.59 4.73 1.73 52 120 159
16.59 4.62 1.73 51 118 160
16.59 4.50 1.73 49 118 159
16.59 4.39 1.73 49 118 159
16.59 4.27 1.73 49 118 160
16.59 4.16 1.73 47 118 160
16.59 4.04 1.73 47 118 160
16.59 3.93 1.73 50 119 158
16.59 3.81 1.73 50 119 158
16.59 3.70 1.73 50 119 158
16.59 3.58 1.73 50 119 158
16.59 3.47 1.73 51 121 157
16.59 3.36 1.73 51 121 157
16.59 3.24 1.73 49 122 157
16.26 3.06 1.93 49 122 157
16.26 2.95 1.93 50 122 160
16.26 2.84 1.93 50 122 160
16.26 2.72 1.93 52 121 162
16.26 2.61 1.93 52 121 162
16.26 2.49 1.93 52 121 162
16.26 2.38 1.93 51 120 161
16.26 2.27 1.93 51 120 162
16.26 2.15 1.93 51 120 162
16.26 2.04 1.93 48 119 163
15.96 1.87 2.12 48 119 163
15.96 1.76 2.12 49 120 164
15.96 1.65 2.12 51 122 166
15.96 1.53 2.12 51 122 166
15.96 1.42 2.12 50 121 165
15.96 1.31 2.12 51 122 166
15.96 1.19 2.12 51 122 166
15.96 1.08 2.12 51 122 166
15.96 0.97 2.12 51 122 164
15.96 0.85 2.12 50 121 163
15.66 0.70 2.30 51 122 164
15.66 0.58 2.30 53 124 166
15.66 0.47 2.30 52 123 165
15.66 0.36 2.30 52 121 163
15.66 0.24 2.30 52 121 162
15.66 0.13 2.30 52 119 161
15.66 0.02 2.30 51 120 161
15.66 -0.09 2.30 51 120 161
15.37 -0.25 2.48 50 121 163
15.37 -0.36 2.48 50 121 163
15.37 -0.47 2.48 48 121 162
15.37 -0.58 2.48 47 120 161
15.37 -0.69 2.48 50 125 165
15.37 -0.81 2.48 49 124 164
15.37 -0.92 2.48 49 124 164
15.07 -1.07 2.67 48 123 163
15.07 -1.18 2.67 49 122 165
15.07 -1.29 2.67 49 122 165
15.07 -1.40 2.67 48 123 165
15.07 -1.51 2.67 43 122 165
15.07 -1.62 2.67 44 123 164
15.07 -1.74 2.67 49 122 163
15.07 -1.85 2.67 50 119 160
14.80 -1.99 2.83 46 116 152
14.80 -2.10 2.83 45 113 152
14.80 -2.21 2.83 45 116 158
14.50 -2.35 3.02 47 120 165
14.50 -2.46 3.02 41 117 166
14.50 -2.57 3.02 40 118 166
14.20 -2.70 3.20 37 114 160
14.20 -2.81 3.20 41 114 155
14.20 -2.92 3.20 44 113 146
16.83 12.87 1.45 74 83 80
16.83 12.76 1.45 71 82 78
16.83 12.64 1.45 74 83 82
16.83 12.52 1.45 75 84 81
16.83 12.41 1.45 64 82 70
16.83 12.29 1.45 51 76 72
16.83 12.18 1.45 44 81 100
16.83 12.06 1.45 47 92 125
16.83 11.95 1.45 36 90 126
16.83 11.83 1.45 34 92 130
16.83 11.72 1.45 39 93 139
16.83 11.60 1.45 41 94 144
16.83 11.26 1.45 32 93 148
16.83 11.14 1.45 36 97 152
16.83 11.03 1.45 34 96 145
16.83 10.91 1.45 36 97 144
16.83 10.79 1.45 37 97 147
17.15 10.78 1.24 38 98 148
16.83 10.56 1.45 40 100 150
17.15 10.55 1.24 42 102 152
17.15 10.44 1.24 43 103 153
17.15 10.32 1.24 44 104 154
17.15 10.20 1.24 41 103 152
17.15 10.09 1.24 46 108 155
17.15 9.97 1.24 45 107 154
17.15 9.86 1.24 44 107 150
17.15 9.74 1.24 44 107 150
17.15 9.62 1.24 44 107 150
17.15 9.51 1.24 43 106 150
17.15 9.39 1.24 44 108 152
17.15 9.28 1.24 43 107 153
17.15 9.16 1.24 43 107 151
17.15 9.04 1.24 45 109 153
17.15 8.93 1.24 48 112 156
17.15 8.81 1.24 49 113 157
17.15 8.70 1.24 45 113 152
17.15 8.58 1.24 42 110 149
17.15 8.46 1.24 47 115 152
17.15 8.35 1.24 47 115 152
17.15 8.23 1.24 46 116 150
17.15 8.12 1.24 46 116 150
17.15 8.00 1.24 46 117 149
16.83 7.80 1.45 46 117 149
16.83 7.68 1.45 46 117 149
16.83 7.56 1.45 47 118 150
16.83 7.45 1.45 43 113 147
16.83 7.33 1.45 44 114 148
16.83 7.22 1.45 44 117 150
16.83 7.10 1.45 43 116 151
16.83 6.99 1.45 44 117 152
16.83 6.87 1.45 49 119 155
16.83 6.76 1.45 52 122 158
16.83 6.64 1.45 47 117 153
16.83 6.53 1.45 48 118 154
16.83 6.41 1.45 49 117 154
16.83 6.30 1.45 51 116 154
16.83 6.18 1.45 52 118 153
16.83 6.07 1.45 54 118 154
16.83 5.95 1.45 54 118 154
16.83 5.83 1.45 54 118 154
16.83 5.72 1.45 49 118 151
16.83 5.60 1.45 51 120 153
16.83 5.49 1.45 52 121 154
16.83 5.37 1.45 52 121 154
16.83 5.26 1.45 51 119 154
16.83 5.14 1.45 51 119 154
16.83 5.03 1.45 52 120 157
16.53 4.85 1.63 53 121 158
16.53 4.73 1.63 52 120 157
16.53 4.62 1.63 52 120 157
16.53 4.50 1.63 52 120 159
16.53 4.39 1.63 53 121 160
16.53 4.27 1.63 52 120 159
16.53 4.16 1.63 51 119 158
16.53 4.04 1.63 50 118 155
16.53 3.93 1.63 51 119 154
16.53 3.81 1.63 52 121 154
16.53 3.70 1.63 50 120 154
16.53 3.58 1.63 49 119 153
16.53 3.47 1.63 47 120 155
16.53 3.36 1.63 49 122 157
16.53 3.24 1.63 50 122 160
16.20 3.06 1.83 49 121 159
16.20 2.95 1.83 46 118 158
16.20 2.84 1.83 47 119 159
16.20 2.72 1.83 48 119 161
16.20 2.61 1.83 49 120 162
16.20 2.49 1.83 50 119 161
16.20 2.38 1.83 50 119 161
16.20 2.27 1.83 53 120 163
16.20 2.15 1.83 54 121 164
16.20 2.04 1.83 51 123 161
16.20 1.92 1.83 51 123 161
15.90 1.76 2.02 50 122 160
15.90 1.65 2.02 50 122 160
15.90 1.53 2.02 50 122 162
15.90 1.42 2.02 53 122 164
15.90 1.31 2.02 54 123 165
15.90 1.19 2.02 52 121 163
15.90 1.08 2.02 53 122 164
15.90 0.97 2.02 54 122 167
15.90 0.85 2.02 53 121 166
15.90 0.74 2.02 55 123 170
15.61 0.58 2.20 56 124 171
15.61 0.47 2.20 55 123 170
15.61 0.36 2.20 53 121 168
15.61 0.24 2.20 54 123 165
15.61 0.13 2.20 53 122 164
15.61 0.02 2.20 51 120 162
15.31 -0.13 2.39 51 120 162
15.31 -0.25 2.39 52 121 163
15.31 -0.36 2.39 53 122 164
15.31 -0.47 2.39 51 122 164
15.31 -0.58 2.39 50 121 163
15.31 -0.69 2.39 52 123 167
15.31 -0.81 2.39 51 122 166
15.01 -0.95 2.57 49 122 167
15.01 -1.07 2.57 49 121 169
15.01 -1.18 2.57 49 123 170
15.01 -1.29 2.57 49 123 172
15.01 -1.40 2.57 48 121 172
15.01 -1.51 2.57 49 123 170
15.01 -1.62 2.57 48 122 169
15.01 -1.74 2.57 47 120 165
15.01 -1.85 2.57 47 120 165
14.74 -1.99 2.74 48 119 165
14.74 -2.10 2.74 47 118 164
14.45 -2.24 2.92 45 117 165
14.45 -2.35 2.92 43 115 163
14.45 -2.46 2.92 44 118 165
14.45 -2.57 2.92 40 114 161
14.15 -2.70 3.11 43 116 159
14.15 -2.81 3.11 43 114 156
14.15 -2.92 3.11 41 111 147
14.15 -3.03 3.11 55 121 155
14.15 -3.14 3.11 76 141 173
16.77 12.87 1.35 69 78 73
16.77 12.76 1.35 70 81 73
16.77 12.64 1.35 74 83 82
16.77 12.52 1.35 74 83 82
16.77 12.41 1.35 65 83 71
16.77 12.29 1.35 55 80 77
16.77 12.18 1.35 47 83 107
16.77 12.06 1.35 46 90 127
16.77 11.95 1.35 37 90 130
16.77 11.83 1.35 35 92 135
16.77 11.72 1.35 39 93 140
16.77 11.60 1.35 41 94 146
16.77 11.26 1.35 32 93 147
16.77 11.14 1.35 36 98 149
16.77 11.03 1.35 32 94 143
16.77 10.91 1.35 34 95 142
16.77 10.79 1.35 36 96 146
16.77 10.68 1.35 38 98 148
16.77 10.56 1.35 40 100 150
16.77 10.45 1.35 42 102 152
17.10 10.44 1.14 43 103 153
17.10 10.32 1.14 43 103 153
17.10 10.20 1.14 42 104 153
17.10 10.09 1.14 45 107 154
17.10 9.97 1.14 43 105 152
17.10 9.86 1.14 43 106 149
17.10 9.74 1.14 44 107 150
17.10 9.62 1.14 45 108 151
17.10 9.51 1.14 44 107 150
17.10 9.39 1.14 43 107 151
17.10 9.28 1.14 43 107 151
17.10 9.16 1.14 44 108 152
17.10 9.04 1.14 45 109 153
17.10 8.93 1.14 45 112 154
17.10 8.81 1.14 46 113 155
17.10 8.70 1.14 45 113 152
17.10 8.58 1.14 44 112 151
17.10 8.46 1.14 45 115 151
17.10 8.35 1.14 45 115 151
17.10 8.23 1.14 45 115 149
17.10 8.12 1.14 44 114 148
17.10 8.00 1.14 42 115 147
17.10 7.88 1.14 41 114 146
16.77 7.68 1.35 41 114 146
16.77 7.56 1.35 41 114 146
16.77 7.45 1.35 45 116 148
16.77 7.33 1.35 46 117 149
16.77 7.22 1.35 47 117 151
16.77 7.10 1.35 44 114 150
16.77 6.99 1.35 43 113 149
16.77 6.87 1.35 44 114 150
16.77 6.76 1.35 46 116 152
16.77 6.64 1.35 49 119 155
16.77 6.53 1.35 49 119 155
16.77 6.41 1.35 50 118 155
16.77 6.30 1.35 50 118 155
16.77 6.18 1.35 52 118 153
16.77 6.07 1.35 52 118 153
16.77 5.95 1.35 53 117 152
16.77 5.83 1.35 53 117 152
16.77 5.72 1.35 48 117 150
16.77 5.60 1.35 49 118 151
16.77 5.49 1.35 49 118 151
16.77 5.37 1.35 50 119 152
16.77 5.26 1.35 49 117 152
16.77 5.14 1.35 49 117 152
16.77 5.03 1.35 50 118 155
16.47 4.85 1.53 50 118 155
16.47 4.73 1.53 48 116 153
16.47 4.62 1.53 50 118 155
16.47 4.50 1.53 51 119 158
16.47 4.39 1.53 51 119 158
16.47 4.27 1.53 50 118 157
16.47 4.16 1.53 51 119 158
16.47 4.04 1.53 52 120 159
16.47 3.93 1.53 49 117 152
16.47 3.81 1.53 50 118 153
16.47 3.70 1.53 49 119 153
16.47 3.58 1.53 48 118 152
16.47 3.47 1.53 47 120 155
16.47 3.36 1.53 50 123 158
16.47 3.24 1.53 50 122 160
16.15 3.06 1.73 49 121 159
16.15 2.95 1.73 48 120 160
16.15 2.84 1.73 48 120 160
16.15 2.72 1.73 49 120 162
16.15 2.61 1.73 48 119 161
16.15 2.49 1.73 50 119 161
16.15 2.38 1.73 50 119 161
16.15 2.27 1.73 53 120 163
16.15 2.15 1.73 54 121 164
16.15 2.04 1.73 50 122 160
16.15 1.92 1.73 49 121 159
16.15 1.81 1.73 49 121 161
15.85 1.65 1.92 49 121 161
15.85 1.53 1.92 50 122 162
15.85 1.42 1.92 52 123 165
15.85 1.31 1.92 52 123 165
15.85 1.19 1.92 49 120 162
15.85 1.08 1.92 50 121 163
15.85 0.97 1.92 52 120 165
15.85 0.85 1.92 52 120 165
15.85 0.74 1.92 52 120 165
15.55 0.58 2.10 54 122 167
15.55 0.47 2.10 53 121 168
15.55 0.36 2.10 51 119 166
15.55 0.24 2.10 53 122 164
15.55 0.13 2.10 53 122 164
15.55 0.02 2.10 52 121 163
15.25 -0.13 2.29 51 120 162
15.25 -0.25 2.29 51 120 162
15.25 -0.36 2.29 51 120 162
15.25 -0.47 2.29 50 121 163
15.25 -0.58 2.29 51 122 164
14.96 -0.73 2.47 49 122 165
14.96 -0.84 2.47 49 122 165
14.96 -0.95 2.47 49 122 167
14.96 -1.07 2.47 50 122 170
14.96 -1.18 2.47 49 123 170
14.96 -1.29 2.47 49 123 172
14.96 -1.40 2.47 46 120 169
14.96 -1.51 2.47 46 123 169
14.96 -1.62 2.47 47 121 168
14.96 -1.74 2.47 46 120 165
14.96 -1.85 2.47 47 120 165
14.69 -1.99 2.64 47 120 165
14.69 -2.10 2.64 47 120 165
14.39 -2.24 2.83 44 118 163
14.39 -2.35 2.83 42 116 161
14.39 -2.46 2.83 41 118 164
14.09 -2.59 3.01 40 117 163
14.09 -2.70 3.01 42 117 159
14.09 -2.81 3.01 41 114 155
14.09 -2.92 3.01 42 111 150
14.09 -3.03 3.01 53 119 154
14.09 -3.14 3.01 68 133 165
16.41 12.76 1.43 64 74 65
16.41 12.65 1.43 66 78 68
16.41 12.54 1.43 69 78 73
16.71 12.52 1.25 67 76 73
16.71 12.41 1.25 61 78 68
16.71 12.29 1.25 56 80 82
16.71 12.18 1.25 49 85 111
16.71 12.06 1.25 45 88 131
16.71 11.95 1.25 39 90 135
16.71 11.83 1.25 38 91 141
16.71 11.72 1.25 40 93 143
16.71 11.60 1.25 41 94 146
16.71 11.26 1.25 33 95 144
16.71 11.14 1.25 35 97 146
16.71 11.03 1.25 32 94 143
16.71 10.91 1.25 34 94 144
16.71 10.79 1.25 36 96 146
16.71 10.68 1.25 38 98 148
16.71 10.56 1.25 41 101 151
17.04 10.55 1.04 42 102 152
17.04 10.44 1.04 43 103 153
17.04 10.32 1.04 44 104 154
17.04 10.20 1.04 42 104 151
17.04 10.09 1.04 43 105 152
17.04 9.97 1.04 41 103 150
17.04 9.86 1.04 41 104 148
17.04 9.74 1.04 43 106 150
17.04 9.62 1.04 44 107 150
17.04 9.51 1.04 45 108 151
17.04 9.39 1.04 40 107 150
17.04 9.28 1.04 41 108 151
17.04 9.16 1.04 43 110 152
17.04 9.04 1.04 43 110 152
17.04 8.93 1.04 43 110 152
17.04 8.81 1.04 44 111 153
17.04 8.70 1.04 44 113 152
17.04 8.58 1.04 45 114 153
17.04 8.46 1.04 45 115 151
17.04 8.35 1.04 45 115 151
17.04 8.23 1.04 43 116 149
17.04 8.12 1.04 43 116 149
17.04 8.00 1.04 43 116 148
17.04 7.88 1.04 42 115 147
17.04 7.77 1.04 41 114 146
16.71 7.56 1.25 43 114 146
16.71 7.45 1.25 44 115 147
16.71 7.33 1.25 46 115 148
16.71 7.22 1.25 47 115 150
16.71 7.10 1.25 46 116 150
16.71 6.99 1.25 45 115 149
16.71 6.87 1.25 46 116 152
16.71 6.76 1.25 47 117 153
16.71 6.64 1.25 48 118 154
16.71 6.53 1.25 48 118 154
16.71 6.41 1.25 48 118 152
16.71 6.30 1.25 48 118 152
17.04 6.26 1.04 49 117 152
17.04 6.14 1.04 49 117 152
16.71 5.95 1.25 49 118 151
16.71 5.83 1.25 49 118 151
16.71 5.72 1.25 48 118 152
16.71 5.60 1.25 47 117 151
16.71 5.49 1.25 47 117 151
16.71 5.37 1.25 47 117 151
16.71 5.26 1.25 47 117 151
16.71 5.14 1.25 48 118 152
16.71 5.03 1.25 48 118 154
16.71 4.91 1.25 47 117 153
16.41 4.73 1.43 46 116 152
16.41 4.62 1.43 48 118 154
16.71 4.57 1.25 50 119 158
16.71 4.45 1.25 49 118 157
16.41 4.27 1.43 47 116 155
16.41 4.16 1.43 49 118 159
16.41 4.04 1.43 52 121 162
16.41 3.93 1.43 48 118 154
16.41 3.81 1.43 49 119 155
16.41 3.70 1.43 49 119 155
16.41 3.58 1.43 48 118 154
16.41 3.47 1.43 47 120 155
16.41 3.36 1.43 49 122 157
16.41 3.24 1.43 50 122 160
16.09 3.06 1.64 49 121 159
16.09 2.95 1.64 49 121 161
16.09 2.84 1.64 49 121 161
16.09 2.72 1.64 48 120 160
16.09 2.61 1.64 48 120 160
16.09 2.49 1.64 50 119 161
16.09 2.38 1.64 51 120 162
16.09 2.27 1.64 53 122 164
16.09 2.15 1.64 54 123 165
16.09 2.04 1.64 49 121 161
16.09 1.92 1.64 49 121 161
16.09 1.81 1.64 49 121 161
16.09 1.70 1.64 50 122 162
15.79 1.53 1.82 50 121 163
15.79 1.42 1.82 51 122 164
15.79 1.31 1.82 51 122 164
15.79 1.19 1.82 50 121 163
15.79 1.08 1.82 50 121 163
15.79 0.97 1.82 50 121 165
15.79 0.85 1.82 49 120 164
15.79 0.74 1.82 49 120 164
15.49 0.58 2.01 50 121 165
15.49 0.47 2.01 49 120 164
15.49 0.36 2.01 48 119 163
15.49 0.24 2.01 52 121 163
15.49 0.13 2.01 53 122 164
15.49 0.02 2.01 54 123 165
15.20 -0.13 2.19 52 121 163
15.20 -0.25 2.19 48 119 161
15.20 -0.36 2.19 48 119 161
15.20 -0.47 2.19 49 120 162
14.90 -0.62 2.38 51 122 164
14.90 -0.73 2.38 48 121 164
14.90 -0.84 2.38 48 121 164
14.90 -0.95 2.38 49 122 167
14.90 -1.07 2.38 50 123 168
14.90 -1.18 2.38 51 123 171
14.90 -1.29 2.38 50 122 170
14.90 -1.40 2.38 45 119 168
14.90 -1.51 2.38 45 122 166
14.90 -1.62 2.38 44 121 165
14.90 -1.74 2.38 46 121 163
14.90 -1.85 2.38 46 121 163
14.63 -1.99 2.54 48 121 164
14.63 -2.10 2.54 47 120 163
14.34 -2.24 2.73 44 118 163
14.34 -2.35 2.73 42 116 163
14.04 -2.48 2.92 41 118 164
14.04 -2.59 2.92 43 119 168
14.04 -2.70 2.92 42 116 161
14.04 -2.81 2.92 40 113 156
13.77 -2.95 3.08 44 116 156
13.77 -3.06 3.08 52 120 157
14.04 -3.14 2.92 61 127 161
16.36 12.76 1.33 62 74 62
16.36 12.65 1.33 65 76 62
16.36 12.54 1.33 66 73 66
16.36 12.42 1.33 63 69 67
16.65 12.41 1.15 58 74 64
16.65 12.29 1.15 57 81 85
16.65 12.18 1.15 53 86 119
16.65 12.06 1.15 46 88 136
16.65 11.95 1.15 39 89 140
16.65 11.83 1.15 39 92 144
16.65 11.72 1.15 41 94 148
16.65 11.60 1.15 41 94 148
16.98 11.36 0.94 34 95 140
16.65 11.14 1.15 35 97 144
16.98 11.13 0.94 36 97 144
16.98 11.02 0.94 36 96 146
16.65 10.79 1.15 38 98 148
16.65 10.68 1.15 39 99 149
16.65 10.56 1.15 41 101 151
16.98 10.55 0.94 43 103 153
16.98 10.44 0.94 44 104 154
16.98 10.32 0.94 45 105 155
16.98 10.20 0.94 41 103 150
16.98 10.09 0.94 41 104 148
16.98 9.97 0.94 41 104 148
16.98 9.86 0.94 41 104 148
16.98 9.74 0.94 43 106 150
16.98 9.62 0.94 44 107 150
16.98 9.51 0.94 44 107 150
16.98 9.39 0.94 41 108 151
16.98 9.28 0.94 41 108 151
16.98 9.16 0.94 42 109 151
16.98 9.04 0.94 42 109 151
16.98 8.93 0.94 42 109 151
16.98 8.81 0.94 43 110 152
16.98 8.70 0.94 43 112 151
16.98 8.58 0.94 45 114 153
16.98 8.46 0.94 43 113 149
16.98 8.35 0.94 44 114 150
16.98 8.23 0.94 42 115 148
16.98 8.12 0.94 43 116 149
16.98 8.00 0.94 43 116 148
16.98 7.88 0.94 43 116 148
16.98 7.77 0.94 42 117 148
16.98 7.65 0.94 42 115 147
16.65 7.45 1.15 42 112 146
16.65 7.33 1.15 44 112 147
16.65 7.22 1.15 47 115 150
16.65 7.10 1.15 47 117 153
16.65 6.99 1.15 47 117 153
16.65 6.87 1.15 46 119 154
16.65 6.76 1.15 47 120 155
16.65 6.64 1.15 43 116 151
16.65 6.53 1.15 43 116 151
16.65 6.41 1.15 45 115 151
16.98 6.37 0.94 46 116 152
16.98 6.26 0.94 46 116 150
16.98 6.14 0.94 47 117 151
16.98 6.03 0.94 48 116 151
16.65 5.83 1.15 48 116 151
16.65 5.72 1.15 50 120 156
16.65 5.60 1.15 48 118 154
16.65 5.49 1.15 47 117 153
16.65 5.37 1.15 47 117 153
16.65 5.26 1.15 48 118 154
16.65 5.14 1.15 49 119 155
16.65 5.03 1.15 48 118 154
16.65 4.91 1.15 47 117 153
16.65 4.80 1.15 49 119 155
16.65 4.68 1.15 49 119 155
16.65 4.57 1.15 50 119 158
16.65 4.45 1.15 49 118 157
16.36 4.27 1.33 48 117 158
16.36 4.16 1.33 49 118 159
16.36 4.04 1.33 51 120 161
16.36 3.93 1.33 49 118 157
16.36 3.81 1.33 50 119 158
16.36 3.70 1.33 51 121 157
16.36 3.58 1.33 49 119 155
16.36 3.47 1.33 49 118 157
16.36 3.36 1.33 50 119 158
16.36 3.24 1.33 48 120 158
16.03 3.06 1.54 48 120 158
16.03 2.95 1.54 47 119 157
16.03 2.84 1.54 47 119 157
16.03 2.72 1.54 49 118 159
16.03 2.61 1.54 50 119 160
16.03 2.49 1.54 50 119 161
16.03 2.38 1.54 51 120 162
16.03 2.27 1.54 53 121 166
16.03 2.15 1.54 53 121 166
16.03 2.04 1.54 49 120 162
16.03 1.92 1.54 49 120 162
16.03 1.81 1.54 49 120 162
16.03 1.70 1.54 49 120 162
15.73 1.53 1.72 50 121 163
15.73 1.42 1.72 49 120 162
15.73 1.31 1.72 49 120 162
15.73 1.19 1.72 50 121 165
15.73 1.08 1.72 50 121 165
15.73 0.97 1.72 49 120 164
15.73 0.85 1.72 49 120 164
15.44 0.70 1.91 50 121 165
15.44 0.58 1.91 50 121 165
15.44 0.47 1.91 50 121 165
15.44 0.36 1.91 50 121 165
15.44 0.24 1.91 50 121 165
15.44 0.13 1.91 51 122 166
15.44 0.02 1.91 51 122 164
15.14 -0.13 2.09 50 121 163
15.14 -0.25 2.09 48 119 161
15.14 -0.36 2.09 48 119 161
15.14 -0.47 2.09 48 121 162
14.84 -0.62 2.28 48 121 162
14.84 -0.73 2.28 48 121 164
14.84 -0.84 2.28 48 121 164
14.84 -0.95 2.28 49 122 167
14.84 -1.07 2.28 50 123 168
14.84 -1.18 2.28 50 122 170
14.84 -1.29 2.28 50 122 170
14.84 -1.40 2.28 46 120 169
14.84 -1.51 2.28 44 121 165
14.84 -1.62 2.28 43 120 164
14.84 -1.74 2.28 45 120 162
14.84 -1.85 2.28 46 121 163
14.58 -1.99 2.45 48 121 164
14.58 -2.10 2.45 48 121 166
14.28 -2.24 2.63 43 120 164
14.28 -2.35 2.63 41 118 164
13.98 -2.48 2.82 40 118 166
13.98 -2.59 2.82 43 121 169
13.98 -2.70 2.82 39 116 162
13.98 -2.81 2.82 38 112 157
13.72 -2.95 2.99 46 119 160
13.72 -3.06 2.99 54 123 162
13.72 -3.16 2.99 57 125 160
16.30 12.76 1.23 59 73 58
16.30 12.65 1.23 65 76 62
16.30 12.54 1.23 66 73 66
16.60 12.52 1.05 64 70 68
16.60 12.41 1.05 60 76 66
16.60 12.29 1.05 63 84 89
16.60 12.18 1.05 55 88 121
16.60 12.06 1.05 47 87 138
16.60 11.95 1.05 40 90 141
16.60 11.83 1.05 39 92 146
