ply
format ascii 1.0
element vertex 1606
property float x
property float y
property float z
property uchar red
property uchar green
property uchar blue
end_header
-3.97 13.31 -1.11 142 136 138
-3.97 13.22 -1.11 141 135 137
-3.97 13.14 -1.11 139 133 135
-3.97 13.05 -1.11 142 136 140
-3.97 12.96 -1.11 142 136 140
-3.97 12.88 -1.11 141 135 137
-3.97 12.79 -1.11 139 133 135
-3.97 12.70 -1.11 139 133 133
-3.97 12.62 -1.11 142 136 136
-3.97 12.53 -1.11 144 139 136
-3.97 12.45 -1.11 143 138 135
-3.81 12.44 -1.27 143 135 133
-3.81 12.36 -1.27 144 136 134
-3.81 12.27 -1.27 145 137 135
-3.81 12.18 -1.27 145 137 135
-3.81 12.10 -1.27 146 138 136
-3.97 11.93 -1.11 146 138 136
-3.97 11.84 -1.11 146 137 138
-3.97 11.75 -1.11 141 137 138
-3.97 11.67 -1.11 142 137 141
-3.97 11.58 -1.11 143 139 140
-3.97 11.50 -1.11 144 140 141
-3.97 11.41 -1.11 144 140 141
-3.97 11.32 -1.11 145 141 142
-3.97 11.24 -1.11 146 142 141
-3.97 11.15 -1.11 146 142 141
-3.97 11.06 -1.11 144 140 139
-3.97 10.98 -1.11 144 140 139
-3.97 10.89 -1.11 145 141 138
-3.97 10.80 -1.11 145 141 138
-3.97 10.72 -1.11 144 140 137
-3.97 10.63 -1.11 144 140 137
-3.97 10.54 -1.11 143 139 136
-3.97 10.46 -1.11 142 139 134
-3.97 10.37 -1.11 144 141 134
-3.97 10.29 -1.11 142 139 130
-3.97 10.20 -1.11 141 138 131
-3.97 10.11 -1.11 141 138 131
-4.12 9.95 -0.95 142 139 134
-4.12 9.87 -0.95 141 138 133
-4.24 9.72 -0.82 139 136 131
-4.24 9.63 -0.82 132 128 125
-4.54 9.41 -0.50 132 128 125
-4.69 9.25 -0.34 126 123 118
-4.97 9.03 -0.05 133 130 125
-5.25 8.82 0.24 126 123 118
-5.25 8.74 0.24 119 116 111
-5.37 8.60 0.37 131 128 121
-5.37 8.51 0.37 151 148 143
-5.37 8.43 0.37 149 147 148
-5.37 8.35 0.37 144 142 145
-5.37 8.26 0.37 138 139 143
-5.37 8.18 0.37 137 138 143
-5.37 8.10 0.37 135 140 144
-5.37 8.01 0.37 135 139 148
-5.37 7.93 0.37 134 138 147
-5.37 7.85 0.37 133 137 148
-5.37 7.77 0.37 131 133 146
-5.52 7.62 0.53 132 134 147
-5.52 7.53 0.53 133 135 148
-5.52 7.45 0.53 134 136 149
-5.52 7.37 0.53 132 139 149
-5.52 7.29 0.53 133 140 150
-5.52 7.20 0.53 135 146 152
-5.52 7.12 0.53 137 148 154
-5.65 6.98 0.66 127 140 148
-5.65 6.90 0.66 124 137 145
-5.65 6.82 0.66 133 146 154
-5.65 6.74 0.66 131 144 150
-5.65 6.66 0.66 131 144 150
-5.65 6.57 0.66 132 147 152
-5.65 6.49 0.66 130 145 150
-5.65 6.41 0.66 128 146 150
-5.65 6.33 0.66 135 153 157
-5.65 6.24 0.66 128 145 152
-5.65 6.16 0.66 127 144 151
-5.65 6.08 0.66 133 152 159
-5.65 6.00 0.66 133 152 159
-5.65 5.91 0.66 128 146 156
-5.65 5.83 0.66 139 157 167
-5.65 5.75 0.66 133 152 159
-5.65 5.67 0.66 133 152 159
-5.65 5.59 0.66 133 152 159
-5.78 5.46 0.80 133 152 159
-5.78 5.37 0.80 134 153 160
-5.78 5.29 0.80 134 153 160
-5.78 5.21 0.80 135 154 161
-5.78 5.13 0.80 135 154 161
-5.78 5.05 0.80 136 155 162
-5.78 4.96 0.80 135 154 161
-5.78 4.88 0.80 136 155 162
-5.78 4.80 0.80 136 155 162
-5.78 4.72 0.80 135 154 161
-5.78 4.64 0.80 136 155 162
-5.78 4.55 0.80 138 157 164
-5.78 4.47 0.80 135 154 158
-5.78 4.39 0.80 135 154 158
-5.78 4.31 0.80 135 154 158
-5.78 4.23 0.80 135 154 158
-5.78 4.14 0.80 136 155 159
-5.78 4.06 0.80 136 155 159
-5.78 3.98 0.80 137 156 162
-5.78 3.90 0.80 137 156 162
-5.78 3.82 0.80 136 155 161
-5.78 3.73 0.80 137 156 162
-5.78 3.65 0.80 137 156 162
-5.78 3.57 0.80 138 157 163
-5.78 3.49 0.80 138 157 164
-5.78 3.41 0.80 139 158 165
-5.78 3.32 0.80 139 158 165
-5.90 3.20 0.93 139 158 165
-5.90 3.12 0.93 142 160 164
-5.90 3.04 0.93 142 160 164
-5.90 2.96 0.93 140 159 165
-5.78 2.59 0.80 159 170 174
-5.65 2.54 0.66 163 170 176
-5.52 2.49 0.53 159 163 166
-5.37 2.45 0.37 186 187 189
-5.37 2.37 0.37 197 199 198
-5.25 2.32 0.24 195 197 194
-4.82 2.36 -0.21 195 198 191
-4.69 2.31 -0.34 195 197 192
-4.54 2.27 -0.50 196 197 192
-4.24 2.26 -0.82 201 201 199
-4.12 2.04 -0.95 168 170 169
-4.12 1.95 -0.95 169 171 170
-4.12 1.87 -0.95 168 170 169
-3.97 1.82 -1.11 166 168 167
-3.97 1.73 -1.11 163 167 166
-3.97 1.65 -1.11 162 166 165
-3.97 1.56 -1.11 162 167 163
-3.97 1.48 -1.11 161 166 162
-3.97 1.39 -1.11 157 164 157
-3.97 1.30 -1.11 156 163 155
-3.97 1.22 -1.11 155 162 155
-3.97 1.13 -1.11 157 163 159
-3.97 1.04 -1.11 155 161 159
-3.97 0.96 -1.11 154 160 156
-3.97 0.87 -1.11 153 159 155
-4.12 0.75 -0.95 155 160 156
-4.12 0.66 -0.95 155 160 156
-3.97 0.61 -1.11 154 159 155
-3.97 0.52 -1.11 153 158 154
-4.12 0.41 -0.95 151 156 152
-4.12 0.32 -0.95 151 156 152
-4.12 0.23 -0.95 151 155 154
-3.97 0.18 -1.11 153 157 156
-3.97 0.09 -1.11 155 161 159
-3.97 0.01 -1.11 157 163 161
-4.12 -0.11 -0.95 159 165 163
-4.12 -0.20 -0.95 160 166 164
-4.12 -0.28 -0.95 157 168 164
-4.12 -0.37 -0.95 158 169 165
-4.12 -0.45 -0.95 160 169 164
-4.12 -0.54 -0.95 161 170 165
-4.12 -0.63 -0.95 163 170 163
-4.12 -0.71 -0.95 164 169 162
-3.97 -0.77 -1.11 163 168 161
-3.97 -0.86 -1.11 165 170 163
-3.97 -0.94 -1.11 163 168 161
-3.97 -1.03 -1.11 162 167 161
-3.97 -1.12 -1.11 162 167 161
-3.97 -1.20 -1.11 161 168 161
-3.97 -1.29 -1.11 162 169 162
-3.97 -1.38 -1.11 162 168 164
-3.97 -1.46 -1.11 162 168 164
-3.97 -1.55 -1.11 162 168 166
-3.97 -1.63 -1.11 162 168 166
-3.97 -1.72 -1.11 161 167 163
-3.97 -1.81 -1.11 161 167 163
-3.97 -1.89 -1.11 159 168 163
-3.97 -1.98 -1.11 159 168 163
-3.97 -2.07 -1.11 158 167 162
-3.97 -2.15 -1.11 158 167 162
-3.97 -2.24 -1.11 159 168 163
-3.97 -2.33 -1.11 159 168 163
-3.97 -2.41 -1.11 159 168 163
-3.97 -2.50 -1.11 160 169 164
-4.12 -2.61 -0.95 162 168 164
-4.12 -2.69 -0.95 162 168 164
-4.12 -2.78 -0.95 163 169 165
-4.12 -2.86 -0.95 159 169 161
-4.12 -2.95 -0.95 159 169 161
-4.12 -3.04 -0.95 160 169 164
-4.12 -3.12 -0.95 160 169 164
-4.12 -3.21 -0.95 161 170 165
-4.12 -3.29 -0.95 161 170 165
-4.12 -3.38 -0.95 163 169 167
-3.97 -3.45 -1.11 163 169 167
-3.97 -3.53 -1.11 165 171 169
-3.97 -3.62 -1.11 164 170 168
-3.97 -3.71 -1.11 163 169 165
-3.97 -3.79 -1.11 162 168 164
-3.97 -3.88 -1.11 163 169 165
-3.81 -3.95 -1.27 163 169 165
-3.81 -4.04 -1.27 164 171 164
-3.81 -4.13 -1.27 165 170 166
-3.97 -4.23 -1.11 166 171 167
-3.97 -4.31 -1.11 168 170 169
-3.97 -4.40 -1.11 165 169 168
-3.97 -4.49 -1.11 164 168 167
-4.12 -4.58 -0.95 164 168 167
-4.12 -4.67 -0.95 165 169 168
-4.12 -4.76 -0.95 164 170 168
-4.12 -4.84 -0.95 161 167 165
-4.12 -4.93 -0.95 162 168 166
-4.12 -5.01 -0.95 163 169 167
-4.12 -5.10 -0.95 165 171 169
-4.12 -5.19 -0.95 167 171 170
-4.12 -5.27 -0.95 167 171 170
-4.12 -5.36 -0.95 169 171 170
-3.97 -5.44 -1.11 169 171 170
-3.97 -5.52 -1.11 165 171 167
-3.97 -5.61 -1.11 165 171 167
-3.97 -5.69 -1.11 166 171 167
-3.97 -5.78 -1.11 166 171 167
-3.97 -5.87 -1.11 168 170 169
-3.97 -5.95 -1.11 168 170 169
-3.81 -6.03 -1.27 166 172 170
-3.81 -6.12 -1.27 166 172 170
-3.81 -6.21 -1.27 160 171 167
-3.97 -6.30 -1.11 163 174 170
-3.97 -6.39 -1.11 150 163 156
-3.97 -6.47 -1.11 248 255 253
-3.97 -6.56 -1.11 248 255 253
-3.97 -6.64 -1.11 249 255 251
-3.97 -6.73 -1.11 244 249 243
-3.97 -6.82 -1.11 254 255 251
-3.97 -6.90 -1.11 241 246 240
-3.97 -6.99 -1.11 232 237 233
-3.97 -7.08 -1.11 233 238 234
-3.97 -7.16 -1.11 243 248 244
-3.97 -7.25 -1.11 252 255 253
-3.97 -7.34 -1.11 249 255 253
-3.97 -7.42 -1.11 243 249 247
-3.97 -7.51 -1.11 210 216 214
-4.12 -7.59 -0.95 178 184 182
-4.12 -7.68 -0.95 151 157 157
-4.12 -7.77 -0.95 151 157 157
-3.97 -7.85 -1.11 163 169 169
-3.97 -7.94 -1.11 168 174 174
-3.97 -8.03 -1.11 168 176 178
-3.81 -8.12 -1.27 172 177 180
-3.81 -8.20 -1.27 171 177 175
-3.97 -8.29 -1.11 172 176 175
-3.97 -8.37 -1.11 171 177 175
-3.97 -8.46 -1.11 171 177 175
-3.97 -8.54 -1.11 169 178 175
-3.97 -8.63 -1.11 168 177 174
-3.81 -8.72 -1.27 167 178 174
-3.81 -8.81 -1.27 167 178 174
-3.81 -8.90 -1.27 170 181 177
-3.81 -8.98 -1.27 170 179 176
-3.97 -9.06 -1.11 172 178 176
-3.97 -9.15 -1.11 173 179 177
-3.97 -9.24 -1.11 174 178 177
-3.97 -9.32 -1.11 176 178 177
-3.97 -9.41 -1.11 175 177 176
-3.97 -9.50 -1.11 175 179 178
-3.97 -9.58 -1.11 175 179 178
-3.97 -9.67 -1.11 175 179 178
-4.12 -9.74 -0.95 175 179 178
-4.12 -9.83 -0.95 175 179 178
-4.12 -9.92 -0.95 175 179 178
-4.12 -10.00 -0.95 175 179 178
-4.12 -10.09 -0.95 175 179 178
-3.97 -10.19 -1.11 177 181 180
-3.97 -10.27 -1.11 175 179 178
-4.12 -10.35 -0.95 177 181 180
-4.12 -10.43 -0.95 177 181 180
-3.97 -10.53 -1.11 174 178 177
-3.97 -10.62 -1.11 173 177 176
-3.97 -10.70 -1.11 170 174 173
-3.97 -10.79 -1.11 163 168 164
-3.97 -10.88 -1.11 158 164 152
-3.97 -10.96 -1.11 161 166 160
-3.97 -11.05 -1.11 129 133 145
-3.97 -11.14 -1.11 151 159 161
-3.97 -11.22 -1.11 23 31 34
-3.97 -11.31 -1.11 4 13 30
-4.12 -11.38 -0.95 29 37 60
-4.12 -11.46 -0.95 12 24 48
-4.24 -11.54 -0.82 19 30 60
-4.39 -11.60 -0.66 26 35 78
-4.39 -11.69 -0.66 30 38 87
-4.54 -11.76 -0.50 32 43 89
-4.69 -11.82 -0.34 33 45 85
-4.69 -11.91 -0.34 24 38 64
-4.69 -11.99 -0.34 16 27 45
-4.69 -12.08 -0.34 16 22 36
-4.69 -12.16 -0.34 24 26 38
-4.69 -12.24 -0.34 31 32 37
-4.54 -12.35 -0.50 43 44 48
-4.54 -12.44 -0.50 46 46 48
-4.39 -12.54 -0.66 41 40 45
-4.39 -12.63 -0.66 36 35 41
-4.24 -12.74 -0.82 42 41 49
-4.24 -12.82 -0.82 30 28 33
-4.24 -12.91 -0.82 14 12 15
-4.24 -12.99 -0.82 1 0 0
-4.24 -13.08 -0.82 89 90 84
-4.12 -13.18 -0.95 167 167 165
-4.12 -13.27 -0.95 211 210 215
-4.12 -13.36 -0.95 240 239 247
-4.12 -13.44 -0.95 231 232 236
-4.12 -13.53 -0.95 206 207 211
-4.12 -13.62 -0.95 181 182 184
-4.12 -13.70 -0.95 172 173 175
-4.12 -13.79 -0.95 167 169 168
-4.12 -13.87 -0.95 161 163 162
-4.12 -13.96 -0.95 156 158 155
-3.97 -14.07 -1.11 157 159 156
-3.97 -14.16 -1.11 161 162 157
-3.97 -14.25 -1.11 161 162 157
-4.12 -14.30 -0.95 162 163 157
-4.12 -14.39 -0.95 162 163 157
-4.12 -14.48 -0.95 162 163 155
-4.12 -14.56 -0.95 162 163 155
-4.12 -14.65 -0.95 162 163 155
-4.12 -14.73 -0.95 162 163 157
-4.12 -14.82 -0.95 161 164 157
-4.12 -14.91 -0.95 159 161 156
-4.12 -14.99 -0.95 158 160 155
-4.12 -15.08 -0.95 159 161 156
-4.12 -15.16 -0.95 159 161 156
-4.12 -15.25 -0.95 156 158 155
-4.12 -15.34 -0.95 152 154 151
-4.12 -15.42 -0.95 152 154 151
-4.12 -15.51 -0.95 149 151 148
-4.12 -15.59 -0.95 153 158 154
-4.12 -15.68 -0.95 150 155 151
-4.24 -15.74 -0.82 146 151 147
-4.24 -15.82 -0.82 147 152 148
-4.24 -15.91 -0.82 145 150 146
-4.24 -15.99 -0.82 146 151 147
-4.24 -16.08 -0.82 136 138 137
-4.24 -16.16 -0.82 131 133 132
-4.39 -16.21 -0.66 127 129 128
-4.39 -16.30 -0.66 127 129 128
-4.39 -16.38 -0.66 129 131 130
-4.39 -16.47 -0.66 131 133 132
-4.54 -16.52 -0.50 126 130 129
-4.54 -16.60 -0.50 123 127 126
-4.54 -16.68 -0.50 133 137 136
-4.54 -16.77 -0.50 132 136 135
-4.54 -16.85 -0.50 129 133 132
-4.39 -16.98 -0.66 113 117 116
-4.39 -17.07 -0.66 81 85 84
-4.39 -17.15 -0.66 14 20 18
-4.39 -17.24 -0.66 5 10 6
-4.39 -17.32 -0.66 7 12 5
-4.39 -17.41 -0.66 13 16 9
-4.54 -17.45 -0.50 26 27 22
-4.54 -17.53 -0.50 38 35 28
-4.69 -17.58 -0.34 15 10 0
-4.69 -17.66 -0.34 174 164 129
-4.69 -17.75 -0.34 255 238 182
-4.69 -17.83 -0.34 224 200 136
-4.69 -17.91 -0.34 232 202 138
-4.69 -18.00 -0.34 255 241 188
-4.69 -18.08 -0.34 165 130 100
-4.69 -18.17 -0.34 147 118 104
-4.69 -18.25 -0.34 217 199 197
-4.69 -18.34 -0.34 227 221 223
-4.54 -18.47 -0.50 197 202 198
-4.39 -18.60 -0.66 184 193 188
-4.24 -18.74 -0.82 195 197 196
-4.24 -18.82 -0.82 197 197 197
-4.12 -18.95 -0.95 198 198 200
-4.12 -19.03 -0.95 199 199 201
-4.12 -19.12 -0.95 200 200 202
-4.12 -19.21 -0.95 200 200 202
-4.12 -19.29 -0.95 199 198 203
-4.12 -19.38 -0.95 201 200 205
-4.12 -19.46 -0.95 201 200 205
-4.12 -19.55 -0.95 201 201 203
-4.12 -19.64 -0.95 201 201 203
-4.12 -19.72 -0.95 202 202 202
-4.24 -19.94 -0.82 202 202 200
-4.12 -20.07 -0.95 201 201 201
-4.12 -20.15 -0.95 200 200 200
-4.12 -20.24 -0.95 200 200 200
-4.12 -20.32 -0.95 201 201 201
-4.12 -20.41 -0.95 202 202 202
-4.12 -20.50 -0.95 202 202 202
-4.12 -20.58 -0.95 202 202 202
-4.12 -20.67 -0.95 201 201 201
-4.12 -20.75 -0.95 202 202 202
-4.12 -20.84 -0.95 202 202 202
-3.97 -20.98 -1.11 202 202 202
-3.97 -21.07 -1.11 203 203 203
-3.97 -21.16 -1.11 204 204 204
-3.97 -21.24 -1.11 204 204 204
-4.12 -21.27 -0.95 204 204 204
-4.12 -21.36 -0.95 206 206 208
-4.12 -21.44 -0.95 204 203 208
-4.12 -21.53 -0.95 204 204 206
-4.12 -21.61 -0.95 204 204 206
-4.12 -21.87 -0.95 201 201 199
-4.12 -21.96 -0.95 202 202 200
-4.12 -22.04 -0.95 204 204 202
-4.12 -22.13 -0.95 205 205 203
-4.12 -22.22 -0.95 205 205 203
-4.12 -22.30 -0.95 203 203 201
-4.12 -22.39 -0.95 203 203 201
-4.12 -22.47 -0.95 203 203 201
-4.12 -22.56 -0.95 202 202 202
-4.12 -22.65 -0.95 200 200 200
-4.12 -22.73 -0.95 201 203 202
-4.12 -22.82 -0.95 202 204 203
-4.12 -22.90 -0.95 203 205 204
-4.12 -22.99 -0.95 203 205 204
-4.12 -23.08 -0.95 202 202 202
-4.12 -23.16 -0.95 202 202 202
-4.24 -23.19 -0.82 202 202 202
-4.24 -23.28 -0.82 203 203 203
-4.24 -23.36 -0.82 205 205 205
-4.24 -23.45 -0.82 206 205 203
-4.12 -23.59 -0.95 205 204 202
-4.12 -23.68 -0.95 204 203 201
-4.12 -23.76 -0.95 203 202 200
-4.24 -23.79 -0.82 203 202 200
-4.24 -23.88 -0.82 204 203 201
-4.24 -23.96 -0.82 204 202 203
-4.24 -24.05 -0.82 206 204 205
-4.24 -24.14 -0.82 207 205 206
-4.24 -24.22 -0.82 206 204 205
-4.24 -24.31 -0.82 205 203 204
-4.24 -24.39 -0.82 204 202 203
-4.24 -24.48 -0.82 205 203 204
-4.24 -24.56 -0.82 206 204 205
-4.24 -24.65 -0.82 206 204 205
-4.24 -24.74 -0.82 206 204 205
-4.24 -24.82 -0.82 206 204 205
-4.12 -24.97 -0.95 205 203 204
-4.12 -25.06 -0.95 204 202 203
-4.12 -25.14 -0.95 204 202 203
-4.12 -25.23 -0.95 205 203 204
-4.12 -25.31 -0.95 206 204 205
-4.12 -25.40 -0.95 207 203 204
-3.97 -25.56 -1.11 209 205 206
-4.12 -25.57 -0.95 209 205 206
-4.12 -25.66 -0.95 209 205 206
-4.12 -25.74 -0.95 209 205 206
-4.12 -25.83 -0.95 209 205 206
-4.12 -25.92 -0.95 210 206 207
-4.12 -26.00 -0.95 207 202 206
-4.12 -26.09 -0.95 208 203 207
-4.12 -26.17 -0.95 209 204 208
-4.12 -26.26 -0.95 209 204 208
-4.12 -26.35 -0.95 208 203 207
-4.12 -26.43 -0.95 208 203 207
-4.24 -26.45 -0.82 208 203 207
-4.12 -26.60 -0.95 208 203 207
-4.12 -26.69 -0.95 210 206 207
-4.12 -26.78 -0.95 211 207 208
-4.12 -26.86 -0.95 211 207 208
-4.24 -26.88 -0.82 212 208 209
-4.24 -26.96 -0.82 212 208 209
-4.12 -27.12 -0.95 213 209 210
-4.12 -27.21 -0.95 213 209 210
-4.12 -27.29 -0.95 213 209 210
-4.12 -27.38 -0.95 211 207 208
-4.12 -27.46 -0.95 212 208 209
-4.12 -27.55 -0.95 213 209 210
-4.12 -27.64 -0.95 213 209 210
-4.12 -27.72 -0.95 212 208 209
-4.12 -27.81 -0.95 213 209 210
-4.12 -27.89 -0.95 214 210 211
-4.12 -27.98 -0.95 213 211 212
-4.12 -28.07 -0.95 213 211 212
-4.12 -28.15 -0.95 212 210 211
-4.12 -28.24 -0.95 212 210 211
-3.97 -28.41 -1.11 214 210 211
-3.97 -28.50 -1.11 214 210 211
-3.97 -28.59 -1.11 214 210 211
-3.97 -28.67 -1.11 214 210 211
-3.97 -28.76 -1.11 214 208 210
-4.12 -28.75 -0.95 213 207 209
-4.12 -28.84 -0.95 216 207 210
-4.12 -28.93 -0.95 216 207 210
-4.12 -29.01 -0.95 217 208 211
-4.12 -29.10 -0.95 218 209 212
-4.12 -29.18 -0.95 219 210 213
-4.12 -29.27 -0.95 218 212 214
-4.12 -29.36 -0.95 216 212 213
-4.12 -29.44 -0.95 217 215 216
-4.12 -29.53 -0.95 215 214 212
-4.12 -29.61 -0.95 218 214 213
-4.12 -29.70 -0.95 218 214 213
-4.24 -29.71 -0.82 217 211 211
-4.24 -29.79 -0.82 220 214 214
-4.24 -29.88 -0.82 223 214 217
-4.24 -29.96 -0.82 203 192 196
-4.24 -30.05 -0.82 121 110 116
-4.24 -30.14 -0.82 111 98 105
-4.24 -30.22 -0.82 100 87 96
-4.12 -30.39 -0.95 97 84 93
-4.01 20.56 -1.18 0 0 0
-4.01 20.48 -1.18 0 0 0
-4.16 20.28 -1.02 0 0 0
-4.16 20.19 -1.02 0 0 0
-4.16 20.10 -1.02 0 0 0
-4.01 20.13 -1.18 0 0 0
-4.01 20.05 -1.18 0 0 0
-4.01 19.96 -1.18 0 0 0
-4.16 19.76 -1.02 0 0 0
-4.16 19.67 -1.02 124 120 109
-4.16 19.59 -1.02 124 120 109
-4.16 19.50 -1.02 124 120 109
-4.16 19.41 -1.02 125 121 110
-4.16 19.33 -1.02 125 121 110
-4.16 19.24 -1.02 127 120 110
-4.16 19.16 -1.02 127 120 110
-4.16 19.07 -1.02 127 120 110
-4.16 18.98 -1.02 128 121 111
-4.01 19.01 -1.18 126 117 110
-4.01 18.92 -1.18 128 119 112
-4.01 18.84 -1.18 128 119 112
-4.01 18.75 -1.18 127 118 111
-4.01 18.66 -1.18 127 118 111
-4.01 18.58 -1.18 128 119 112
-4.01 18.49 -1.18 129 118 112
-4.01 18.41 -1.18 127 118 111
-4.01 18.32 -1.18 129 122 114
-4.01 18.23 -1.18 126 122 113
-4.01 18.15 -1.18 126 121 115
-4.01 18.06 -1.18 126 121 117
-4.01 17.97 -1.18 127 122 118
-4.01 17.89 -1.18 128 123 119
-4.01 17.80 -1.18 129 124 120
-4.01 17.71 -1.18 129 124 120
-4.01 17.63 -1.18 129 124 120
-4.01 17.54 -1.18 130 125 119
-4.01 17.46 -1.18 131 126 120
-4.01 17.37 -1.18 133 126 118
-4.01 17.28 -1.18 132 125 117
-4.01 17.20 -1.18 131 124 116
-4.01 17.11 -1.18 130 123 115
-4.16 16.92 -1.02 131 124 118
-4.16 16.83 -1.02 131 123 120
-4.16 16.75 -1.02 129 123 123
-4.16 16.66 -1.02 130 124 128
-4.16 16.58 -1.02 131 126 132
-4.16 16.49 -1.02 132 127 134
-4.16 16.40 -1.02 130 128 133
-4.16 16.32 -1.02 129 127 130
-4.16 16.23 -1.02 129 128 124
-4.16 16.15 -1.02 128 128 120
-4.16 16.06 -1.02 130 128 116
-4.16 15.97 -1.02 131 129 116
-4.01 15.99 -1.18 134 130 121
-4.01 15.90 -1.18 136 129 121
-4.01 15.81 -1.18 136 128 125
-4.01 15.73 -1.18 137 127 126
-4.01 15.64 -1.18 137 127 128
-4.01 15.55 -1.18 137 128 129
-4.16 15.37 -1.02 137 128 129
-4.16 15.29 -1.02 135 129 129
-4.16 15.20 -1.02 134 128 128
-4.16 15.11 -1.02 133 129 128
-4.16 15.03 -1.02 132 128 127
-4.16 14.94 -1.02 134 130 129
-4.16 14.86 -1.02 134 130 129
-4.16 14.77 -1.02 135 132 127
-4.16 14.68 -1.02 136 133 128
-4.01 14.69 -1.18 136 133 126
-4.01 14.60 -1.18 136 133 126
-4.01 14.52 -1.18 137 133 124
-4.01 14.43 -1.18 137 133 124
-4.01 14.35 -1.18 139 134 128
-4.01 14.26 -1.18 139 134 128
-4.01 14.17 -1.18 140 135 129
-4.01 14.09 -1.18 139 134 128
-4.01 14.00 -1.18 138 133 129
-4.01 13.91 -1.18 139 134 130
-4.01 13.83 -1.18 140 135 131
-4.01 13.74 -1.18 139 134 131
-4.01 13.65 -1.18 142 137 134
-4.01 13.57 -1.18 143 137 137
-4.01 13.48 -1.18 142 136 136
-4.16 13.31 -1.02 142 136 136
-4.16 13.22 -1.02 142 136 136
-4.16 13.14 -1.02 141 135 135
-4.16 13.05 -1.02 139 133 135
-4.16 12.96 -1.02 139 133 135
-4.16 12.88 -1.02 143 137 141
-4.16 12.79 -1.02 144 138 140
-4.16 12.71 -1.02 142 136 138
-4.16 12.62 -1.02 142 136 136
-4.01 12.62 -1.18 144 138 138
-4.01 12.53 -1.18 145 137 135
-4.01 12.45 -1.18 141 133 131
-4.01 12.36 -1.18 143 135 132
-4.01 12.27 -1.18 144 136 133
-4.01 12.19 -1.18 145 137 135
-4.01 12.10 -1.18 146 138 136
-4.01 12.01 -1.18 146 138 136
-4.01 11.93 -1.18 146 138 136
-4.16 11.76 -1.02 146 137 140
-4.16 11.67 -1.02 144 140 141
-4.16 11.59 -1.02 144 139 143
-4.16 11.50 -1.02 144 139 143
-4.16 11.42 -1.02 144 139 143
-4.16 11.33 -1.02 143 139 140
-4.16 11.24 -1.02 144 140 141
-4.01 11.24 -1.18 145 141 140
-4.01 11.15 -1.18 147 143 142
-4.16 10.99 -1.02 144 140 137
-4.16 10.90 -1.02 144 140 137
-4.16 10.81 -1.02 145 141 138
-4.16 10.73 -1.02 145 141 138
-4.16 10.64 -1.02 145 141 138
-4.16 10.56 -1.02 145 141 138
-4.16 10.47 -1.02 144 140 137
-4.16 10.38 -1.02 144 141 136
-4.16 10.30 -1.02 144 141 134
-4.16 10.21 -1.02 142 139 130
-4.16 10.13 -1.02 140 137 130
-4.16 10.04 -1.02 140 137 130
-4.16 9.95 -1.02 141 138 133
-4.16 9.87 -1.02 141 138 133
-4.28 9.72 -0.89 139 136 131
-4.28 9.63 -0.89 137 134 129
-4.59 9.41 -0.57 136 133 128
-4.74 9.25 -0.41 126 123 118
-4.86 9.11 -0.28 136 133 128
-5.01 8.95 -0.12 128 125 120
-5.29 8.74 0.17 121 118 113
-5.29 8.65 0.17 128 125 118
-5.29 8.57 0.17 149 146 141
-5.42 8.43 0.30 152 150 151
-5.42 8.35 0.30 145 143 148
-5.42 8.26 0.30 136 137 141
-5.42 8.18 0.30 136 136 144
-5.42 8.10 0.30 136 141 147
-5.42 8.01 0.30 137 141 150
-5.42 7.93 0.30 135 139 150
-5.42 7.85 0.30 134 138 149
-5.42 7.77 0.30 135 137 150
-5.42 7.68 0.30 136 138 151
-5.57 7.53 0.46 135 137 150
-5.57 7.45 0.46 134 136 149
-5.57 7.37 0.46 130 137 147
-5.42 7.35 0.30 132 139 149
-5.57 7.20 0.46 131 142 148
-5.57 7.12 0.46 131 141 150
-5.57 7.04 0.46 134 144 154
-5.57 6.96 0.46 126 139 147
-5.57 6.87 0.46 136 149 157
-5.69 6.74 0.59 126 139 147
-5.69 6.66 0.59 126 139 147
-5.69 6.57 0.59 132 147 152
-5.69 6.49 0.59 131 146 151
-5.57 6.46 0.46 128 146 150
-5.57 6.38 0.46 128 146 150
-5.57 6.29 0.46 128 147 153
-5.69 6.16 0.59 127 146 152
-5.69 6.08 0.59 137 156 163
-5.69 6.00 0.59 129 148 155
-5.69 5.91 0.59 127 147 156
-5.57 5.88 0.46 131 151 160
-5.57 5.80 0.46 134 153 160
-5.69 5.67 0.59 134 153 160
-5.69 5.59 0.59 133 152 159
-5.69 5.50 0.59 134 153 160
-5.69 5.42 0.59 134 153 160
-5.69 5.34 0.59 134 153 160
-5.69 5.26 0.59 135 154 161
-5.69 5.17 0.59 135 154 161
-5.69 5.09 0.59 135 154 161
-5.69 5.01 0.59 135 154 161
-5.82 4.88 0.72 136 155 162
-5.82 4.80 0.72 136 155 162
-5.82 4.72 0.72 135 154 161
-5.82 4.64 0.72 135 154 161
-5.82 4.55 0.72 137 156 163
-5.82 4.47 0.72 136 155 159
-5.82 4.39 0.72 136 155 159
-5.82 4.31 0.72 136 155 159
-5.82 4.23 0.72 136 155 159
-5.82 4.14 0.72 137 156 160
-5.82 4.06 0.72 137 156 160
-5.82 3.98 0.72 137 156 160
-5.82 3.90 0.72 137 156 160
-5.82 3.82 0.72 137 156 162
-5.82 3.73 0.72 138 157 163
-5.82 3.65 0.72 138 157 163
-5.82 3.57 0.72 138 157 163
-5.82 3.49 0.72 138 157 163
-5.82 3.41 0.72 139 158 164
-5.82 3.32 0.72 139 158 165
-5.94 3.20 0.86 139 158 165
-5.94 3.12 0.86 142 160 164
-5.82 3.08 0.72 143 161 165
-5.82 3.00 0.72 140 159 165
-5.82 2.59 0.72 160 169 174
-5.69 2.54 0.59 164 169 175
-5.57 2.49 0.46 156 160 163
-5.42 2.45 0.30 182 183 185
-5.42 2.37 0.30 197 197 197
-5.14 2.37 0.01 196 196 194
-4.86 2.36 -0.28 196 197 191
-4.74 2.31 -0.41 195 196 190
-4.59 2.27 -0.57 198 199 193
-4.28 2.26 -0.89 195 196 190
-4.16 2.04 -1.02 165 167 162
-4.16 1.95 -1.02 168 170 165
-4.16 1.87 -1.02 167 169 164
-4.01 1.82 -1.18 165 167 162
-4.01 1.73 -1.18 162 167 161
-4.01 1.65 -1.18 162 167 161
-4.01 1.56 -1.18 162 167 160
-4.01 1.48 -1.18 161 166 159
-4.01 1.39 -1.18 157 165 154
-4.01 1.30 -1.18 155 163 150
-4.01 1.22 -1.18 154 162 151
-4.01 1.13 -1.18 155 161 157
-4.01 1.04 -1.18 154 160 158
-4.16 0.92 -1.02 152 158 154
-4.16 0.84 -1.02 151 157 153
-4.16 0.75 -1.02 153 158 154
-4.16 0.66 -1.02 153 158 154
-4.16 0.58 -1.02 153 158 154
-4.16 0.49 -1.02 152 157 153
-4.16 0.41 -1.02 154 159 155
-4.16 0.32 -1.02 152 157 153
-4.16 0.23 -1.02 152 156 155
-4.16 0.15 -1.02 153 157 156
-4.16 0.06 -1.02 154 160 158
-4.16 -0.02 -1.02 156 162 160
-4.16 -0.11 -1.02 157 163 161
-4.16 -0.20 -1.02 159 165 163
-4.16 -0.28 -1.02 157 167 166
-4.16 -0.37 -1.02 158 168 167
-4.16 -0.45 -1.02 160 169 166
-4.16 -0.54 -1.02 161 170 167
-4.16 -0.63 -1.02 163 169 165
-4.16 -0.71 -1.02 164 169 163
-4.16 -0.80 -1.02 163 168 162
-4.16 -0.88 -1.02 164 169 162
-4.16 -0.97 -1.02 162 167 160
-4.16 -1.06 -1.02 160 165 159
-4.16 -1.14 -1.02 160 165 159
-4.16 -1.23 -1.02 160 167 160
-4.16 -1.31 -1.02 161 168 161
-4.16 -1.40 -1.02 161 167 163
-4.16 -1.49 -1.02 160 166 162
-4.16 -1.57 -1.02 162 168 166
-4.16 -1.66 -1.02 161 167 165
-4.16 -1.74 -1.02 159 168 165
-4.16 -1.83 -1.02 159 168 165
-4.16 -1.92 -1.02 159 168 165
-4.16 -2.00 -1.02 158 167 164
-4.16 -2.09 -1.02 157 168 164
-4.16 -2.17 -1.02 157 168 164
-4.16 -2.26 -1.02 159 170 164
-4.16 -2.35 -1.02 159 170 164
-4.16 -2.43 -1.02 159 168 163
-4.16 -2.52 -1.02 159 168 163
-4.16 -2.61 -1.02 159 168 163
-4.16 -2.69 -1.02 158 167 162
-4.16 -2.78 -1.02 161 167 163
-4.16 -2.86 -1.02 159 169 161
-4.16 -2.95 -1.02 159 169 161
-4.16 -3.04 -1.02 159 169 161
-4.16 -3.12 -1.02 159 169 161
-4.16 -3.21 -1.02 160 169 164
-4.16 -3.29 -1.02 161 170 165
-4.16 -3.38 -1.02 162 171 166
-4.16 -3.47 -1.02 163 172 167
-4.16 -3.55 -1.02 162 171 166
-4.16 -3.64 -1.02 161 170 165
-4.16 -3.72 -1.02 159 168 163
-4.16 -3.81 -1.02 160 169 164
-4.16 -3.90 -1.02 161 171 163
-4.16 -3.98 -1.02 161 171 163
-4.01 -4.05 -1.18 160 170 162
-4.01 -4.14 -1.18 161 167 163
-4.16 -4.24 -1.02 168 170 167
-4.16 -4.33 -1.02 167 167 167
-4.16 -4.41 -1.02 164 166 165
-4.16 -4.50 -1.02 164 166 165
-4.16 -4.58 -1.02 162 166 165
-4.16 -4.67 -1.02 163 167 166
-4.16 -4.76 -1.02 162 168 166
-4.16 -4.84 -1.02 162 168 166
-4.16 -4.93 -1.02 162 168 166
-4.16 -5.01 -1.02 164 168 167
-4.16 -5.10 -1.02 165 169 168
-4.16 -5.19 -1.02 168 170 169
-4.16 -5.27 -1.02 167 169 168
-4.16 -5.36 -1.02 167 169 168
-4.16 -5.44 -1.02 166 168 167
-4.16 -5.53 -1.02 163 169 167
-4.16 -5.62 -1.02 163 169 167
-4.16 -5.70 -1.02 164 168 167
-4.16 -5.79 -1.02 164 168 167
-4.16 -5.87 -1.02 166 168 167
-4.16 -5.96 -1.02 167 169 168
-4.16 -6.05 -1.02 164 170 168
-4.01 -6.13 -1.18 164 170 168
-4.01 -6.21 -1.18 155 166 162
-4.01 -6.30 -1.18 148 159 155
-4.01 -6.39 -1.18 221 234 227
-4.01 -6.47 -1.18 244 255 249
-4.01 -6.56 -1.18 248 255 251
-4.16 -6.65 -1.02 245 252 245
-4.16 -6.73 -1.02 249 254 247
-4.16 -6.82 -1.02 250 253 246
-4.16 -6.91 -1.02 242 247 241
-4.16 -6.99 -1.02 240 245 239
-4.16 -7.08 -1.02 241 246 240
-4.16 -7.16 -1.02 240 245 241
-4.16 -7.25 -1.02 236 241 237
-4.16 -7.34 -1.02 235 241 239
-4.16 -7.42 -1.02 238 244 242
-4.16 -7.51 -1.02 251 255 255
-4.16 -7.59 -1.02 249 255 253
-4.16 -7.68 -1.02 222 228 228
-4.16 -7.77 -1.02 176 182 182
-4.16 -7.85 -1.02 155 160 163
-4.16 -7.94 -1.02 164 169 172
-4.16 -8.02 -1.02 171 176 179
-4.01 -8.11 -1.18 165 170 173
-4.01 -8.20 -1.18 173 177 176
-4.01 -8.29 -1.18 173 177 176
-4.01 -8.37 -1.18 172 178 176
-4.01 -8.46 -1.18 172 178 176
-4.01 -8.54 -1.18 170 179 176
-4.01 -8.63 -1.18 169 178 175
-4.01 -8.72 -1.18 168 179 175
-4.01 -8.80 -1.18 168 179 175
-4.01 -8.89 -1.18 167 178 174
-4.01 -8.98 -1.18 168 177 174
-4.01 -9.06 -1.18 171 177 175
-4.01 -9.15 -1.18 174 178 177
-4.01 -9.24 -1.18 177 179 178
-4.01 -9.32 -1.18 177 179 178
-4.16 -9.40 -1.02 177 177 177
-4.16 -9.49 -1.02 174 178 177
-4.16 -9.57 -1.02 174 178 177
-4.16 -9.66 -1.02 174 178 177
-4.16 -9.74 -1.02 174 178 177
-4.16 -9.83 -1.02 174 178 177
-4.16 -9.92 -1.02 174 178 177
-4.16 -10.00 -1.02 175 179 178
-4.16 -10.09 -1.02 175 179 178
-4.16 -10.17 -1.02 173 177 176
-4.16 -10.26 -1.02 173 177 176
-4.16 -10.35 -1.02 176 180 179
-4.16 -10.43 -1.02 177 181 180
-4.16 -10.52 -1.02 174 178 177
-4.16 -10.60 -1.02 174 178 177
-4.16 -10.69 -1.02 169 173 172
-4.16 -10.78 -1.02 161 166 162
-4.16 -10.86 -1.02 161 167 155
-4.16 -10.95 -1.02 150 155 149
-4.01 -11.05 -1.18 137 140 155
-4.01 -11.14 -1.18 145 153 155
-4.16 -11.21 -1.02 60 68 71
-4.16 -11.29 -1.02 3 13 25
-4.16 -11.38 -1.02 26 34 53
-4.28 -11.45 -0.89 19 30 48
-4.44 -11.52 -0.73 20 30 55
-4.59 -11.59 -0.57 17 26 65
-4.59 -11.67 -0.57 15 23 69
-4.74 -11.74 -0.41 20 29 72
-4.74 -11.82 -0.41 26 36 72
-4.74 -11.91 -0.41 23 36 55
-4.74 -11.99 -0.41 18 28 40
-4.74 -12.08 -0.41 22 28 40
-4.74 -12.16 -0.41 23 26 35
-4.74 -12.24 -0.41 21 22 26
-4.74 -12.33 -0.41 20 21 23
-4.59 -12.44 -0.57 26 25 30
-4.44 -12.54 -0.73 33 32 38
-4.44 -12.63 -0.73 40 37 46
-4.44 -12.71 -0.73 44 41 52
-4.28 -12.82 -0.89 45 42 49
-4.28 -12.91 -0.89 48 46 51
-4.28 -12.99 -0.89 41 40 36
-4.28 -13.08 -0.89 1 0 0
-4.16 -13.18 -1.02 2 0 1
-4.16 -13.27 -1.02 23 22 28
-4.16 -13.36 -1.02 66 64 75
-4.16 -13.44 -1.02 128 131 136
-4.16 -13.53 -1.02 180 183 188
-4.16 -13.62 -1.02 225 228 233
-4.16 -13.70 -1.02 230 233 238
-4.16 -13.79 -1.02 218 219 223
-4.16 -13.87 -1.02 205 206 210
-4.16 -13.96 -1.02 188 190 189
-4.16 -14.05 -1.02 170 172 171
-4.16 -14.13 -1.02 166 168 165
-4.16 -14.22 -1.02 164 166 163
-4.16 -14.30 -1.02 161 162 157
-4.16 -14.39 -1.02 157 158 153
-4.16 -14.48 -1.02 156 157 151
-4.16 -14.56 -1.02 157 158 152
-4.16 -14.65 -1.02 160 161 153
-4.16 -14.73 -1.02 161 162 156
-4.16 -14.82 -1.02 160 163 156
-4.16 -14.91 -1.02 159 161 156
-4.16 -14.99 -1.02 159 161 156
-4.16 -15.08 -1.02 159 161 156
-4.16 -15.16 -1.02 157 159 154
-4.16 -15.25 -1.02 157 159 154
-4.16 -15.34 -1.02 158 160 155
-4.16 -15.42 -1.02 160 162 157
-4.16 -15.51 -1.02 155 157 152
-4.28 -15.56 -0.89 158 163 159
-4.28 -15.65 -0.89 156 161 157
-4.28 -15.74 -0.89 154 159 155
-4.28 -15.82 -0.89 157 162 158
-4.28 -15.91 -0.89 150 155 151
-4.28 -15.99 -0.89 146 148 145
-4.28 -16.08 -0.89 145 147 144
-4.44 -16.13 -0.73 143 143 141
-4.44 -16.21 -0.73 140 140 140
-4.44 -16.30 -0.73 138 138 138
-4.44 -16.38 -0.73 133 135 134
-4.44 -16.47 -0.73 128 130 129
-4.59 -16.52 -0.57 128 130 129
-4.59 -16.60 -0.57 130 132 131
-4.59 -16.68 -0.57 121 123 122
-4.59 -16.77 -0.57 126 128 127
-4.44 -16.90 -0.73 124 128 127
-4.44 -16.98 -0.73 120 124 123
-4.44 -17.07 -0.73 121 125 124
-4.44 -17.15 -0.73 102 106 105
-4.44 -17.24 -0.73 79 84 80
-4.44 -17.32 -0.73 59 62 51
-4.59 -17.36 -0.57 36 39 28
-4.59 -17.45 -0.57 30 31 25
-4.74 -17.49 -0.41 40 37 28
-4.74 -17.58 -0.41 23 18 0
-4.74 -17.66 -0.41 226 213 179
-4.74 -17.75 -0.41 248 231 175
-4.74 -17.83 -0.41 220 195 131
-4.74 -17.91 -0.41 229 199 137
-4.86 -17.96 -0.28 255 247 199
-4.74 -18.08 -0.41 83 47 23
-4.74 -18.17 -0.41 50 19 14
-4.74 -18.25 -0.41 147 128 130
-4.74 -18.34 -0.41 231 225 229
-4.74 -18.42 -0.41 197 203 201
-4.59 -18.55 -0.57 192 201 198
-4.44 -18.69 -0.73 192 196 195
-4.28 -18.82 -0.89 197 197 199
-4.28 -18.91 -0.89 199 199 201
-4.16 -19.03 -1.02 201 201 203
-4.16 -19.12 -1.02 201 200 205
-4.16 -19.21 -1.02 200 199 204
-4.16 -19.29 -1.02 198 197 202
-4.16 -19.38 -1.02 197 196 201
-4.16 -19.46 -1.02 197 196 201
-4.16 -19.55 -1.02 197 197 197
-4.16 -19.64 -1.02 198 198 198
-4.16 -19.72 -1.02 199 199 197
-4.28 -19.94 -0.89 201 202 197
-4.28 -20.02 -0.89 200 200 198
-4.28 -20.11 -0.89 199 199 197
-4.28 -20.19 -0.89 199 199 197
-4.28 -20.28 -0.89 199 199 197
-4.28 -20.36 -0.89 200 200 198
-4.16 -20.50 -1.02 201 201 199
-4.16 -20.58 -1.02 201 201 201
-4.16 -20.67 -1.02 200 200 200
-4.16 -20.75 -1.02 201 201 201
-4.16 -20.84 -1.02 201 201 201
-4.16 -20.93 -1.02 201 201 201
-4.16 -21.01 -1.02 202 202 202
-4.16 -21.10 -1.02 203 203 203
-4.16 -21.18 -1.02 204 204 204
-4.16 -21.27 -1.02 204 204 204
-4.16 -21.36 -1.02 204 204 206
-4.16 -21.44 -1.02 202 201 206
-4.16 -21.53 -1.02 202 202 204
-4.16 -21.61 -1.02 203 203 205
-4.16 -21.87 -1.02 201 201 199
-4.16 -21.96 -1.02 203 203 201
-4.16 -22.04 -1.02 200 201 196
-4.16 -22.13 -1.02 202 203 198
-4.16 -22.22 -1.02 202 202 200
-4.16 -22.30 -1.02 201 201 199
-4.16 -22.39 -1.02 201 201 199
-4.16 -22.47 -1.02 202 202 200
-4.16 -22.56 -1.02 202 202 202
-4.16 -22.65 -1.02 201 201 201
-4.16 -22.73 -1.02 201 202 204
-4.16 -22.82 -1.02 202 203 205
-4.28 -22.85 -0.89 202 203 205
-4.28 -22.94 -0.89 202 203 205
-4.28 -23.02 -0.89 201 202 204
-4.28 -23.11 -0.89 201 202 204
-4.28 -23.19 -0.89 201 203 202
-4.28 -23.28 -0.89 201 203 202
-4.28 -23.36 -0.89 203 203 203
-4.28 -23.45 -0.89 203 203 201
-4.28 -23.54 -0.89 203 203 201
-4.28 -23.62 -0.89 202 202 200
-4.28 -23.71 -0.89 201 201 199
-4.28 -23.79 -0.89 202 202 200
-4.28 -23.88 -0.89 203 203 201
-4.28 -23.96 -0.89 204 202 203
-4.28 -24.05 -0.89 206 204 205
-4.28 -24.14 -0.89 207 205 206
-4.28 -24.22 -0.89 206 204 205
-4.28 -24.31 -0.89 205 203 204
-4.28 -24.39 -0.89 204 202 203
-4.28 -24.48 -0.89 204 202 203
-4.28 -24.56 -0.89 206 204 205
-4.28 -24.65 -0.89 208 206 207
-4.28 -24.74 -0.89 207 205 206
-4.28 -24.82 -0.89 205 203 204
-4.28 -24.91 -0.89 203 201 202
-4.28 -24.99 -0.89 201 199 200
-4.28 -25.08 -0.89 201 199 200
-4.28 -25.16 -0.89 203 201 202
-4.16 -25.31 -1.02 206 204 205
-4.16 -25.40 -1.02 206 202 203
-4.16 -25.49 -1.02 208 204 205
-4.16 -25.57 -1.02 208 204 205
-4.28 -25.59 -0.89 207 203 204
-4.28 -25.68 -0.89 207 203 204
-4.28 -25.76 -0.89 208 204 205
-4.16 -25.92 -1.02 209 205 206
-4.16 -26.00 -1.02 211 206 210
-4.16 -26.09 -1.02 212 207 211
-4.28 -26.11 -0.89 212 207 211
-4.28 -26.19 -0.89 211 206 210
-4.28 -26.28 -0.89 210 205 209
-4.28 -26.36 -0.89 210 205 209
-4.28 -26.45 -0.89 211 206 212
-4.28 -26.54 -0.89 211 206 212
-4.28 -26.62 -0.89 209 205 206
-4.28 -26.71 -0.89 209 205 206
-4.28 -26.79 -0.89 209 205 206
-4.28 -26.88 -0.89 210 206 207
-4.28 -26.96 -0.89 210 206 207
-4.28 -27.05 -0.89 211 207 208
-4.16 -27.21 -1.02 211 207 208
-4.16 -27.29 -1.02 212 208 209
-4.16 -27.38 -1.02 209 205 206
-4.28 -27.39 -0.89 211 207 208
-4.28 -27.48 -0.89 214 210 211
-4.28 -27.56 -0.89 214 210 211
-4.16 -27.72 -1.02 213 209 210
-4.16 -27.81 -1.02 214 210 211
-4.16 -27.89 -1.02 214 210 211
-4.16 -27.98 -1.02 212 210 211
-4.16 -28.07 -1.02 212 210 211
-4.16 -28.15 -1.02 212 210 211
-4.16 -28.24 -1.02 212 210 211
-4.16 -28.32 -1.02 214 210 211
-4.16 -28.41 -1.02 213 209 210
-4.16 -28.50 -1.02 213 207 209
-4.16 -28.58 -1.02 213 207 209
-4.16 -28.67 -1.02 214 208 210
-4.16 -28.75 -1.02 214 208 210
-4.16 -28.84 -1.02 216 207 210
-4.16 -28.93 -1.02 216 207 210
-4.16 -29.01 -1.02 216 207 210
-4.16 -29.10 -1.02 217 208 211
-4.16 -29.18 -1.02 218 209 212
-4.16 -29.27 -1.02 217 211 213
-4.16 -29.36 -1.02 213 209 210
-4.16 -29.44 -1.02 215 213 214
-4.16 -29.53 -1.02 215 214 212
-4.28 -29.54 -0.89 216 212 211
-4.28 -29.62 -0.89 216 212 211
-4.28 -29.71 -0.89 217 211 211
-4.28 -29.79 -0.89 223 214 215
-4.28 -29.88 -0.89 232 223 226
-4.28 -29.96 -0.89 207 196 200
-4.28 -30.05 -0.89 128 115 122
-4.28 -30.14 -0.89 104 91 98
-4.28 -30.22 -0.89 117 101 111
-4.28 -30.31 -0.89 103 87 97
-4.20 20.45 -1.10 0 0 0
-4.20 20.36 -1.10 0 0 0
-4.20 20.28 -1.10 0 0 0
-4.20 20.19 -1.10 0 0 0
-4.20 20.10 -1.10 0 0 0
-4.20 20.02 -1.10 0 0 0
-4.20 19.93 -1.10 0 0 0
-4.20 19.85 -1.10 0 0 0
-4.20 19.76 -1.10 0 0 0
-4.20 19.67 -1.10 128 122 108
-4.33 19.49 -0.97 128 122 108
-4.33 19.41 -0.97 128 122 108
-4.20 19.41 -1.10 127 121 107
-4.20 19.33 -1.10 127 121 107
-4.20 19.24 -1.10 128 122 110
-4.20 19.16 -1.10 128 122 110
-4.20 19.07 -1.10 128 122 110
-4.20 18.98 -1.10 128 122 110
-4.20 18.90 -1.10 128 122 110
-4.20 18.81 -1.10 128 122 110
-4.20 18.73 -1.10 128 121 111
-4.20 18.64 -1.10 128 121 111
-4.20 18.55 -1.10 128 121 111
-4.20 18.47 -1.10 128 121 111
-4.20 18.38 -1.10 128 121 111
-4.20 18.30 -1.10 128 121 113
-4.20 18.21 -1.10 128 124 115
-4.20 18.12 -1.10 127 122 116
-4.20 18.04 -1.10 126 121 115
-4.20 17.95 -1.10 126 121 115
-4.20 17.87 -1.10 128 123 117
-4.20 17.78 -1.10 129 125 116
-4.20 17.69 -1.10 130 126 117
-4.20 17.61 -1.10 130 126 117
-4.20 17.52 -1.10 132 128 119
-4.20 17.44 -1.10 134 130 119
-4.05 17.46 -1.26 133 129 118
-4.05 17.37 -1.26 133 126 116
-4.20 17.18 -1.10 132 125 115
-4.20 17.09 -1.10 133 126 116
-4.20 17.01 -1.10 135 128 120
-4.20 16.92 -1.10 133 126 118
-4.20 16.83 -1.10 134 127 121
-4.20 16.75 -1.10 132 127 121
-4.33 16.58 -0.97 132 127 121
-4.33 16.49 -0.97 132 129 122
-4.33 16.41 -0.97 132 129 122
-4.33 16.32 -0.97 130 129 124
-4.33 16.23 -0.97 130 129 124
-4.20 16.23 -1.10 129 128 123
-4.20 16.15 -1.10 130 129 124
-4.20 16.06 -1.10 130 129 124
-4.20 15.97 -1.10 130 129 124
-4.20 15.89 -1.10 132 129 124
-4.05 15.90 -1.26 133 128 124
-4.05 15.81 -1.26 134 129 125
-4.20 15.63 -1.10 136 129 121
-4.20 15.54 -1.10 135 128 120
-4.20 15.46 -1.10 133 129 120
-4.20 15.37 -1.10 135 131 122
-4.20 15.29 -1.10 134 129 123
-4.20 15.20 -1.10 133 128 122
-4.20 15.11 -1.10 135 130 124
-4.20 15.03 -1.10 138 133 127
-4.20 14.94 -1.10 136 133 128
-4.20 14.86 -1.10 137 134 129
-4.20 14.77 -1.10 137 133 130
-4.20 14.68 -1.10 136 132 129
-4.20 14.60 -1.10 134 130 127
-4.20 14.51 -1.10 135 131 128
-4.20 14.43 -1.10 136 132 129
-4.20 14.34 -1.10 138 134 131
-4.20 14.25 -1.10 138 133 127
-4.20 14.17 -1.10 136 131 125
-4.20 14.08 -1.10 136 131 127
-4.20 14.00 -1.10 140 135 131
-4.20 13.91 -1.10 140 135 132
-4.20 13.82 -1.10 138 133 130
-4.20 13.74 -1.10 142 137 134
-4.20 13.65 -1.10 140 135 132
-4.20 13.57 -1.10 140 135 132
-4.20 13.48 -1.10 140 135 132
-4.20 13.39 -1.10 140 135 132
-4.20 13.31 -1.10 141 136 132
-4.20 13.22 -1.10 141 136 132
-4.20 13.14 -1.10 141 136 132
-4.20 13.05 -1.10 141 136 132
-4.20 12.96 -1.10 142 137 131
-4.20 12.88 -1.10 142 137 131
-4.20 12.79 -1.10 142 137 133
-4.20 12.71 -1.10 142 137 133
-4.20 12.62 -1.10 143 138 135
-4.20 12.53 -1.10 143 138 135
-4.20 12.45 -1.10 143 138 135
-4.20 12.36 -1.10 143 138 135
-4.20 12.28 -1.10 143 137 137
-4.20 12.19 -1.10 144 138 138
-4.20 12.10 -1.10 144 138 138
-4.20 12.02 -1.10 144 138 138
-4.20 11.93 -1.10 143 138 135
-4.20 11.85 -1.10 143 138 135
-4.20 11.76 -1.10 144 139 136
-4.20 11.67 -1.10 140 139 135
-4.20 11.59 -1.10 140 139 135
-4.20 11.50 -1.10 140 139 135
-4.20 11.42 -1.10 140 139 135
-4.20 11.33 -1.10 141 140 138
-4.20 11.24 -1.10 141 140 138
-4.20 11.16 -1.10 140 139 137
-4.20 11.07 -1.10 140 139 137
-4.20 10.99 -1.10 143 141 142
-4.20 10.90 -1.10 143 141 142
-4.20 10.81 -1.10 143 141 142
-4.20 10.73 -1.10 142 140 141
-4.20 10.64 -1.10 142 140 143
-4.20 10.56 -1.10 142 140 143
-4.20 10.47 -1.10 142 140 143
-4.20 10.38 -1.10 142 140 143
-4.20 10.30 -1.10 141 139 140
-4.20 10.21 -1.10 141 139 140
-4.20 10.13 -1.10 140 138 139
-4.20 10.04 -1.10 141 139 140
-4.20 9.95 -1.10 141 140 138
-4.33 9.81 -0.97 140 139 137
-4.33 9.72 -0.97 138 137 135
-4.48 9.56 -0.81 134 132 133
-4.63 9.41 -0.65 137 135 136
-4.78 9.25 -0.49 137 133 134
-4.78 9.16 -0.49 131 127 128
-4.90 9.02 -0.36 130 125 129
-5.06 8.87 -0.20 123 118 122
-5.18 8.72 -0.06 122 117 123
-5.33 8.57 0.10 146 141 148
-5.33 8.49 0.10 155 150 157
-5.33 8.40 0.10 146 140 150
-5.33 8.32 0.10 140 138 143
-5.33 8.24 0.10 138 136 141
-5.46 8.10 0.23 135 134 139
-5.46 8.01 0.23 137 136 141
-5.46 7.93 0.23 137 140 145
-5.46 7.85 0.23 134 137 144
-5.46 7.77 0.23 131 138 146
-5.46 7.68 0.23 131 137 149
-5.46 7.60 0.23 130 140 150
-5.46 7.52 0.23 130 140 152
-5.46 7.43 0.23 129 142 151
-5.46 7.35 0.23 129 142 151
-5.46 7.27 0.23 129 142 148
-5.61 7.12 0.39 130 143 151
-5.61 7.04 0.39 130 142 154
-5.61 6.96 0.39 130 143 152
-5.61 6.87 0.39 131 144 153
-5.61 6.79 0.39 132 145 153
-5.61 6.71 0.39 130 143 151
-5.61 6.62 0.39 131 144 150
-5.61 6.54 0.39 133 146 152
-5.61 6.46 0.39 133 148 155
-5.61 6.38 0.39 132 147 154
-5.61 6.29 0.39 127 146 153
-5.61 6.21 0.39 128 146 156
-5.61 6.13 0.39 129 149 158
-5.61 6.05 0.39 130 149 163
-5.61 5.96 0.39 128 150 163
-5.61 5.88 0.39 127 149 163
-5.61 5.80 0.39 125 144 159
-5.61 5.72 0.39 128 147 162
-5.61 5.63 0.39 132 151 165
-5.61 5.55 0.39 132 151 165
-5.73 5.42 0.52 131 151 160
-5.73 5.34 0.52 130 150 159
-5.73 5.26 0.52 132 152 159
-5.73 5.17 0.52 134 154 161
-5.73 5.09 0.52 132 153 158
-5.73 5.01 0.52 133 154 157
-5.73 4.93 0.52 134 155 158
-5.73 4.84 0.52 135 156 159
-5.86 4.72 0.65 135 156 159
-5.86 4.64 0.65 135 156 159
-5.86 4.55 0.65 134 155 158
-5.86 4.47 0.65 136 155 161
-5.86 4.39 0.65 136 155 161
-5.86 4.31 0.65 137 156 162
-5.86 4.23 0.65 137 156 162
-5.86 4.14 0.65 137 156 162
-5.86 4.06 0.65 137 156 162
-5.86 3.98 0.65 139 158 164
-5.86 3.90 0.65 140 159 165
-5.73 3.86 0.52 138 157 163
-5.73 3.77 0.52 137 156 162
-5.73 3.69 0.52 137 156 162
-5.86 3.57 0.65 138 157 163
-5.86 3.49 0.65 139 158 164
-5.86 3.41 0.65 140 159 165
-5.86 3.32 0.65 139 158 164
-5.86 3.24 0.65 137 156 162
-5.86 3.16 0.65 140 159 165
-5.86 3.08 0.65 141 160 166
-5.86 3.00 0.65 141 160 166
-5.98 2.88 0.79 141 160 164
-5.86 2.83 0.65 141 160 164
-5.86 2.75 0.65 143 161 165
-5.86 2.67 0.65 146 161 166
-5.86 2.59 0.65 154 169 172
-5.73 2.54 0.52 158 169 173
-5.73 2.46 0.52 156 166 167
-5.61 2.41 0.39 174 179 182
-5.46 2.37 0.23 195 199 200
-5.18 2.37 -0.06 195 195 197
-4.90 2.36 -0.36 187 187 187
-4.78 2.31 -0.49 199 199 201
-4.63 2.27 -0.65 204 205 207
-4.48 2.22 -0.81 169 173 176
-4.33 2.18 -0.97 164 168 169
-4.33 2.09 -0.97 164 168 169
-4.33 2.01 -0.97 159 165 165
-4.20 1.95 -1.10 164 170 170
-4.20 1.87 -1.10 163 169 167
-4.20 1.78 -1.10 163 169 167
-4.05 1.73 -1.26 162 169 162
-4.05 1.65 -1.26 162 169 162
-4.20 1.52 -1.10 161 168 160
-4.20 1.44 -1.10 160 167 159
-4.20 1.35 -1.10 154 164 153
-4.20 1.27 -1.10 153 164 150
-4.20 1.18 -1.10 153 163 152
-4.20 1.09 -1.10 155 161 157
-4.20 1.01 -1.10 156 162 160
-4.20 0.92 -1.10 155 162 155
-4.20 0.84 -1.10 154 161 154
-4.20 0.75 -1.10 151 158 150
-4.20 0.66 -1.10 150 157 149
-4.20 0.58 -1.10 152 158 148
-4.20 0.49 -1.10 153 159 149
-4.20 0.41 -1.10 151 159 148
-4.20 0.32 -1.10 151 159 148
-4.20 0.23 -1.10 148 158 149
-4.20 -0.02 -1.10 148 159 153
-4.33 -0.14 -0.97 151 162 156
-4.33 -0.22 -0.97 153 164 160
-4.33 -0.31 -0.97 156 165 162
-4.33 -0.39 -0.97 156 165 162
-4.33 -0.48 -0.97 158 167 164
-4.33 -0.56 -0.97 159 168 165
-4.33 -0.65 -0.97 161 170 165
-4.20 -0.71 -1.10 160 169 164
-4.20 -0.80 -1.10 160 169 164
-4.20 -0.88 -1.10 159 168 163
-4.20 -0.97 -1.10 159 168 163
-4.20 -1.06 -1.10 158 167 164
-4.20 -1.14 -1.10 157 166 163
-4.20 -1.23 -1.10 159 168 167
-4.20 -1.31 -1.10 161 170 169
-4.20 -1.40 -1.10 162 171 170
-4.20 -1.49 -1.10 162 168 168
-4.20 -1.57 -1.10 163 169 167
-4.20 -1.66 -1.10 164 168 167
-4.20 -1.74 -1.10 163 169 167
-4.20 -1.83 -1.10 162 168 166
-4.20 -1.92 -1.10 161 167 165
-4.20 -2.00 -1.10 161 167 165
-4.20 -2.09 -1.10 161 167 165
-4.20 -2.17 -1.10 161 167 165
-4.20 -2.26 -1.10 161 167 165
-4.20 -2.35 -1.10 161 167 165
-4.20 -2.43 -1.10 159 168 165
-4.20 -2.52 -1.10 158 167 164
-4.20 -2.61 -1.10 158 167 164
-4.20 -2.69 -1.10 158 167 164
-4.20 -2.78 -1.10 158 167 164
-4.33 -2.88 -0.97 159 168 165
-4.33 -2.96 -0.97 158 167 164
-4.33 -3.05 -0.97 158 167 164
-4.20 -3.12 -1.10 158 167 164
-4.20 -3.21 -1.10 161 167 165
-4.20 -3.29 -1.10 162 168 166
-4.20 -3.38 -1.10 162 168 166
-4.20 -3.47 -1.10 162 168 166
-4.20 -3.55 -1.10 162 168 166
-4.20 -3.64 -1.10 162 168 166
-4.20 -3.72 -1.10 163 167 166
-4.20 -3.81 -1.10 163 167 166
-4.20 -3.90 -1.10 163 167 166
-4.20 -3.98 -1.10 163 167 166
-4.20 -4.07 -1.10 163 167 166
-4.20 -4.15 -1.10 163 167 166
-4.20 -4.24 -1.10 164 170 168
-4.20 -4.33 -1.10 164 170 168
-4.20 -4.41 -1.10 164 170 168
-4.20 -4.50 -1.10 163 169 167
-4.20 -4.58 -1.10 163 169 169
-4.20 -4.67 -1.10 163 169 169
-4.20 -4.76 -1.10 164 170 170
-4.20 -4.84 -1.10 166 172 172
-4.20 -4.93 -1.10 166 172 172
-4.33 -5.02 -0.97 167 171 172
-4.33 -5.11 -0.97 167 171 172
-4.20 -5.19 -1.10 166 170 169
-4.20 -5.27 -1.10 166 170 169
-4.20 -5.36 -1.10 165 169 168
-4.20 -5.44 -1.10 164 168 167
-4.20 -5.53 -1.10 164 168 167
-4.20 -5.62 -1.10 172 176 175
-4.20 -5.70 -1.10 161 165 164
-4.20 -5.79 -1.10 171 175 174
-4.20 -5.87 -1.10 166 170 169
-4.20 -5.96 -1.10 167 171 170
-4.20 -6.05 -1.10 169 173 172
-4.20 -6.13 -1.10 162 166 165
-4.20 -6.22 -1.10 154 158 157
-4.20 -6.30 -1.10 210 214 213
-4.20 -6.39 -1.10 246 250 249
-4.20 -6.48 -1.10 249 253 252
-4.20 -6.56 -1.10 251 255 254
-4.20 -6.65 -1.10 250 254 253
-4.20 -6.73 -1.10 247 251 250
-4.20 -6.82 -1.10 251 255 254
-4.20 -6.91 -1.10 246 252 248
-4.20 -6.99 -1.10 246 252 248
-4.20 -7.08 -1.10 245 251 247
-4.20 -7.16 -1.10 242 248 244
-4.20 -7.25 -1.10 239 245 241
-4.20 -7.34 -1.10 235 241 237
-4.20 -7.42 -1.10 233 239 235
-4.20 -7.51 -1.10 235 241 239
-4.20 -7.59 -1.10 236 242 240
-4.20 -7.68 -1.10 247 253 251
-4.20 -7.77 -1.10 251 255 255
-4.20 -7.85 -1.10 225 231 229
-4.20 -7.94 -1.10 177 183 181
-4.20 -8.02 -1.10 154 160 158
-4.20 -8.11 -1.10 159 165 163
-4.20 -8.20 -1.10 160 169 166
-4.20 -8.28 -1.10 168 177 174
-4.20 -8.37 -1.10 169 178 177
-4.20 -8.45 -1.10 173 182 181
-4.20 -8.54 -1.10 166 175 174
-4.20 -8.63 -1.10 171 180 179
-4.20 -8.71 -1.10 168 177 176
-4.20 -8.80 -1.10 170 179 178
-4.20 -8.88 -1.10 169 178 177
-4.20 -8.97 -1.10 169 178 175
-4.20 -9.06 -1.10 172 181 178
-4.20 -9.14 -1.10 170 179 174
-4.20 -9.23 -1.10 165 174 169
-4.20 -9.31 -1.10 168 178 170
-4.20 -9.40 -1.10 175 184 179
-4.20 -9.49 -1.10 170 179 174
-4.20 -9.57 -1.10 171 180 177
-4.20 -9.66 -1.10 171 180 177
-4.20 -9.74 -1.10 171 180 177
-4.33 -9.82 -0.97 169 180 176
-4.33 -9.91 -0.97 168 179 175
-4.33 -9.99 -0.97 169 180 176
-4.33 -10.08 -0.97 170 181 177
-4.20 -10.17 -1.10 171 182 178
-4.20 -10.26 -1.10 172 183 179
-4.20 -10.35 -1.10 172 183 179
-4.33 -10.42 -0.97 172 183 179
-4.33 -10.51 -0.97 170 182 178
-4.20 -10.60 -1.10 167 179 175
-4.20 -10.69 -1.10 164 176 172
-4.20 -10.78 -1.10 162 173 167
-4.20 -10.86 -1.10 159 169 161
-4.20 -10.95 -1.10 153 160 153
-4.20 -11.03 -1.10 143 149 149
-4.20 -11.12 -1.10 138 146 148
-4.20 -11.21 -1.10 98 105 111
-4.20 -11.29 -1.10 19 26 36
-4.33 -11.36 -0.97 22 28 42
-4.33 -11.45 -0.97 22 30 43
-4.63 -11.50 -0.65 24 31 49
-4.63 -11.59 -0.65 24 33 50
-4.78 -11.65 -0.49 25 33 52
-4.78 -11.74 -0.49 25 36 54
-4.78 -11.82 -0.49 31 42 60
-4.78 -11.91 -0.49 41 52 70
-4.78 -11.99 -0.49 52 61 76
-4.78 -12.08 -0.49 61 72 74
-4.78 -12.16 -0.49 57 67 66
-4.78 -12.24 -0.49 46 56 57
-4.78 -12.33 -0.49 29 39 40
-4.78 -12.41 -0.49 16 24 27
-4.63 -12.52 -0.65 9 17 20
-4.63 -12.61 -0.65 11 19 22
-4.48 -12.71 -0.81 15 23 26
-4.48 -12.80 -0.81 30 35 41
-4.33 -12.91 -0.97 38 43 49
-4.33 -12.99 -0.97 48 51 56
-4.33 -13.08 -0.97 45 49 52
-4.20 -13.18 -1.10 34 38 41
-4.20 -13.27 -1.10 16 20 23
-4.20 -13.36 -1.10 2 3 7
-4.20 -13.44 -1.10 0 0 2
-4.20 -13.53 -1.10 10 10 12
-4.20 -13.62 -1.10 42 41 46
-4.33 -13.68 -0.97 106 105 110
-4.33 -13.76 -0.97 181 182 187
-4.33 -13.85 -0.97 225 226 231
-4.33 -13.94 -0.97 231 232 236
-4.20 -14.05 -1.10 225 226 228
-4.20 -14.13 -1.10 201 205 204
-4.20 -14.22 -1.10 188 193 189
-4.20 -14.30 -1.10 176 181 175
-4.20 -14.39 -1.10 171 176 170
-4.20 -14.48 -1.10 163 169 165
-4.20 -14.56 -1.10 154 160 158
-4.20 -14.65 -1.10 151 157 155
-4.20 -14.73 -1.10 155 159 160
-4.20 -14.82 -1.10 155 160 156
-4.20 -14.91 -1.10 155 157 154
-4.20 -14.99 -1.10 156 158 155
-4.20 -15.08 -1.10 160 162 159
-4.20 -15.16 -1.10 158 160 159
-4.20 -15.25 -1.10 158 158 158
-4.20 -15.34 -1.10 160 160 160
-4.33 -15.39 -0.97 161 161 161
-4.33 -15.48 -0.97 159 159 159
-4.33 -15.56 -0.97 157 157 157
-4.33 -15.65 -0.97 157 157 157
-4.33 -15.74 -0.97 156 154 155
-4.33 -15.82 -0.97 154 152 153
-4.33 -15.91 -0.97 154 152 153
-4.33 -15.99 -0.97 157 155 156
-4.48 -16.04 -0.81 158 158 160
-4.48 -16.13 -0.81 155 155 157
-4.48 -16.21 -0.81 153 153 155
-4.48 -16.30 -0.81 150 150 152
-4.48 -16.38 -0.81 147 147 147
-4.48 -16.47 -0.81 141 141 141
-4.63 -16.52 -0.65 132 134 133
-4.63 -16.60 -0.65 125 127 126
-4.63 -16.68 -0.65 121 123 122
-4.63 -16.77 -0.65 121 123 122
-4.63 -16.85 -0.65 121 123 122
-4.48 -16.98 -0.81 120 122 121
-4.48 -17.07 -0.81 118 120 117
-4.48 -17.15 -0.81 111 116 112
-4.48 -17.24 -0.81 112 112 110
-4.63 -17.28 -0.65 116 112 111
-4.63 -17.36 -0.65 98 96 97
-4.63 -17.45 -0.65 86 95 92
-4.78 -17.49 -0.49 51 61 52
-4.78 -17.58 -0.49 51 55 30
-4.78 -17.66 -0.49 255 251 214
-4.78 -17.75 -0.49 226 202 156
-4.78 -17.83 -0.49 231 200 153
-4.90 -17.88 -0.36 238 208 170
-4.90 -17.96 -0.36 255 248 221
-4.90 -18.05 -0.36 13 0 0
-4.90 -18.13 -0.36 9 0 0
-4.78 -18.25 -0.49 39 35 34
-4.78 -18.34 -0.49 175 178 187
-4.78 -18.42 -0.49 220 229 246
-4.78 -18.51 -0.49 194 203 220
-4.63 -18.64 -0.65 190 193 198
-4.48 -18.77 -0.81 195 195 195
-4.33 -18.91 -0.97 192 192 194
-4.33 -18.99 -0.97 189 188 193
-4.20 -19.12 -1.10 200 199 204
-4.20 -19.21 -1.10 202 201 207
-4.20 -19.29 -1.10 199 200 202
-4.20 -19.38 -1.10 198 200 199
-4.20 -19.46 -1.10 198 200 197
-4.20 -19.55 -1.10 198 200 195
-4.33 -19.59 -0.97 198 200 195
-4.33 -19.68 -0.97 198 200 197
-4.33 -19.76 -0.97 199 201 198
-4.33 -19.85 -0.97 200 202 201
-4.33 -19.94 -0.97 200 202 201
-4.33 -20.02 -0.97 198 198 196
-4.33 -20.11 -0.97 199 199 197
-4.33 -20.19 -0.97 200 200 198
-4.33 -20.28 -0.97 200 200 198
-4.33 -20.36 -0.97 199 199 197
-4.33 -20.45 -0.97 199 199 197
-4.33 -20.54 -0.97 200 200 200
-4.33 -20.62 -0.97 201 201 201
-4.33 -20.71 -0.97 200 200 200
-4.33 -20.79 -0.97 200 200 200
-4.20 -20.93 -1.10 201 201 201
-4.20 -21.01 -1.10 202 202 202
-4.20 -21.10 -1.10 203 203 205
-4.20 -21.18 -1.10 204 204 206
-4.20 -21.27 -1.10 204 204 206
-4.20 -21.36 -1.10 202 201 206
-4.20 -21.44 -1.10 202 201 206
-4.20 -21.53 -1.10 202 201 206
-4.20 -21.61 -1.10 201 200 205
-4.33 -21.82 -0.97 200 199 204
-4.33 -21.91 -0.97 201 200 205
-4.33 -21.99 -0.97 203 202 207
-4.33 -22.08 -0.97 203 202 207
-4.33 -22.16 -0.97 204 203 208
-4.33 -22.25 -0.97 203 202 207
-4.20 -22.39 -1.10 203 202 207
-4.20 -22.47 -1.10 203 202 207
-4.20 -22.56 -1.10 203 202 207
-4.20 -22.65 -1.10 203 201 206
-4.20 -22.73 -1.10 205 201 202
-4.20 -22.82 -1.10 206 200 202
-4.33 -22.85 -0.97 205 201 202
-4.33 -22.94 -0.97 206 202 203
-4.33 -23.02 -0.97 203 203 203
-4.33 -23.11 -0.97 202 202 202
-4.33 -23.19 -0.97 201 203 202
-4.33 -23.28 -0.97 201 203 202
-4.33 -23.36 -0.97 202 204 203
-4.33 -23.45 -0.97 203 203 203
-4.33 -23.71 -0.97 208 204 205
-4.33 -23.79 -0.97 208 202 204
-4.33 -23.88 -0.97 205 199 201
-4.33 -23.96 -0.97 206 202 203
-4.33 -24.05 -0.97 207 203 204
-4.33 -24.14 -0.97 207 203 204
-4.33 -24.22 -0.97 207 203 204
-4.33 -24.31 -0.97 206 202 203
-4.33 -24.39 -0.97 206 202 203
-4.33 -24.48 -0.97 207 203 204
-4.33 -24.56 -0.97 207 203 204
-4.33 -24.65 -0.97 204 200 201
-4.33 -24.74 -0.97 205 201 202
-4.33 -24.82 -0.97 208 202 204
-4.33 -24.91 -0.97 209 203 205
-4.33 -24.99 -0.97 209 203 205
-4.33 -25.08 -0.97 208 202 204
-4.33 -25.16 -0.97 207 201 203
