ply
format ascii 1.0
element vertex 1614
property float x
property float y
property float z
property uchar red
property uchar green
property uchar blue
end_header
-2.62 13.39 -1.29 141 135 135
-2.62 13.30 -1.29 140 134 134
-2.62 13.21 -1.29 141 135 135
-2.62 13.12 -1.29 141 135 135
-2.62 13.04 -1.29 142 136 136
-2.62 12.95 -1.29 142 136 136
-2.62 12.86 -1.29 142 136 136
-2.62 12.77 -1.29 142 136 136
-2.62 12.68 -1.29 142 136 136
-2.62 12.59 -1.29 141 135 135
-2.62 12.50 -1.29 141 135 135
-2.62 12.42 -1.29 141 135 135
-2.62 12.33 -1.29 142 136 136
-2.62 12.06 -1.29 139 136 129
-2.77 11.89 -1.14 139 136 129
-2.77 11.80 -1.14 139 136 127
-2.77 11.72 -1.14 138 135 126
-2.77 11.63 -1.14 138 135 128
-2.77 11.54 -1.14 138 135 130
-2.77 11.45 -1.14 136 133 128
-2.77 11.36 -1.14 135 131 130
-2.77 11.28 -1.14 134 130 129
-2.92 11.11 -0.98 133 129 130
-2.92 11.02 -0.98 132 128 129
-2.92 10.93 -0.98 130 126 127
-2.77 10.92 -1.14 126 122 121
-2.92 10.76 -0.98 124 120 119
-2.92 10.67 -0.98 123 119 116
-2.92 10.58 -0.98 120 116 113
-2.92 10.50 -0.98 117 116 112
-2.92 10.41 -0.98 117 116 112
-5.11 8.94 1.25 115 111 108
-5.24 8.80 1.38 118 112 112
-5.24 8.71 1.38 108 102 102
-5.24 8.63 1.38 122 121 119
-5.24 8.55 1.38 158 157 155
-5.37 8.41 1.51 152 154 153
-5.37 8.33 1.51 146 146 146
-5.37 8.24 1.51 139 139 141
-5.37 8.16 1.51 143 141 144
-5.37 8.08 1.51 145 145 147
-5.37 8.00 1.51 146 146 148
-5.37 7.92 1.51 147 147 149
-5.37 7.83 1.51 149 149 151
-5.37 7.75 1.51 150 150 152
-5.37 7.67 1.51 150 150 152
-5.37 7.59 1.51 142 142 144
-5.37 7.51 1.51 148 148 150
-5.37 7.42 1.51 154 155 157
-5.37 7.34 1.51 155 156 158
-5.37 7.26 1.51 149 150 152
-5.37 7.18 1.51 145 146 148
-5.37 7.10 1.51 151 152 154
-5.49 6.96 1.63 160 161 163
-5.49 6.88 1.63 135 134 140
-5.37 6.85 1.51 141 142 147
-5.49 6.72 1.63 136 136 146
-5.49 6.63 1.63 160 162 174
-5.49 6.55 1.63 161 163 178
-5.49 6.47 1.63 97 100 117
-5.49 6.39 1.63 0 0 20
-5.49 6.31 1.63 0 2 23
-5.49 6.23 1.63 29 31 54
-5.49 6.14 1.63 38 43 65
-5.65 6.00 1.79 34 39 61
-5.65 5.92 1.79 2 7 26
-5.65 5.84 1.79 142 147 166
-5.65 5.76 1.79 132 138 154
-5.65 5.68 1.79 137 144 160
-5.65 5.60 1.79 133 145 159
-5.65 5.51 1.79 133 147 160
-5.65 5.43 1.79 135 149 162
-5.65 5.35 1.79 134 148 161
-5.65 5.27 1.79 132 146 157
-5.65 5.19 1.79 132 146 157
-5.65 5.11 1.79 132 149 157
-5.65 5.03 1.79 135 152 160
-5.65 4.94 1.79 134 151 159
-5.65 4.86 1.79 134 151 158
-5.65 4.78 1.79 133 150 157
-5.65 4.70 1.79 133 150 157
-5.65 4.62 1.79 134 151 158
-5.65 4.54 1.79 134 151 158
-5.65 4.46 1.79 134 151 159
-5.65 4.38 1.79 134 153 160
-5.65 4.29 1.79 134 152 162
-5.77 4.17 1.92 135 153 163
-5.77 4.09 1.92 136 154 164
-5.77 4.01 1.92 136 154 164
-5.77 3.93 1.92 135 153 163
-5.77 3.84 1.92 135 153 163
-5.77 3.76 1.92 135 153 163
-5.77 3.68 1.92 135 153 163
-5.77 3.60 1.92 134 152 162
-5.90 3.48 2.05 133 151 161
-5.90 3.40 2.05 134 152 162
-5.90 3.32 2.05 136 154 164
-5.90 3.24 2.05 137 155 165
-5.90 3.16 2.05 137 155 165
-5.90 3.08 2.05 136 154 164
-5.90 3.00 2.05 138 157 164
-5.90 2.91 2.05 139 158 165
-5.90 2.83 2.05 135 155 164
-5.90 2.75 2.05 137 157 166
-5.90 2.67 2.05 136 155 162
-5.77 2.63 1.92 149 166 173
-5.65 2.59 1.79 159 173 176
-5.65 2.50 1.79 162 170 172
-5.49 2.47 1.63 157 161 160
-5.37 2.42 1.51 199 201 198
-5.37 2.34 1.51 197 198 193
-5.24 2.29 1.38 199 200 195
-5.11 2.25 1.25 198 199 194
-4.96 2.21 1.09 199 199 197
-4.83 2.16 0.96 202 202 200
-4.55 2.15 0.68 196 201 195
-4.40 2.11 0.52 194 199 193
-3.81 2.18 -0.07 198 203 199
-3.69 2.13 -0.20 195 200 196
-3.38 2.12 -0.51 193 198 194
-3.38 2.03 -0.51 202 207 203
-3.23 1.99 -0.67 180 185 181
-3.23 1.90 -0.67 161 166 162
-3.07 1.85 -0.83 167 172 168
-3.07 1.76 -0.83 168 173 169
-2.92 1.71 -0.98 166 172 170
-2.92 1.62 -0.98 163 169 167
-2.92 1.54 -0.98 158 164 162
-2.92 1.45 -0.98 158 164 162
-2.92 1.36 -0.98 157 163 161
-2.92 1.27 -0.98 156 165 162
-2.77 1.22 -1.14 154 163 160
-2.77 1.13 -1.14 154 160 158
-2.77 1.04 -1.14 155 161 159
-2.77 0.96 -1.14 158 164 164
-2.77 0.87 -1.14 162 168 168
-2.77 0.78 -1.14 164 170 168
-2.77 0.69 -1.14 164 170 168
-2.77 0.60 -1.14 165 171 169
-2.77 0.52 -1.14 165 171 169
-2.77 0.43 -1.14 166 171 167
-2.77 0.34 -1.14 166 171 167
-2.77 0.25 -1.14 167 172 166
-2.77 0.16 -1.14 166 171 165
-2.77 0.07 -1.14 166 171 164
-2.77 -0.01 -1.14 165 170 163
-2.77 -0.10 -1.14 165 170 163
-2.62 -0.16 -1.29 164 169 162
-2.62 -0.25 -1.29 164 169 162
-2.62 -0.34 -1.29 164 169 162
-2.62 -0.43 -1.29 163 168 161
-2.77 -0.54 -1.14 163 168 161
-2.77 -0.63 -1.14 162 167 160
-2.77 -0.72 -1.14 161 166 159
-2.77 -0.81 -1.14 162 167 160
-2.77 -0.90 -1.14 162 167 161
-2.77 -0.98 -1.14 163 168 162
-2.77 -1.07 -1.14 163 168 162
-2.77 -1.16 -1.14 163 168 162
-2.77 -1.25 -1.14 163 168 162
-2.77 -1.34 -1.14 163 168 162
-2.62 -1.40 -1.29 163 169 165
-2.62 -1.49 -1.29 163 169 165
-2.62 -1.58 -1.29 164 170 166
-2.62 -1.67 -1.29 164 170 166
-2.62 -1.75 -1.29 163 169 165
-2.62 -1.84 -1.29 163 169 165
-2.62 -1.93 -1.29 163 169 165
-2.62 -2.02 -1.29 162 168 164
-2.62 -2.11 -1.29 163 169 165
-2.62 -2.20 -1.29 163 169 165
-2.62 -2.29 -1.29 163 169 165
-2.62 -2.37 -1.29 163 169 165
-2.77 -2.48 -1.14 162 168 164
-2.77 -2.57 -1.14 163 169 165
-2.77 -2.66 -1.14 163 169 165
-2.77 -2.75 -1.14 161 170 167
-2.77 -2.84 -1.14 161 170 167
-2.77 -2.92 -1.14 161 170 167
-2.77 -3.01 -1.14 161 170 167
-2.77 -3.10 -1.14 161 170 165
-2.77 -3.19 -1.14 161 170 165
-2.77 -3.28 -1.14 161 170 165
-2.77 -3.37 -1.14 161 170 165
-2.62 -3.44 -1.29 160 169 164
-2.62 -3.53 -1.29 160 169 164
-2.62 -3.61 -1.29 159 168 163
-2.62 -3.70 -1.29 160 169 164
-2.62 -3.79 -1.29 161 170 167
-2.62 -3.88 -1.29 162 171 168
-2.62 -3.97 -1.29 161 170 167
-2.62 -4.06 -1.29 160 169 166
-2.62 -4.15 -1.29 163 172 167
-2.62 -4.23 -1.29 164 173 168
-2.62 -4.32 -1.29 163 172 167
-2.62 -4.41 -1.29 161 170 165
-2.62 -4.50 -1.29 161 170 165
-2.62 -4.59 -1.29 162 171 166
-2.62 -4.68 -1.29 162 171 166
-2.62 -4.77 -1.29 162 171 166
-2.62 -4.85 -1.29 162 171 166
-2.77 -4.95 -1.14 161 172 168
-2.77 -5.04 -1.14 161 172 168
-2.77 -5.13 -1.14 161 172 168
-2.77 -5.22 -1.14 162 173 169
-2.77 -5.31 -1.14 162 172 171
-2.77 -5.39 -1.14 163 173 172
-2.77 -5.48 -1.14 163 172 169
-2.77 -5.57 -1.14 163 172 169
-2.62 -5.65 -1.29 163 172 169
-2.62 -5.74 -1.29 163 172 169
-2.62 -5.83 -1.29 163 172 169
-2.62 -5.92 -1.29 164 173 170
-2.62 -6.01 -1.29 165 174 171
-2.62 -6.09 -1.29 165 174 171
-2.62 -6.18 -1.29 165 174 171
-2.62 -6.27 -1.29 165 174 171
-2.62 -6.36 -1.29 166 175 172
-2.77 -6.45 -1.14 166 175 172
-2.77 -6.54 -1.14 166 175 172
-2.77 -6.63 -1.14 167 176 173
-2.77 -6.72 -1.14 167 176 173
-2.77 -6.81 -1.14 167 176 173
-2.77 -6.89 -1.14 167 176 171
-2.77 -6.98 -1.14 168 177 172
-2.77 -7.07 -1.14 168 177 172
-2.77 -7.16 -1.14 167 176 171
-2.77 -7.25 -1.14 167 176 171
-2.77 -7.33 -1.14 167 176 171
-2.77 -7.42 -1.14 168 177 172
-2.77 -7.51 -1.14 169 175 173
-2.62 -7.60 -1.29 169 175 173
-2.62 -7.69 -1.29 170 176 174
-2.62 -7.78 -1.29 169 175 173
-2.62 -7.87 -1.29 169 175 173
-2.77 -7.95 -1.14 168 174 172
-2.77 -8.04 -1.14 169 175 173
-2.77 -8.13 -1.14 170 176 176
-2.77 -8.22 -1.14 169 178 177
-2.77 -8.30 -1.14 168 176 178
-2.77 -8.39 -1.14 167 175 177
-2.77 -8.48 -1.14 167 175 177
-2.77 -8.57 -1.14 168 177 176
-2.77 -8.66 -1.14 168 177 176
-2.77 -8.75 -1.14 169 178 177
-2.77 -8.83 -1.14 170 179 178
-2.77 -8.92 -1.14 169 178 175
-2.77 -9.01 -1.14 170 179 174
-2.77 -9.10 -1.14 171 180 175
-2.77 -9.19 -1.14 172 181 176
-2.77 -9.27 -1.14 172 181 176
-2.77 -9.36 -1.14 173 182 177
-2.77 -9.45 -1.14 173 182 177
-2.77 -9.54 -1.14 173 182 179
-2.77 -9.63 -1.14 173 182 179
-2.77 -9.72 -1.14 173 182 179
-2.77 -9.80 -1.14 172 181 178
-2.92 -10.23 -0.98 174 180 178
-2.92 -10.32 -0.98 175 181 179
-2.92 -10.41 -0.98 176 182 180
-2.92 -10.50 -0.98 177 183 181
-2.92 -10.58 -0.98 178 184 182
-2.77 -10.69 -1.14 177 183 181
-2.77 -10.77 -1.14 176 182 180
-2.77 -10.86 -1.14 176 182 182
-2.92 -10.94 -0.98 173 180 186
-2.92 -11.02 -0.98 171 179 182
-2.92 -11.11 -0.98 173 181 170
-2.77 -11.22 -1.14 178 185 177
-2.77 -11.30 -1.14 161 168 161
-2.77 -11.39 -1.14 169 180 174
-2.77 -11.48 -1.14 209 217 230
-2.92 -11.55 -0.98 61 68 110
-2.92 -11.64 -0.98 14 20 82
-2.77 -11.74 -1.14 32 40 105
-2.77 -11.83 -1.14 24 32 104
-2.62 -11.94 -1.29 29 41 113
-2.62 -12.03 -1.29 34 46 118
-2.77 -12.10 -1.14 41 57 119
-2.77 -12.19 -1.14 33 47 108
-2.77 -12.27 -1.14 30 44 107
-2.92 -12.34 -0.98 34 45 107
-2.92 -12.43 -0.98 37 48 102
-2.92 -12.52 -0.98 32 42 93
-2.92 -12.60 -0.98 43 47 95
-3.07 -12.67 -0.83 23 28 66
-3.07 -12.76 -0.83 19 32 49
-3.23 -12.82 -0.67 29 43 52
-3.38 -12.89 -0.51 0 5 14
-3.69 -12.93 -0.20 151 153 148
-3.69 -13.01 -0.20 191 176 143
-3.69 -13.10 -0.20 177 144 101
-3.69 -13.18 -0.20 165 139 104
-3.69 -13.27 -0.20 162 156 134
-3.69 -13.36 -0.20 156 159 142
-3.69 -13.44 -0.20 162 163 145
-3.69 -13.53 -0.20 157 156 136
-3.69 -13.62 -0.20 153 155 134
-3.53 -13.73 -0.36 160 162 141
-3.38 -13.84 -0.51 164 166 145
-3.23 -13.96 -0.67 161 163 142
-3.23 -14.04 -0.67 156 157 139
-3.23 -14.13 -0.67 154 155 137
-3.23 -14.22 -0.67 152 153 137
-3.23 -14.30 -0.67 146 147 131
-3.23 -14.39 -0.67 131 132 118
-3.23 -14.48 -0.67 109 110 96
-3.23 -14.57 -0.67 87 85 73
-3.38 -14.62 -0.51 70 68 56
-3.38 -14.71 -0.51 63 59 50
-3.53 -14.76 -0.36 62 58 47
-3.53 -14.85 -0.36 48 49 35
-3.53 -14.94 -0.36 55 56 42
-3.69 -14.99 -0.20 49 51 40
-3.69 -15.08 -0.20 56 57 51
-3.69 -15.16 -0.20 89 93 92
-3.69 -15.25 -0.20 102 106 107
-3.69 -15.34 -0.20 109 113 112
-3.69 -15.42 -0.20 113 115 112
-3.69 -15.51 -0.20 102 103 97
-3.69 -15.59 -0.20 86 86 78
-3.69 -15.68 -0.20 84 80 69
-3.69 -15.77 -0.20 63 57 45
-3.81 -15.82 -0.07 109 99 87
-3.81 -15.91 -0.07 84 72 60
-3.81 -15.99 -0.07 72 62 53
-3.81 -16.08 -0.07 96 92 91
-3.81 -16.16 -0.07 31 31 33
-3.81 -16.25 -0.07 26 27 29
-3.81 -16.34 -0.07 38 39 41
-3.81 -16.42 -0.07 40 41 43
-3.81 -16.51 -0.07 42 43 45
-3.81 -16.59 -0.07 46 50 51
-3.81 -16.68 -0.07 46 50 51
-3.81 -16.76 -0.07 48 52 53
-3.38 -17.31 -0.51 48 49 51
-3.53 -17.36 -0.36 40 41 43
-3.53 -17.44 -0.36 25 26 28
-3.53 -17.53 -0.36 6 7 11
-3.38 -17.66 -0.51 4 5 9
-3.38 -17.74 -0.51 9 10 15
-3.23 -17.88 -0.67 15 16 21
-3.07 -18.01 -0.83 19 20 25
-2.92 -18.14 -0.98 8 9 13
-3.07 -18.18 -0.83 0 0 2
-2.92 -18.31 -0.98 77 79 78
-2.92 -18.40 -0.98 192 194 191
-2.92 -18.49 -0.98 221 223 218
-2.77 -18.62 -1.14 206 208 203
-2.77 -18.71 -1.14 200 202 199
-2.77 -18.80 -1.14 200 202 201
-2.77 -18.89 -1.14 197 201 200
-2.77 -18.98 -1.14 209 210 212
-2.77 -19.06 -1.14 203 204 208
-2.77 -19.15 -1.14 204 203 208
-2.77 -19.24 -1.14 203 202 207
-2.77 -19.33 -1.14 202 201 206
-2.92 -19.37 -0.98 201 201 203
-2.92 -19.46 -0.98 202 202 204
-2.92 -19.54 -0.98 203 203 205
-2.92 -19.63 -0.98 203 203 205
-2.77 -19.77 -1.14 203 203 205
-2.77 -19.86 -1.14 204 204 204
-2.77 -19.95 -1.14 205 205 205
-2.77 -20.03 -1.14 205 205 205
-2.77 -20.12 -1.14 206 206 206
-2.92 -20.16 -0.98 206 206 206
-2.77 -20.30 -1.14 206 206 208
-2.92 -20.33 -0.98 207 207 209
-2.77 -20.48 -1.14 207 206 211
-2.77 -20.56 -1.14 207 207 209
-2.77 -20.65 -1.14 207 207 209
-2.77 -20.74 -1.14 207 207 209
-2.77 -20.83 -1.14 207 207 209
-2.77 -20.92 -1.14 207 207 207
-2.77 -21.01 -1.14 207 207 207
-2.92 -21.04 -0.98 206 206 206
-2.92 -21.12 -0.98 207 207 207
-2.92 -21.21 -0.98 208 208 206
-2.92 -21.30 -0.98 207 207 205
-2.92 -21.39 -0.98 206 206 204
-2.92 -21.48 -0.98 207 207 205
-2.92 -21.56 -0.98 207 207 205
-2.92 -21.65 -0.98 206 206 206
-2.92 -21.74 -0.98 206 206 208
-2.92 -21.83 -0.98 206 206 208
-2.92 -21.92 -0.98 205 205 207
-2.92 -22.00 -0.98 206 206 208
-2.92 -22.09 -0.98 207 207 209
-2.92 -22.18 -0.98 208 208 210
-2.92 -22.27 -0.98 208 208 210
-2.92 -22.35 -0.98 208 208 210
-2.92 -22.44 -0.98 208 208 210
-3.07 -22.47 -0.83 208 208 208
-3.07 -22.55 -0.83 208 208 208
-3.07 -22.64 -0.83 209 209 209
-3.07 -22.73 -0.83 209 209 209
-3.07 -22.82 -0.83 208 208 208
-3.07 -22.90 -0.83 207 207 207
-3.07 -22.99 -0.83 207 208 210
-3.07 -23.08 -0.83 207 208 210
-3.07 -23.17 -0.83 207 209 208
-3.07 -23.25 -0.83 206 208 207
-3.07 -23.34 -0.83 207 207 207
-3.07 -23.43 -0.83 207 207 207
-3.07 -23.52 -0.83 208 207 205
-2.92 -23.67 -0.98 208 207 205
-2.92 -23.76 -0.98 208 206 207
-2.92 -23.85 -0.98 208 206 209
-3.07 -23.87 -0.83 207 205 208
-3.07 -23.95 -0.83 207 205 210
-3.07 -24.04 -0.83 207 205 210
-2.92 -24.20 -0.98 206 205 210
-2.92 -24.29 -0.98 207 205 210
-2.92 -24.37 -0.98 208 206 211
-2.92 -24.46 -0.98 210 205 211
-2.92 -24.55 -0.98 211 206 212
-2.92 -24.64 -0.98 211 206 212
-2.92 -24.73 -0.98 210 205 209
-3.07 -24.74 -0.83 211 206 210
-3.07 -24.83 -0.83 212 207 211
-3.07 -24.92 -0.83 212 207 211
-3.07 -25.00 -0.83 212 207 211
-3.07 -25.09 -0.83 211 206 210
-3.07 -25.18 -0.83 211 206 210
-3.07 -25.27 -0.83 212 207 211
-3.07 -25.35 -0.83 213 208 212
-2.92 -25.52 -0.98 213 208 212
-2.77 -25.68 -1.14 213 208 212
-2.77 -25.77 -1.14 212 207 211
-2.92 -25.78 -0.98 211 207 206
-2.92 -25.87 -0.98 213 209 208
-2.92 -25.96 -0.98 213 209 208
-2.92 -26.04 -0.98 213 209 208
-2.92 -26.13 -0.98 212 208 207
-2.92 -26.22 -0.98 212 208 207
-2.92 -26.31 -0.98 212 208 207
-2.92 -26.39 -0.98 210 206 205
-2.92 -26.48 -0.98 212 208 207
-2.92 -26.57 -0.98 215 211 210
-2.92 -26.66 -0.98 214 210 209
-2.92 -26.75 -0.98 213 209 208
-2.92 -26.83 -0.98 213 209 208
-2.92 -26.92 -0.98 214 210 209
-2.92 -27.01 -0.98 216 212 211
-2.92 -27.10 -0.98 211 207 208
-2.92 -27.19 -0.98 211 207 208
-2.92 -27.27 -0.98 212 208 209
-2.77 -27.44 -1.14 213 209 210
-2.77 -27.53 -1.14 214 210 211
-2.77 -27.62 -1.14 215 211 212
-2.92 -27.62 -0.98 216 212 213
-2.92 -27.71 -0.98 216 212 213
-2.92 -27.80 -0.98 217 213 214
-2.92 -27.89 -0.98 217 213 214
-2.92 -27.98 -0.98 219 215 216
-2.92 -28.06 -0.98 220 216 217
-2.92 -28.15 -0.98 220 216 217
-2.92 -28.24 -0.98 220 216 217
-2.92 -28.33 -0.98 219 215 216
-2.92 -28.41 -0.98 221 217 218
-2.92 -28.50 -0.98 221 217 218
-3.07 -28.50 -0.83 221 217 218
-3.07 -28.59 -0.83 222 218 219
-3.07 -28.68 -0.83 221 217 218
-3.07 -28.77 -0.83 221 217 218
-3.07 -28.85 -0.83 221 217 218
-3.07 -28.94 -0.83 221 217 218
-3.07 -29.03 -0.83 223 219 220
-3.07 -29.12 -0.83 223 219 220
-2.92 -29.29 -0.98 223 219 220
-2.92 -29.38 -0.98 222 218 219
-2.92 -29.47 -0.98 222 218 219
-3.07 -29.46 -0.83 223 219 220
-3.07 -29.55 -0.83 223 219 220
-2.92 -29.73 -0.98 223 219 220
-2.92 -29.82 -0.98 224 218 218
-2.92 -29.91 -0.98 223 217 217
-2.92 -30.00 -0.98 219 218 216
-3.07 -29.99 -0.83 219 218 216
-3.07 -30.08 -0.83 219 215 214
-3.07 -30.16 -0.83 225 221 222
-2.92 -30.35 -0.98 223 214 217
-2.92 -30.44 -0.98 145 134 140
-3.07 -30.43 -0.83 89 74 81
-3.07 -30.51 -0.83 116 100 110
-3.07 -30.60 -0.83 117 100 110
-3.07 -30.69 -0.83 110 94 105
-3.07 -30.78 -0.83 104 88 99
-2.81 21.15 -1.21 0 0 0
-2.81 21.07 -1.21 0 0 0
-2.97 20.86 -1.06 0 0 0
-2.97 20.77 -1.06 0 0 0
-2.97 20.68 -1.06 0 0 0
-2.97 20.60 -1.06 0 0 0
-2.97 20.51 -1.06 0 0 0
-2.97 20.42 -1.06 0 0 0
-2.97 20.33 -1.06 0 0 0
-2.97 20.25 -1.06 125 116 121
-2.97 20.16 -1.06 125 116 121
-2.97 20.07 -1.06 125 116 121
-2.81 20.10 -1.21 127 116 120
-2.81 20.01 -1.21 128 117 121
-2.81 19.92 -1.21 128 118 117
-2.81 19.83 -1.21 128 118 117
-2.81 19.74 -1.21 128 117 115
-2.81 19.65 -1.21 128 117 115
-2.81 19.57 -1.21 129 118 112
-2.81 19.48 -1.21 130 119 113
-2.81 19.39 -1.21 130 121 114
-2.81 19.30 -1.21 129 120 113
-2.81 19.21 -1.21 130 121 114
-2.81 19.12 -1.21 131 122 115
-2.97 18.93 -1.06 131 124 116
-2.97 18.84 -1.06 130 123 115
-2.81 18.86 -1.21 125 120 114
-2.81 18.77 -1.21 126 121 115
-2.81 18.68 -1.21 128 123 117
-2.81 18.60 -1.21 129 125 116
-2.81 18.51 -1.21 128 124 115
-2.81 18.42 -1.21 128 124 115
-2.81 18.33 -1.21 128 124 115
-2.81 18.24 -1.21 129 125 116
-2.81 18.15 -1.21 128 124 115
-2.81 18.07 -1.21 128 124 115
-2.81 17.98 -1.21 128 124 115
-2.81 17.89 -1.21 129 124 118
-2.81 17.80 -1.21 129 124 118
-2.81 17.71 -1.21 129 124 118
-2.97 17.52 -1.06 129 124 118
-2.97 17.43 -1.06 133 125 122
-2.97 17.35 -1.06 132 124 121
-2.97 17.26 -1.06 131 123 120
-2.97 17.17 -1.06 131 123 120
-2.81 17.18 -1.21 131 124 118
-2.81 17.10 -1.21 132 125 119
-2.81 17.01 -1.21 134 127 119
-2.66 17.02 -1.37 135 128 120
-2.66 16.93 -1.37 130 123 115
-2.81 16.74 -1.21 131 124 116
-2.81 16.66 -1.21 131 126 120
-2.81 16.57 -1.21 132 127 121
-2.81 16.48 -1.21 133 128 122
-2.81 16.39 -1.21 134 129 125
-2.81 16.30 -1.21 135 130 126
-2.81 16.21 -1.21 135 127 124
-2.97 16.03 -1.06 135 127 124
-2.97 15.94 -1.06 135 127 124
-2.97 15.85 -1.06 135 127 124
-2.97 15.77 -1.06 133 128 122
-2.97 15.68 -1.06 133 128 122
-2.97 15.59 -1.06 133 130 123
-2.97 15.50 -1.06 133 130 123
-2.97 15.41 -1.06 130 127 120
-2.97 15.33 -1.06 131 128 121
-2.81 15.33 -1.21 132 129 124
-2.81 15.24 -1.21 133 130 125
-2.81 15.16 -1.21 135 130 126
-2.81 15.07 -1.21 135 130 126
-2.81 14.98 -1.21 137 132 129
-2.81 14.89 -1.21 137 132 129
-2.81 14.80 -1.21 140 132 130
-2.81 14.72 -1.21 140 132 130
-2.81 14.63 -1.21 140 132 129
-2.81 14.54 -1.21 141 133 130
-2.81 14.45 -1.21 139 134 128
-2.81 14.36 -1.21 139 134 130
-2.97 14.18 -1.06 139 134 131
-2.97 14.10 -1.06 139 134 131
-2.97 14.01 -1.06 140 134 134
-2.97 13.92 -1.06 139 135 136
-2.97 13.83 -1.06 140 136 137
-2.81 13.83 -1.21 141 137 138
-2.81 13.74 -1.21 141 137 138
-2.81 13.66 -1.21 141 137 134
-2.81 13.57 -1.21 141 137 134
-2.81 13.48 -1.21 142 137 134
-2.81 13.39 -1.21 142 137 134
-2.81 13.30 -1.21 142 137 134
-2.81 13.22 -1.21 142 137 134
-2.81 13.13 -1.21 142 136 136
-2.81 13.04 -1.21 143 137 137
-2.81 12.95 -1.21 143 137 137
-2.81 12.86 -1.21 143 137 137
-2.81 12.77 -1.21 144 138 138
-2.81 12.69 -1.21 143 137 137
-2.81 12.60 -1.21 143 137 137
-2.81 12.51 -1.21 142 136 136
-2.81 12.42 -1.21 142 137 134
-2.81 12.33 -1.21 142 137 134
-2.81 12.25 -1.21 143 138 135
-2.81 11.98 -1.21 140 137 128
-2.81 11.89 -1.21 139 136 127
-2.81 11.80 -1.21 139 137 125
-2.81 11.72 -1.21 139 137 125
-2.81 11.63 -1.21 139 136 127
-2.81 11.54 -1.21 140 137 130
-2.81 11.45 -1.21 138 135 130
-2.81 11.36 -1.21 137 133 132
-2.81 11.28 -1.21 134 133 131
-2.97 11.11 -1.06 133 131 132
-2.97 11.02 -1.06 131 129 130
-2.97 10.93 -1.06 129 127 128
-2.97 10.85 -1.06 126 125 123
-2.97 10.76 -1.06 124 123 121
-2.97 10.67 -1.06 127 124 119
-3.12 10.51 -0.90 124 121 116
-3.12 10.42 -0.90 119 120 114
-3.12 10.33 -0.90 119 120 114
-5.15 8.94 1.17 113 109 106
-5.15 8.86 1.17 120 116 113
-5.15 8.77 1.17 110 106 103
-5.28 8.63 1.30 115 114 112
-5.28 8.55 1.30 154 153 151
-5.28 8.47 1.30 149 151 148
-5.28 8.38 1.30 146 146 146
-5.28 8.30 1.30 142 140 141
-5.28 8.22 1.30 145 140 144
-5.28 8.14 1.30 147 142 146
-5.28 8.06 1.30 148 143 147
-5.28 7.97 1.30 148 146 149
-5.41 7.83 1.43 149 147 150
-5.41 7.75 1.43 150 148 151
-5.41 7.67 1.43 150 148 151
-5.41 7.59 1.43 154 153 158
-5.41 7.51 1.43 152 151 156
-5.41 7.42 1.43 145 144 149
-5.41 7.34 1.43 141 140 145
-5.41 7.26 1.43 152 151 156
-5.41 7.18 1.43 162 161 166
-5.41 7.10 1.43 152 151 156
-5.41 7.01 1.43 133 132 137
-5.41 6.93 1.43 128 127 135
-5.41 6.85 1.43 140 140 150
-5.41 6.77 1.43 167 166 180
-5.53 6.63 1.56 147 149 164
-5.53 6.55 1.56 16 17 37
-5.53 6.47 1.56 5 7 28
-5.53 6.39 1.56 19 21 46
-5.53 6.31 1.56 38 42 67
-5.53 6.23 1.56 38 42 69
-5.53 6.14 1.56 44 50 72
-5.53 6.06 1.56 51 57 79
-5.53 5.98 1.56 0 0 18
-5.69 5.84 1.72 146 153 171
-5.69 5.76 1.72 143 151 164
-5.69 5.68 1.72 136 146 158
-5.69 5.60 1.72 135 147 161
-5.69 5.51 1.72 135 149 162
-5.69 5.43 1.72 136 150 163
-5.69 5.35 1.72 135 149 162
-5.69 5.27 1.72 133 147 158
-5.69 5.19 1.72 132 146 157
-5.69 5.11 1.72 133 147 156
-5.69 5.03 1.72 136 150 159
-5.69 4.94 1.72 137 152 159
-5.69 4.86 1.72 136 151 158
-5.69 4.78 1.72 136 151 158
-5.69 4.70 1.72 135 150 157
-5.69 4.62 1.72 135 150 157
-5.53 4.59 1.56 135 150 157
-5.69 4.46 1.72 135 149 158
-5.69 4.38 1.72 132 151 158
-5.69 4.29 1.72 133 151 161
-5.69 4.21 1.72 134 152 162
-5.69 4.13 1.72 135 153 163
-5.81 4.01 1.85 136 155 162
-5.81 3.93 1.85 136 155 162
-5.81 3.84 1.85 136 155 162
-5.81 3.76 1.85 136 155 162
-5.81 3.68 1.85 137 156 163
-5.81 3.60 1.85 136 155 162
-5.81 3.52 1.85 135 155 164
-5.81 3.44 1.85 135 155 164
-5.81 3.36 1.85 136 156 165
-5.81 3.28 1.85 137 157 166
-5.81 3.20 1.85 137 157 168
-5.81 3.12 1.85 138 156 168
-5.81 3.03 1.85 139 158 165
-5.81 2.95 1.85 140 157 165
-5.81 2.87 1.85 135 155 164
-5.81 2.79 1.85 139 159 168
-5.81 2.71 1.85 137 156 163
-5.81 2.63 1.85 150 167 174
-5.69 2.59 1.72 161 175 178
-5.53 2.55 1.56 162 172 173
-5.53 2.47 1.56 158 164 162
-5.53 2.38 1.56 189 191 188
-5.41 2.34 1.43 198 199 194
-5.28 2.29 1.30 198 197 192
-5.15 2.25 1.17 197 196 191
-5.00 2.21 1.02 198 199 194
-4.87 2.16 0.89 199 200 195
-4.59 2.15 0.60 198 203 197
-4.44 2.11 0.45 195 200 194
-4.01 2.14 0.01 197 202 198
-3.73 2.13 -0.28 195 200 196
-3.42 2.12 -0.59 192 197 193
-3.42 2.03 -0.59 197 202 198
-3.27 1.99 -0.75 164 169 165
-3.27 1.90 -0.75 164 169 165
-3.12 1.85 -0.90 166 171 167
-3.12 1.76 -0.90 167 172 168
-3.12 1.67 -0.90 166 172 170
-2.97 1.62 -1.06 164 170 168
-2.97 1.54 -1.06 159 165 163
-2.97 1.45 -1.06 157 163 161
-2.97 1.36 -1.06 156 162 160
-2.97 1.27 -1.06 156 165 164
-2.97 1.19 -1.06 154 163 162
-2.97 1.10 -1.06 152 161 160
-2.97 1.01 -1.06 151 160 159
-2.97 0.92 -1.06 154 163 162
-2.97 0.83 -1.06 157 166 165
-2.81 0.78 -1.21 162 168 168
-2.81 0.69 -1.21 163 169 169
-2.81 0.60 -1.21 165 171 169
-2.81 0.52 -1.21 166 172 170
-2.81 0.43 -1.21 166 172 168
-2.81 0.34 -1.21 166 172 168
-2.81 0.25 -1.21 166 173 166
-2.81 0.16 -1.21 166 173 166
-2.81 0.07 -1.21 167 172 165
-2.81 -0.01 -1.21 166 171 164
-2.81 -0.10 -1.21 165 170 164
-2.81 -0.19 -1.21 165 170 164
-2.81 -0.28 -1.21 165 170 164
-2.81 -0.37 -1.21 165 170 164
-2.81 -0.45 -1.21 164 169 163
-2.97 -0.57 -1.06 164 169 163
-2.97 -0.66 -1.06 164 169 163
-2.97 -0.75 -1.06 163 168 162
-2.97 -0.83 -1.06 163 168 162
-2.97 -0.92 -1.06 164 169 163
-2.97 -1.01 -1.06 164 169 163
-2.97 -1.10 -1.06 163 168 162
-2.97 -1.19 -1.06 162 167 161
-2.97 -1.27 -1.06 162 167 161
-2.81 -1.34 -1.21 161 166 160
-2.81 -1.43 -1.21 162 168 164
-2.81 -1.51 -1.21 162 168 164
-2.81 -1.60 -1.21 163 169 165
-2.81 -1.69 -1.21 163 169 165
-2.81 -1.78 -1.21 163 169 165
-2.81 -1.87 -1.21 163 169 165
-2.81 -1.95 -1.21 163 169 165
-2.81 -2.04 -1.21 163 169 165
-2.81 -2.13 -1.21 163 169 165
-2.81 -2.22 -1.21 163 169 165
-2.81 -2.31 -1.21 162 168 164
-2.81 -2.40 -1.21 162 168 164
-2.81 -2.48 -1.21 162 168 164
-2.97 -2.59 -1.06 163 169 165
-2.97 -2.68 -1.06 163 169 165
-2.97 -2.77 -1.06 161 170 167
-2.97 -2.86 -1.06 161 170 167
-2.97 -2.94 -1.06 161 170 167
-2.97 -3.03 -1.06 161 170 167
-2.97 -3.12 -1.06 161 170 165
-2.97 -3.21 -1.06 161 170 165
-2.97 -3.29 -1.06 161 170 165
-2.97 -3.38 -1.06 161 170 165
-2.97 -3.47 -1.06 161 170 165
-2.97 -3.56 -1.06 161 170 165
-2.66 -3.61 -1.37 160 169 164
-2.66 -3.70 -1.37 159 168 163
-2.66 -3.79 -1.37 161 170 167
-2.81 -3.89 -1.21 162 171 168
-2.81 -3.98 -1.21 161 170 167
-2.81 -4.07 -1.21 158 167 164
-2.81 -4.16 -1.21 163 172 169
-2.81 -4.25 -1.21 164 173 170
-2.81 -4.34 -1.21 164 173 170
-2.81 -4.42 -1.21 162 171 168
-2.81 -4.51 -1.21 162 171 166
-2.81 -4.60 -1.21 163 172 167
-2.81 -4.69 -1.21 162 171 166
-2.81 -4.78 -1.21 161 170 165
-2.81 -4.86 -1.21 161 170 165
-2.81 -4.95 -1.21 160 171 167
-2.81 -5.04 -1.21 161 172 168
-2.97 -5.14 -1.06 161 171 170
-2.97 -5.23 -1.06 162 172 171
-2.97 -5.31 -1.06 162 172 171
-2.97 -5.40 -1.06 163 173 172
-2.97 -5.49 -1.06 162 171 168
-2.97 -5.58 -1.06 162 171 168
-2.81 -5.66 -1.21 163 172 169
-2.66 -5.74 -1.37 163 172 169
-2.66 -5.83 -1.37 164 173 170
-2.81 -5.92 -1.21 165 174 171
-2.81 -6.01 -1.21 165 174 171
-2.81 -6.10 -1.21 166 175 172
-2.81 -6.19 -1.21 165 174 171
-2.81 -6.28 -1.21 165 174 171
-2.81 -6.36 -1.21 165 174 171
-2.81 -6.45 -1.21 165 174 171
-2.81 -6.54 -1.21 165 174 171
-2.81 -6.63 -1.21 165 174 171
-2.81 -6.72 -1.21 166 175 172
-2.81 -6.81 -1.21 166 175 172
-2.81 -6.89 -1.21 165 176 170
-2.81 -6.98 -1.21 166 175 170
-2.81 -7.07 -1.21 166 175 170
-2.81 -7.16 -1.21 166 175 170
-2.81 -7.25 -1.21 166 175 170
-2.81 -7.33 -1.21 167 176 171
-2.81 -7.42 -1.21 168 177 172
-2.81 -7.51 -1.21 167 176 173
-2.81 -7.60 -1.21 167 176 173
-2.81 -7.69 -1.21 170 176 174
-2.81 -7.78 -1.21 169 175 173
-2.81 -7.86 -1.21 169 175 173
-2.81 -7.95 -1.21 169 175 173
-2.97 -8.04 -1.06 169 175 173
-2.97 -8.13 -1.06 170 176 176
-2.97 -8.21 -1.06 168 176 178
-2.97 -8.30 -1.06 167 175 178
-2.97 -8.39 -1.06 167 175 177
-2.97 -8.48 -1.06 167 175 177
-2.97 -8.56 -1.06 168 176 178
-2.97 -8.65 -1.06 169 177 179
-2.97 -8.74 -1.06 169 178 177
-2.97 -8.83 -1.06 169 178 177
-2.97 -8.92 -1.06 171 180 177
-2.97 -9.00 -1.06 170 179 176
-2.97 -9.09 -1.06 170 179 176
-2.97 -9.18 -1.06 170 179 174
-2.97 -9.27 -1.06 170 179 174
-2.97 -9.35 -1.06 171 180 175
-2.97 -9.44 -1.06 171 180 175
-2.97 -9.53 -1.06 173 182 179
-2.97 -9.62 -1.06 173 182 179
-2.97 -9.71 -1.06 173 182 179
-3.12 -9.78 -0.90 173 182 179
-3.12 -10.22 -0.90 173 179 177
-3.12 -10.31 -0.90 174 180 178
-3.12 -10.40 -0.90 175 181 179
-3.12 -10.48 -0.90 176 182 180
-2.97 -10.58 -1.06 177 183 181
-2.97 -10.67 -1.06 177 183 181
-2.97 -10.76 -1.06 176 182 180
-2.97 -10.85 -1.06 176 182 182
-2.97 -10.94 -1.06 176 185 184
-2.97 -11.02 -1.06 172 178 178
-2.97 -11.11 -1.06 174 179 175
-2.81 -11.22 -1.21 163 168 164
-2.81 -11.30 -1.21 170 176 176
-2.81 -11.39 -1.21 196 204 207
-2.81 -11.48 -1.21 155 163 184
-2.97 -11.55 -1.06 0 0 53
-2.97 -11.64 -1.06 20 28 100
-2.81 -11.74 -1.21 24 36 108
-2.81 -11.83 -1.21 39 53 126
-2.81 -11.92 -1.21 37 51 126
-2.81 -12.01 -1.21 37 51 124
-2.81 -12.10 -1.21 31 44 112
-2.97 -12.17 -1.06 38 52 117
-3.12 -12.23 -0.90 39 50 112
-3.12 -12.32 -0.90 31 41 100
-3.12 -12.41 -0.90 41 48 102
-3.12 -12.50 -0.90 38 42 89
-3.12 -12.58 -0.90 33 37 74
-3.27 -12.65 -0.75 22 26 51
-3.27 -12.74 -0.75 22 33 39
-3.58 -12.78 -0.43 21 32 28
-3.73 -12.84 -0.28 0 5 0
-3.73 -12.93 -0.28 132 130 115
-3.73 -13.01 -0.28 175 161 134
-3.73 -13.10 -0.28 165 142 111
-3.73 -13.18 -0.28 155 135 108
-3.73 -13.27 -0.28 157 152 130
-3.73 -13.36 -0.28 156 158 137
-3.73 -13.44 -0.28 151 150 129
-3.73 -13.53 -0.28 155 154 133
-3.58 -13.64 -0.43 157 156 136
-3.42 -13.75 -0.59 156 155 135
-3.42 -13.84 -0.59 154 156 135
-3.27 -13.96 -0.75 155 157 136
-3.27 -14.04 -0.75 154 157 138
-3.27 -14.13 -0.75 153 156 137
-3.27 -14.22 -0.75 149 152 135
-3.27 -14.30 -0.75 154 157 140
-3.42 -14.36 -0.59 160 161 147
-3.27 -14.48 -0.75 161 161 149
-3.42 -14.54 -0.59 155 155 143
-3.42 -14.62 -0.59 139 139 129
-3.42 -14.71 -0.59 113 110 101
-3.58 -14.76 -0.43 90 87 78
-3.58 -14.85 -0.43 64 66 52
-3.58 -14.94 -0.43 48 50 37
-3.73 -14.99 -0.28 45 46 38
-3.73 -15.08 -0.28 40 41 36
-3.73 -15.16 -0.28 19 20 22
-3.73 -15.25 -0.28 23 24 28
-3.73 -15.34 -0.28 45 46 50
-3.73 -15.42 -0.28 76 76 76
-3.73 -15.51 -0.28 106 105 103
-3.73 -15.59 -0.28 118 117 113
-3.73 -15.68 -0.28 107 102 98
-3.73 -15.77 -0.28 76 69 61
-3.86 -15.82 -0.15 112 103 96
-3.86 -15.91 -0.15 91 81 72
-3.86 -15.99 -0.15 75 66 61
-3.86 -16.08 -0.15 61 60 58
-3.86 -16.16 -0.15 8 8 10
-3.86 -16.25 -0.15 16 17 19
-3.86 -16.34 -0.15 17 18 20
-3.86 -16.42 -0.15 20 24 25
-3.86 -16.51 -0.15 22 26 27
-3.86 -16.59 -0.15 37 41 42
-3.86 -16.68 -0.15 38 42 43
-3.86 -16.76 -0.15 40 46 46
-3.58 -17.27 -0.43 62 64 63
-3.73 -17.31 -0.28 65 67 66
-3.73 -17.40 -0.28 71 75 76
-3.73 -17.49 -0.28 55 59 60
-3.73 -17.57 -0.28 46 50 53
-3.73 -17.66 -0.28 26 30 33
-3.73 -17.74 -0.28 6 7 11
-3.58 -17.87 -0.43 4 5 9
-3.58 -17.96 -0.43 0 0 0
-3.12 -18.18 -0.90 18 18 16
-3.12 -18.27 -0.90 116 117 112
-3.12 -18.36 -0.90 209 210 204
-3.12 -18.44 -0.90 202 203 195
-3.12 -18.53 -0.90 198 199 193
-3.12 -18.62 -0.90 192 193 187
-2.97 -18.75 -1.06 202 202 200
-2.97 -18.84 -1.06 203 205 202
-2.97 -18.93 -1.06 200 201 203
-2.97 -19.02 -1.06 203 203 205
-2.97 -19.10 -1.06 203 202 207
-2.97 -19.19 -1.06 203 202 207
-3.12 -19.23 -0.90 202 201 206
-3.12 -19.32 -0.90 201 201 203
-3.12 -19.41 -0.90 201 201 203
-3.12 -19.49 -0.90 203 203 205
-3.12 -19.58 -0.90 201 201 201
-3.12 -19.67 -0.90 201 201 201
-3.12 -19.76 -0.90 202 202 202
-2.81 -19.95 -1.21 203 203 203
-2.97 -19.98 -1.06 204 204 204
-2.97 -20.07 -1.06 205 205 205
-3.12 -20.11 -0.90 206 206 204
-3.12 -20.19 -0.90 206 206 206
-3.12 -20.28 -0.90 204 204 204
-3.12 -20.37 -0.90 204 204 206
-2.97 -20.51 -1.06 205 205 207
-2.97 -20.60 -1.06 206 206 208
-2.97 -20.69 -1.06 206 206 208
-2.97 -20.77 -1.06 206 206 208
-2.97 -20.86 -1.06 206 206 206
-2.97 -20.95 -1.06 206 206 206
-2.97 -21.04 -1.06 205 205 205
-2.97 -21.12 -1.06 207 207 207
-2.97 -21.21 -1.06 208 208 206
-2.97 -21.30 -1.06 207 207 205
-2.97 -21.39 -1.06 207 207 205
-2.97 -21.48 -1.06 208 208 206
-3.12 -21.51 -0.90 208 209 204
-3.12 -21.59 -0.90 207 207 207
-2.97 -21.74 -1.06 207 207 209
-2.97 -21.83 -1.06 207 207 209
-2.97 -21.92 -1.06 207 207 209
-3.12 -21.94 -0.90 206 206 208
-3.12 -22.03 -0.90 206 206 208
-3.12 -22.12 -0.90 206 206 208
-3.12 -22.20 -0.90 206 206 208
-3.12 -22.29 -0.90 207 207 209
-3.12 -22.38 -0.90 207 207 209
-3.12 -22.47 -0.90 208 208 210
-3.12 -22.55 -0.90 208 208 210
-3.12 -22.64 -0.90 209 209 211
-3.12 -22.73 -0.90 209 209 211
-3.12 -22.82 -0.90 209 209 211
-3.12 -22.90 -0.90 209 209 211
-3.12 -22.99 -0.90 207 208 210
-3.12 -23.08 -0.90 207 208 210
-3.12 -23.17 -0.90 207 208 210
-3.27 -23.19 -0.75 206 207 209
-3.12 -23.34 -0.90 207 207 207
-3.12 -23.43 -0.90 206 206 206
-3.12 -23.52 -0.90 208 207 205
-3.12 -23.60 -0.90 208 207 205
-3.12 -23.69 -0.90 210 206 205
-3.12 -23.78 -0.90 209 205 206
-3.12 -23.87 -0.90 209 204 208
-3.12 -23.95 -0.90 206 204 207
-3.12 -24.04 -0.90 206 204 209
-3.12 -24.13 -0.90 206 203 210
-3.12 -24.22 -0.90 206 203 210
-3.12 -24.30 -0.90 209 204 210
-3.12 -24.39 -0.90 210 205 211
-3.12 -24.48 -0.90 210 205 211
-3.12 -24.57 -0.90 211 206 212
-3.12 -24.65 -0.90 211 206 212
-3.12 -24.74 -0.90 211 206 212
-3.12 -24.83 -0.90 211 209 212
-3.12 -24.92 -0.90 212 210 213
-3.12 -25.00 -0.90 212 210 213
-3.12 -25.09 -0.90 210 208 211
-3.12 -25.18 -0.90 209 207 210
-3.12 -25.27 -0.90 209 207 210
-3.12 -25.35 -0.90 211 209 212
-3.12 -25.44 -0.90 211 209 212
-2.97 -25.60 -1.06 210 208 211
-2.97 -25.69 -1.06 208 206 209
-2.97 -25.78 -1.06 211 207 208
-3.12 -25.79 -0.90 213 209 210
-3.12 -25.88 -0.90 213 209 210
-3.12 -25.97 -0.90 213 209 208
-3.12 -26.05 -0.90 212 208 207
-2.97 -26.22 -1.06 212 208 207
-2.97 -26.31 -1.06 212 208 207
-3.12 -26.32 -0.90 211 207 206
-3.12 -26.40 -0.90 212 208 207
-3.12 -26.49 -0.90 214 210 209
-3.12 -26.58 -0.90 214 210 209
-3.12 -26.67 -0.90 213 209 208
-3.12 -26.75 -0.90 213 209 208
-3.12 -26.84 -0.90 214 210 209
-3.12 -26.93 -0.90 215 211 210
-3.12 -27.02 -0.90 213 209 210
-3.12 -27.10 -0.90 213 209 210
-3.12 -27.19 -0.90 214 210 211
-3.12 -27.28 -0.90 215 211 212
-2.97 -27.45 -1.06 216 212 213
-2.97 -27.54 -1.06 216 212 213
-2.97 -27.62 -1.06 216 212 213
-2.97 -27.71 -1.06 217 213 214
-2.97 -27.80 -1.06 215 211 212
-2.97 -27.89 -1.06 215 211 212
-2.97 -27.98 -1.06 218 214 215
-2.97 -28.06 -1.06 220 216 217
-3.12 -28.07 -0.90 220 216 217
-3.12 -28.15 -0.90 220 216 217
-3.12 -28.24 -0.90 219 215 216
-3.12 -28.33 -0.90 220 216 217
-3.12 -28.42 -0.90 220 216 217
-3.12 -28.50 -0.90 221 217 218
-3.12 -28.59 -0.90 221 217 218
-3.12 -28.68 -0.90 221 217 218
-3.12 -28.77 -0.90 221 217 218
-3.12 -28.85 -0.90 221 217 218
-3.12 -28.94 -0.90 221 217 218
-3.12 -29.03 -0.90 223 219 220
-3.12 -29.12 -0.90 223 219 220
-3.12 -29.20 -0.90 222 218 219
-3.12 -29.29 -0.90 222 218 219
-3.12 -29.38 -0.90 222 218 219
-3.12 -29.46 -0.90 222 218 219
-3.12 -29.55 -0.90 222 218 219
-3.12 -29.64 -0.90 223 219 220
-3.12 -29.73 -0.90 225 219 219
-3.12 -29.81 -0.90 223 217 217
-3.12 -29.90 -0.90 221 217 216
-3.27 -29.90 -0.75 221 220 218
-3.27 -29.98 -0.75 218 217 215
-3.27 -30.07 -0.75 223 219 218
-3.12 -30.25 -0.90 227 221 221
-3.12 -30.34 -0.90 155 146 149
-3.12 -30.43 -0.90 90 79 85
-3.27 -30.42 -0.75 123 110 117
-3.27 -30.51 -0.75 119 106 115
-3.27 -30.59 -0.75 110 97 107
-3.12 -30.78 -0.90 105 92 102
-3.16 20.92 -0.98 0 0 0
-3.01 20.95 -1.13 0 0 0
-3.01 20.86 -1.13 0 0 0
-3.01 20.77 -1.13 0 0 0
-3.01 20.68 -1.13 0 0 0
-3.01 20.60 -1.13 0 0 0
-3.01 20.51 -1.13 0 0 0
-3.01 20.42 -1.13 0 0 0
-3.01 20.33 -1.13 0 0 0
-3.01 20.25 -1.13 123 118 122
-3.01 20.16 -1.13 123 118 122
-3.01 20.07 -1.13 124 119 123
-3.01 19.98 -1.13 125 119 121
-3.01 19.89 -1.13 125 119 121
-3.01 19.81 -1.13 127 118 119
-3.01 19.72 -1.13 127 118 119
-3.01 19.63 -1.13 128 118 116
-3.01 19.54 -1.13 128 118 116
-3.01 19.45 -1.13 128 119 112
-3.01 19.37 -1.13 129 120 113
-2.86 19.39 -1.29 130 121 112
-2.86 19.30 -1.29 129 120 111
-2.86 19.21 -1.29 129 120 111
-3.01 19.02 -1.13 131 122 113
-3.01 18.93 -1.13 131 122 113
-3.01 18.84 -1.13 130 121 114
-3.01 18.75 -1.13 126 122 113
-3.01 18.66 -1.13 126 121 115
-3.01 18.58 -1.13 127 123 114
-2.86 18.60 -1.29 129 125 116
-2.86 18.51 -1.29 129 125 116
-3.01 18.31 -1.13 128 124 113
-3.01 18.23 -1.13 127 123 112
-3.01 18.14 -1.13 132 128 117
-2.86 18.15 -1.29 130 126 115
-2.86 18.07 -1.29 129 125 116
-2.86 17.98 -1.29 128 124 115
-3.01 17.79 -1.13 128 124 115
-3.01 17.70 -1.13 128 124 115
-3.01 17.61 -1.13 127 122 116
-3.01 17.52 -1.13 128 121 115
-3.16 17.33 -0.98 131 123 120
-3.16 17.24 -0.98 132 122 120
-3.16 17.16 -0.98 133 124 119
-3.16 17.07 -0.98 134 125 120
-3.01 17.08 -1.13 133 126 118
-3.01 17.00 -1.13 133 126 118
-3.01 16.91 -1.13 133 126 118
-3.01 16.82 -1.13 133 126 118
-2.86 16.83 -1.29 131 124 116
-2.86 16.74 -1.29 132 125 117
-3.01 16.56 -1.13 130 125 119
-3.01 16.47 -1.13 130 125 119
-3.01 16.38 -1.13 132 127 121
-3.01 16.29 -1.13 133 128 124
-3.01 16.20 -1.13 136 128 125
-3.01 16.12 -1.13 134 126 123
-3.01 16.03 -1.13 135 125 123
-3.01 15.94 -1.13 134 126 123
-3.01 15.85 -1.13 134 126 123
-3.01 15.77 -1.13 132 127 121
-3.16 15.58 -0.98 133 128 122
-3.16 15.49 -0.98 134 131 122
-3.16 15.41 -0.98 136 133 124
-3.16 15.32 -0.98 131 128 119
-3.01 15.33 -1.13 131 128 119
-3.01 15.24 -1.13 132 129 120
-3.01 15.15 -1.13 133 130 121
-3.01 15.06 -1.13 134 129 123
-3.01 14.98 -1.13 135 130 124
-3.01 14.89 -1.13 136 131 127
-3.01 14.80 -1.13 137 132 128
-3.01 14.71 -1.13 137 132 129
-3.01 14.62 -1.13 137 132 129
-3.01 14.54 -1.13 138 133 129
-3.01 14.45 -1.13 138 133 129
-3.01 14.36 -1.13 139 134 128
-3.01 14.27 -1.13 139 134 130
-3.01 14.18 -1.13 139 134 131
-3.01 14.10 -1.13 141 135 135
-3.01 14.01 -1.13 142 136 138
-3.01 13.92 -1.13 142 136 140
-3.01 13.83 -1.13 142 136 140
-3.01 13.75 -1.13 141 137 138
-3.01 13.66 -1.13 141 137 138
-2.86 13.66 -1.29 141 137 134
-2.86 13.57 -1.29 142 137 134
-2.86 13.48 -1.29 143 138 135
-2.86 13.39 -1.29 146 138 136
-2.86 13.30 -1.29 146 138 136
-2.86 13.22 -1.29 146 138 136
-2.86 13.13 -1.29 146 137 138
-2.86 13.04 -1.29 146 137 138
-2.86 12.95 -1.29 146 137 140
-2.86 12.86 -1.29 146 137 140
-3.01 12.69 -1.13 145 136 139
-3.01 12.60 -1.13 145 136 139
-3.01 12.52 -1.13 146 137 138
-3.01 12.43 -1.13 146 137 138
-3.01 12.34 -1.13 146 138 136
-3.01 12.25 -1.13 146 138 136
-2.86 12.25 -1.29 143 135 133
-2.86 12.16 -1.29 143 138 134
-3.01 11.99 -1.13 142 137 133
-3.01 11.73 -1.13 139 137 124
-3.01 11.64 -1.13 139 137 124
-3.01 11.55 -1.13 140 138 126
-3.01 11.46 -1.13 140 137 128
-3.01 11.37 -1.13 138 135 128
-3.01 11.29 -1.13 138 134 131
-3.01 11.20 -1.13 136 135 131
-3.01 11.11 -1.13 135 134 132
-3.01 11.02 -1.13 132 131 129
-3.01 10.93 -1.13 130 129 127
-3.01 10.85 -1.13 129 128 124
-3.01 10.76 -1.13 128 127 122
-3.01 10.67 -1.13 131 128 121
-3.16 10.51 -0.98 128 125 116
-3.16 10.42 -0.98 122 124 113
-3.16 10.33 -0.98 122 124 113
-5.19 8.94 1.10 113 112 107
-5.19 8.86 1.10 125 121 118
-5.19 8.77 1.10 114 110 107
-5.19 8.69 1.10 109 108 104
-5.32 8.55 1.23 148 147 143
-5.32 8.47 1.23 146 148 143
-5.32 8.38 1.23 148 148 146
-5.32 8.30 1.23 145 141 140
-5.32 8.22 1.23 146 140 142
-5.32 8.14 1.23 147 141 143
-5.32 8.06 1.23 147 141 143
-5.32 7.97 1.23 147 141 143
-5.32 7.89 1.23 147 141 143
-5.32 7.81 1.23 147 142 146
-5.32 7.73 1.23 147 142 146
-5.45 7.59 1.36 146 144 149
-5.45 7.51 1.36 146 144 149
-5.45 7.42 1.36 149 146 153
-5.45 7.34 1.36 155 152 159
-5.45 7.26 1.36 152 151 157
-5.45 7.18 1.36 142 141 147
-5.45 7.10 1.36 132 131 139
-5.45 7.01 1.36 128 127 135
-5.45 6.93 1.36 158 156 167
-5.45 6.85 1.36 147 147 159
-5.45 6.77 1.36 77 76 92
-5.45 6.69 1.36 20 23 42
-5.58 6.55 1.49 8 10 33
-5.58 6.47 1.49 44 48 73
-5.58 6.39 1.49 36 40 67
-5.58 6.31 1.49 36 42 68
-5.58 6.23 1.49 44 50 76
-5.58 6.14 1.49 42 48 70
-5.58 6.06 1.49 30 37 56
-5.58 5.98 1.49 14 21 39
-5.58 5.90 1.49 155 162 178
-5.58 5.82 1.49 144 152 163
-5.58 5.74 1.49 130 140 152
-5.73 5.60 1.65 137 149 161
-5.73 5.51 1.65 135 149 162
-5.73 5.43 1.65 135 149 160
-5.73 5.35 1.65 135 149 160
-5.73 5.27 1.65 135 149 158
-5.73 5.19 1.65 135 149 158
-5.73 5.11 1.65 134 149 156
-5.73 5.03 1.65 134 149 156
-5.73 4.94 1.65 137 152 159
-5.58 4.92 1.49 136 151 158
-5.58 4.84 1.49 136 151 158
-5.58 4.75 1.49 136 151 158
-5.58 4.67 1.49 136 151 158
-5.58 4.59 1.49 136 150 159
-5.58 4.51 1.49 136 150 159
-5.73 4.38 1.65 134 151 161
-5.73 4.29 1.65 134 151 161
-5.73 4.21 1.65 133 152 159
-5.73 4.13 1.65 134 153 160
-5.73 4.05 1.65 135 154 161
-5.73 3.97 1.65 135 154 161
-5.85 3.84 1.78 136 155 161
-5.85 3.76 1.78 136 155 161
-5.85 3.68 1.78 138 157 164
-5.85 3.60 1.78 138 157 164
-5.85 3.52 1.78 137 157 166
-5.85 3.44 1.78 136 156 165
-5.85 3.36 1.78 136 156 167
-5.85 3.28 1.78 137 157 168
-5.85 3.20 1.78 138 158 169
-5.85 3.12 1.78 140 158 170
-5.85 3.03 1.78 139 157 167
-5.85 2.95 1.78 140 157 167
-5.85 2.87 1.78 136 156 165
-5.85 2.79 1.78 140 160 169
-5.85 2.71 1.78 137 156 163
-5.73 2.67 1.65 148 167 173
-5.73 2.59 1.65 159 174 177
-5.58 2.55 1.49 161 171 170
-5.58 2.47 1.49 160 166 162
-5.58 2.38 1.49 176 181 175
-5.45 2.34 1.36 201 202 196
-5.32 2.29 1.23 195 196 190
-5.19 2.25 1.10 197 196 191
-5.04 2.21 0.95 198 199 194
-4.92 2.16 0.82 196 197 192
-4.64 2.15 0.53 195 200 194
-4.48 2.11 0.38 196 201 195
-4.05 2.14 -0.07 195 200 196
-3.77 2.13 -0.35 193 198 194
-3.62 2.08 -0.51 198 203 199
-3.62 1.99 -0.51 184 189 185
-3.31 1.99 -0.82 155 160 156
-3.31 1.90 -0.82 166 171 167
-3.31 1.81 -0.82 166 171 167
-3.16 1.76 -0.98 165 170 166
-3.16 1.67 -0.98 164 170 168
-3.16 1.59 -0.98 163 169 167
-3.16 1.50 -0.98 159 165 163
-3.16 1.41 -0.98 157 163 161
-3.16 1.32 -0.98 156 162 160
-3.16 1.24 -0.98 155 164 163
-3.01 1.19 -1.13 153 162 161
-3.01 1.10 -1.13 152 161 160
-3.01 1.01 -1.13 151 160 159
-3.01 0.92 -1.13 152 161 160
-3.01 0.83 -1.13 154 163 162
-3.01 0.75 -1.13 159 165 165
-3.01 0.66 -1.13 160 166 166
-3.01 0.57 -1.13 165 171 169
-3.01 0.48 -1.13 165 171 169
-3.01 0.39 -1.13 165 171 167
-3.01 0.31 -1.13 165 171 167
-3.01 0.22 -1.13 165 172 165
-3.01 0.13 -1.13 165 172 165
-3.01 0.04 -1.13 165 172 164
-3.01 -0.04 -1.13 165 172 165
-3.01 -0.13 -1.13 165 170 164
-3.01 -0.22 -1.13 165 170 166
-3.01 -0.31 -1.13 165 170 166
-3.01 -0.40 -1.13 165 170 166
-3.01 -0.48 -1.13 165 170 166
-3.01 -0.57 -1.13 165 170 166
-3.01 -0.66 -1.13 165 170 166
-3.01 -0.75 -1.13 164 169 165
-3.01 -0.83 -1.13 164 169 165
-3.01 -0.92 -1.13 164 169 165
-3.01 -1.01 -1.13 164 169 165
-3.01 -1.10 -1.13 163 168 164
-3.01 -1.19 -1.13 162 167 163
-3.01 -1.27 -1.13 161 166 162
-3.01 -1.36 -1.13 161 166 162
-3.01 -1.45 -1.13 161 167 165
-2.86 -1.51 -1.29 161 167 165
-2.86 -1.60 -1.29 162 168 166
-2.86 -1.69 -1.29 162 168 166
-3.01 -1.80 -1.13 162 168 166
-3.01 -1.89 -1.13 162 168 166
-3.01 -1.98 -1.13 162 168 166
-3.01 -2.06 -1.13 162 168 166
-3.01 -2.15 -1.13 163 167 166
-3.01 -2.24 -1.13 163 167 166
-3.01 -2.33 -1.13 163 167 166
-3.01 -2.42 -1.13 164 168 167
-3.01 -2.50 -1.13 164 168 167
-3.01 -2.59 -1.13 164 168 167
-3.01 -2.68 -1.13 164 168 167
-3.01 -2.77 -1.13 162 171 168
-3.01 -2.86 -1.13 161 170 167
-3.01 -2.94 -1.13 161 170 167
-3.01 -3.03 -1.13 161 170 167
-3.01 -3.12 -1.13 161 170 165
-3.01 -3.21 -1.13 161 170 165
-3.01 -3.29 -1.13 161 170 165
-3.01 -3.38 -1.13 161 170 165
-3.01 -3.47 -1.13 160 169 164
-3.01 -3.56 -1.13 161 170 165
-3.01 -3.65 -1.13 161 170 165
-3.01 -3.73 -1.13 160 169 164
-2.86 -3.81 -1.29 160 169 166
-3.01 -3.91 -1.13 161 170 167
-3.01 -4.00 -1.13 161 170 167
-3.01 -4.08 -1.13 159 168 167
-3.01 -4.17 -1.13 161 170 169
-2.86 -4.25 -1.29 162 170 172
-2.86 -4.34 -1.29 163 172 171
-3.01 -4.44 -1.13 162 171 170
-3.01 -4.52 -1.13 162 171 168
-3.01 -4.61 -1.13 163 172 169
-3.01 -4.70 -1.13 162 171 166
-3.01 -4.79 -1.13 161 170 165
-3.01 -4.88 -1.13 161 170 165
-3.01 -4.96 -1.13 160 171 167
-3.01 -5.05 -1.13 160 171 167
-3.01 -5.14 -1.13 161 172 168
-3.01 -5.23 -1.13 162 173 169
-3.01 -5.31 -1.13 162 172 171
-3.01 -5.40 -1.13 163 173 172
-3.01 -5.49 -1.13 163 172 169
-3.01 -5.58 -1.13 163 172 169
-3.01 -5.67 -1.13 163 172 169
-2.86 -5.75 -1.29 163 172 169
-2.86 -5.84 -1.29 164 173 170
-2.86 -5.92 -1.29 164 173 170
-3.01 -6.02 -1.13 165 174 171
-3.01 -6.10 -1.13 165 174 171
-3.01 -6.19 -1.13 165 174 171
-3.01 -6.28 -1.13 164 173 170
-3.01 -6.37 -1.13 164 173 170
-3.01 -6.46 -1.13 164 173 170
-3.01 -6.54 -1.13 164 173 170
-3.01 -6.63 -1.13 165 174 171
-3.01 -6.72 -1.13 165 174 171
-3.01 -6.81 -1.13 165 174 171
-3.01 -6.90 -1.13 165 176 170
-3.01 -6.98 -1.13 165 176 170
-3.01 -7.07 -1.13 165 176 170
-3.01 -7.16 -1.13 166 175 170
-3.01 -7.25 -1.13 166 175 170
-3.01 -7.33 -1.13 167 176 171
-3.01 -7.42 -1.13 167 176 171
-3.01 -7.51 -1.13 166 175 172
-3.01 -7.60 -1.13 166 175 172
-3.01 -7.69 -1.13 167 176 173
-3.01 -7.77 -1.13 167 176 173
-3.01 -7.86 -1.13 168 174 172
-3.01 -7.95 -1.13 168 174 172
-3.01 -8.04 -1.13 169 175 173
-3.16 -8.12 -0.98 170 176 176
-3.16 -8.21 -0.98 168 176 178
-3.16 -8.30 -0.98 167 175 178
-3.16 -8.38 -0.98 167 175 178
-3.01 -8.48 -1.13 167 175 178
-3.16 -8.56 -0.98 169 177 179
-3.01 -8.65 -1.13 170 178 180
-3.16 -8.73 -0.98 169 178 177
-3.16 -8.82 -0.98 169 178 177
-3.16 -8.91 -0.98 170 179 176
-3.16 -9.00 -0.98 170 179 176
-3.16 -9.08 -0.98 169 178 175
-3.16 -9.17 -0.98 170 179 174
-3.16 -9.26 -0.98 170 179 174
-3.16 -9.35 -0.98 170 179 174
-3.16 -9.43 -0.98 171 180 175
-3.16 -9.52 -0.98 172 181 178
-3.16 -9.61 -0.98 173 182 179
-3.16 -9.70 -0.98 173 182 179
-3.16 -9.78 -0.98 173 182 179
-3.16 -9.87 -0.98 173 182 179
-3.16 -9.96 -0.98 173 182 179
-3.16 -10.05 -0.98 174 183 180
-3.16 -10.13 -0.98 175 184 181
-3.16 -10.22 -0.98 173 179 177
-3.16 -10.31 -0.98 174 180 178
-3.16 -10.40 -0.98 174 180 178
-3.16 -10.48 -0.98 175 181 179
-3.16 -10.57 -0.98 175 181 179
-3.01 -10.67 -1.13 175 181 179
-3.01 -10.76 -1.13 175 181 179
-3.01 -10.85 -1.13 175 181 179
-3.01 -10.94 -1.13 178 187 182
-3.01 -11.02 -1.13 164 170 166
-3.01 -11.11 -1.13 167 171 172
-3.01 -11.20 -1.13 177 181 184
-3.01 -11.29 -1.13 184 189 195
-3.01 -11.38 -1.13 185 192 202
-3.01 -11.46 -1.13 59 66 94
-3.01 -11.55 -1.13 11 21 80
-3.01 -11.64 -1.13 38 50 124
-3.01 -11.73 -1.13 30 46 121
-3.01 -11.81 -1.13 26 44 118
-3.01 -11.90 -1.13 30 47 117
-3.01 -12.17 -1.13 23 36 104
-3.16 -12.23 -0.98 34 50 112
-3.16 -12.32 -0.98 26 38 98
-3.16 -12.41 -0.98 36 43 97
-3.16 -12.50 -0.98 43 47 92
-3.16 -12.58 -0.98 31 38 67
-3.31 -12.65 -0.82 24 33 48
-3.31 -12.74 -0.82 48 58 59
-3.62 -12.78 -0.51 63 69 57
-3.77 -12.84 -0.35 33 33 7
-3.77 -12.93 -0.35 130 123 95
-3.90 -12.99 -0.22 183 171 149
-3.90 -13.08 -0.22 155 148 130
-3.90 -13.16 -0.22 169 164 145
-3.90 -13.25 -0.22 170 169 148
-3.77 -13.36 -0.35 158 157 136
-3.77 -13.44 -0.35 161 158 139
-3.77 -13.53 -0.35 160 157 140
-3.62 -13.64 -0.51 155 154 136
-3.47 -13.75 -0.67 153 152 134
-3.47 -13.84 -0.67 154 155 137
-3.31 -13.96 -0.82 157 158 140
-3.31 -14.04 -0.82 151 154 135
-3.31 -14.13 -0.82 143 146 127
-3.31 -14.22 -0.82 154 157 140
-3.47 -14.27 -0.67 151 153 139
-3.47 -14.36 -0.67 148 150 136
-3.47 -14.45 -0.67 146 148 135
-3.47 -14.54 -0.67 150 152 141
-3.47 -14.62 -0.67 154 156 145
-3.47 -14.71 -0.67 155 155 147
-3.47 -14.80 -0.67 151 151 141
-3.62 -14.85 -0.51 131 133 120
-3.62 -14.94 -0.51 112 114 101
-3.62 -15.02 -0.51 90 91 83
-3.62 -15.11 -0.51 53 54 49
-3.77 -15.16 -0.35 29 30 34
-3.77 -15.25 -0.35 22 21 26
-3.77 -15.34 -0.35 16 15 21
-3.77 -15.42 -0.35 24 22 25
-3.77 -15.51 -0.35 30 28 31
-3.77 -15.59 -0.35 46 42 41
-3.90 -15.65 -0.22 67 61 61
-3.90 -15.74 -0.22 76 71 68
-3.90 -15.82 -0.22 110 102 100
-3.90 -15.91 -0.22 99 89 88
-3.90 -15.99 -0.22 90 81 82
-3.90 -16.08 -0.22 46 46 46
-3.90 -16.16 -0.22 11 12 14
-3.90 -16.25 -0.22 14 15 17
-3.90 -16.34 -0.22 19 20 22
-3.90 -16.42 -0.22 16 20 21
-3.90 -16.51 -0.22 12 16 17
-3.90 -16.59 -0.22 14 20 20
-4.05 -16.64 -0.07 11 17 17
-4.05 -16.72 -0.07 18 24 22
-4.05 -16.81 -0.07 28 34 32
-4.05 -16.90 -0.07 38 44 42
-3.90 -17.02 -0.22 41 47 45
-3.77 -17.14 -0.35 40 46 44
-3.90 -17.19 -0.22 44 49 45
-3.90 -17.28 -0.22 47 51 50
-3.90 -17.36 -0.22 42 51 48
-3.90 -17.45 -0.22 47 56 55
-3.90 -17.54 -0.22 54 60 60
-3.90 -17.62 -0.22 53 57 58
-3.90 -17.71 -0.22 51 55 54
-3.90 -17.79 -0.22 53 55 54
-3.90 -17.88 -0.22 17 18 13
-3.90 -17.96 -0.22 73 74 68
-3.47 -18.18 -0.67 159 159 151
-3.47 -18.27 -0.67 213 213 203
-3.31 -18.40 -0.82 204 204 192
-3.31 -18.48 -0.82 204 204 194
-3.16 -18.62 -0.98 197 197 189
-3.16 -18.71 -0.98 203 202 198
-3.16 -18.79 -0.98 204 205 200
-3.16 -18.88 -0.98 203 203 203
-3.16 -18.97 -0.98 201 201 203
-3.16 -19.06 -0.98 202 201 206
-3.16 -19.14 -0.98 202 201 206
-3.16 -19.23 -0.98 202 201 206
-3.16 -19.32 -0.98 201 201 203
-3.16 -19.41 -0.98 201 201 203
-3.16 -19.49 -0.98 203 203 205
-3.31 -19.53 -0.82 201 201 201
-3.16 -19.67 -0.98 201 201 201
-3.16 -19.76 -0.98 202 202 202
-3.16 -19.84 -0.98 203 203 203
-3.16 -19.93 -0.98 204 204 202
-3.16 -20.02 -0.98 205 205 203
-3.16 -20.11 -0.98 205 205 203
-3.16 -20.19 -0.98 205 205 205
-3.16 -20.28 -0.98 203 203 203
-3.16 -20.37 -0.98 203 203 205
-3.16 -20.46 -0.98 204 204 206
-3.16 -20.54 -0.98 205 205 207
-3.16 -20.63 -0.98 206 206 206
-3.16 -20.72 -0.98 206 206 206
-3.16 -20.81 -0.98 205 205 205
-3.16 -20.89 -0.98 205 205 205
-3.16 -20.98 -0.98 204 204 202
-3.16 -21.07 -0.98 206 206 204
-3.16 -21.16 -0.98 207 207 205
-3.16 -21.24 -0.98 206 206 204
-3.16 -21.33 -0.98 206 206 204
-3.16 -21.42 -0.98 207 207 205
-3.16 -21.51 -0.98 208 209 204
-3.16 -21.59 -0.98 208 208 208
-3.16 -21.68 -0.98 208 208 210
-3.16 -21.77 -0.98 208 208 210
-3.16 -21.86 -0.98 208 208 210
-3.16 -21.94 -0.98 208 208 210
-3.16 -22.03 -0.98 207 207 209
-3.16 -22.12 -0.98 207 207 209
-3.16 -22.20 -0.98 206 206 208
-3.16 -22.29 -0.98 207 207 209
-3.16 -22.38 -0.98 207 207 209
-3.16 -22.47 -0.98 208 208 210
-3.16 -22.55 -0.98 208 208 210
-3.16 -22.64 -0.98 208 208 210
-3.31 -22.67 -0.82 208 208 210
-3.31 -22.75 -0.82 209 209 211
-3.31 -22.84 -0.82 209 209 211
-3.31 -22.93 -0.82 206 207 211
-3.31 -23.01 -0.82 207 208 212
-3.31 -23.10 -0.82 207 208 210
-3.31 -23.19 -0.82 206 207 209
-3.31 -23.28 -0.82 206 206 206
-3.31 -23.36 -0.82 206 206 206
-3.16 -23.52 -0.98 207 206 204
-3.16 -23.60 -0.98 208 207 205
-3.16 -23.69 -0.98 210 206 205
-3.16 -23.78 -0.98 210 206 207
-3.31 -23.80 -0.82 210 205 209
-3.31 -23.89 -0.82 209 204 208
-3.31 -23.97 -0.82 209 204 210
-3.31 -24.06 -0.82 209 204 211
-3.31 -24.15 -0.82 209 204 211
-3.31 -24.23 -0.82 209 204 208
-3.16 -24.39 -0.98 209 204 208
-3.16 -24.48 -0.98 208 206 209
-3.16 -24.57 -0.98 208 206 209
-3.16 -24.65 -0.98 208 206 211
-3.16 -24.74 -0.98 209 207 212
-3.16 -24.83 -0.98 210 208 213
-3.16 -24.92 -0.98 211 209 214
-3.16 -25.00 -0.98 209 207 212
-3.16 -25.09 -0.98 209 207 212
-3.16 -25.18 -0.98 207 206 211
-3.16 -25.27 -0.98 207 206 211
-3.16 -25.35 -0.98 208 207 212
-3.16 -25.44 -0.98 208 207 212
-3.16 -25.53 -0.98 208 207 212
-3.16 -25.62 -0.98 208 206 211
-3.16 -25.70 -0.98 208 206 207
-3.16 -25.79 -0.98 212 208 209
-3.16 -25.88 -0.98 212 208 209
-3.16 -25.97 -0.98 211 207 208
-3.16 -26.05 -0.98 211 207 208
-3.16 -26.14 -0.98 212 208 209
-3.16 -26.23 -0.98 212 208 209
-3.16 -26.32 -0.98 212 208 209
-3.16 -26.40 -0.98 212 208 209
-3.16 -26.49 -0.98 212 208 207
-3.16 -26.58 -0.98 213 209 208
-3.16 -26.67 -0.98 213 209 208
-3.16 -26.75 -0.98 213 209 208
-3.16 -26.84 -0.98 213 209 208
-3.16 -26.93 -0.98 213 209 208
-3.31 -26.93 -0.82 214 210 211
-3.31 -27.02 -0.82 215 211 212
-3.31 -27.11 -0.82 215 211 212
-3.16 -27.28 -0.98 216 212 213
-3.16 -27.37 -0.98 216 212 213
-3.16 -27.45 -0.98 217 213 214
-3.16 -27.54 -0.98 217 213 214
