ply
format ascii 1.0
element vertex 1607
property float x
property float y
property float z
property uchar red
property uchar green
property uchar blue
end_header
-0.31 -28.69 -0.87 226 224 225
-0.31 -28.78 -0.87 227 225 226
-0.31 -28.87 -0.87 228 226 227
-0.31 -28.96 -0.87 228 226 227
-0.31 -29.05 -0.87 229 227 228
-0.31 -29.15 -0.87 229 227 228
-0.31 -29.24 -0.87 229 227 228
-0.31 -29.33 -0.87 229 227 228
-0.31 -29.42 -0.87 229 227 228
-0.31 -29.51 -0.87 230 228 229
-0.31 -29.60 -0.87 231 229 230
-0.31 -29.70 -0.87 233 231 232
-0.31 -29.79 -0.87 233 231 232
-0.31 -29.88 -0.87 233 231 232
-0.31 -29.97 -0.87 232 230 231
-0.31 -30.06 -0.87 232 230 231
-0.31 -30.15 -0.87 233 231 232
-0.31 -30.25 -0.87 233 231 232
-0.31 -30.34 -0.87 234 232 233
-0.31 -30.43 -0.87 233 231 232
-0.31 -30.52 -0.87 232 230 231
-0.31 -30.61 -0.87 230 228 229
-0.31 -30.70 -0.87 229 227 228
-0.13 -30.90 -1.04 231 231 231
-0.13 -31.00 -1.04 230 228 229
-0.31 -30.98 -0.87 248 244 245
-0.31 -31.07 -0.87 104 93 97
-0.31 -31.16 -0.87 78 66 70
-0.31 -31.25 -0.87 104 92 96
-0.31 -31.35 -0.87 109 97 101
-0.31 -31.44 -0.87 108 97 101
-0.31 -31.53 -0.87 108 97 101
-0.17 22.41 -1.12 0 0 0
-0.17 22.32 -1.12 0 0 0
-0.17 22.23 -1.12 0 0 0
-0.17 22.13 -1.12 0 0 0
0.01 22.18 -1.29 0 0 0
0.01 22.08 -1.29 0 0 0
0.01 21.99 -1.29 0 0 0
0.01 21.90 -1.29 0 0 0
0.17 21.92 -1.44 0 0 0
0.17 21.83 -1.44 129 120 113
0.01 21.62 -1.29 129 120 113
0.01 21.53 -1.29 129 120 113
0.01 21.44 -1.29 128 119 112
0.01 21.34 -1.29 128 119 112
0.01 21.25 -1.29 127 118 111
-0.17 21.03 -1.12 128 119 112
-0.17 20.94 -1.12 129 120 113
-0.17 20.84 -1.12 129 120 113
-0.17 20.75 -1.12 129 122 114
-0.17 20.66 -1.12 129 122 114
-0.17 20.57 -1.12 130 123 117
-0.17 20.48 -1.12 129 122 116
-0.17 20.38 -1.12 129 122 116
-0.17 20.29 -1.12 129 122 116
-0.17 20.20 -1.12 131 124 118
-0.17 20.11 -1.12 132 125 119
-0.17 20.02 -1.12 130 126 117
-0.17 19.92 -1.12 130 126 117
-0.17 19.83 -1.12 130 125 119
-0.17 19.74 -1.12 130 125 121
-0.17 19.65 -1.12 130 125 121
-0.17 19.55 -1.12 130 125 121
-0.17 19.46 -1.12 130 125 121
-0.17 19.37 -1.12 131 123 120
-0.17 19.28 -1.12 131 123 120
-0.17 19.19 -1.12 132 124 121
-0.17 19.09 -1.12 133 125 122
0.01 19.12 -1.29 133 126 120
0.01 19.03 -1.29 131 124 118
0.01 18.94 -1.29 132 125 119
-0.17 18.73 -1.12 135 128 122
-0.17 18.63 -1.12 131 127 118
-0.17 18.54 -1.12 131 127 118
-0.17 18.45 -1.12 132 128 119
-0.17 18.36 -1.12 132 127 121
-0.17 18.27 -1.12 131 126 120
-0.17 18.17 -1.12 130 125 121
-0.17 18.08 -1.12 130 125 122
-0.17 17.99 -1.12 130 125 122
-0.17 17.90 -1.12 131 127 126
-0.17 17.81 -1.12 132 128 127
-0.17 17.71 -1.12 131 127 126
-0.17 17.62 -1.12 130 126 125
-0.17 17.53 -1.12 132 128 127
-0.17 17.44 -1.12 132 128 127
-0.17 17.34 -1.12 130 126 125
-0.17 17.25 -1.12 133 129 130
-0.17 17.16 -1.12 133 129 130
-0.17 17.07 -1.12 133 129 130
-0.17 16.98 -1.12 132 128 129
-0.17 16.88 -1.12 132 128 127
-0.17 16.79 -1.12 131 127 126
-0.17 16.70 -1.12 132 128 125
-0.17 16.61 -1.12 133 129 126
-0.17 16.52 -1.12 132 128 125
-0.17 16.42 -1.12 133 129 126
-0.17 16.33 -1.12 133 129 126
-0.17 16.24 -1.12 132 128 125
-0.17 16.15 -1.12 132 128 127
-0.17 16.06 -1.12 132 128 127
-0.17 15.96 -1.12 133 129 128
-0.17 15.87 -1.12 135 129 129
-0.17 15.78 -1.12 136 130 132
-0.17 15.69 -1.12 137 128 131
-0.17 15.60 -1.12 137 128 129
-0.17 15.50 -1.12 137 128 129
-0.17 15.41 -1.12 137 128 129
-0.17 15.32 -1.12 135 129 129
-0.17 15.23 -1.12 135 129 129
-0.17 15.14 -1.12 131 127 126
-0.17 15.04 -1.12 132 128 127
-0.17 14.95 -1.12 134 130 129
-0.17 14.86 -1.12 134 130 129
-0.17 14.77 -1.12 133 129 128
-0.17 14.67 -1.12 133 129 128
-0.17 14.58 -1.12 131 129 130
-0.17 14.49 -1.12 132 131 129
0.01 14.50 -1.29 133 129 126
0.01 14.41 -1.29 133 130 125
0.01 14.31 -1.29 134 130 127
0.01 14.22 -1.29 134 130 127
0.01 14.13 -1.29 134 130 129
0.01 14.04 -1.29 135 131 130
0.01 13.94 -1.29 135 131 130
0.01 13.85 -1.29 135 131 130
0.01 13.76 -1.29 134 130 131
-0.17 13.57 -1.12 133 129 130
-0.17 13.48 -1.12 133 129 128
-0.17 13.39 -1.12 134 130 129
-0.17 13.29 -1.12 135 131 130
-0.17 13.20 -1.12 134 130 129
-0.17 13.11 -1.12 134 130 127
-0.17 13.02 -1.12 133 134 126
-0.17 12.93 -1.12 131 132 124
-0.17 12.83 -1.12 130 131 125
-0.17 12.74 -1.12 130 131 126
-0.17 12.65 -1.12 132 131 127
-0.17 12.56 -1.12 133 132 130
-0.17 12.46 -1.12 133 131 132
-0.17 12.37 -1.12 133 131 132
-0.17 12.28 -1.12 130 128 129
-0.17 12.19 -1.12 130 128 129
-0.17 12.10 -1.12 130 128 129
-0.17 12.00 -1.12 130 128 129
-0.17 11.91 -1.12 132 128 125
-0.17 11.82 -1.12 131 127 124
-0.17 11.73 -1.12 131 128 123
-0.17 11.64 -1.12 131 127 124
-0.17 11.54 -1.12 131 130 128
-0.36 11.37 -0.95 131 129 130
-5.05 9.05 3.52 134 130 131
-5.05 8.97 3.52 130 126 127
-5.05 8.89 3.52 132 128 127
-5.18 8.75 3.64 133 129 128
-5.18 8.67 3.64 125 121 120
-5.18 8.59 3.64 138 134 133
-5.18 8.51 3.64 152 148 147
-5.18 8.43 3.64 184 183 181
-5.18 8.35 3.64 73 72 70
-5.18 8.27 3.64 17 17 17
-5.31 7.81 3.77 170 168 169
-5.31 7.73 3.77 136 134 135
-5.31 7.65 3.77 131 129 134
-5.31 7.57 3.77 129 126 133
-5.31 7.49 3.77 124 121 130
-5.31 7.41 3.77 124 121 132
-5.31 7.32 3.77 134 131 142
-5.31 7.24 3.77 127 123 137
-5.31 7.16 3.77 128 124 138
-5.31 7.08 3.77 134 128 140
-5.31 7.00 3.77 138 132 144
-5.31 6.92 3.77 143 136 144
-5.31 6.84 3.77 145 138 146
-5.44 6.71 3.89 145 138 145
-5.44 6.63 3.89 143 138 144
-5.44 6.55 3.89 140 139 145
-5.44 6.47 3.89 140 139 147
-5.44 6.39 3.89 141 140 148
-5.44 6.31 3.89 140 140 150
-5.44 6.23 3.89 139 139 149
-5.44 6.15 3.89 137 139 151
-5.44 6.07 3.89 139 141 153
-5.44 5.99 3.89 138 142 154
-5.44 5.91 3.89 140 144 156
-5.58 5.78 4.01 142 146 158
-5.58 5.70 4.01 142 146 158
-5.44 5.67 3.89 140 147 157
-5.44 5.59 3.89 139 146 156
-5.58 5.46 4.01 138 145 155
-5.58 5.38 4.01 138 144 156
-5.58 5.30 4.01 141 151 161
-5.58 5.23 4.01 135 145 157
-5.58 5.15 4.01 137 147 159
-5.58 5.07 4.01 143 153 165
-5.58 4.99 4.01 139 152 161
-5.58 4.91 4.01 135 148 157
-5.58 4.83 4.01 136 149 158
-5.58 4.75 4.01 136 149 158
-5.58 4.67 4.01 140 150 160
-5.71 4.54 4.14 141 149 160
-5.71 4.46 4.14 141 149 160
-5.71 4.39 4.14 139 146 156
-5.71 4.31 4.14 143 150 160
-5.71 4.23 4.14 146 150 161
-5.71 4.15 4.14 142 146 157
-5.71 4.07 4.14 141 150 157
-5.71 3.99 4.14 145 154 161
-5.71 3.91 4.14 141 151 160
-5.71 3.83 4.14 123 133 142
-5.71 3.75 4.14 131 146 153
-5.71 3.67 4.14 145 160 167
-5.71 3.59 4.14 133 150 158
-5.71 3.51 4.14 145 162 170
-5.71 3.43 4.14 138 157 164
-5.71 3.36 4.14 138 157 164
-5.71 3.28 4.14 139 156 166
-5.71 3.20 4.14 139 156 166
-5.71 3.12 4.14 142 156 167
-5.71 3.04 4.14 142 156 167
-5.84 2.92 4.26 142 156 167
-5.84 2.84 4.26 143 157 168
-5.84 2.76 4.26 144 161 169
-5.71 2.72 4.14 144 161 169
-5.71 2.64 4.14 143 158 165
-5.71 2.56 4.14 167 178 182
-5.71 2.48 4.14 166 174 177
-5.58 2.44 4.01 159 168 167
-5.58 2.36 4.01 182 186 187
-5.44 2.32 3.89 202 207 203
-5.18 2.31 3.64 199 201 198
-5.05 2.27 3.52 198 200 197
-4.64 2.30 3.12 197 199 196
-4.09 2.37 2.60 196 198 195
-4.09 2.29 2.60 192 194 191
-3.96 2.24 2.48 200 202 199
-3.96 2.16 2.48 198 200 197
-3.67 2.15 2.20 198 200 197
-3.51 2.11 2.05 199 201 198
-3.51 2.02 2.05 200 202 199
-3.51 1.94 2.05 198 200 197
0.17 2.42 -1.44 211 215 214
0.17 2.33 -1.44 180 184 183
0.01 2.20 -1.29 142 148 146
0.01 2.10 -1.29 156 162 160
0.01 2.01 -1.29 160 166 164
0.01 1.92 -1.29 153 159 157
0.01 1.83 -1.29 160 166 164
0.01 1.73 -1.29 157 168 164
0.01 1.64 -1.29 157 168 164
0.01 1.55 -1.29 157 168 164
0.01 1.46 -1.29 156 167 163
-0.17 1.32 -1.12 157 166 163
-0.17 1.23 -1.12 157 166 163
-0.17 1.14 -1.12 157 166 161
-0.17 1.05 -1.12 156 165 160
-0.17 0.96 -1.12 161 167 163
-0.17 0.86 -1.12 161 167 163
-0.17 0.77 -1.12 162 167 163
-0.17 0.68 -1.12 162 167 163
-0.17 0.59 -1.12 161 166 162
-0.17 0.49 -1.12 161 166 162
-0.17 0.40 -1.12 160 165 159
-0.17 0.31 -1.12 162 164 161
-0.17 0.22 -1.12 163 165 162
-0.17 0.13 -1.12 164 164 164
-0.17 0.03 -1.12 162 166 165
-0.17 -0.06 -1.12 161 165 164
-0.17 -0.15 -1.12 160 166 164
-0.17 -0.24 -1.12 156 167 163
-0.17 -0.33 -1.12 156 167 163
-0.17 -0.43 -1.12 154 166 162
0.01 -0.49 -1.29 157 169 165
0.01 -0.58 -1.29 159 170 166
-0.17 -0.70 -1.12 158 169 165
-0.17 -0.79 -1.12 158 167 164
-0.17 -0.89 -1.12 159 168 165
-0.17 -0.98 -1.12 162 168 166
-0.17 -1.07 -1.12 161 167 165
-0.17 -1.16 -1.12 161 167 163
-0.17 -1.25 -1.12 161 167 163
0.01 -1.32 -1.29 160 166 162
0.01 -1.41 -1.29 160 166 162
-0.17 -1.53 -1.12 160 166 162
-0.17 -1.62 -1.12 160 166 162
-0.17 -1.72 -1.12 158 167 162
-0.17 -1.81 -1.12 158 167 162
-0.17 -1.90 -1.12 160 169 164
-0.17 -1.99 -1.12 161 170 165
-0.17 -2.08 -1.12 162 171 166
-0.17 -2.18 -1.12 161 170 165
-0.17 -2.27 -1.12 160 169 164
-0.17 -2.36 -1.12 160 169 164
-0.17 -2.45 -1.12 161 170 167
-0.17 -2.54 -1.12 159 171 167
-0.17 -2.64 -1.12 159 171 169
-0.17 -2.73 -1.12 159 171 169
0.01 -2.80 -1.29 159 171 169
-0.17 -2.91 -1.12 161 171 170
-0.17 -3.00 -1.12 162 172 171
-0.17 -3.10 -1.12 162 172 171
-0.17 -3.19 -1.12 163 173 172
-0.17 -3.28 -1.12 162 171 168
-0.17 -3.37 -1.12 161 170 167
-0.17 -3.46 -1.12 162 168 166
-0.17 -3.56 -1.12 162 168 166
-0.17 -3.65 -1.12 164 170 168
-0.17 -3.74 -1.12 164 170 168
-0.17 -3.83 -1.12 164 170 168
-0.17 -3.92 -1.12 164 170 168
-0.17 -4.02 -1.12 164 175 169
-0.17 -4.11 -1.12 163 174 168
-0.17 -4.20 -1.12 162 173 167
-0.17 -4.29 -1.12 163 174 168
-0.17 -4.39 -1.12 163 174 168
-0.17 -4.48 -1.12 164 175 169
-0.17 -4.57 -1.12 164 175 171
-0.17 -4.66 -1.12 162 173 169
-0.17 -4.75 -1.12 163 174 170
-0.17 -4.85 -1.12 164 174 173
0.01 -4.93 -1.29 164 174 173
0.01 -5.02 -1.29 165 175 174
-0.17 -5.12 -1.12 164 174 173
-0.17 -5.21 -1.12 164 174 173
-0.17 -5.31 -1.12 163 173 172
-0.17 -5.40 -1.12 164 175 171
-0.17 -5.49 -1.12 164 175 171
-0.17 -5.58 -1.12 163 174 170
-0.17 -5.67 -1.12 163 174 170
-0.17 -5.77 -1.12 164 175 171
-0.17 -5.86 -1.12 164 175 171
-0.17 -5.95 -1.12 163 174 170
-0.17 -6.04 -1.12 163 174 170
-0.17 -6.13 -1.12 165 176 172
-0.17 -6.23 -1.12 165 176 172
-0.17 -6.32 -1.12 165 176 172
-0.17 -6.41 -1.12 165 176 172
-0.17 -6.50 -1.12 166 177 173
-0.17 -6.60 -1.12 166 177 173
-0.17 -6.69 -1.12 165 176 172
-0.17 -6.78 -1.12 164 174 173
-0.17 -6.87 -1.12 166 174 176
-0.17 -6.96 -1.12 167 175 177
-0.17 -7.06 -1.12 167 175 177
-0.17 -7.15 -1.12 167 176 173
-0.17 -7.24 -1.12 168 177 174
-0.17 -7.33 -1.12 168 177 172
-0.17 -7.42 -1.12 168 177 172
-0.17 -7.52 -1.12 169 180 174
-0.17 -7.61 -1.12 169 180 174
-0.17 -7.70 -1.12 168 179 173
-0.17 -7.79 -1.12 168 179 173
-0.17 -7.88 -1.12 168 179 173
-0.17 -7.98 -1.12 168 179 173
-0.17 -8.07 -1.12 169 180 174
-0.17 -8.16 -1.12 169 180 176
-0.17 -8.25 -1.12 169 178 175
-0.17 -8.34 -1.12 171 180 179
-0.17 -8.44 -1.12 171 180 177
-0.17 -8.53 -1.12 171 180 177
-0.17 -8.62 -1.12 171 180 177
-0.17 -8.71 -1.12 174 183 180
-0.17 -8.81 -1.12 174 183 180
-0.17 -8.90 -1.12 173 182 179
-0.17 -8.99 -1.12 173 182 179
-0.17 -9.08 -1.12 173 182 177
-0.17 -9.17 -1.12 173 182 177
-0.17 -9.27 -1.12 174 183 178
-0.17 -9.36 -1.12 174 183 178
0.01 -9.46 -1.29 175 184 179
0.01 -9.55 -1.29 175 184 179
0.01 -9.64 -1.29 178 187 184
0.01 -9.74 -1.29 178 187 184
0.01 -9.83 -1.29 178 187 184
-0.17 -9.91 -1.12 178 187 184
-0.17 -10.00 -1.12 178 187 184
-0.17 -10.09 -1.12 179 188 185
-0.17 -10.19 -1.12 180 189 186
-0.17 -10.28 -1.12 181 190 187
-0.17 -10.37 -1.12 180 189 186
-0.17 -10.46 -1.12 179 188 185
-0.17 -10.55 -1.12 178 187 184
-0.17 -10.65 -1.12 178 187 184
-0.17 -10.74 -1.12 179 188 185
-0.17 -10.83 -1.12 180 189 186
-0.17 -10.92 -1.12 180 189 186
-0.17 -11.01 -1.12 180 189 186
-0.17 -11.11 -1.12 181 192 188
-0.17 -11.20 -1.12 182 193 189
-0.17 -11.29 -1.12 182 193 189
-0.17 -11.38 -1.12 183 192 189
0.01 -11.68 -1.29 185 194 191
0.01 -11.77 -1.29 185 194 191
0.01 -11.86 -1.29 186 195 192
0.01 -11.96 -1.29 188 197 194
0.01 -12.05 -1.29 188 197 194
0.01 -12.14 -1.29 188 197 194
-0.17 -12.21 -1.12 188 197 194
-0.17 -12.30 -1.12 189 198 195
0.01 -12.42 -1.29 190 199 196
0.01 -12.51 -1.29 191 197 193
-0.17 -12.58 -1.12 192 198 194
-0.17 -12.67 -1.12 191 200 195
-0.17 -12.76 -1.12 191 200 195
-0.17 -12.86 -1.12 191 200 197
-0.17 -12.95 -1.12 191 200 197
-0.17 -13.04 -1.12 192 201 200
-0.17 -13.13 -1.12 193 202 201
-0.17 -13.22 -1.12 191 199 201
-0.17 -13.32 -1.12 192 200 202
-0.36 -13.38 -0.95 193 203 202
-0.36 -13.47 -0.95 193 203 202
-0.17 -13.59 -1.12 193 203 202
-0.17 -13.69 -1.12 195 205 204
-0.17 -13.78 -1.12 196 206 205
-0.17 -13.87 -1.12 195 204 199
-0.17 -13.96 -1.12 198 207 202
-0.17 -14.05 -1.12 201 207 203
-0.17 -14.15 -1.12 200 206 202
-0.17 -14.24 -1.12 200 206 204
-0.17 -14.33 -1.12 202 208 206
-0.17 -14.42 -1.12 205 209 210
-0.17 -14.51 -1.12 206 210 211
-0.17 -14.61 -1.12 202 208 208
-0.17 -14.70 -1.12 202 208 208
-0.17 -14.79 -1.12 199 207 209
-0.17 -14.88 -1.12 199 207 209
-0.17 -14.97 -1.12 199 209 211
-0.17 -15.07 -1.12 200 210 212
-0.17 -15.16 -1.12 200 210 212
-0.17 -15.25 -1.12 202 210 212
-0.17 -15.34 -1.12 203 212 211
-0.17 -15.43 -1.12 205 211 209
-0.17 -15.53 -1.12 205 211 209
-0.17 -15.62 -1.12 205 211 209
-0.17 -15.71 -1.12 205 211 209
-0.17 -15.80 -1.12 206 212 210
-0.17 -15.89 -1.12 206 212 210
-0.17 -15.99 -1.12 207 213 211
-0.17 -16.08 -1.12 208 214 212
-0.17 -16.17 -1.12 210 214 215
-0.17 -16.26 -1.12 209 213 214
-0.17 -16.36 -1.12 207 211 212
-0.17 -16.45 -1.12 205 209 210
-0.17 -16.54 -1.12 206 210 211
-0.17 -16.63 -1.12 206 210 211
-0.17 -16.72 -1.12 206 212 212
-0.36 -16.77 -0.95 207 213 213
-0.36 -16.86 -0.95 208 214 214
-0.36 -16.96 -0.95 206 212 212
-0.36 -17.05 -0.95 207 211 212
-0.36 -17.14 -0.95 208 212 213
-0.36 -17.23 -0.95 208 212 213
-0.36 -17.32 -0.95 207 211 212
-0.36 -17.41 -0.95 208 212 213
-0.36 -17.51 -0.95 207 211 212
-0.36 -17.60 -0.95 207 211 212
-0.17 -17.74 -1.12 208 212 213
-0.17 -17.83 -1.12 211 212 214
-0.17 -17.92 -1.12 210 211 213
-0.17 -18.01 -1.12 209 210 212
-0.17 -18.10 -1.12 205 209 210
-0.17 -18.20 -1.12 206 210 211
-0.17 -18.29 -1.12 207 211 212
-0.17 -18.38 -1.12 206 210 211
-0.17 -18.47 -1.12 205 209 210
-0.17 -18.57 -1.12 203 207 208
-0.17 -18.66 -1.12 198 202 203
-0.17 -18.75 -1.12 193 197 198
-0.36 -18.79 -0.95 190 194 195
-0.36 -18.88 -0.95 186 190 191
-0.36 -18.97 -0.95 181 185 186
-0.36 -19.06 -0.95 176 180 181
-0.36 -19.16 -0.95 173 174 176
-0.36 -19.25 -0.95 170 171 173
-0.36 -19.34 -0.95 167 169 168
-0.36 -19.43 -0.95 166 167 169
-0.36 -19.52 -0.95 170 170 172
-0.36 -19.61 -0.95 169 168 173
-0.36 -19.71 -0.95 168 167 172
-0.36 -19.80 -0.95 167 166 171
-0.17 -19.95 -1.12 166 165 170
-0.17 -20.04 -1.12 166 165 170
-0.36 -20.07 -0.95 164 163 168
-0.36 -20.16 -0.95 167 168 172
-0.17 -20.31 -1.12 165 166 170
-0.17 -20.41 -1.12 164 165 169
-0.17 -20.50 -1.12 164 165 169
-0.17 -20.59 -1.12 164 165 169
-0.17 -20.68 -1.12 162 163 167
-0.17 -20.78 -1.12 163 164 168
-0.17 -20.87 -1.12 165 166 168
-0.17 -20.96 -1.12 170 170 168
-0.17 -21.05 -1.12 170 171 166
-0.17 -21.14 -1.12 171 171 169
-0.17 -21.24 -1.12 171 171 169
-0.36 -21.26 -0.95 171 171 171
-0.36 -21.36 -0.95 172 172 172
-0.36 -21.45 -0.95 172 172 174
-0.36 -21.54 -0.95 173 173 175
-0.36 -21.63 -0.95 174 174 176
-0.36 -21.72 -0.95 175 175 177
-0.36 -21.81 -0.95 175 175 177
-0.36 -21.90 -0.95 175 175 177
-0.36 -22.00 -0.95 176 176 176
-0.36 -22.09 -0.95 177 177 177
-0.36 -22.18 -0.95 179 179 179
-0.36 -22.27 -0.95 186 186 186
-0.36 -22.36 -0.95 189 189 189
-0.36 -22.45 -0.95 194 194 196
-0.36 -22.55 -0.95 198 198 200
-0.36 -22.64 -0.95 200 200 202
-0.36 -22.73 -0.95 203 203 205
-0.36 -22.82 -0.95 208 208 210
-0.17 -22.98 -1.12 211 211 213
-0.17 -23.08 -1.12 212 212 214
-0.17 -23.17 -1.12 215 215 217
-0.17 -23.26 -1.12 217 216 221
-0.17 -23.35 -1.12 218 217 222
-0.17 -23.45 -1.12 219 218 223
-0.17 -23.54 -1.12 221 220 225
-0.17 -23.63 -1.12 223 222 227
-0.36 -23.65 -0.95 222 221 226
-0.36 -23.74 -0.95 223 222 227
-0.17 -23.91 -1.12 222 221 226
-0.17 -24.00 -1.12 221 220 225
-0.36 -24.01 -0.95 221 220 225
-0.36 -24.10 -0.95 222 221 226
-0.36 -24.20 -0.95 222 221 226
-0.36 -24.29 -0.95 221 221 223
-0.36 -24.38 -0.95 220 220 222
-0.36 -24.47 -0.95 219 219 221
-0.36 -24.56 -0.95 219 219 219
-0.17 -24.73 -1.12 219 219 219
-0.17 -24.83 -1.12 219 219 219
-0.17 -24.92 -1.12 219 219 219
-0.17 -25.01 -1.12 220 220 218
-0.17 -25.10 -1.12 222 221 219
-0.17 -25.19 -1.12 221 219 220
-0.17 -25.29 -1.12 223 219 220
-0.17 -25.38 -1.12 223 219 220
-0.17 -25.47 -1.12 224 220 221
-0.17 -25.56 -1.12 222 220 221
-0.36 -25.57 -0.95 222 220 221
-0.36 -25.66 -0.95 222 220 221
-0.36 -25.75 -0.95 221 219 220
-0.36 -25.85 -0.95 220 220 220
-0.36 -25.94 -0.95 219 219 219
-0.36 -26.03 -0.95 219 219 219
-0.36 -26.12 -0.95 219 219 219
-0.36 -26.21 -0.95 218 220 219
-0.36 -26.30 -0.95 218 220 219
-0.36 -26.40 -0.95 218 220 219
-0.36 -26.49 -0.95 217 219 218
-0.36 -26.58 -0.95 214 216 215
-0.36 -26.67 -0.95 214 214 214
-0.36 -26.76 -0.95 214 214 214
-0.17 -26.94 -1.12 215 213 214
-0.17 -27.04 -1.12 215 213 214
-0.17 -27.13 -1.12 218 214 215
-0.17 -27.22 -1.12 218 214 215
-0.17 -27.31 -1.12 221 217 218
-0.17 -27.40 -1.12 221 217 218
-0.17 -27.50 -1.12 222 218 219
-0.17 -27.59 -1.12 222 218 219
-0.36 -27.59 -0.95 222 218 219
-0.36 -27.68 -0.95 222 218 219
-0.36 -27.77 -0.95 223 219 220
-0.36 -27.86 -0.95 223 219 220
-0.36 -27.95 -0.95 222 220 221
-0.36 -28.05 -0.95 224 222 223
-0.36 -28.14 -0.95 225 223 224
-0.36 -28.23 -0.95 225 223 224
-0.36 -28.32 -0.95 225 223 224
-0.36 -28.41 -0.95 227 225 226
-0.36 -28.50 -0.95 227 225 226
-0.36 -28.60 -0.95 226 224 225
-0.36 -28.69 -0.95 229 227 228
-0.36 -28.78 -0.95 229 227 228
-0.36 -28.87 -0.95 229 227 228
-0.36 -28.96 -0.95 228 226 227
-0.36 -29.05 -0.95 228 226 227
-0.36 -29.15 -0.95 227 225 226
-0.36 -29.24 -0.95 227 225 226
-0.36 -29.33 -0.95 230 226 227
-0.36 -29.42 -0.95 230 226 227
-0.36 -29.51 -0.95 230 226 227
-0.36 -29.60 -0.95 232 228 229
-0.36 -29.70 -0.95 234 230 231
-0.36 -29.79 -0.95 234 230 231
-0.36 -29.88 -0.95 234 230 231
-0.36 -29.97 -0.95 233 229 230
-0.36 -30.06 -0.95 232 228 229
-0.36 -30.15 -0.95 232 228 229
-0.36 -30.25 -0.95 233 229 230
-0.36 -30.34 -0.95 234 230 231
-0.36 -30.43 -0.95 234 230 231
-0.36 -30.52 -0.95 233 229 230
-0.36 -30.61 -0.95 233 229 230
-0.36 -30.70 -0.95 232 228 229
-0.36 -30.80 -0.95 226 226 226
-0.36 -30.89 -0.95 235 233 234
-0.36 -30.98 -0.95 254 250 251
-0.36 -31.07 -0.95 126 115 119
-0.36 -31.16 -0.95 78 66 70
-0.36 -31.25 -0.95 103 91 95
-0.36 -31.35 -0.95 111 99 103
-0.36 -31.44 -0.95 107 96 100
-0.36 -31.53 -0.95 108 97 101
-0.22 22.41 -1.20 0 0 0
-0.22 22.32 -1.20 0 0 0
-0.22 22.23 -1.20 0 0 0
-0.22 22.13 -1.20 0 0 0
-0.22 22.04 -1.20 0 0 0
-0.22 21.95 -1.20 0 0 0
-0.22 21.86 -1.20 0 0 0
-0.04 21.90 -1.37 0 0 0
-0.04 21.81 -1.37 0 0 0
-0.04 21.71 -1.37 129 120 113
-0.04 21.62 -1.37 129 120 113
-0.22 21.40 -1.20 128 119 112
-0.22 21.30 -1.20 126 117 110
-0.22 21.21 -1.20 126 117 110
-0.22 21.12 -1.20 126 117 110
-0.22 21.03 -1.20 128 119 112
-0.22 20.94 -1.20 129 120 113
-0.22 20.84 -1.20 130 121 114
-0.22 20.75 -1.20 126 119 111
-0.22 20.66 -1.20 127 120 112
-0.22 20.57 -1.20 127 120 112
-0.22 20.48 -1.20 127 120 112
-0.22 20.38 -1.20 126 119 113
-0.22 20.29 -1.20 127 120 114
-0.22 20.20 -1.20 126 121 115
-0.22 20.11 -1.20 128 123 117
-0.22 20.02 -1.20 127 122 116
-0.22 19.92 -1.20 128 123 117
-0.22 19.83 -1.20 129 124 118
-0.22 19.74 -1.20 130 125 121
-0.22 19.65 -1.20 130 125 121
-0.22 19.55 -1.20 129 124 120
-0.22 19.46 -1.20 129 124 120
-0.22 19.37 -1.20 133 125 123
-0.22 19.28 -1.20 133 125 123
-0.22 19.19 -1.20 133 125 122
-0.22 19.09 -1.20 134 126 123
-0.22 19.00 -1.20 132 124 121
-0.22 18.91 -1.20 131 123 120
-0.22 18.82 -1.20 133 124 119
-0.22 18.73 -1.20 135 126 121
-0.22 18.63 -1.20 132 125 115
-0.22 18.54 -1.20 133 126 116
-0.22 18.45 -1.20 134 127 119
-0.22 18.36 -1.20 134 127 119
-0.22 18.27 -1.20 132 127 121
-0.22 18.17 -1.20 132 127 123
-0.22 18.08 -1.20 132 127 123
-0.22 17.99 -1.20 132 127 124
-0.22 17.90 -1.20 129 125 124
-0.22 17.81 -1.20 130 126 125
-0.22 17.71 -1.20 130 126 125
-0.22 17.62 -1.20 129 125 124
-0.22 17.53 -1.20 132 131 129
-0.22 17.44 -1.20 131 130 128
-0.22 17.34 -1.20 130 126 127
-0.22 17.25 -1.20 130 126 127
-0.22 17.16 -1.20 133 127 131
-0.22 17.07 -1.20 134 130 131
-0.22 16.98 -1.20 132 128 129
-0.22 16.88 -1.20 130 126 125
-0.22 16.79 -1.20 129 125 124
-0.22 16.70 -1.20 131 127 124
-0.40 16.50 -1.03 133 129 126
-0.40 16.41 -1.03 133 129 126
-0.40 16.31 -1.03 133 129 126
-0.22 16.33 -1.20 133 129 128
-0.22 16.24 -1.20 132 128 127
-0.22 16.15 -1.20 130 126 127
-0.22 16.06 -1.20 130 126 127
-0.22 15.96 -1.20 131 127 128
-0.22 15.87 -1.20 132 126 128
-0.22 15.78 -1.20 134 128 130
-0.22 15.69 -1.20 136 127 130
-0.22 15.60 -1.20 137 128 131
-0.22 15.50 -1.20 137 128 131
-0.22 15.41 -1.20 137 128 129
-0.22 15.32 -1.20 132 126 126
-0.22 15.23 -1.20 131 125 125
-0.22 15.14 -1.20 134 128 128
-0.22 15.04 -1.20 135 129 129
-0.22 14.95 -1.20 135 131 130
-0.22 14.86 -1.20 135 131 130
-0.22 14.77 -1.20 133 129 130
-0.22 14.67 -1.20 133 129 130
-0.22 14.58 -1.20 131 129 130
-0.22 14.49 -1.20 132 130 131
-0.22 14.40 -1.20 135 131 128
-0.22 14.31 -1.20 134 130 127
-0.22 14.21 -1.20 133 129 126
-0.22 14.12 -1.20 132 128 125
-0.22 14.03 -1.20 132 128 127
-0.22 13.94 -1.20 133 129 128
-0.04 13.94 -1.37 134 130 131
-0.04 13.85 -1.37 135 131 132
-0.22 13.66 -1.20 134 130 131
-0.22 13.57 -1.20 132 128 129
-0.22 13.48 -1.20 131 127 126
-0.22 13.39 -1.20 132 128 127
-0.22 13.29 -1.20 132 128 125
-0.22 13.20 -1.20 132 128 125
-0.22 13.11 -1.20 133 130 125
-0.22 13.02 -1.20 133 134 126
-0.22 12.93 -1.20 131 133 122
-0.22 12.83 -1.20 129 130 122
-0.22 12.74 -1.20 128 129 123
-0.40 12.56 -1.03 130 129 124
-0.40 12.47 -1.03 131 130 128
-0.40 12.37 -1.03 131 130 128
-0.40 12.28 -1.03 131 129 130
-0.40 12.19 -1.03 129 127 128
-0.40 12.10 -1.03 130 128 129
-0.40 12.01 -1.03 131 129 130
-0.40 11.92 -1.03 131 129 130
-0.40 11.82 -1.03 133 129 126
-0.40 11.73 -1.03 132 128 125
-0.40 11.64 -1.03 131 128 123
-0.40 11.55 -1.03 131 127 124
-0.40 11.46 -1.03 132 128 129
-0.56 11.29 -0.88 132 127 131
-4.96 9.11 3.32 133 129 130
-5.09 8.97 3.45 128 124 125
-5.09 8.89 3.45 131 125 127
-5.22 8.75 3.57 133 127 129
-5.22 8.67 3.57 127 121 121
-5.22 8.59 3.57 145 141 140
-5.22 8.51 3.57 153 149 148
-5.22 8.43 3.57 181 181 179
-5.22 8.35 3.57 92 92 90
-5.22 8.27 3.57 15 17 14
-5.22 8.19 3.57 36 38 35
-5.22 8.10 3.57 17 22 18
-5.22 8.02 3.57 61 63 60
-5.22 7.94 3.57 24 24 22
-5.22 7.86 3.57 15 13 14
-5.35 7.73 3.70 44 42 43
-5.35 7.65 3.70 83 81 86
-5.35 7.57 3.70 110 108 113
-5.35 7.49 3.70 128 125 134
-5.35 7.41 3.70 129 126 135
-5.35 7.32 3.70 122 119 130
-5.35 7.24 3.70 129 125 139
-5.35 7.16 3.70 133 129 143
-5.35 7.08 3.70 141 135 147
-5.35 7.00 3.70 144 138 150
-5.35 6.92 3.70 146 139 147
-5.35 6.84 3.70 146 139 147
-5.35 6.76 3.70 148 139 144
-5.48 6.63 3.82 147 140 147
-5.48 6.55 3.82 140 139 145
-5.48 6.47 3.82 139 140 145
-5.48 6.39 3.82 141 142 147
-5.48 6.31 3.82 139 142 149
-5.48 6.23 3.82 137 140 149
-5.48 6.15 3.82 137 140 149
-5.48 6.07 3.82 139 141 153
-5.48 5.99 3.82 140 144 155
-5.48 5.91 3.82 140 144 155
-5.48 5.67 3.82 138 145 155
-5.48 5.59 3.82 137 144 154
-5.48 5.51 3.82 137 144 154
-5.48 5.43 3.82 136 142 154
-5.48 5.35 3.82 140 148 159
-5.62 5.23 3.94 136 144 157
-5.62 5.15 3.94 136 146 158
-5.62 5.07 3.94 137 147 159
-5.62 4.99 3.94 135 145 157
-5.62 4.91 3.94 138 148 160
-5.62 4.83 3.94 143 153 165
-5.62 4.75 3.94 143 153 165
-5.62 4.67 3.94 137 145 158
-5.62 4.59 3.94 136 142 154
-5.62 4.51 3.94 143 149 161
-5.62 4.43 3.94 146 150 162
-5.75 4.31 4.07 137 141 153
-5.75 4.23 4.07 144 148 160
-5.75 4.15 4.07 143 147 159
-5.75 4.07 4.07 144 153 160
-5.75 3.99 4.07 139 148 155
-5.75 3.91 4.07 106 116 125
-5.62 3.87 3.94 69 79 88
-5.62 3.79 3.94 102 117 124
-5.75 3.67 4.07 151 166 173
-5.75 3.59 4.07 137 156 162
-5.75 3.51 4.07 130 149 155
-5.75 3.43 4.07 133 152 159
-5.75 3.36 4.07 135 154 161
-5.75 3.28 4.07 139 158 165
-5.75 3.20 4.07 141 158 166
-5.75 3.12 4.07 140 157 167
-5.75 3.04 4.07 142 156 167
-5.75 2.96 4.07 144 156 168
-5.75 2.88 4.07 147 159 171
-5.75 2.80 4.07 141 158 166
-5.75 2.72 4.07 141 158 166
-5.75 2.64 4.07 141 156 163
-5.75 2.56 4.07 166 177 181
-5.62 2.52 3.94 166 173 179
-5.62 2.44 3.94 157 165 167
-5.48 2.40 3.82 179 183 186
-5.35 2.36 3.70 196 200 199
-5.22 2.31 3.57 200 202 201
-5.09 2.27 3.45 202 202 202
-4.68 2.30 3.05 199 199 199
-4.29 2.33 2.68 204 204 202
-4.13 2.29 2.53 195 195 193
-4.00 2.24 2.40 204 204 204
-4.00 2.16 2.40 197 197 197
-3.71 2.15 2.13 199 200 195
-3.56 2.11 1.98 201 202 197
-3.56 2.02 1.98 201 201 199
-3.56 1.94 1.98 199 199 197
-0.22 2.34 -1.20 208 212 211
-0.04 2.29 -1.37 186 190 189
-0.22 2.15 -1.20 142 148 146
-0.22 2.06 -1.20 154 160 158
-0.22 1.97 -1.20 160 166 164
-0.04 1.92 -1.37 149 158 155
-0.22 1.78 -1.20 158 167 164
-0.22 1.69 -1.20 156 167 163
-0.22 1.60 -1.20 156 167 163
-0.22 1.51 -1.20 156 167 163
-0.22 1.42 -1.20 156 167 163
-0.22 1.32 -1.20 158 167 164
-0.22 1.23 -1.20 158 167 164
-0.22 1.14 -1.20 158 167 162
-0.22 1.05 -1.20 158 167 162
-0.22 0.96 -1.20 162 168 164
-0.22 0.86 -1.20 161 167 163
-0.22 0.77 -1.20 161 166 162
-0.22 0.68 -1.20 161 166 162
-0.22 0.59 -1.20 161 166 162
-0.22 0.49 -1.20 161 166 162
-0.40 0.37 -1.03 162 167 161
-0.40 0.28 -1.03 164 166 163
-0.40 0.18 -1.03 163 165 162
-0.40 0.09 -1.03 164 164 164
-0.22 0.03 -1.20 162 166 165
-0.22 -0.06 -1.20 162 166 165
-0.40 -0.18 -1.03 160 166 164
-0.40 -0.27 -1.03 157 168 164
-0.40 -0.37 -1.03 158 169 165
-0.22 -0.43 -1.20 154 166 162
-0.22 -0.52 -1.20 157 169 165
-0.22 -0.61 -1.20 159 170 166
-0.22 -0.70 -1.20 158 169 165
-0.22 -0.79 -1.20 158 167 164
-0.22 -0.89 -1.20 159 168 165
-0.22 -0.98 -1.20 162 168 166
-0.22 -1.07 -1.20 161 167 165
-0.22 -1.16 -1.20 160 166 162
-0.22 -1.25 -1.20 160 166 162
-0.22 -1.35 -1.20 160 166 162
-0.22 -1.44 -1.20 161 167 163
-0.22 -1.53 -1.20 161 167 163
-0.22 -1.62 -1.20 162 168 164
-0.22 -1.72 -1.20 162 168 164
-0.22 -1.81 -1.20 163 169 165
-0.22 -1.90 -1.20 158 167 162
-0.22 -1.99 -1.20 160 169 164
-0.22 -2.08 -1.20 162 171 166
-0.22 -2.18 -1.20 162 171 166
-0.22 -2.27 -1.20 161 170 165
-0.22 -2.36 -1.20 160 169 164
-0.22 -2.45 -1.20 160 171 167
-0.22 -2.54 -1.20 158 170 168
-0.22 -2.64 -1.20 159 171 171
-0.22 -2.73 -1.20 160 172 172
-0.22 -2.82 -1.20 161 173 173
-0.22 -2.91 -1.20 163 173 172
-0.22 -3.00 -1.20 163 173 172
-0.22 -3.10 -1.20 162 172 171
-0.22 -3.19 -1.20 162 172 171
-0.22 -3.28 -1.20 161 170 169
-0.22 -3.37 -1.20 162 171 170
-0.22 -3.46 -1.20 165 171 171
-0.22 -3.56 -1.20 164 170 170
-0.22 -3.65 -1.20 164 170 168
-0.22 -3.74 -1.20 164 170 168
-0.22 -3.83 -1.20 165 171 169
-0.22 -3.92 -1.20 166 172 170
-0.22 -4.02 -1.20 163 174 166
-0.22 -4.11 -1.20 162 173 165
-0.22 -4.20 -1.20 162 173 165
-0.22 -4.29 -1.20 162 173 165
-0.22 -4.39 -1.20 162 173 167
-0.22 -4.48 -1.20 162 173 167
-0.22 -4.57 -1.20 162 173 167
-0.22 -4.66 -1.20 161 172 168
-0.22 -4.75 -1.20 162 173 169
-0.22 -4.85 -1.20 163 173 172
-0.22 -4.94 -1.20 164 174 173
-0.22 -5.03 -1.20 165 175 176
-0.22 -5.12 -1.20 165 175 176
-0.22 -5.21 -1.20 164 174 175
-0.22 -5.31 -1.20 164 174 175
-0.22 -5.40 -1.20 164 175 171
-0.22 -5.49 -1.20 164 175 171
-0.22 -5.58 -1.20 164 175 171
-0.22 -5.67 -1.20 165 176 172
-0.22 -5.77 -1.20 166 177 173
-0.22 -5.86 -1.20 167 178 174
-0.22 -5.95 -1.20 167 178 174
-0.22 -6.04 -1.20 166 177 173
-0.22 -6.13 -1.20 163 174 170
-0.40 -6.23 -1.03 163 174 170
-0.40 -6.32 -1.03 163 174 170
-0.40 -6.42 -1.03 164 175 171
-0.40 -6.51 -1.03 166 177 173
-0.40 -6.60 -1.03 166 177 173
-0.40 -6.69 -1.03 166 177 173
-0.40 -6.78 -1.03 166 176 175
-0.40 -6.87 -1.03 167 175 178
-0.40 -6.97 -1.03 168 176 178
-0.40 -7.06 -1.03 168 176 178
-0.22 -7.15 -1.20 168 177 174
-0.22 -7.24 -1.20 168 177 174
-0.22 -7.33 -1.20 168 177 172
-0.22 -7.42 -1.20 168 177 172
-0.40 -7.52 -1.03 168 179 171
-0.40 -7.61 -1.03 168 179 171
-0.40 -7.70 -1.03 168 179 173
-0.40 -7.79 -1.03 167 178 172
-0.40 -7.88 -1.03 167 178 172
-0.22 -7.98 -1.20 168 179 173
-0.22 -8.07 -1.20 168 179 173
-0.22 -8.16 -1.20 168 179 175
-0.22 -8.25 -1.20 167 176 173
-0.22 -8.34 -1.20 169 178 177
-0.40 -8.43 -1.03 170 179 176
-0.40 -8.52 -1.03 169 178 175
-0.40 -8.62 -1.03 170 179 176
-0.40 -8.71 -1.03 173 182 179
-0.22 -8.81 -1.20 174 183 180
-0.22 -8.90 -1.20 172 181 178
-0.22 -8.99 -1.20 174 183 180
-0.40 -9.07 -1.03 172 181 176
-0.40 -9.17 -1.03 171 180 175
-0.22 -9.27 -1.20 172 181 176
-0.22 -9.36 -1.20 173 182 177
-0.22 -9.45 -1.20 175 184 179
-0.22 -9.54 -1.20 177 186 181
-0.22 -9.63 -1.20 176 185 182
-0.22 -9.73 -1.20 176 185 182
-0.22 -9.82 -1.20 176 185 182
-0.22 -9.91 -1.20 176 185 182
-0.22 -10.00 -1.20 177 186 183
-0.22 -10.09 -1.20 178 187 184
-0.22 -10.19 -1.20 179 188 185
-0.22 -10.28 -1.20 179 188 185
-0.22 -10.37 -1.20 181 190 187
-0.40 -10.45 -1.03 179 188 185
-0.40 -10.54 -1.03 178 187 184
-0.40 -10.63 -1.03 178 187 184
-0.40 -10.72 -1.03 179 188 185
-0.40 -10.81 -1.03 180 189 186
-0.40 -10.91 -1.03 180 189 186
-0.40 -11.00 -1.03 179 188 185
-0.22 -11.11 -1.20 181 192 188
-0.22 -11.20 -1.20 182 193 189
-0.22 -11.29 -1.20 183 194 190
-0.22 -11.38 -1.20 182 193 189
-0.22 -11.48 -1.20 181 192 188
-0.22 -11.57 -1.20 181 192 188
-0.22 -11.66 -1.20 181 192 188
-0.22 -11.75 -1.20 185 194 191
-0.22 -11.84 -1.20 186 195 192
-0.22 -11.94 -1.20 187 196 193
-0.22 -12.03 -1.20 187 196 193
-0.22 -12.12 -1.20 186 195 192
-0.22 -12.21 -1.20 187 196 193
-0.22 -12.30 -1.20 189 198 195
-0.22 -12.40 -1.20 190 199 196
-0.22 -12.49 -1.20 188 195 188
-0.22 -12.58 -1.20 189 196 189
-0.22 -12.67 -1.20 190 196 192
-0.22 -12.76 -1.20 190 196 192
-0.22 -12.86 -1.20 188 197 194
-0.22 -12.95 -1.20 188 197 194
-0.22 -13.04 -1.20 190 199 198
-0.22 -13.13 -1.20 191 200 199
-0.22 -13.22 -1.20 191 200 199
-0.22 -13.32 -1.20 192 201 200
-0.40 -13.38 -1.03 192 202 201
-0.40 -13.84 -1.03 195 205 197
-0.40 -13.93 -1.03 198 205 198
-0.40 -14.02 -1.03 196 203 196
-0.40 -14.11 -1.03 191 198 191
-0.22 -14.24 -1.20 191 196 192
-0.22 -14.33 -1.20 195 200 196
-0.22 -14.42 -1.20 201 205 204
-0.22 -14.51 -1.20 204 208 207
-0.22 -14.61 -1.20 204 208 209
-0.22 -14.70 -1.20 203 207 208
-0.22 -14.79 -1.20 201 206 209
-0.40 -14.85 -1.03 200 205 208
-0.40 -14.94 -1.03 198 206 209
-0.40 -15.03 -1.03 200 208 211
-0.40 -15.12 -1.03 200 210 212
-0.40 -15.21 -1.03 202 210 212
-0.40 -15.31 -1.03 200 209 208
-0.40 -15.40 -1.03 202 208 206
-0.40 -15.49 -1.03 203 209 207
-0.40 -15.58 -1.03 204 210 208
-0.22 -15.71 -1.20 205 211 209
-0.22 -15.80 -1.20 206 210 209
-0.22 -15.89 -1.20 206 210 209
-0.40 -15.95 -1.03 202 206 205
-0.40 -16.04 -1.03 204 208 207
-0.22 -16.17 -1.20 206 210 211
-0.22 -16.26 -1.20 207 211 212
-0.22 -16.36 -1.20 206 210 211
-0.40 -16.41 -1.03 205 209 210
-0.40 -16.50 -1.03 206 210 211
-0.40 -16.59 -1.03 208 212 213
-0.40 -16.68 -1.03 204 210 210
-0.40 -16.77 -1.03 206 212 212
-0.40 -16.86 -1.03 207 213 213
-0.40 -16.96 -1.03 207 213 213
-0.40 -17.05 -1.03 208 212 213
-0.40 -17.14 -1.03 208 212 213
-0.40 -17.23 -1.03 207 211 212
-0.40 -17.32 -1.03 205 209 210
-0.40 -17.41 -1.03 206 210 211
-0.40 -17.51 -1.03 204 208 209
-0.40 -17.60 -1.03 203 207 208
-0.40 -17.69 -1.03 204 208 209
-0.40 -17.78 -1.03 207 208 210
-0.22 -17.92 -1.20 207 208 210
-0.22 -18.01 -1.20 207 208 210
-0.40 -18.06 -1.03 205 209 210
-0.40 -18.15 -1.03 206 210 211
-0.40 -18.24 -1.03 206 210 211
-0.40 -18.33 -1.03 205 209 210
-0.40 -18.42 -1.03 204 208 209
-0.40 -18.51 -1.03 203 207 208
-0.40 -18.61 -1.03 199 203 204
-0.40 -18.70 -1.03 195 199 200
-0.40 -18.79 -1.03 192 196 197
-0.40 -18.88 -1.03 188 192 193
-0.40 -18.97 -1.03 182 186 187
-0.40 -19.06 -1.03 177 181 182
-0.40 -19.16 -1.03 173 177 178
-0.40 -19.25 -1.03 170 174 175
-0.40 -19.34 -1.03 167 171 172
-0.40 -19.43 -1.03 167 168 170
-0.40 -19.52 -1.03 166 167 171
-0.40 -19.61 -1.03 166 165 170
-0.40 -19.71 -1.03 165 164 169
-0.40 -19.80 -1.03 164 163 168
-0.40 -19.89 -1.03 165 164 169
-0.40 -19.98 -1.03 166 165 170
-0.40 -20.07 -1.03 166 165 170
-0.40 -20.16 -1.03 164 165 169
-0.40 -20.26 -1.03 163 164 168
-0.40 -20.35 -1.03 164 165 169
-0.22 -20.50 -1.20 167 168 172
-0.22 -20.59 -1.20 168 169 173
-0.22 -20.68 -1.20 167 168 172
-0.22 -20.78 -1.20 169 170 174
-0.22 -20.87 -1.20 172 173 175
-0.22 -20.96 -1.20 169 169 167
-0.40 -20.99 -1.03 168 169 164
-0.40 -21.08 -1.03 168 168 166
-0.40 -21.17 -1.03 170 170 168
-0.40 -21.26 -1.03 172 172 172
-0.40 -21.36 -1.03 173 173 173
-0.40 -21.45 -1.03 172 172 174
-0.40 -21.54 -1.03 171 171 173
-0.40 -21.63 -1.03 173 173 175
-0.40 -21.72 -1.03 174 174 176
-0.40 -21.81 -1.03 175 175 177
-0.40 -21.90 -1.03 175 175 177
-0.40 -22.00 -1.03 175 175 175
-0.40 -22.09 -1.03 176 176 176
-0.40 -22.18 -1.03 179 179 179
-0.40 -22.27 -1.03 186 186 186
-0.40 -22.36 -1.03 190 190 190
-0.40 -22.45 -1.03 196 196 196
-0.40 -22.55 -1.03 199 199 199
-0.40 -22.64 -1.03 202 202 204
-0.40 -22.73 -1.03 204 204 206
-0.40 -22.82 -1.03 208 208 210
-0.40 -22.91 -1.03 212 212 214
-0.40 -23.00 -1.03 212 211 216
-0.40 -23.10 -1.03 215 214 219
-0.40 -23.19 -1.03 216 215 220
-0.40 -23.28 -1.03 216 215 220
-0.40 -23.37 -1.03 217 216 221
-0.40 -23.46 -1.03 220 219 224
-0.40 -23.55 -1.03 221 220 225
-0.40 -23.65 -1.03 220 219 224
-0.40 -23.74 -1.03 221 220 226
-0.40 -23.83 -1.03 220 219 225
-0.40 -23.92 -1.03 219 218 224
-0.40 -24.01 -1.03 220 219 225
-0.40 -24.10 -1.03 221 220 225
-0.40 -24.20 -1.03 221 220 225
-0.40 -24.29 -1.03 221 220 225
-0.40 -24.38 -1.03 220 219 224
-0.40 -24.47 -1.03 218 218 220
-0.40 -24.56 -1.03 218 218 220
-0.40 -24.65 -1.03 217 217 219
-0.40 -24.75 -1.03 216 216 216
-0.40 -24.84 -1.03 215 215 215
-0.40 -24.93 -1.03 217 217 217
-0.40 -25.02 -1.03 219 217 218
-0.40 -25.11 -1.03 217 215 216
-0.40 -25.20 -1.03 219 215 216
-0.40 -25.30 -1.03 220 216 217
-0.40 -25.39 -1.03 222 218 219
-0.40 -25.48 -1.03 224 220 221
-0.40 -25.57 -1.03 224 220 221
-0.40 -25.66 -1.03 222 220 221
-0.40 -25.75 -1.03 221 219 220
-0.40 -25.85 -1.03 218 218 218
-0.40 -25.94 -1.03 218 218 218
-0.40 -26.03 -1.03 218 218 218
-0.56 -26.05 -0.88 217 217 217
-0.56 -26.14 -0.88 216 218 217
-0.56 -26.23 -0.88 215 217 216
-0.56 -26.32 -0.88 215 217 216
-0.40 -26.49 -1.03 215 217 216
-0.40 -26.58 -1.03 219 221 220
-0.40 -26.67 -1.03 218 218 218
-0.40 -26.76 -1.03 217 217 217
-0.40 -26.85 -1.03 217 215 216
-0.40 -26.95 -1.03 216 214 215
-0.40 -27.04 -1.03 219 215 216
-0.22 -27.22 -1.20 219 215 216
-0.22 -27.31 -1.20 220 214 216
-0.22 -27.40 -1.20 220 214 216
-0.40 -27.40 -1.03 221 215 217
-0.40 -27.50 -1.03 222 216 218
-0.40 -27.59 -1.03 221 217 218
-0.40 -27.68 -1.03 221 217 218
-0.40 -27.77 -1.03 222 218 219
-0.40 -27.86 -1.03 223 219 220
-0.40 -27.95 -1.03 219 217 218
-0.56 -27.96 -0.88 222 220 221
-0.56 -28.06 -0.88 223 221 222
-0.56 -28.15 -0.88 222 220 221
-0.56 -28.24 -0.88 222 220 221
-0.40 -28.41 -1.03 225 223 224
-0.40 -28.50 -1.03 226 224 225
-0.40 -28.60 -1.03 225 223 224
-0.40 -28.69 -1.03 227 225 226
-0.40 -28.78 -1.03 227 225 226
-0.40 -28.87 -1.03 228 226 227
-0.40 -28.96 -1.03 228 226 227
-0.40 -29.05 -1.03 229 227 228
-0.40 -29.15 -1.03 230 228 229
-0.40 -29.24 -1.03 230 228 229
-0.40 -29.33 -1.03 234 230 231
-0.40 -29.42 -1.03 233 229 230
-0.56 -29.42 -0.88 232 228 229
-0.56 -29.52 -0.88 232 228 229
-0.56 -29.61 -0.88 232 228 229
-0.56 -29.70 -0.88 231 227 228
-0.56 -29.79 -0.88 229 225 226
-0.56 -29.88 -0.88 227 223 224
-0.56 -29.97 -0.88 227 223 224
-0.56 -30.06 -0.88 227 223 224
-0.56 -30.15 -0.88 228 224 225
-0.56 -30.25 -0.88 229 225 226
-0.56 -30.34 -0.88 230 226 227
-0.40 -30.52 -1.03 231 227 228
-0.40 -30.61 -1.03 232 228 229
-0.40 -30.70 -1.03 232 228 229
-0.40 -30.80 -1.03 226 226 226
-0.40 -30.89 -1.03 231 229 230
-0.40 -30.98 -1.03 244 240 241
-0.40 -31.07 -1.03 151 140 144
-0.40 -31.16 -1.03 95 83 87
-0.56 -31.16 -0.88 105 93 97
-0.56 -31.25 -0.88 103 91 95
-0.56 -31.34 -0.88 110 99 103
-0.56 -31.43 -0.88 107 96 100
-0.45 22.27 -1.10 0 0 0
-0.45 22.18 -1.10 0 0 0
-0.45 22.09 -1.10 0 0 0
-0.27 22.13 -1.28 0 0 0
-0.27 22.04 -1.28 0 0 0
-0.27 21.95 -1.28 0 0 0
-0.27 21.86 -1.28 0 0 0
-0.27 21.76 -1.28 0 0 0
-0.27 21.67 -1.28 0 0 0
-0.27 21.58 -1.28 127 118 121
-0.27 21.49 -1.28 127 118 121
-0.27 21.40 -1.28 127 118 121
-0.27 21.30 -1.28 127 119 117
-0.27 21.21 -1.28 128 120 117
-0.27 21.12 -1.28 130 121 116
-0.27 21.03 -1.28 130 121 114
-0.45 20.81 -1.10 128 122 110
-0.45 20.71 -1.10 127 121 109
-0.45 20.62 -1.10 124 118 106
-0.45 20.53 -1.10 127 120 110
-0.45 20.44 -1.10 128 124 113
-0.45 20.35 -1.10 128 123 117
-0.45 20.26 -1.10 126 123 118
-0.45 20.16 -1.10 124 120 119
-0.45 20.07 -1.10 121 120 118
-0.45 19.98 -1.10 122 118 117
-0.27 20.02 -1.28 123 120 111
-0.27 19.92 -1.28 125 121 112
-0.27 19.83 -1.28 128 124 115
-0.27 19.74 -1.28 131 126 122
-0.27 19.65 -1.28 130 125 121
-0.27 19.55 -1.28 130 125 122
-0.27 19.46 -1.28 129 124 121
-0.27 19.37 -1.28 131 125 125
-0.27 19.28 -1.28 131 125 125
-0.27 19.19 -1.28 129 124 121
-0.27 19.09 -1.28 128 123 120
-0.45 18.88 -1.10 130 125 119
-0.27 18.91 -1.28 132 127 121
-0.27 18.82 -1.28 132 128 119
-0.27 18.73 -1.28 130 126 117
-0.45 18.51 -1.10 128 126 114
-0.45 18.42 -1.10 129 127 115
-0.45 18.33 -1.10 130 127 118
-0.45 18.24 -1.10 131 128 121
-0.45 18.15 -1.10 132 129 122
-0.45 18.06 -1.10 131 127 124
-0.45 17.96 -1.10 129 125 122
-0.45 17.87 -1.10 128 124 123
-0.45 17.78 -1.10 127 125 126
-0.45 17.69 -1.10 129 127 128
-0.45 17.60 -1.10 130 128 129
-0.45 17.51 -1.10 128 126 127
-0.45 17.41 -1.10 132 131 129
-0.45 17.32 -1.10 132 131 127
-0.45 17.23 -1.10 133 129 126
-0.45 17.14 -1.10 132 128 127
-0.45 17.05 -1.10 132 126 126
-0.45 16.96 -1.10 131 127 124
-0.45 16.86 -1.10 132 128 125
-0.45 16.77 -1.10 132 128 125
-0.45 16.68 -1.10 131 127 124
-0.45 16.59 -1.10 131 128 123
-0.45 16.50 -1.10 132 129 124
-0.45 16.41 -1.10 136 133 126
-0.45 16.31 -1.10 134 131 124
-0.45 16.22 -1.10 134 129 123
-0.45 16.13 -1.10 134 129 123
-0.45 16.04 -1.10 136 129 121
-0.45 15.95 -1.10 137 130 122
-0.45 15.86 -1.10 136 127 120
-0.45 15.76 -1.10 135 126 119
-0.45 15.67 -1.10 140 133 123
-0.45 15.58 -1.10 138 131 123
-0.45 15.49 -1.10 136 129 121
-0.45 15.40 -1.10 136 128 125
-0.45 15.31 -1.10 138 128 126
-0.27 15.32 -1.28 134 124 125
-0.27 15.23 -1.28 132 121 125
-0.27 15.14 -1.28 137 126 132
-0.45 14.94 -1.10 136 125 131
-0.45 14.85 -1.10 135 126 129
-0.45 14.76 -1.10 136 127 130
-0.45 14.66 -1.10 133 127 127
-0.27 14.67 -1.28 133 127 127
-0.27 14.58 -1.28 134 130 129
-0.27 14.49 -1.28 138 134 133
-0.27 14.40 -1.28 129 128 123
-0.27 14.31 -1.28 131 130 125
-0.27 14.21 -1.28 133 133 125
-0.27 14.12 -1.28 132 132 124
-0.27 14.03 -1.28 130 130 122
-0.27 13.94 -1.28 128 127 122
-0.27 13.85 -1.28 129 128 123
-0.27 13.75 -1.28 131 130 128
-0.27 13.66 -1.28 132 130 131
-0.45 13.47 -1.10 132 130 133
-0.45 13.38 -1.10 133 131 136
-0.45 13.29 -1.10 133 131 136
-0.45 13.20 -1.10 133 131 132
-0.45 13.11 -1.10 133 132 130
-0.45 13.01 -1.10 134 131 126
-0.45 12.92 -1.10 132 129 124
-0.45 12.83 -1.10 133 128 124
-0.45 12.74 -1.10 132 127 123
-0.45 12.65 -1.10 132 127 123
-0.45 12.56 -1.10 132 128 125
-0.45 12.47 -1.10 133 129 126
-0.45 12.37 -1.10 134 130 127
-0.45 12.28 -1.10 135 131 128
-0.45 12.19 -1.10 131 128 123
-0.45 12.10 -1.10 131 128 123
-0.45 12.01 -1.10 130 130 122
-0.45 11.92 -1.10 129 129 121
-0.45 11.82 -1.10 128 128 116
-0.45 11.73 -1.10 129 129 117
-0.45 11.64 -1.10 130 131 117
-0.45 11.55 -1.10 134 132 120
-0.60 11.38 -0.96 135 131 120
-0.79 11.20 -0.78 138 131 123
-5.00 9.11 3.25 136 129 121
-5.13 8.97 3.38 134 127 119
-5.13 8.89 3.38 135 128 120
-5.26 8.75 3.50 138 131 123
-5.26 8.67 3.50 133 128 122
-5.26 8.59 3.50 139 138 133
-5.26 8.51 3.50 153 152 148
-5.26 8.43 3.50 172 174 169
-5.26 8.35 3.50 120 122 119
-5.26 8.27 3.50 15 21 19
-5.26 8.19 3.50 34 40 38
-5.26 8.10 3.50 18 27 26
-5.26 8.02 3.50 8 17 16
-5.26 7.94 3.50 5 11 9
-5.26 7.86 3.50 0 2 0
-5.26 7.78 3.50 0 6 4
-5.26 7.70 3.50 4 10 8
-5.26 7.62 3.50 14 18 19
-5.26 7.54 3.50 75 76 78
-5.39 7.41 3.63 134 134 136
-5.39 7.32 3.63 132 127 131
-5.39 7.24 3.63 138 129 134
-5.39 7.16 3.63 146 133 140
-5.39 7.08 3.63 153 140 149
-5.39 7.00 3.63 148 132 142
-5.39 6.92 3.63 147 134 143
-5.39 6.84 3.63 142 129 138
-5.39 6.76 3.63 148 137 145
-5.39 6.68 3.63 144 134 143
-5.39 6.60 3.63 142 138 152
-5.39 6.52 3.63 142 138 152
-5.39 6.44 3.63 141 137 151
-5.39 6.36 3.63 141 139 152
-5.39 6.28 3.63 142 140 153
-5.39 6.20 3.63 141 141 153
-5.39 6.12 3.63 142 142 154
-5.52 5.99 3.75 139 141 153
-5.52 5.91 3.75 143 145 157
-5.52 5.67 3.75 138 145 155
-5.52 5.59 3.75 137 144 154
-5.52 5.51 3.75 136 145 154
-5.52 5.43 3.75 141 150 159
-5.52 5.35 3.75 136 144 155
-5.52 5.27 3.75 137 145 156
-5.52 5.19 3.75 139 147 158
-5.52 5.11 3.75 139 147 158
-5.52 5.03 3.75 141 147 159
-5.52 4.95 3.75 143 149 161
-5.65 4.83 3.88 146 152 164
-5.65 4.75 3.88 149 155 167
-5.65 4.67 3.88 145 151 163
-5.65 4.59 3.88 142 151 160
-5.65 4.51 3.88 141 150 159
-5.65 4.43 3.88 141 150 159
-5.65 4.35 3.88 139 148 157
-5.65 4.27 3.88 136 146 155
-5.65 4.19 3.88 135 144 153
-5.78 4.07 4.00 138 147 154
-5.65 4.03 3.88 112 119 127
-5.65 3.95 3.88 29 36 46
-5.65 3.87 3.88 29 36 46
-5.65 3.79 3.88 72 80 91
-5.65 3.71 3.88 153 161 172
-5.65 3.63 3.88 142 154 166
-5.65 3.56 3.88 139 151 163
-5.65 3.48 3.88 142 156 169
-5.65 3.40 3.88 141 155 168
-5.78 3.28 4.00 139 156 166
-5.78 3.20 4.00 140 157 167
-5.78 3.12 4.00 140 158 168
-5.78 3.04 4.00 140 158 168
-5.78 2.96 4.00 138 158 165
-5.78 2.88 4.00 137 156 163
-5.78 2.80 4.00 140 159 166
-5.78 2.72 4.00 142 159 167
-5.78 2.64 4.00 138 153 158
-5.65 2.60 3.88 163 174 176
-5.65 2.52 3.88 166 174 176
-5.65 2.44 3.88 161 170 169
-5.52 2.40 3.75 171 175 174
-5.39 2.36 3.63 207 212 208
-5.26 2.31 3.50 198 200 197
-5.13 2.27 3.38 198 200 195
-4.72 2.30 2.98 199 201 196
-4.33 2.33 2.61 198 200 197
-4.33 2.25 2.61 199 201 198
-4.17 2.21 2.46 198 200 197
-4.04 2.16 2.33 198 200 197
-3.75 2.15 2.06 198 200 195
-3.60 2.11 1.91 200 202 197
-3.60 2.02 1.91 201 203 198
-3.47 1.97 1.78 200 202 197
-0.27 2.34 -1.28 201 207 203
-0.27 2.24 -1.28 197 203 199
-0.27 2.15 -1.28 134 143 138
-0.27 2.06 -1.28 156 165 160
-0.27 1.97 -1.28 153 162 159
-0.27 1.88 -1.28 160 169 166
-0.27 1.78 -1.28 157 166 163
-0.27 1.69 -1.28 159 165 163
-0.27 1.60 -1.28 159 165 163
-0.27 1.51 -1.28 159 165 163
-0.27 1.42 -1.28 159 165 163
-0.27 1.32 -1.28 159 165 163
-0.27 1.23 -1.28 159 165 163
-0.27 1.14 -1.28 158 164 160
-0.45 1.01 -1.10 158 164 160
-0.45 0.92 -1.10 160 165 161
-0.45 0.83 -1.10 160 165 161
-0.45 0.73 -1.10 161 166 162
-0.45 0.64 -1.10 161 166 162
-0.45 0.55 -1.10 162 167 161
-0.45 0.46 -1.10 162 167 161
-0.45 0.37 -1.10 162 167 161
-0.45 0.28 -1.10 162 167 161
-0.45 0.18 -1.10 159 165 161
-0.45 0.09 -1.10 159 165 161
-0.45 0.00 -1.10 160 167 160
-0.45 -0.09 -1.10 160 167 160
-0.45 -0.18 -1.10 160 167 160
-0.45 -0.27 -1.10 159 169 160
-0.45 -0.37 -1.10 159 169 160
-0.45 -0.46 -1.10 157 169 159
-0.27 -0.52 -1.28 157 169 159
-0.27 -0.61 -1.28 158 169 161
-0.27 -0.70 -1.28 158 169 161
-0.45 -0.82 -1.10 157 170 163
-0.27 -0.89 -1.28 157 170 163
-0.27 -0.98 -1.28 157 170 163
-0.27 -1.07 -1.28 158 169 163
-0.27 -1.16 -1.28 162 169 161
-0.27 -1.25 -1.28 164 169 162
-0.27 -1.35 -1.28 165 170 164
-0.27 -1.44 -1.28 164 169 163
-0.27 -1.53 -1.28 162 169 162
-0.27 -1.62 -1.28 161 168 161
-0.27 -1.72 -1.28 162 169 162
-0.27 -1.81 -1.28 163 170 163
-0.27 -1.90 -1.28 162 168 164
-0.27 -1.99 -1.28 162 168 164
-0.27 -2.08 -1.28 160 169 164
-0.27 -2.18 -1.28 160 169 164
-0.45 -2.29 -1.10 161 170 165
-0.45 -2.38 -1.10 162 171 166
-0.45 -2.47 -1.10 165 174 171
-0.45 -2.57 -1.10 163 173 172
-0.45 -2.66 -1.10 162 172 173
-0.27 -2.73 -1.28 162 172 173
-0.27 -2.82 -1.28 163 173 174
-0.27 -2.91 -1.28 164 173 172
-0.45 -3.02 -1.10 164 173 172
-0.45 -3.12 -1.10 162 171 168
-0.45 -3.21 -1.10 161 170 167
-0.45 -3.30 -1.10 162 171 168
-0.45 -3.39 -1.10 162 171 168
-0.45 -3.48 -1.10 164 173 168
-0.45 -3.57 -1.10 165 174 169
-0.45 -3.67 -1.10 164 175 167
-0.45 -3.76 -1.10 164 175 167
-0.45 -3.85 -1.10 163 174 166
-0.45 -3.94 -1.10 162 173 167
-0.45 -4.03 -1.10 164 173 170
-0.45 -4.12 -1.10 162 171 170
-0.45 -4.22 -1.10 160 169 168
-0.45 -4.31 -1.10 160 169 168
-0.45 -4.40 -1.10 161 170 169
-0.45 -4.49 -1.10 162 171 170
-0.45 -4.58 -1.10 162 171 170
-0.27 -4.66 -1.28 162 172 171
-0.27 -4.75 -1.28 163 173 172
-0.27 -4.85 -1.28 164 174 173
-0.27 -4.94 -1.28 164 174 173
-0.27 -5.03 -1.28 164 174 173
-0.27 -5.12 -1.28 163 173 172
-0.45 -5.22 -1.10 163 173 172
-0.45 -5.32 -1.10 164 174 173
-0.45 -5.41 -1.10 164 173 170
-0.45 -5.50 -1.10 164 173 170
-0.45 -5.59 -1.10 164 173 170
-0.27 -5.67 -1.28 164 173 170
-0.27 -5.77 -1.28 164 173 170
-0.45 -5.87 -1.10 165 174 171
-0.45 -5.96 -1.10 165 174 171
-0.45 -6.05 -1.10 165 174 171
-0.45 -6.14 -1.10 163 172 169
-0.45 -6.23 -1.10 164 173 170
-0.45 -6.32 -1.10 165 174 171
-0.45 -6.42 -1.10 167 176 173
-0.45 -6.51 -1.10 168 177 174
-0.45 -6.60 -1.10 168 177 174
-0.45 -6.69 -1.10 168 177 174
-0.45 -6.78 -1.10 167 176 173
-0.45 -6.87 -1.10 165 174 169
-0.45 -6.97 -1.10 166 175 170
-0.45 -7.06 -1.10 166 175 170
-0.45 -7.15 -1.10 167 176 171
-0.27 -7.24 -1.28 169 178 173
-0.27 -7.33 -1.28 170 179 174
-0.45 -7.42 -1.10 170 179 174
-0.45 -7.52 -1.10 168 177 174
-0.45 -7.61 -1.10 168 177 174
-0.45 -7.70 -1.10 168 177 174
-0.45 -7.79 -1.10 168 177 174
-0.45 -7.88 -1.10 169 178 175
-0.45 -7.97 -1.10 170 179 176
-0.45 -8.07 -1.10 170 179 176
-0.45 -8.16 -1.10 171 180 177
-0.45 -8.25 -1.10 169 178 173
-0.45 -8.34 -1.10 169 178 173
-0.45 -8.43 -1.10 170 179 174
-0.45 -8.52 -1.10 170 179 174
-0.45 -8.62 -1.10 169 178 175
-0.45 -8.71 -1.10 170 179 176
-0.45 -8.80 -1.10 171 180 177
-0.45 -8.89 -1.10 171 180 177
-0.45 -8.98 -1.10 174 183 182
-0.45 -9.07 -1.10 172 180 182
-0.45 -9.17 -1.10 171 179 181
-0.45 -9.26 -1.10 172 180 182
-0.27 -9.36 -1.28 173 181 183
-0.27 -9.45 -1.28 175 183 185
-0.27 -9.54 -1.28 176 184 186
-0.27 -9.63 -1.28 177 186 183
-0.27 -9.73 -1.28 178 187 184
-0.27 -9.82 -1.28 178 187 184
-0.27 -9.91 -1.28 178 187 184
-0.27 -10.00 -1.28 177 186 183
-0.27 -10.09 -1.28 178 187 184
-0.45 -10.17 -1.10 178 187 184
-0.45 -10.26 -1.10 179 188 185
-0.45 -10.36 -1.10 179 188 185
-0.45 -10.45 -1.10 178 187 184
-0.45 -10.54 -1.10 177 186 183
-0.45 -10.63 -1.10 177 186 183
-0.45 -10.72 -1.10 179 188 185
-0.45 -10.81 -1.10 180 189 186
-0.45 -10.91 -1.10 181 190 187
-0.45 -11.00 -1.10 181 190 187
-0.45 -11.09 -1.10 181 190 187
-0.45 -11.18 -1.10 182 191 188
-0.45 -11.27 -1.10 184 193 190
-0.45 -11.36 -1.10 184 193 190
-0.27 -11.48 -1.28 184 193 190
-0.27 -11.57 -1.28 184 193 190
-0.27 -11.66 -1.28 184 193 190
-0.27 -11.75 -1.28 186 195 192
-0.27 -11.84 -1.28 187 196 193
-0.27 -11.94 -1.28 188 197 194
-0.27 -12.03 -1.28 188 197 194
-0.27 -12.12 -1.28 188 197 194
-0.27 -12.21 -1.28 187 196 193
-0.27 -12.30 -1.28 187 196 193
-0.27 -12.40 -1.28 188 197 194
-0.27 -12.49 -1.28 189 200 192
-0.27 -12.58 -1.28 189 200 192
-0.27 -12.67 -1.28 188 199 191
-0.45 -12.74 -1.10 188 199 191
-0.45 -12.83 -1.10 189 198 193
-0.45 -12.92 -1.10 189 198 193
-0.45 -13.01 -1.10 191 197 193
-0.45 -13.11 -1.10 191 197 193
-0.45 -13.20 -1.10 195 200 196
-0.45 -13.29 -1.10 194 199 195
-0.45 -13.38 -1.10 205 211 207
-0.45 -13.84 -1.10 201 205 204
-0.45 -13.93 -1.10 198 199 201
-0.45 -14.02 -1.10 205 205 203
-0.45 -14.11 -1.10 176 176 174
-0.27 -14.24 -1.28 198 199 193
-0.27 -14.33 -1.28 161 162 156
-0.27 -14.42 -1.28 153 154 149
-0.27 -14.51 -1.28 162 162 160
-0.45 -14.57 -1.10 184 186 185
-0.45 -14.66 -1.10 212 213 217
-0.45 -14.76 -1.10 230 233 238
-0.45 -14.85 -1.10 220 223 230
-0.45 -14.94 -1.10 204 211 219
-0.45 -15.03 -1.10 201 208 216
-0.45 -15.12 -1.10 205 214 219
-0.45 -15.21 -1.10 199 209 211
-0.45 -15.31 -1.10 199 209 208
-0.45 -15.40 -1.10 201 212 208
-0.45 -15.49 -1.10 206 217 213
-0.45 -15.58 -1.10 196 205 202
-0.45 -15.67 -1.10 210 216 212
-0.27 -15.80 -1.28 203 208 204
-0.45 -15.86 -1.10 208 213 209
-0.45 -15.95 -1.10 206 210 209
-0.45 -16.04 -1.10 209 213 212
-0.45 -16.13 -1.10 201 207 207
-0.45 -16.22 -1.10 206 211 214
-0.45 -16.31 -1.10 202 212 213
-0.45 -16.41 -1.10 207 217 219
-0.45 -16.50 -1.10 200 211 215
-0.45 -16.59 -1.10 204 213 218
-0.45 -16.68 -1.10 204 212 214
-0.45 -16.77 -1.10 205 210 213
-0.60 -16.83 -0.96 206 211 214
-0.60 -16.92 -0.96 208 213 216
