ply
format ascii 1.0
element vertex 1678
property float x
property float y
property float z
property uchar red
property uchar green
property uchar blue
end_header
15.76 5.56 -1.17 43 105 156
15.76 5.45 -1.17 43 105 156
15.76 5.33 -1.17 42 104 155
15.76 5.21 -1.17 41 103 154
15.76 5.10 -1.17 40 103 154
15.44 4.91 -0.95 40 103 154
15.44 4.80 -0.95 42 108 156
15.44 4.68 -0.95 41 107 155
15.44 4.57 -0.95 39 107 152
15.44 4.45 -0.95 39 107 152
15.44 4.33 -0.95 41 110 152
15.44 4.22 -0.95 40 112 152
15.44 4.10 -0.95 41 113 153
15.44 3.99 -0.95 40 111 153
15.15 3.81 -0.75 38 109 151
15.15 3.70 -0.75 38 109 151
15.15 3.58 -0.75 39 110 152
15.15 3.47 -0.75 40 111 155
15.15 3.36 -0.75 40 111 155
15.15 3.24 -0.75 41 112 156
14.83 3.06 -0.54 44 115 159
14.83 2.95 -0.54 42 113 159
14.83 2.84 -0.54 42 113 159
14.83 2.72 -0.54 41 113 161
14.83 2.61 -0.54 40 112 160
14.83 2.49 -0.54 40 112 162
14.83 2.38 -0.54 40 112 162
14.83 2.27 -0.54 41 113 163
14.83 2.15 -0.54 42 114 164
14.83 2.04 -0.54 42 114 162
14.83 1.92 -0.54 41 113 161
14.54 1.76 -0.34 39 113 160
14.54 1.65 -0.34 40 114 161
14.54 1.53 -0.34 40 114 161
14.54 1.42 -0.34 38 115 161
14.54 1.31 -0.34 40 117 163
14.54 1.19 -0.34 39 116 162
14.54 1.08 -0.34 39 116 162
14.54 0.97 -0.34 41 115 160
14.54 0.85 -0.34 42 116 161
14.54 0.74 -0.34 43 117 162
14.25 0.58 -0.14 43 117 162
14.25 0.47 -0.14 45 118 163
14.25 0.36 -0.14 45 118 163
14.25 0.24 -0.14 45 122 166
14.25 0.13 -0.14 42 119 163
14.25 0.02 -0.14 43 117 162
13.96 -0.13 0.05 45 119 164
13.96 -0.25 0.05 47 120 165
13.96 -0.36 0.05 47 120 165
13.96 -0.47 0.05 47 120 165
13.96 -0.58 0.05 48 121 166
13.67 -0.73 0.25 48 121 164
13.67 -0.84 0.25 48 121 164
13.67 -0.95 0.25 49 122 165
13.67 -1.07 0.25 49 122 165
13.67 -1.18 0.25 48 121 162
13.67 -1.29 0.25 48 121 162
13.67 -1.40 0.25 45 120 162
13.41 -1.54 0.43 45 119 168
13.41 -1.65 0.43 45 117 167
13.41 -1.76 0.43 45 116 162
13.41 -1.87 0.43 44 115 161
13.12 -2.02 0.62 41 115 162
13.12 -2.13 0.62 38 114 163
13.12 -2.24 0.62 36 114 162
13.12 -2.35 0.62 37 114 160
12.83 -2.48 0.82 42 115 158
12.83 -2.59 0.82 43 116 159
12.83 -2.70 0.82 41 118 164
12.83 -2.81 0.82 46 120 167
12.83 -2.92 0.82 58 130 170
12.83 -3.03 0.82 77 133 166
12.83 -3.14 0.82 60 99 116
15.70 21.34 -1.27 83 83 73
15.70 21.23 -1.27 135 135 127
15.70 21.11 -1.27 141 140 135
15.70 20.99 -1.27 134 131 126
15.70 20.88 -1.27 135 131 128
15.70 20.76 -1.27 136 132 131
15.39 20.48 -1.05 137 133 132
15.39 20.37 -1.05 137 133 130
15.39 20.25 -1.05 137 133 130
15.39 20.14 -1.05 138 135 128
15.39 20.02 -1.05 139 136 129
15.39 19.91 -1.05 137 134 127
15.39 19.79 -1.05 138 135 128
15.39 19.68 -1.05 138 135 126
15.39 19.56 -1.05 138 135 126
15.39 19.45 -1.05 136 136 126
15.39 19.33 -1.05 136 136 126
15.39 19.22 -1.05 136 136 126
15.39 19.10 -1.05 137 137 127
15.39 18.98 -1.05 137 137 127
15.10 18.73 -0.85 137 137 127
15.10 18.62 -0.85 137 137 129
15.10 18.50 -0.85 138 138 130
15.10 18.39 -0.85 138 139 133
15.10 18.27 -0.85 139 140 134
15.10 18.16 -0.85 138 139 133
15.10 18.04 -0.85 138 139 131
15.10 17.93 -0.85 138 139 131
15.10 17.58 -0.85 137 137 129
15.10 17.47 -0.85 136 136 128
15.39 16.56 -1.05 140 139 137
15.39 16.45 -1.05 140 139 137
15.39 16.33 -1.05 140 140 138
15.39 16.22 -1.05 143 143 141
15.39 16.10 -1.05 148 148 148
15.10 15.86 -0.85 151 151 151
15.70 12.99 -1.27 67 72 66
15.70 12.87 -1.27 71 73 70
15.70 12.76 -1.27 61 72 76
15.70 12.64 -1.27 57 76 91
15.70 12.52 -1.27 53 81 105
15.70 12.41 -1.27 46 80 115
15.70 12.29 -1.27 39 81 123
15.70 12.18 -1.27 40 82 130
15.70 12.06 -1.27 35 79 126
15.70 11.94 -1.27 37 79 129
15.70 11.83 -1.27 38 80 130
15.70 11.71 -1.27 38 78 129
15.70 11.60 -1.27 35 76 128
15.70 11.48 -1.27 33 74 128
15.70 11.36 -1.27 30 76 128
15.70 11.25 -1.27 30 75 130
15.70 11.13 -1.27 42 92 145
15.70 11.02 -1.27 37 86 142
15.70 10.90 -1.27 35 88 142
15.70 10.78 -1.27 35 87 144
15.70 10.67 -1.27 31 86 143
15.70 10.55 -1.27 32 87 144
15.70 10.44 -1.27 38 91 145
15.70 10.32 -1.27 39 90 143
15.70 10.20 -1.27 39 91 141
15.70 10.09 -1.27 39 90 137
15.70 9.97 -1.27 39 90 137
15.70 9.86 -1.27 38 92 138
15.70 9.74 -1.27 39 93 140
15.70 9.62 -1.27 36 94 140
15.99 9.60 -1.47 36 94 144
15.99 9.48 -1.47 38 94 145
15.99 9.36 -1.47 38 93 147
15.99 9.25 -1.47 37 92 146
15.99 9.13 -1.47 37 92 146
15.99 9.01 -1.47 36 93 146
15.99 8.90 -1.47 36 93 146
15.99 8.78 -1.47 37 94 147
15.99 8.66 -1.47 37 94 147
15.99 8.55 -1.47 36 96 148
15.99 8.43 -1.47 36 96 148
15.99 8.31 -1.47 37 97 149
15.70 8.12 -1.27 37 97 149
15.70 8.00 -1.27 37 99 150
15.70 7.88 -1.27 37 99 150
15.70 7.77 -1.27 35 97 148
15.70 7.65 -1.27 34 95 149
15.70 7.54 -1.27 38 99 153
15.70 7.42 -1.27 37 98 153
15.70 7.30 -1.27 36 97 151
15.70 7.19 -1.27 39 99 151
15.70 7.07 -1.27 40 100 152
15.70 6.96 -1.27 39 99 149
15.70 6.84 -1.27 39 99 149
15.70 6.72 -1.27 37 98 145
15.70 6.61 -1.27 42 103 150
15.70 6.49 -1.27 43 104 151
15.70 6.37 -1.27 39 100 147
15.70 6.26 -1.27 38 100 149
15.70 6.14 -1.27 41 103 152
15.70 6.03 -1.27 41 103 152
15.70 5.91 -1.27 38 100 149
15.70 5.79 -1.27 41 101 151
15.70 5.68 -1.27 42 102 152
15.70 5.56 -1.27 43 103 155
15.70 5.45 -1.27 43 103 155
15.70 5.33 -1.27 41 103 154
15.70 5.21 -1.27 40 102 153
15.70 5.10 -1.27 40 102 153
15.39 4.91 -1.05 40 102 153
15.39 4.80 -1.05 43 106 157
15.39 4.68 -1.05 43 106 157
15.39 4.57 -1.05 40 106 154
15.39 4.45 -1.05 39 105 153
15.39 4.33 -1.05 40 107 152
15.39 4.22 -1.05 40 109 151
15.39 4.10 -1.05 41 110 152
15.39 3.99 -1.05 42 111 153
15.10 3.81 -0.85 40 109 151
15.10 3.70 -0.85 38 107 149
15.10 3.58 -0.85 39 108 150
15.10 3.47 -0.85 41 110 152
15.10 3.36 -0.85 41 110 152
15.10 3.24 -0.85 40 111 155
14.78 3.06 -0.64 41 112 156
14.78 2.95 -0.64 39 110 156
14.78 2.84 -0.64 40 111 157
14.78 2.72 -0.64 41 111 160
14.78 2.61 -0.64 40 110 159
14.78 2.49 -0.64 39 109 158
14.78 2.38 -0.64 39 109 158
14.78 2.27 -0.64 41 113 161
14.78 2.15 -0.64 43 115 163
14.78 2.04 -0.64 45 115 164
14.78 1.92 -0.64 42 112 161
14.78 1.81 -0.64 40 112 160
14.49 1.65 -0.44 40 112 160
14.49 1.53 -0.44 39 113 160
14.49 1.42 -0.44 39 116 162
14.49 1.31 -0.44 41 118 164
14.49 1.19 -0.44 41 118 164
14.49 1.08 -0.44 39 116 162
14.49 0.97 -0.44 37 114 160
14.49 0.85 -0.44 39 116 162
14.49 0.74 -0.44 42 119 165
14.20 0.58 -0.24 44 121 167
14.20 0.47 -0.24 42 119 165
14.20 0.36 -0.24 40 117 163
14.20 0.24 -0.24 44 121 165
14.20 0.13 -0.24 42 119 163
13.91 -0.02 -0.04 41 118 162
13.91 -0.13 -0.04 42 119 163
13.91 -0.25 -0.04 45 119 164
13.91 -0.36 -0.04 44 118 163
13.91 -0.47 -0.04 46 119 164
13.62 -0.62 0.15 47 120 165
13.62 -0.73 0.15 47 120 165
13.62 -0.84 0.15 48 121 166
13.62 -0.95 0.15 48 121 166
13.62 -1.07 0.15 49 122 167
13.62 -1.18 0.15 48 121 166
13.62 -1.29 0.15 47 120 165
13.62 -1.40 0.15 45 118 163
13.35 -1.54 0.33 44 118 167
13.35 -1.65 0.33 44 116 166
13.35 -1.76 0.33 44 114 163
13.35 -1.87 0.33 43 113 162
13.06 -2.02 0.53 40 114 163
13.06 -2.13 0.53 38 114 164
13.06 -2.24 0.53 37 113 162
13.06 -2.35 0.53 39 113 160
12.77 -2.48 0.73 41 114 159
12.77 -2.59 0.73 44 117 162
12.77 -2.70 0.73 41 117 166
12.77 -2.81 0.73 46 120 167
12.77 -2.92 0.73 62 131 173
12.77 -3.03 0.73 73 127 161
12.77 -3.14 0.73 54 91 109
15.33 21.64 -1.15 67 68 62
15.65 21.69 -1.37 64 63 58
15.65 21.57 -1.37 57 57 47
15.65 21.46 -1.37 79 79 69
15.65 21.34 -1.37 128 128 116
15.65 21.23 -1.37 135 132 123
15.65 21.11 -1.37 134 131 124
15.65 20.99 -1.37 135 132 127
15.33 20.72 -1.15 135 131 128
15.33 20.60 -1.15 136 132 131
15.33 20.48 -1.15 137 133 132
15.33 20.37 -1.15 137 133 132
15.33 20.25 -1.15 137 133 132
15.33 20.14 -1.15 137 134 129
15.33 20.02 -1.15 138 135 130
15.33 19.91 -1.15 136 136 126
15.33 19.79 -1.15 137 137 127
15.33 19.68 -1.15 138 138 128
15.33 19.56 -1.15 137 137 127
15.33 19.45 -1.15 135 135 125
15.33 19.33 -1.15 134 134 124
15.33 19.22 -1.15 135 135 125
15.33 19.10 -1.15 136 136 126
15.04 18.85 -0.95 136 136 126
15.04 18.73 -0.95 136 136 126
15.04 18.62 -0.95 136 137 129
15.04 18.50 -0.95 137 138 130
15.04 18.39 -0.95 138 139 133
15.04 18.27 -0.95 139 140 134
15.04 18.16 -0.95 137 138 133
15.04 18.04 -0.95 137 138 132
15.04 17.93 -0.95 137 138 132
15.04 17.81 -0.95 137 138 132
15.04 17.70 -0.95 137 138 132
15.04 17.58 -0.95 138 137 132
15.04 17.47 -0.95 139 138 133
15.04 17.35 -0.95 140 139 135
15.04 17.24 -0.95 141 140 136
15.04 17.12 -0.95 133 132 128
15.33 17.14 -1.15 135 134 130
15.04 16.90 -0.95 137 136 134
15.04 16.78 -0.95 138 137 135
15.04 16.67 -0.95 138 138 136
15.04 16.55 -0.95 139 139 137
15.33 16.56 -1.15 138 138 138
15.33 16.45 -1.15 136 136 136
15.33 16.33 -1.15 142 143 138
15.33 16.22 -1.15 138 139 134
15.04 15.98 -0.95 136 137 132
15.04 15.86 -0.95 137 138 133
15.04 15.75 -0.95 138 139 134
15.04 15.63 -0.95 138 139 134
15.94 13.09 -1.57 70 76 66
15.65 12.87 -1.37 55 67 63
15.65 12.76 -1.37 50 71 72
15.65 12.64 -1.37 47 77 87
15.65 12.52 -1.37 42 80 101
15.65 12.41 -1.37 35 82 112
15.65 12.29 -1.37 28 82 120
15.65 12.18 -1.37 26 83 128
15.65 11.83 -1.37 29 86 139
15.65 11.71 -1.37 28 85 138
15.65 11.60 -1.37 26 83 138
15.65 11.48 -1.37 25 82 137
15.65 11.36 -1.37 26 83 138
15.65 11.25 -1.37 28 83 139
15.65 11.13 -1.37 29 78 134
15.65 11.02 -1.37 30 77 133
15.65 10.90 -1.37 33 84 141
15.65 10.78 -1.37 37 88 145
15.65 10.67 -1.37 34 89 146
15.65 10.55 -1.37 36 91 147
15.65 10.44 -1.37 40 93 147
15.65 10.32 -1.37 40 92 142
15.65 10.20 -1.37 37 89 137
15.65 10.09 -1.37 40 91 136
15.65 9.97 -1.37 41 92 137
15.65 9.86 -1.37 41 93 140
15.94 9.83 -1.57 40 92 140
15.94 9.71 -1.57 37 93 140
15.94 9.60 -1.57 36 92 143
15.94 9.48 -1.57 38 93 147
15.94 9.36 -1.57 37 92 148
15.94 9.25 -1.57 36 93 148
15.94 9.13 -1.57 36 93 148
15.94 9.01 -1.57 37 94 149
15.94 8.90 -1.57 37 94 149
15.94 8.78 -1.57 37 94 149
15.94 8.66 -1.57 37 94 149
15.94 8.55 -1.57 35 95 149
15.94 8.43 -1.57 35 95 149
15.94 8.31 -1.57 36 96 150
15.65 8.12 -1.37 36 96 150
15.65 8.00 -1.37 36 97 151
15.65 7.88 -1.37 35 96 150
15.65 7.77 -1.37 34 95 149
15.65 7.65 -1.37 34 95 149
15.65 7.54 -1.37 37 98 152
15.65 7.42 -1.37 36 97 151
15.65 7.30 -1.37 37 97 151
15.65 7.19 -1.37 39 99 151
15.65 7.07 -1.37 39 99 151
15.65 6.96 -1.37 39 99 149
15.65 6.84 -1.37 39 99 149
15.65 6.72 -1.37 38 98 148
15.65 6.61 -1.37 41 101 151
15.65 6.49 -1.37 41 101 151
15.65 6.37 -1.37 38 98 148
15.65 6.26 -1.37 38 98 148
15.65 6.14 -1.37 40 100 150
15.65 6.03 -1.37 39 101 152
15.65 5.91 -1.37 37 97 149
15.65 5.79 -1.37 41 101 151
15.65 5.68 -1.37 43 101 151
15.65 5.56 -1.37 41 101 153
15.65 5.45 -1.37 40 100 152
15.65 5.33 -1.37 40 100 152
15.65 5.21 -1.37 40 100 152
15.65 5.10 -1.37 39 100 154
15.33 4.91 -1.15 40 101 155
15.33 4.80 -1.15 42 104 155
15.33 4.68 -1.15 42 104 155
15.33 4.57 -1.15 41 104 155
15.33 4.45 -1.15 41 104 155
15.33 4.33 -1.15 40 104 152
15.33 4.22 -1.15 39 106 151
15.33 4.10 -1.15 39 106 151
15.33 3.99 -1.15 38 105 148
15.04 3.81 -0.95 38 105 148
15.04 3.70 -0.95 39 106 149
15.04 3.58 -0.95 41 108 151
15.04 3.47 -0.95 41 108 151
15.04 3.36 -0.95 39 106 149
15.04 3.24 -0.95 37 105 150
15.04 3.13 -0.95 38 106 151
14.72 2.95 -0.74 39 107 154
14.72 2.84 -0.74 40 108 155
14.72 2.72 -0.74 38 109 155
14.72 2.61 -0.74 38 109 155
14.72 2.49 -0.74 38 108 157
14.72 2.38 -0.74 39 109 158
14.72 2.27 -0.74 41 111 160
14.72 2.15 -0.74 42 112 161
14.72 2.04 -0.74 42 110 159
14.72 1.92 -0.74 41 109 158
14.72 1.81 -0.74 39 109 158
14.72 1.70 -0.74 42 112 161
14.72 1.58 -0.74 41 115 162
14.43 1.42 -0.54 38 114 163
14.43 1.31 -0.54 39 115 164
14.43 1.19 -0.54 41 119 167
14.43 1.08 -0.54 39 117 165
14.43 0.97 -0.54 37 115 163
14.43 0.85 -0.54 39 117 165
14.43 0.74 -0.54 42 120 168
14.14 0.58 -0.34 44 122 170
14.14 0.47 -0.34 42 120 168
14.14 0.36 -0.34 40 118 166
14.14 0.24 -0.34 41 120 163
13.85 0.09 -0.14 40 119 162
13.85 -0.02 -0.14 41 118 162
13.85 -0.13 -0.14 42 119 163
13.85 -0.25 -0.14 45 119 164
13.85 -0.36 -0.14 45 119 164
13.85 -0.47 -0.14 46 119 164
13.56 -0.62 0.06 46 119 164
13.56 -0.73 0.06 47 120 165
13.56 -0.84 0.06 47 120 165
13.56 -0.95 0.06 48 121 166
13.56 -1.07 0.06 48 121 166
13.56 -1.18 0.06 48 120 168
13.56 -1.29 0.06 47 119 167
13.56 -1.40 0.06 45 117 167
13.30 -1.54 0.24 42 118 167
13.30 -1.65 0.24 43 117 166
13.30 -1.76 0.24 44 114 163
13.30 -1.87 0.24 44 114 163
13.01 -2.02 0.43 41 115 164
13.01 -2.13 0.43 38 114 164
13.01 -2.24 0.43 38 114 164
12.72 -2.37 0.63 40 114 163
12.72 -2.48 0.63 42 113 159
12.72 -2.59 0.63 46 117 163
12.72 -2.70 0.63 42 116 165
12.72 -2.81 0.63 47 119 167
12.72 -2.92 0.63 63 130 173
15.27 21.64 -1.25 66 66 58
15.27 21.52 -1.25 57 54 47
15.27 21.41 -1.25 81 79 67
15.59 21.46 -1.47 123 121 109
15.59 21.34 -1.47 139 137 124
15.59 21.23 -1.47 134 132 120
15.27 20.95 -1.25 137 134 127
15.27 20.83 -1.25 136 133 128
15.27 20.72 -1.25 136 132 129
15.27 20.60 -1.25 137 133 132
15.27 20.48 -1.25 136 132 131
15.27 20.37 -1.25 136 132 129
15.27 20.25 -1.25 136 132 129
15.27 20.14 -1.25 138 133 129
15.27 20.02 -1.25 138 133 129
15.27 19.91 -1.25 136 136 126
15.27 19.79 -1.25 137 137 127
15.27 19.68 -1.25 138 138 128
15.27 19.56 -1.25 137 137 127
15.27 19.45 -1.25 135 135 125
15.27 19.33 -1.25 134 134 124
15.27 19.22 -1.25 135 135 125
14.98 18.96 -1.05 136 136 126
14.98 18.85 -1.05 135 137 126
14.98 18.73 -1.05 135 137 126
14.98 18.62 -1.05 135 136 128
14.98 18.50 -1.05 136 137 131
14.98 18.39 -1.05 137 138 132
14.98 18.27 -1.05 138 139 134
14.98 18.16 -1.05 136 137 132
14.98 18.04 -1.05 137 140 133
14.98 17.93 -1.05 136 139 132
14.98 17.81 -1.05 136 137 131
14.98 17.70 -1.05 136 137 131
14.98 17.58 -1.05 137 138 133
14.98 17.47 -1.05 138 139 134
14.98 17.35 -1.05 139 138 136
14.98 17.24 -1.05 140 139 137
14.98 17.12 -1.05 142 141 139
14.98 17.01 -1.05 143 142 140
14.98 16.90 -1.05 141 141 141
14.98 16.78 -1.05 139 139 139
14.98 16.67 -1.05 137 139 138
14.98 16.55 -1.05 138 140 139
14.98 16.44 -1.05 137 139 138
15.27 16.45 -1.25 136 138 135
15.27 16.33 -1.25 141 142 136
15.27 16.22 -1.25 139 140 132
14.98 15.98 -1.05 139 141 130
14.98 15.86 -1.05 141 143 132
14.98 15.75 -1.05 143 145 134
14.98 15.63 -1.05 142 144 133
15.88 13.09 -1.67 33 34 20
15.59 12.87 -1.47 60 58 37
15.59 12.76 -1.47 65 67 53
15.59 12.64 -1.47 59 69 61
15.59 12.52 -1.47 50 70 71
15.59 12.41 -1.47 47 74 85
15.59 12.29 -1.47 46 79 98
15.59 12.18 -1.47 44 81 108
15.59 11.83 -1.47 35 80 119
15.59 11.71 -1.47 35 80 121
15.59 11.60 -1.47 34 79 120
15.59 11.48 -1.47 34 79 120
15.88 11.46 -1.67 35 80 122
15.88 11.35 -1.67 37 81 126
15.59 11.13 -1.47 40 81 133
15.59 11.02 -1.47 38 81 136
15.59 10.90 -1.47 39 84 139
15.59 10.78 -1.47 37 86 142
15.59 10.67 -1.47 33 84 141
15.59 10.55 -1.47 34 86 143
15.59 10.44 -1.47 35 90 144
15.59 10.32 -1.47 35 88 142
15.59 10.20 -1.47 34 87 137
15.59 10.09 -1.47 38 89 136
15.59 9.97 -1.47 39 90 137
15.88 9.95 -1.67 38 90 138
15.88 9.83 -1.67 39 91 139
15.88 9.71 -1.67 38 91 141
15.88 9.60 -1.67 38 91 143
15.88 9.48 -1.67 34 89 143
15.88 9.36 -1.67 35 90 146
15.88 9.25 -1.67 36 91 147
15.88 9.13 -1.67 36 91 147
15.88 9.01 -1.67 36 93 148
15.88 8.90 -1.67 36 93 148
15.88 8.78 -1.67 35 92 147
15.88 8.66 -1.67 35 92 147
15.88 8.55 -1.67 34 94 148
15.88 8.43 -1.67 34 94 148
15.88 8.31 -1.67 35 95 149
15.59 8.12 -1.47 35 95 149
15.59 8.00 -1.47 34 95 149
15.59 7.88 -1.47 34 95 149
15.59 7.77 -1.47 34 95 149
15.59 7.65 -1.47 34 95 149
15.59 7.54 -1.47 35 95 149
15.59 7.42 -1.47 35 95 149
15.59 7.30 -1.47 36 96 150
15.59 7.19 -1.47 36 96 148
15.59 7.07 -1.47 36 96 148
15.59 6.96 -1.47 37 97 147
15.59 6.84 -1.47 38 98 148
15.59 6.72 -1.47 39 99 149
15.59 6.61 -1.47 37 97 147
15.59 6.49 -1.47 36 96 146
15.59 6.37 -1.47 39 99 149
15.59 6.26 -1.47 39 99 151
15.59 6.14 -1.47 37 97 149
15.59 6.03 -1.47 37 97 149
15.59 5.91 -1.47 39 99 151
15.59 5.79 -1.47 42 100 150
15.59 5.68 -1.47 41 99 149
15.59 5.56 -1.47 40 98 148
15.59 5.45 -1.47 39 97 147
15.59 5.33 -1.47 38 98 150
15.59 5.21 -1.47 39 99 151
15.59 5.10 -1.47 41 101 155
15.27 4.91 -1.25 41 101 155
15.27 4.80 -1.25 40 100 154
15.27 4.68 -1.25 41 101 155
15.27 4.57 -1.25 42 103 157
15.27 4.45 -1.25 42 103 157
15.27 4.33 -1.25 40 102 153
15.27 4.22 -1.25 39 101 152
15.27 4.10 -1.25 39 101 150
15.27 3.99 -1.25 37 101 147
15.27 3.87 -1.25 39 103 147
15.27 3.76 -1.25 42 106 150
14.98 3.58 -1.05 43 107 151
14.98 3.47 -1.05 41 105 151
14.98 3.36 -1.05 38 102 148
14.98 3.24 -1.05 37 104 149
14.98 3.13 -1.05 39 106 151
14.98 3.01 -1.05 40 108 155
14.66 2.84 -0.83 39 107 154
14.66 2.72 -0.83 38 106 153
14.66 2.61 -0.83 39 107 154
14.66 2.49 -0.83 39 110 156
14.66 2.38 -0.83 40 111 157
14.66 2.27 -0.83 41 111 160
14.66 2.15 -0.83 41 111 160
14.66 2.04 -0.83 40 108 157
14.66 1.92 -0.83 39 107 156
14.66 1.81 -0.83 37 107 156
14.66 1.70 -0.83 40 110 159
14.66 1.58 -0.83 41 113 161
14.66 1.47 -0.83 36 112 161
14.37 1.31 -0.64 36 112 161
14.37 1.19 -0.64 39 117 165
14.37 1.08 -0.64 38 116 164
14.37 0.97 -0.64 38 116 164
14.37 0.85 -0.64 39 117 165
14.37 0.74 -0.64 41 119 167
14.08 0.58 -0.44 41 119 167
14.08 0.47 -0.44 41 119 168
14.08 0.36 -0.44 40 118 166
13.79 0.20 -0.24 38 116 162
13.79 0.09 -0.24 39 118 161
13.79 -0.02 -0.24 42 119 163
13.79 -0.13 -0.24 43 120 164
13.79 -0.25 -0.24 46 120 167
13.79 -0.36 -0.24 46 120 167
13.50 -0.51 -0.04 46 118 166
13.50 -0.62 -0.04 46 118 166
13.50 -0.73 -0.04 46 118 166
13.50 -0.84 -0.04 46 118 166
13.50 -0.95 -0.04 46 118 166
13.50 -1.07 -0.04 47 119 167
13.50 -1.18 -0.04 45 119 166
13.50 -1.29 -0.04 45 119 166
13.24 -1.43 0.14 43 117 164
13.24 -1.54 0.14 42 118 167
13.24 -1.65 0.14 44 118 165
13.24 -1.76 0.14 45 116 162
12.95 -1.90 0.34 43 114 160
12.95 -2.02 0.34 40 114 163
12.95 -2.13 0.34 38 114 164
12.95 -2.24 0.34 37 113 163
12.66 -2.37 0.54 39 113 162
12.66 -2.48 0.54 41 112 158
12.66 -2.59 0.54 45 116 162
12.66 -2.70 0.54 44 116 164
12.66 -2.81 0.54 50 121 167
12.66 -2.92 0.54 66 129 172
14.60 21.55 -0.93 62 68 56
14.92 21.60 -1.15 55 58 47
15.21 21.64 -1.35 73 73 65
15.21 21.52 -1.35 102 99 92
15.21 21.41 -1.35 129 127 115
15.21 21.29 -1.35 139 137 125
15.21 21.18 -1.35 137 138 124
15.21 21.06 -1.35 133 133 121
15.21 20.95 -1.35 134 134 124
15.21 20.83 -1.35 133 133 125
15.21 20.72 -1.35 134 133 128
15.21 20.60 -1.35 137 133 130
15.21 20.48 -1.35 137 133 130
15.21 20.37 -1.35 137 133 130
15.21 20.25 -1.35 137 133 130
15.21 20.14 -1.35 139 134 128
15.21 20.02 -1.35 139 134 128
15.21 19.91 -1.35 135 135 127
15.21 19.79 -1.35 136 136 128
15.21 19.68 -1.35 136 136 126
15.21 19.56 -1.35 136 136 126
15.21 19.45 -1.35 136 136 126
15.21 19.33 -1.35 136 136 126
14.92 19.08 -1.15 135 137 126
14.92 18.96 -1.15 136 138 127
14.92 18.85 -1.15 135 136 128
14.92 18.73 -1.15 134 135 127
14.92 18.62 -1.15 135 136 130
14.92 18.50 -1.15 135 136 131
14.92 18.39 -1.15 136 137 132
14.92 18.27 -1.15 137 137 135
14.92 18.16 -1.15 136 136 134
14.92 18.04 -1.15 135 138 131
14.92 17.93 -1.15 135 138 131
14.92 17.81 -1.15 137 138 132
14.92 17.70 -1.15 138 139 133
14.92 17.58 -1.15 138 139 134
14.92 17.47 -1.15 137 138 133
14.92 17.35 -1.15 136 136 134
14.92 17.24 -1.15 134 134 132
14.92 17.12 -1.15 135 135 135
14.92 17.01 -1.15 136 136 136
14.92 16.90 -1.15 136 136 136
14.92 16.78 -1.15 135 135 135
14.92 16.67 -1.15 135 137 136
14.92 16.55 -1.15 137 139 138
14.92 16.44 -1.15 137 141 140
14.92 16.32 -1.15 138 140 137
14.92 16.21 -1.15 132 135 126
14.92 16.09 -1.15 136 138 127
14.92 15.98 -1.15 139 141 130
14.92 15.86 -1.15 140 142 131
14.60 15.61 -0.93 139 141 128
14.60 15.50 -0.93 139 141 128
14.60 15.39 -0.93 140 142 129
14.92 15.40 -1.15 134 138 124
14.92 15.29 -1.15 136 140 126
14.60 15.04 -0.93 138 142 128
15.21 13.10 -1.35 153 156 147
15.82 13.21 -1.77 145 147 136
15.53 12.99 -1.57 138 139 131
15.53 12.87 -1.57 111 117 117
15.53 12.76 -1.57 79 89 91
15.53 12.64 -1.57 43 58 65
15.53 12.52 -1.57 23 42 56
15.53 12.41 -1.57 18 43 63
15.53 12.29 -1.57 12 43 71
15.53 12.18 -1.57 4 38 73
15.53 12.06 -1.57 19 62 97
15.53 11.94 -1.57 23 66 108
15.53 11.83 -1.57 27 74 118
15.53 11.71 -1.57 34 81 127
15.53 11.60 -1.57 38 84 133
15.82 11.58 -1.77 39 85 134
15.82 11.46 -1.77 40 84 133
15.82 11.35 -1.77 39 81 129
15.82 11.23 -1.77 39 81 121
15.53 11.02 -1.57 39 81 121
15.53 10.90 -1.57 42 85 128
15.53 10.78 -1.57 40 87 133
15.53 10.67 -1.57 34 84 133
15.53 10.55 -1.57 36 87 140
15.53 10.44 -1.57 36 92 143
15.53 10.32 -1.57 34 89 143
15.53 10.20 -1.57 38 91 143
15.82 10.18 -1.77 38 90 138
15.82 10.06 -1.77 36 88 136
15.82 9.95 -1.77 35 87 135
15.82 9.83 -1.77 35 87 135
15.82 9.71 -1.77 36 89 139
15.82 9.60 -1.77 37 90 142
15.82 9.48 -1.77 34 87 141
15.82 9.36 -1.77 35 87 144
15.82 9.25 -1.77 37 89 146
15.82 8.90 -1.77 36 91 147
15.82 8.78 -1.77 36 91 147
15.82 8.66 -1.77 35 90 146
15.82 8.55 -1.77 34 91 146
15.82 8.43 -1.77 35 92 147
15.82 8.31 -1.77 36 93 148
15.53 8.12 -1.57 36 93 148
15.53 8.00 -1.57 34 94 148
15.53 7.88 -1.57 34 94 148
15.53 7.77 -1.57 34 94 148
15.53 7.65 -1.57 35 95 149
15.53 7.54 -1.57 35 92 147
15.53 7.42 -1.57 36 93 148
15.53 7.30 -1.57 36 96 150
15.53 7.19 -1.57 36 96 148
15.53 7.07 -1.57 36 96 148
15.53 6.96 -1.57 36 96 148
15.53 6.84 -1.57 37 97 149
15.53 6.72 -1.57 37 97 147
15.53 6.61 -1.57 33 93 143
15.53 6.49 -1.57 32 92 144
15.53 6.37 -1.57 37 97 149
15.53 6.26 -1.57 38 98 150
15.53 6.14 -1.57 35 95 147
15.53 6.03 -1.57 38 95 150
15.53 5.91 -1.57 42 99 154
15.53 5.79 -1.57 41 99 149
15.53 5.68 -1.57 39 97 147
15.53 5.56 -1.57 38 96 146
15.53 5.45 -1.57 38 96 146
15.53 5.33 -1.57 39 96 149
15.53 5.21 -1.57 41 98 151
15.53 5.10 -1.57 42 99 154
15.53 4.98 -1.57 43 100 155
15.21 4.80 -1.35 38 97 153
15.21 4.68 -1.35 40 99 155
15.21 4.57 -1.35 41 100 156
15.21 4.45 -1.35 42 101 157
15.21 4.33 -1.35 39 99 153
15.21 4.22 -1.35 39 99 153
15.21 4.10 -1.35 39 99 151
15.21 3.99 -1.35 40 102 151
15.21 3.87 -1.35 41 103 150
15.21 3.76 -1.35 43 105 154
14.92 3.58 -1.15 42 104 153
14.92 3.47 -1.15 39 101 150
14.92 3.36 -1.15 37 99 148
14.92 3.24 -1.15 40 104 152
14.92 3.13 -1.15 45 109 157
14.92 3.01 -1.15 41 107 155
14.92 2.90 -1.15 39 105 153
14.60 2.72 -0.93 38 106 155
14.60 2.61 -0.93 39 107 156
14.60 2.49 -0.93 42 110 159
14.60 2.38 -0.93 43 111 160
14.60 2.27 -0.93 43 111 160
14.60 2.15 -0.93 42 110 159
14.60 2.04 -0.93 45 111 159
14.60 1.92 -0.93 42 108 156
14.60 1.81 -0.93 40 108 155
14.60 1.70 -0.93 41 109 156
14.60 1.58 -0.93 40 110 159
14.60 1.47 -0.93 38 112 159
14.32 1.31 -0.73 39 113 160
14.32 1.19 -0.73 37 114 160
14.32 1.08 -0.73 38 115 161
14.32 0.97 -0.73 38 114 163
14.32 0.85 -0.73 39 115 164
14.32 0.74 -0.73 39 115 164
14.32 0.63 -0.73 39 115 164
14.03 0.47 -0.53 39 115 164
14.03 0.36 -0.53 40 116 165
13.74 0.20 -0.34 37 113 162
13.74 0.09 -0.34 40 116 165
13.74 -0.02 -0.34 42 119 165
13.74 -0.13 -0.34 43 120 166
13.74 -0.25 -0.34 45 119 166
13.45 -0.40 -0.14 46 120 167
13.45 -0.51 -0.14 46 120 167
13.45 -0.62 -0.14 45 119 166
13.45 -0.73 -0.14 43 117 164
13.45 -0.84 -0.14 43 117 164
13.45 -0.95 -0.14 43 117 164
13.19 -1.10 0.04 43 117 164
13.45 -1.18 -0.14 41 118 164
13.19 -1.32 0.04 41 118 164
13.19 -1.43 0.04 40 117 163
13.19 -1.54 0.04 41 118 164
13.19 -1.65 0.04 42 116 161
12.90 -1.79 0.24 43 116 159
12.90 -1.90 0.24 41 114 157
12.90 -2.02 0.24 39 113 160
12.90 -2.13 0.24 37 113 162
12.61 -2.26 0.44 38 112 161
12.61 -2.37 0.44 39 111 159
12.61 -2.48 0.44 43 111 156
12.61 -2.59 0.44 46 114 159
12.61 -2.70 0.44 46 117 163
12.61 -2.81 0.44 53 121 166
12.35 -2.95 0.62 65 127 166
14.55 21.55 -1.03 63 67 53
14.55 21.43 -1.03 70 72 61
14.87 21.49 -1.25 97 97 87
14.87 21.37 -1.25 138 135 128
14.87 21.26 -1.25 144 142 130
14.87 21.14 -1.25 131 129 117
14.87 21.03 -1.25 135 136 122
15.15 21.06 -1.45 127 129 116
15.15 20.95 -1.45 126 128 117
14.87 20.68 -1.25 131 132 124
14.87 20.57 -1.25 133 134 128
14.87 20.45 -1.25 135 134 130
14.87 20.34 -1.25 136 135 131
14.87 20.22 -1.25 138 135 130
14.87 20.11 -1.25 138 135 130
14.87 19.99 -1.25 138 135 126
14.87 19.88 -1.25 138 135 126
14.87 19.76 -1.25 136 136 128
15.15 19.79 -1.45 136 136 128
15.15 19.68 -1.45 136 136 128
14.87 19.42 -1.25 136 136 128
14.87 19.31 -1.25 136 137 129
14.87 19.19 -1.25 136 137 129
14.87 19.08 -1.25 136 137 129
14.87 18.96 -1.25 135 136 128
14.87 18.85 -1.25 136 137 131
14.87 18.73 -1.25 135 136 130
14.87 18.62 -1.25 135 136 131
14.87 18.50 -1.25 135 135 133
14.87 18.39 -1.25 136 136 134
14.87 18.27 -1.25 137 137 137
14.55 18.01 -1.03 136 138 135
14.55 17.90 -1.03 135 138 131
14.55 17.78 -1.03 135 138 129
14.55 17.67 -1.03 135 138 131
14.87 17.70 -1.25 137 140 133
14.87 17.58 -1.25 139 140 135
14.87 17.47 -1.25 139 140 135
14.55 17.21 -1.03 137 137 135
14.55 17.10 -1.03 136 136 134
14.55 16.98 -1.03 134 134 134
14.55 16.87 -1.03 137 137 137
14.55 16.75 -1.03 138 140 139
14.55 16.64 -1.03 139 141 140
14.87 16.67 -1.25 137 142 138
14.87 16.55 -1.25 138 143 139
14.87 16.44 -1.25 136 142 138
14.87 16.32 -1.25 135 140 136
14.87 16.21 -1.25 141 143 138
14.87 16.09 -1.25 143 144 139
14.87 15.98 -1.25 143 144 138
14.55 15.73 -1.03 140 141 135
14.55 15.61 -1.03 136 137 129
14.55 15.50 -1.03 136 137 129
14.55 15.39 -1.03 139 141 130
14.55 15.27 -1.03 141 145 131
14.55 15.16 -1.03 139 143 129
14.55 15.04 -1.03 136 139 128
15.15 13.10 -1.45 139 142 133
15.15 12.99 -1.45 142 144 133
15.15 12.87 -1.45 142 144 131
15.15 12.76 -1.45 155 158 137
15.15 12.64 -1.45 155 158 137
15.15 12.52 -1.45 159 162 143
15.47 12.52 -1.67 162 169 151
15.47 12.41 -1.67 160 168 153
15.47 12.29 -1.67 142 152 141
15.47 12.18 -1.67 121 134 125
15.47 12.06 -1.67 91 106 101
15.47 11.94 -1.67 70 86 85
15.47 11.83 -1.67 38 58 57
15.47 11.71 -1.67 14 34 35
15.47 11.60 -1.67 3 22 26
15.47 11.48 -1.67 7 26 30
15.76 11.46 -1.87 18 36 38
15.76 11.35 -1.87 22 45 51
15.76 11.23 -1.87 26 58 73
15.47 11.02 -1.67 26 64 85
15.47 10.90 -1.67 34 76 101
15.47 10.78 -1.67 38 83 114
15.47 10.67 -1.67 36 86 123
15.47 10.55 -1.67 38 89 132
15.47 10.44 -1.67 40 94 141
15.47 10.32 -1.67 37 90 140
15.47 10.20 -1.67 34 87 137
15.76 10.18 -1.87 36 88 135
15.76 10.06 -1.87 36 88 135
15.76 9.95 -1.87 34 88 132
15.76 9.83 -1.87 34 88 132
15.76 9.71 -1.87 35 89 133
15.76 9.60 -1.87 36 90 137
15.76 9.48 -1.87 37 88 141
15.76 9.36 -1.87 37 88 145
15.76 9.25 -1.87 37 89 146
15.76 8.90 -1.87 38 90 147
15.76 8.78 -1.87 36 91 147
15.76 8.66 -1.87 35 90 146
15.76 8.55 -1.87 35 90 146
15.76 8.43 -1.87 36 91 147
15.76 8.31 -1.87 35 92 147
15.47 8.12 -1.67 35 92 147
15.47 8.00 -1.67 34 91 146
15.47 7.88 -1.67 34 91 146
15.47 7.77 -1.67 34 91 146
15.47 7.65 -1.67 35 92 147
15.47 7.54 -1.67 35 92 147
15.47 7.42 -1.67 35 92 147
15.47 7.30 -1.67 36 93 148
15.47 7.19 -1.67 36 96 148
15.47 7.07 -1.67 37 97 149
15.47 6.96 -1.67 35 97 148
15.47 6.84 -1.67 34 96 147
15.47 6.72 -1.67 35 97 148
15.47 6.61 -1.67 33 95 146
15.47 6.49 -1.67 34 94 146
15.47 6.37 -1.67 35 95 147
15.47 6.26 -1.67 38 95 150
15.47 6.14 -1.67 39 96 151
15.47 6.03 -1.67 39 96 151
15.47 5.91 -1.67 39 96 151
15.47 5.79 -1.67 41 97 148
15.47 5.68 -1.67 40 96 147
15.47 5.56 -1.67 39 95 146
15.47 5.45 -1.67 39 94 148
15.47 5.33 -1.67 39 96 149
15.47 5.21 -1.67 40 97 152
15.47 5.10 -1.67 40 96 153
15.47 4.98 -1.67 40 96 153
15.47 4.87 -1.67 39 95 152
15.15 4.68 -1.45 40 96 153
15.15 4.57 -1.45 42 98 155
15.15 4.45 -1.45 41 97 154
15.15 4.33 -1.45 39 95 152
15.15 4.22 -1.45 40 96 153
15.15 4.10 -1.45 42 98 155
15.15 3.99 -1.45 40 100 152
15.15 3.87 -1.45 41 101 153
15.15 3.76 -1.45 42 102 154
15.15 3.64 -1.45 42 102 154
14.87 3.47 -1.25 39 101 152
14.87 3.36 -1.25 38 100 151
14.87 3.24 -1.25 41 103 154
14.87 3.13 -1.25 45 107 158
14.87 3.01 -1.25 40 103 154
14.87 2.90 -1.25 41 104 155
14.55 2.72 -1.03 39 105 155
14.55 2.61 -1.03 40 106 156
14.55 2.49 -1.03 41 108 160
14.55 2.38 -1.03 41 108 160
14.55 2.27 -1.03 41 108 160
14.55 2.15 -1.03 41 109 158
14.55 2.04 -1.03 46 112 160
14.55 1.92 -1.03 43 110 155
14.55 1.81 -1.03 39 107 152
14.55 1.70 -1.03 40 108 153
14.55 1.58 -1.03 40 111 157
14.26 1.42 -0.83 40 113 158
14.26 1.31 -0.83 41 114 159
14.26 1.19 -0.83 38 112 159
14.26 1.08 -0.83 38 112 159
14.26 0.97 -0.83 39 113 160
14.26 0.85 -0.83 39 113 160
14.26 0.74 -0.83 39 113 162
14.26 0.63 -0.83 40 114 163
13.97 0.47 -0.63 40 114 163
13.97 0.36 -0.63 40 114 163
13.68 0.20 -0.43 39 112 163
13.68 0.09 -0.43 42 115 166
13.68 -0.02 -0.43 44 117 168
13.68 -0.13 -0.43 43 116 167
13.68 -0.25 -0.43 44 116 166
13.39 -0.40 -0.23 45 117 167
13.39 -0.51 -0.23 46 118 168
13.39 -0.62 -0.23 45 117 167
13.39 -0.73 -0.23 44 118 165
13.39 -0.84 -0.23 44 118 165
13.39 -0.95 -0.23 41 118 164
13.13 -1.10 -0.05 41 118 164
13.13 -1.21 -0.05 40 118 164
13.13 -1.32 -0.05 40 118 164
13.13 -1.43 -0.05 40 118 164
13.13 -1.54 -0.05 39 118 161
13.13 -1.65 -0.05 42 117 159
12.84 -1.79 0.15 42 115 156
12.84 -1.90 0.15 42 113 155
12.84 -2.02 0.15 40 114 159
12.84 -2.13 0.15 39 113 160
12.55 -2.26 0.35 39 113 162
12.55 -2.37 0.35 40 112 160
12.55 -2.48 0.35 44 111 154
12.55 -2.59 0.35 45 112 155
12.55 -2.70 0.35 49 117 162
12.29 -2.84 0.53 54 121 164
12.29 -2.95 0.53 62 122 159
14.49 21.77 -1.13 61 63 52
14.49 21.66 -1.13 55 57 46
14.49 21.55 -1.13 67 69 56
14.49 21.43 -1.13 95 95 85
14.49 21.32 -1.13 137 137 127
14.49 21.20 -1.13 131 128 121
14.49 21.09 -1.13 132 130 118
14.49 20.98 -1.13 137 135 123
14.49 20.86 -1.13 131 132 118
14.81 20.91 -1.35 132 134 121
14.81 20.80 -1.35 137 139 128
14.81 20.68 -1.35 131 133 122
14.49 20.40 -1.13 133 134 126
14.49 20.29 -1.13 136 137 131
14.49 20.18 -1.13 137 138 132
14.81 20.22 -1.35 137 137 129
14.81 20.11 -1.35 136 136 128
14.81 19.99 -1.35 137 135 123
14.81 19.88 -1.35 136 133 124
14.81 19.76 -1.35 138 138 128
14.81 19.65 -1.35 137 137 129
14.81 19.53 -1.35 136 136 128
14.81 19.42 -1.35 136 136 128
14.81 19.31 -1.35 136 137 129
14.81 19.19 -1.35 136 137 129
14.81 19.08 -1.35 135 136 130
14.81 18.96 -1.35 133 134 128
14.49 18.69 -1.13 136 137 132
14.49 18.58 -1.13 136 137 132
14.49 18.47 -1.13 135 135 133
14.49 18.35 -1.13 135 135 133
14.49 18.24 -1.13 135 137 136
14.49 18.12 -1.13 136 138 137
14.49 18.01 -1.13 136 138 137
14.49 17.90 -1.13 138 141 134
14.49 17.78 -1.13 136 139 130
14.49 17.67 -1.13 134 137 130
14.49 17.55 -1.13 134 137 130
14.49 17.44 -1.13 136 137 132
14.49 17.32 -1.13 137 138 133
14.49 17.21 -1.13 138 138 136
14.49 17.10 -1.13 137 137 135
14.49 16.98 -1.13 137 139 138
14.49 16.87 -1.13 138 140 139
14.49 16.75 -1.13 139 141 138
14.49 16.64 -1.13 138 140 137
14.49 16.53 -1.13 135 140 136
14.49 16.41 -1.13 135 140 136
14.49 16.30 -1.13 133 140 133
14.81 16.32 -1.35 132 137 133
14.81 16.21 -1.35 137 139 136
14.49 15.96 -1.13 138 138 138
14.49 15.84 -1.13 137 137 135
14.49 15.73 -1.13 138 138 136
14.49 15.61 -1.13 139 140 135
14.49 15.50 -1.13 139 140 135
14.49 15.39 -1.13 137 138 130
14.49 15.27 -1.13 134 137 128
14.49 15.16 -1.13 138 141 132
14.49 15.04 -1.13 140 143 134
14.49 14.93 -1.13 139 142 133
14.49 14.81 -1.13 137 140 131
14.49 14.70 -1.13 136 139 130
14.20 14.47 -0.93 137 140 133
14.20 14.36 -0.93 137 140 133
14.20 14.24 -0.93 134 140 128
13.91 13.79 -0.73 137 142 135
13.91 13.68 -0.73 131 136 129
13.91 13.56 -0.73 129 134 128
13.91 13.45 -0.73 135 137 134
13.91 13.34 -0.73 136 138 135
13.91 13.22 -0.73 137 139 136
13.91 13.11 -0.73 137 139 136
14.20 13.11 -0.93 137 139 134
14.20 12.99 -0.93 136 138 133
14.49 12.99 -1.13 137 140 131
14.49 12.88 -1.13 138 141 132
14.81 12.88 -1.35 138 141 132
14.81 12.76 -1.35 135 140 133
14.81 12.65 -1.35 132 141 138
14.81 12.54 -1.35 133 143 135
15.10 12.52 -1.55 138 143 137
15.10 12.41 -1.55 139 145 135
15.10 12.29 -1.55 144 147 138
15.41 12.29 -1.77 149 152 145
15.41 12.18 -1.77 152 154 149
15.41 12.06 -1.77 158 165 158
15.41 11.94 -1.77 160 166 164
15.41 11.83 -1.77 162 168 166
15.41 11.71 -1.77 162 168 168
15.41 11.60 -1.77 156 162 162
15.41 11.48 -1.77 142 146 147
15.70 11.46 -1.97 124 128 127
15.70 11.35 -1.97 107 117 118
15.41 11.13 -1.77 69 99 101
15.41 11.02 -1.77 51 90 97
15.41 10.90 -1.77 34 76 88
15.41 10.78 -1.77 14 59 80
15.41 10.67 -1.77 0 49 76
15.41 10.55 -1.77 0 52 89
15.41 10.44 -1.77 10 63 103
15.41 10.32 -1.77 13 67 113
15.41 10.20 -1.77 17 71 117
15.70 10.18 -1.97 29 83 127
15.70 10.06 -1.97 34 88 132
15.70 9.95 -1.97 37 92 131
15.70 9.83 -1.97 38 93 132
15.70 9.71 -1.97 36 94 131
15.70 9.60 -1.97 39 94 135
15.70 9.48 -1.97 36 89 139
15.70 9.36 -1.97 37 88 143
15.70 9.25 -1.97 37 88 143
15.70 8.90 -1.97 37 88 143
15.70 8.78 -1.97 36 89 143
15.70 8.66 -1.97 37 90 144
15.70 8.55 -1.97 34 89 143
15.70 8.43 -1.97 35 90 144
15.70 8.31 -1.97 36 91 145
15.70 8.20 -1.97 35 90 144
15.41 8.00 -1.77 34 89 143
15.41 7.88 -1.77 33 88 142
15.41 7.77 -1.77 33 90 143
15.41 7.65 -1.77 34 91 144
15.41 7.54 -1.77 35 90 146
15.41 7.42 -1.77 33 88 144
15.41 7.30 -1.77 32 89 144
15.41 7.19 -1.77 34 94 146
15.41 7.07 -1.77 36 96 148
15.41 6.96 -1.77 33 95 146
15.41 6.84 -1.77 30 92 143
15.41 6.72 -1.77 37 99 150
15.41 6.61 -1.77 38 100 151
15.41 6.49 -1.77 38 98 150
15.41 6.37 -1.77 34 94 146
15.41 6.26 -1.77 37 94 149
15.41 6.14 -1.77 40 97 152
15.41 6.03 -1.77 41 96 153
15.41 5.91 -1.77 37 92 148
15.41 5.79 -1.77 40 95 149
15.41 5.68 -1.77 39 95 146
15.41 5.56 -1.77 39 95 146
15.41 5.45 -1.77 39 94 148
15.41 5.33 -1.77 41 96 150
15.41 5.21 -1.77 41 96 152
15.41 5.10 -1.77 40 95 152
15.41 4.98 -1.77 39 94 151
15.41 4.87 -1.77 39 95 152
15.10 4.68 -1.55 40 96 153
15.10 4.57 -1.55 41 97 156
15.10 4.45 -1.55 40 96 155
15.10 4.33 -1.55 38 94 153
15.10 4.22 -1.55 41 97 154
15.10 4.10 -1.55 43 99 156
15.10 3.99 -1.55 40 97 150
15.10 3.87 -1.55 40 97 150
15.10 3.76 -1.55 40 100 152
15.10 3.64 -1.55 42 102 154
14.81 3.47 -1.35 42 102 154
14.81 3.36 -1.35 40 100 152
14.81 3.24 -1.35 39 100 154
14.81 3.13 -1.35 40 101 155
14.81 3.01 -1.35 37 100 153
14.81 2.90 -1.35 39 102 155
14.49 2.72 -1.13 39 105 157
14.49 2.61 -1.13 40 106 158
14.49 2.49 -1.13 38 105 157
14.49 2.38 -1.13 38 105 157
14.49 2.27 -1.13 38 105 157
14.49 2.15 -1.13 39 107 156
14.49 2.04 -1.13 41 108 153
14.49 1.92 -1.13 38 105 148
14.49 1.81 -1.13 35 103 148
14.49 1.70 -1.13 38 106 151
14.49 1.58 -1.13 38 109 153
14.20 1.42 -0.93 37 110 155
14.20 1.31 -0.93 38 111 156
14.20 1.19 -0.93 40 113 158
14.20 1.08 -0.93 39 112 157
14.20 0.97 -0.93 39 111 159
14.20 0.85 -0.93 40 112 160
14.20 0.74 -0.93 41 113 161
14.20 0.63 -0.93 41 113 161
13.91 0.47 -0.73 41 113 163
13.91 0.36 -0.73 41 112 164
13.63 0.20 -0.53 41 112 164
13.63 0.09 -0.53 43 114 168
13.63 -0.02 -0.53 44 115 167
13.63 -0.13 -0.53 42 113 165
13.34 -0.28 -0.33 41 112 164
13.34 -0.40 -0.33 43 114 166
13.34 -0.51 -0.33 45 117 167
13.34 -0.62 -0.33 45 117 167
13.34 -0.73 -0.33 46 120 169
13.34 -0.84 -0.33 45 119 168
13.08 -0.99 -0.15 41 119 165
13.08 -1.10 -0.15 41 119 165
13.08 -1.21 -0.15 39 120 163
13.08 -1.32 -0.15 39 120 163
13.08 -1.43 -0.15 41 122 165
13.08 -1.54 -0.15 40 119 162
13.08 -1.65 -0.15 42 117 159
13.08 -1.76 -0.15 43 116 157
12.79 -1.90 0.05 43 114 156
12.79 -2.02 0.05 41 115 160
12.79 -2.13 0.05 41 115 162
12.50 -2.26 0.25 41 115 162
12.50 -2.37 0.25 42 115 160
12.50 -2.48 0.25 45 112 155
12.50 -2.59 0.25 45 112 155
12.24 -2.73 0.43 49 118 160
12.24 -2.84 0.43 53 120 162
12.24 -2.95 0.43 57 117 153
14.43 21.77 -1.23 49 54 47
14.43 21.66 -1.23 55 60 53
14.43 21.55 -1.23 92 97 90
14.43 21.43 -1.23 134 137 130
14.43 21.32 -1.23 135 134 129
14.43 21.20 -1.23 135 132 127
14.43 21.09 -1.23 133 130 125
14.43 20.98 -1.23 133 130 125
14.43 20.86 -1.23 134 131 126
14.43 20.75 -1.23 136 133 128
14.43 20.63 -1.23 136 133 128
14.43 20.52 -1.23 135 134 129
14.43 20.40 -1.23 135 134 129
14.43 20.29 -1.23 136 135 130
14.43 20.18 -1.23 137 136 131
14.43 20.06 -1.23 136 135 131
14.43 19.95 -1.23 135 134 130
14.43 19.83 -1.23 134 133 129
14.43 19.72 -1.23 134 133 129
14.43 19.61 -1.23 135 132 127
14.75 19.65 -1.45 137 134 129
14.75 19.53 -1.45 138 135 130
14.75 19.42 -1.45 137 134 129
14.75 19.31 -1.45 138 135 130
14.75 19.19 -1.45 140 137 132
14.75 19.08 -1.45 138 137 133
14.43 18.81 -1.23 135 134 130
14.43 18.69 -1.23 138 137 133
14.43 18.58 -1.23 138 137 133
14.43 18.47 -1.23 138 139 134
14.43 18.35 -1.23 138 139 134
14.43 18.24 -1.23 138 139 134
14.43 18.12 -1.23 137 138 133
14.43 18.01 -1.23 135 136 130
14.43 17.90 -1.23 132 135 126
14.43 17.78 -1.23 135 138 127
14.43 17.67 -1.23 137 140 131
14.43 17.55 -1.23 137 140 131
14.43 17.44 -1.23 136 139 132
14.43 17.32 -1.23 135 137 132
14.43 17.21 -1.23 136 138 133
14.43 17.10 -1.23 138 140 137
14.43 16.98 -1.23 135 137 134
14.43 16.87 -1.23 136 138 135
14.43 16.75 -1.23 137 139 138
14.43 16.64 -1.23 138 140 139
14.43 16.53 -1.23 139 141 140
14.43 16.41 -1.23 138 140 139
14.43 16.30 -1.23 137 139 138
14.43 16.18 -1.23 136 138 135
14.43 16.07 -1.23 137 138 132
14.43 15.96 -1.23 135 136 128
14.43 15.84 -1.23 136 138 127
14.43 15.73 -1.23 140 142 131
14.43 15.61 -1.23 142 144 133
14.43 15.50 -1.23 140 142 131
14.43 15.39 -1.23 137 139 128
14.43 15.27 -1.23 139 141 130
14.43 15.16 -1.23 138 140 129
14.43 15.04 -1.23 137 138 130
14.15 14.81 -1.03 138 139 131
14.15 14.70 -1.03 139 140 134
14.15 14.58 -1.03 139 140 134
14.15 14.47 -1.03 138 139 134
14.15 14.36 -1.03 137 138 132
14.15 14.24 -1.03 136 142 132
13.86 13.79 -0.83 137 140 129
13.86 13.68 -0.83 137 141 127
13.86 13.56 -0.83 137 141 127
13.86 13.45 -0.83 137 141 127
13.86 13.34 -0.83 137 141 127
13.86 13.22 -0.83 140 143 132
13.86 13.11 -0.83 139 142 131
13.86 13.00 -0.83 139 140 132
14.15 12.99 -1.03 139 140 132
14.15 12.88 -1.03 139 140 134
14.43 12.88 -1.23 140 141 135
14.43 12.76 -1.23 141 142 137
14.43 12.65 -1.23 141 142 137
14.75 12.65 -1.45 140 141 136
14.75 12.54 -1.45 141 142 137
14.75 12.42 -1.45 142 143 138
15.04 12.41 -1.65 141 143 138
15.04 12.29 -1.65 141 143 138
15.04 12.18 -1.65 139 144 138
15.36 12.18 -1.87 139 144 138
15.36 12.06 -1.87 139 145 141
15.36 11.94 -1.87 141 147 143
15.36 11.83 -1.87 142 151 146
15.36 11.71 -1.87 146 155 150
15.36 11.60 -1.87 148 159 155
15.36 11.48 -1.87 152 163 159
15.36 11.36 -1.87 155 167 163
15.36 11.25 -1.87 157 169 165
15.36 11.13 -1.87 163 174 168
15.36 11.02 -1.87 165 176 170
15.36 10.90 -1.87 164 175 169
15.36 10.78 -1.87 159 170 164
15.36 10.67 -1.87 144 159 154
15.36 10.55 -1.87 126 141 136
15.36 10.44 -1.87 102 118 115
15.36 10.32 -1.87 85 101 98
15.36 10.20 -1.87 66 86 84
15.36 10.09 -1.87 37 62 59
15.64 10.06 -2.07 28 53 50
15.64 9.95 -2.07 28 54 53
15.64 9.83 -2.07 33 59 58
15.64 9.71 -2.07 39 65 66
15.64 9.60 -2.07 41 64 78
15.64 9.48 -2.07 52 76 114
15.64 9.36 -2.07 49 72 122
15.64 9.25 -2.07 45 77 124
15.64 8.90 -2.07 40 93 135
15.64 8.78 -2.07 36 93 136
15.64 8.66 -2.07 34 93 135
15.64 8.55 -2.07 33 92 136
15.64 8.43 -2.07 34 91 136
15.64 8.31 -2.07 38 92 139
15.64 8.20 -2.07 40 90 139
15.36 8.00 -1.87 34 84 135
15.36 7.88 -1.87 37 84 136
15.36 7.77 -1.87 41 86 141
15.36 7.65 -1.87 41 86 143
15.36 7.54 -1.87 40 89 148
15.36 7.42 -1.87 38 88 149
15.36 7.30 -1.87 36 88 146
15.64 7.26 -2.07 30 92 143
15.64 7.15 -2.07 28 92 138
15.64 7.03 -2.07 28 92 136
15.64 6.91 -2.07 28 91 134
15.36 6.72 -1.87 35 98 139
15.36 6.61 -1.87 39 98 142
15.36 6.49 -1.87 41 97 146
15.36 6.37 -1.87 41 93 150
15.36 6.26 -1.87 40 90 153
15.36 6.14 -1.87 40 89 158
15.36 6.03 -1.87 42 90 166
15.64 5.98 -2.07 43 92 168
15.36 5.79 -1.87 36 96 159
15.36 5.68 -1.87 34 96 155
15.36 5.56 -1.87 33 95 152
15.36 5.45 -1.87 31 94 148
15.36 5.33 -1.87 31 93 144
15.36 5.21 -1.87 31 93 144
15.36 5.10 -1.87 33 95 144
15.36 4.98 -1.87 35 97 148
15.36 4.87 -1.87 36 96 148
15.04 4.68 -1.65 37 97 151
15.04 4.57 -1.65 40 97 152
15.04 4.45 -1.65 41 98 153
15.04 4.33 -1.65 38 94 145
15.04 4.22 -1.65 39 95 142
15.04 4.10 -1.65 41 97 148
15.04 3.99 -1.65 42 99 154
15.04 3.87 -1.65 40 96 155
15.04 3.76 -1.65 39 96 151
15.04 3.64 -1.65 39 96 151
14.75 3.47 -1.45 38 98 150
14.75 3.36 -1.45 40 100 152
14.75 3.24 -1.45 41 102 156
14.75 3.13 -1.45 42 103 158
14.75 3.01 -1.45 39 102 156
14.75 2.90 -1.45 38 100 157
14.43 2.72 -1.23 36 101 159
14.43 2.61 -1.23 36 101 159
14.43 2.49 -1.23 35 102 157
14.43 2.38 -1.23 37 104 159
14.43 2.27 -1.23 38 105 157
14.43 2.15 -1.23 39 106 158
14.43 2.04 -1.23 37 103 153
14.43 1.92 -1.23 37 103 153
14.43 1.81 -1.23 39 105 153
14.43 1.70 -1.23 40 106 154
14.43 1.58 -1.23 40 108 153
14.43 1.47 -1.23 39 110 152
14.15 1.31 -1.03 39 110 152
14.15 1.19 -1.03 40 113 154
14.15 1.08 -1.03 41 114 155
14.15 0.97 -1.03 39 114 154
14.15 0.85 -1.03 37 112 152
14.15 0.74 -1.03 37 112 154
14.15 0.63 -1.03 39 114 156
13.86 0.47 -0.83 38 115 159
13.86 0.36 -0.83 39 113 158
13.57 0.20 -0.63 40 114 161
13.57 0.09 -0.63 42 114 162
13.57 -0.02 -0.63 42 114 162
13.57 -0.13 -0.63 42 114 162
13.57 -0.25 -0.63 41 113 161
13.28 -0.40 -0.43 42 114 162
13.28 -0.51 -0.43 43 115 163
13.28 -0.62 -0.43 43 115 163
13.28 -0.73 -0.43 43 115 163
13.28 -0.84 -0.43 44 116 164
13.28 -0.95 -0.43 44 116 164
13.02 -1.10 -0.25 44 116 164
13.28 -1.18 -0.43 44 116 164
13.28 -1.29 -0.43 44 116 164
13.02 -1.43 -0.25 44 118 165
13.02 -1.54 -0.25 42 119 163
13.02 -1.65 -0.25 41 118 164
13.02 -1.76 -0.25 40 114 163
12.73 -1.90 -0.05 41 111 163
12.73 -2.02 -0.05 40 110 161
12.73 -2.13 -0.05 41 109 158
12.44 -2.26 0.16 37 110 155
12.44 -2.37 0.16 36 109 154
12.44 -2.48 0.16 36 113 157
12.44 -2.59 0.16 37 111 158
12.44 -2.70 0.16 49 117 166
12.19 -2.84 0.34 57 118 163
12.44 -2.92 0.16 75 125 162
14.09 21.85 -1.13 60 63 56
14.09 21.73 -1.13 57 60 53
14.38 21.77 -1.33 69 72 65
14.38 21.66 -1.33 117 120 113
14.38 21.55 -1.33 143 146 139
14.38 21.43 -1.33 126 127 121
14.38 21.32 -1.33 131 130 126
14.38 21.20 -1.33 133 129 126
14.38 21.09 -1.33 133 129 126
14.38 20.98 -1.33 133 129 126
14.38 20.86 -1.33 135 131 128
14.38 20.75 -1.33 137 133 130
14.38 20.63 -1.33 137 133 130
14.38 20.52 -1.33 134 133 129
14.38 20.40 -1.33 135 134 130
14.38 20.29 -1.33 136 135 131
14.38 20.18 -1.33 136 135 131
14.38 20.06 -1.33 136 135 131
14.38 19.95 -1.33 135 134 130
14.38 19.83 -1.33 135 134 130
14.38 19.72 -1.33 135 134 130
14.38 19.61 -1.33 137 134 129
14.38 19.49 -1.33 139 136 131
14.38 19.38 -1.33 139 136 131
14.38 19.26 -1.33 138 135 130
14.38 19.15 -1.33 138 135 130
14.38 19.04 -1.33 139 136 131
14.38 18.92 -1.33 136 135 131
14.38 18.81 -1.33 134 133 129
14.38 18.69 -1.33 138 137 133
14.38 18.58 -1.33 138 137 133
14.38 18.47 -1.33 137 138 133
14.38 18.35 -1.33 137 138 133
14.38 18.24 -1.33 137 138 133
14.38 18.12 -1.33 137 138 133
14.38 18.01 -1.33 136 137 131
14.38 17.90 -1.33 134 137 128
14.38 17.78 -1.33 135 138 127
14.38 17.67 -1.33 137 140 129
14.38 17.55 -1.33 137 140 131
14.38 17.44 -1.33 137 140 131
14.38 17.32 -1.33 136 139 132
14.38 17.21 -1.33 137 139 134
14.38 17.10 -1.33 138 140 135
14.38 16.98 -1.33 137 139 136
14.09 16.74 -1.13 138 140 137
14.09 16.63 -1.13 138 140 137
14.09 16.51 -1.13 139 141 138
14.09 16.40 -1.13 138 140 137
14.38 16.41 -1.33 137 139 136
14.38 16.30 -1.33 136 138 135
14.38 16.18 -1.33 135 137 132
14.38 16.07 -1.33 139 140 134
14.38 15.96 -1.33 137 138 130
14.38 15.84 -1.33 137 138 130
14.38 15.73 -1.33 140 141 133
14.38 15.61 -1.33 142 144 133
14.38 15.50 -1.33 140 142 131
14.38 15.39 -1.33 139 141 130
14.38 15.27 -1.33 141 143 132
14.09 15.04 -1.13 140 142 131
14.09 14.92 -1.13 139 140 132
14.09 14.81 -1.13 139 140 132
14.09 14.70 -1.13 139 140 134
14.09 14.58 -1.13 138 139 133
14.09 14.47 -1.13 137 138 133
14.09 14.36 -1.13 136 137 131
14.09 14.24 -1.13 136 142 132
14.09 14.13 -1.13 136 142 130
14.09 14.02 -1.13 138 141 130
14.09 13.90 -1.13 138 141 130
13.80 13.68 -0.93 138 141 130
13.80 13.56 -0.93 138 141 130
13.80 13.45 -0.93 139 142 131
13.80 13.34 -0.93 139 142 131
13.80 13.22 -0.93 140 143 134
13.80 13.11 -0.93 139 142 133
13.80 13.00 -0.93 140 141 135
14.09 12.99 -1.13 141 142 136
14.09 12.88 -1.13 142 143 138
14.09 12.77 -1.13 144 145 140
14.38 12.76 -1.33 145 145 143
14.38 12.65 -1.33 146 146 144
14.38 12.53 -1.33 143 144 138
14.38 12.42 -1.33 144 145 140
14.38 12.31 -1.33 144 145 140
14.69 12.31 -1.55 144 146 141
14.98 12.29 -1.75 144 146 141
14.98 12.18 -1.75 142 147 141
14.98 12.06 -1.75 142 147 141
15.30 12.06 -1.97 141 147 143
15.30 11.94 -1.97 142 148 144
15.30 11.83 -1.97 141 150 145
15.30 11.71 -1.97 141 150 145
15.30 11.60 -1.97 140 151 147
15.30 11.48 -1.97 141 152 148
15.30 11.36 -1.97 141 153 149
15.30 11.25 -1.97 143 154 150
15.30 11.13 -1.97 140 151 145
15.30 11.02 -1.97 143 152 147
15.30 10.90 -1.97 145 156 150
15.30 10.78 -1.97 148 159 153
15.30 10.67 -1.97 152 164 160
15.30 10.55 -1.97 158 170 166
15.30 10.44 -1.97 159 174 171
15.30 10.32 -1.97 159 174 171
15.30 10.20 -1.97 164 180 179
15.30 10.09 -1.97 152 172 170
15.30 9.97 -1.97 142 162 160
15.59 9.95 -2.17 125 147 145
15.59 9.83 -2.17 103 125 123
15.59 9.71 -2.17 80 102 100
15.59 9.60 -2.17 61 85 95
15.59 9.48 -2.17 36 67 95
15.59 9.36 -2.17 26 61 99
15.59 9.25 -2.17 20 58 97
15.59 9.13 -2.17 20 62 100
15.59 9.01 -2.17 24 68 107
15.59 8.90 -2.17 26 71 110
15.59 8.78 -2.17 26 74 114
15.59 8.66 -2.17 27 74 116
15.59 8.55 -2.17 32 81 124
15.59 8.43 -2.17 30 81 128
15.59 8.31 -2.17 34 86 136
15.59 8.20 -2.17 34 89 143
15.30 8.00 -1.97 29 89 143
15.30 7.88 -1.97 28 90 147
15.30 7.77 -1.97 29 96 151
15.30 7.65 -1.97 32 93 150
15.30 7.54 -1.97 40 87 143
15.59 7.50 -2.17 43 83 142
15.59 7.38 -2.17 42 84 142
15.59 7.26 -2.17 37 87 146
15.59 7.15 -2.17 37 89 147
15.59 7.03 -2.17 37 94 149
15.59 6.91 -2.17 39 96 151
15.59 6.80 -2.17 35 92 145
15.59 6.68 -2.17 34 91 144
15.30 6.49 -1.97 34 91 144
15.30 6.37 -1.97 37 94 149
15.30 6.26 -1.97 37 98 152
15.30 6.14 -1.97 37 98 155
15.59 5.86 -2.17 34 92 140
15.30 5.68 -1.97 39 93 139
15.30 5.56 -1.97 39 96 139
15.30 5.45 -1.97 41 98 141
15.30 5.33 -1.97 42 99 142
15.30 5.21 -1.97 42 99 144
15.30 5.10 -1.97 39 96 141
15.30 4.98 -1.97 38 94 143
15.30 4.87 -1.97 39 96 151
14.98 4.68 -1.75 36 92 151
14.98 4.57 -1.75 34 90 151
14.98 4.45 -1.75 34 89 153
14.98 4.33 -1.75 37 92 157
14.98 4.22 -1.75 39 94 158
14.98 4.10 -1.75 41 96 160
14.98 3.99 -1.75 33 92 152
14.98 3.87 -1.75 36 95 155
14.98 3.76 -1.75 40 99 155
14.98 3.64 -1.75 42 101 157
14.69 3.47 -1.55 41 103 154
14.69 3.36 -1.55 40 102 153
14.69 3.24 -1.55 39 100 154
14.69 3.13 -1.55 39 100 155
14.69 3.01 -1.55 36 99 153
14.69 2.90 -1.55 36 98 155
14.38 2.72 -1.33 35 100 156
14.38 2.61 -1.33 35 100 156
14.38 2.49 -1.33 35 100 154
14.38 2.38 -1.33 36 101 155
14.38 2.27 -1.33 35 103 152
14.38 2.15 -1.33 36 102 152
14.38 2.04 -1.33 37 103 153
14.38 1.92 -1.33 39 102 153
14.38 1.81 -1.33 38 104 152
14.38 1.70 -1.33 38 104 152
14.38 1.58 -1.33 39 106 151
14.38 1.47 -1.33 38 106 151
14.09 1.31 -1.13 38 106 151
14.09 1.19 -1.13 38 109 151
14.09 1.08 -1.13 40 111 153
14.09 0.97 -1.13 39 112 155
14.09 0.85 -1.13 38 111 154
14.09 0.74 -1.13 38 111 154
14.09 0.63 -1.13 40 113 156
13.80 0.47 -0.93 40 114 159
13.80 0.36 -0.93 40 114 159
13.51 0.20 -0.72 40 114 161
13.51 0.09 -0.72 40 114 161
13.51 -0.02 -0.72 41 115 162
13.51 -0.13 -0.72 40 114 161
13.51 -0.25 -0.72 41 113 161
13.51 -0.36 -0.72 41 113 161
13.23 -0.51 -0.52 41 113 161
13.23 -0.62 -0.52 42 114 162
13.23 -0.73 -0.52 41 113 161
13.23 -0.84 -0.52 43 115 163
13.23 -0.95 -0.52 46 118 166
13.23 -1.07 -0.52 47 119 167
13.23 -1.18 -0.52 47 119 167
13.23 -1.29 -0.52 45 117 165
12.97 -1.43 -0.34 42 116 163
12.97 -1.54 -0.34 39 116 160
12.97 -1.65 -0.34 39 116 162
12.68 -1.79 -0.14 40 114 161
12.68 -1.90 -0.14 42 112 163
12.68 -2.02 -0.14 41 111 160
12.68 -2.13 -0.14 43 111 160
12.39 -2.26 0.06 40 113 156
12.39 -2.37 0.06 39 112 157
12.39 -2.48 0.06 34 111 155
12.39 -2.59 0.06 35 109 156
12.39 -2.70 0.06 47 115 164
12.39 -2.81 0.06 57 118 163
12.39 -2.92 0.06 73 123 158
14.03 21.85 -1.23 43 44 38
14.03 21.73 -1.23 65 66 60
14.03 21.62 -1.23 116 117 111
14.03 21.51 -1.23 135 136 130
14.03 21.39 -1.23 127 128 123
14.03 21.28 -1.23 131 130 126
14.03 21.17 -1.23 129 128 126
14.03 21.05 -1.23 132 128 127
14.03 20.94 -1.23 133 129 128
14.03 20.82 -1.23 135 131 130
14.03 20.71 -1.23 135 131 130
14.03 20.60 -1.23 136 132 131
14.32 20.63 -1.43 137 133 132
14.32 20.52 -1.43 135 134 132
14.32 20.40 -1.43 135 134 132
14.03 20.14 -1.23 136 135 133
14.03 20.03 -1.23 136 135 133
14.03 19.92 -1.23 136 135 133
14.32 19.95 -1.43 136 135 133
14.32 19.83 -1.43 136 135 133
14.32 19.72 -1.43 137 136 134
14.32 19.61 -1.43 139 136 131
14.32 19.49 -1.43 139 136 131
14.32 19.38 -1.43 139 136 131
14.32 19.26 -1.43 138 135 130
14.32 19.15 -1.43 138 135 130
14.32 19.04 -1.43 139 136 131
14.32 18.92 -1.43 136 135 130
14.32 18.81 -1.43 134 133 128
14.32 18.69 -1.43 138 137 133
