ply
format ascii 1.0
element vertex 1604
property float x
property float y
property float z
property uchar red
property uchar green
property uchar blue
end_header
-0.27 20.94 -1.28 124 119 116
-0.27 20.84 -1.28 123 118 115
-0.45 20.62 -1.10 130 121 122
-0.45 20.53 -1.10 131 122 123
-0.45 20.44 -1.10 131 122 123
-0.45 20.35 -1.10 129 120 121
-0.45 20.26 -1.10 131 120 124
-0.45 20.16 -1.10 133 122 126
-0.45 20.07 -1.10 132 121 125
-0.45 19.98 -1.10 130 120 121
-0.27 20.02 -1.28 130 125 119
-0.27 19.92 -1.28 129 125 116
-0.27 19.83 -1.28 129 125 114
-0.27 19.74 -1.28 132 128 117
-0.27 19.65 -1.28 133 129 118
-0.27 19.55 -1.28 131 127 118
-0.27 19.46 -1.28 129 125 116
-0.27 19.37 -1.28 130 125 119
-0.27 19.28 -1.28 129 124 118
-0.27 19.19 -1.28 130 125 121
-0.27 19.09 -1.28 132 127 123
-0.45 18.88 -1.10 134 126 124
-0.27 18.91 -1.28 132 124 122
-0.27 18.82 -1.28 131 122 123
-0.27 18.73 -1.28 132 123 124
-0.27 18.63 -1.28 134 126 124
-0.27 18.54 -1.28 133 125 123
-0.27 18.45 -1.28 132 125 119
-0.27 18.36 -1.28 134 127 121
-0.27 18.27 -1.28 135 131 120
-0.27 18.17 -1.28 135 131 120
-0.27 18.08 -1.28 132 130 115
-0.27 17.99 -1.28 129 127 112
-0.27 17.90 -1.28 131 129 114
-0.27 17.81 -1.28 131 129 116
-0.27 17.71 -1.28 130 131 117
-0.27 17.62 -1.28 130 130 120
-0.27 17.53 -1.28 131 130 125
-0.27 17.44 -1.28 131 132 126
-0.27 17.34 -1.28 132 131 127
-0.27 17.25 -1.28 132 129 122
-0.45 17.05 -1.10 133 128 122
-0.45 16.96 -1.10 134 129 125
-0.45 16.86 -1.10 133 128 124
-0.45 16.77 -1.10 133 128 125
-0.45 16.68 -1.10 132 127 124
-0.45 16.59 -1.10 133 127 127
-0.45 16.50 -1.10 133 127 127
-0.45 16.41 -1.10 134 128 128
-0.45 16.31 -1.10 134 128 128
-0.45 16.22 -1.10 134 130 131
-0.45 16.13 -1.10 134 130 131
-0.45 16.04 -1.10 131 131 129
-0.45 15.95 -1.10 130 130 128
-0.45 15.86 -1.10 130 130 128
-0.45 15.76 -1.10 129 129 127
-0.45 15.67 -1.10 133 132 130
-0.45 15.58 -1.10 132 131 129
-0.45 15.49 -1.10 133 129 126
-0.45 15.40 -1.10 133 129 126
-0.45 15.31 -1.10 135 130 127
-0.27 15.32 -1.28 136 128 125
-0.27 15.23 -1.28 135 127 124
-0.45 15.03 -1.10 136 128 125
-0.45 14.94 -1.10 136 128 125
-0.45 14.85 -1.10 137 129 127
-0.45 14.76 -1.10 137 129 127
-0.45 14.66 -1.10 135 129 129
-0.27 14.67 -1.28 135 129 129
-0.27 14.58 -1.28 135 129 129
-0.27 14.49 -1.28 135 129 129
-0.27 14.40 -1.28 132 131 126
-0.27 14.31 -1.28 131 130 125
-0.27 14.21 -1.28 130 129 124
-0.27 14.12 -1.28 130 129 124
-0.27 14.03 -1.28 131 130 125
-0.27 13.94 -1.28 131 130 125
-0.27 13.85 -1.28 129 128 124
-0.27 13.75 -1.28 127 126 122
-0.27 13.66 -1.28 132 131 127
-0.27 13.57 -1.28 131 130 126
-0.45 13.38 -1.10 131 130 126
-0.45 13.29 -1.10 131 130 126
-0.45 13.20 -1.10 131 130 126
-0.45 13.11 -1.10 132 131 127
-0.45 13.01 -1.10 133 132 128
-0.27 13.02 -1.28 130 131 125
-0.27 12.93 -1.28 130 131 125
-0.45 12.74 -1.10 129 130 122
-0.45 12.65 -1.10 129 130 122
-0.45 12.56 -1.10 130 130 122
-0.45 12.47 -1.10 130 130 122
-0.45 12.37 -1.10 134 131 124
-0.45 12.28 -1.10 135 132 125
-0.45 12.19 -1.10 132 129 122
-0.45 12.10 -1.10 131 128 121
-0.45 12.01 -1.10 130 127 120
-0.45 11.92 -1.10 130 127 120
-0.45 11.82 -1.10 128 128 120
-0.45 11.73 -1.10 129 129 121
-0.45 11.64 -1.10 130 130 122
-0.45 11.55 -1.10 130 130 122
-0.60 11.38 -0.96 131 130 125
-0.79 11.20 -0.78 129 128 123
-5.13 9.05 3.38 131 127 124
-5.13 8.97 3.38 131 127 124
-5.13 8.89 3.38 133 129 128
-5.26 8.75 3.50 133 129 128
-5.26 8.67 3.50 129 127 128
-5.26 8.59 3.50 135 135 137
-5.26 8.51 3.50 147 146 151
-5.26 8.43 3.50 167 168 173
-5.26 8.35 3.50 117 118 123
-5.26 8.27 3.50 19 22 27
-5.26 8.19 3.50 29 32 37
-5.26 8.10 3.50 20 25 31
-5.26 8.02 3.50 7 12 18
-5.26 7.94 3.50 2 7 10
-5.26 7.86 3.50 1 6 9
-5.26 7.78 3.50 2 7 10
-5.26 7.70 3.50 3 7 10
-5.26 7.62 3.50 23 27 30
-5.26 7.54 3.50 76 75 80
-5.26 7.46 3.50 122 117 124
-5.39 7.32 3.63 134 124 133
-5.39 7.24 3.63 134 121 131
-5.39 7.16 3.63 154 138 149
-5.39 7.08 3.63 151 133 145
-5.39 7.00 3.63 146 128 140
-5.39 6.92 3.63 149 135 148
-5.39 6.84 3.63 146 134 146
-5.39 6.76 3.63 149 139 150
-5.39 6.68 3.63 145 137 150
-5.39 6.60 3.63 141 137 151
-5.39 6.52 3.63 139 137 150
-5.39 6.44 3.63 139 137 150
-5.39 6.36 3.63 140 139 153
-5.39 6.28 3.63 141 140 154
-5.39 6.20 3.63 138 140 153
-5.39 6.12 3.63 137 139 152
-5.52 5.99 3.75 137 141 152
-5.52 5.91 3.75 141 145 156
-5.52 5.67 3.75 137 146 153
-5.52 5.59 3.75 137 146 153
-5.52 5.51 3.75 138 147 152
-5.52 5.43 3.75 138 147 152
-5.52 5.35 3.75 135 146 152
-5.52 5.27 3.75 136 147 153
-5.52 5.19 3.75 137 148 154
-5.52 5.11 3.75 138 149 155
-5.52 5.03 3.75 140 149 156
-5.65 4.91 3.88 142 151 158
-5.65 4.83 3.88 146 153 161
-5.65 4.75 3.88 148 155 163
-5.65 4.67 3.88 146 153 163
-5.65 4.59 3.88 141 148 158
-5.65 4.51 3.88 141 148 158
-5.65 4.43 3.88 141 150 159
-5.65 4.35 3.88 142 151 160
-5.65 4.27 3.88 140 149 158
-5.65 4.19 3.88 139 148 157
-5.65 4.11 3.88 132 142 152
-5.65 4.03 3.88 103 113 123
-5.65 3.95 3.88 13 26 35
-5.65 3.87 3.88 22 35 44
-5.65 3.79 3.88 66 80 89
-5.65 3.71 3.88 155 169 178
-5.65 3.63 3.88 140 157 167
-5.65 3.56 3.88 137 154 164
-5.65 3.48 3.88 138 155 165
-5.65 3.40 3.88 139 156 166
-5.65 3.32 3.88 140 157 167
-5.78 3.20 4.00 140 157 167
-5.78 3.12 4.00 141 158 168
-5.78 3.04 4.00 140 157 167
-5.78 2.96 4.00 140 156 169
-5.78 2.88 4.00 139 155 168
-5.78 2.80 4.00 142 159 169
-5.78 2.72 4.00 144 158 169
-5.78 2.64 4.00 147 161 170
-5.65 2.60 3.88 165 176 182
-5.65 2.52 3.88 165 173 176
-5.65 2.44 3.88 161 169 171
-5.52 2.40 3.75 170 176 176
-5.39 2.36 3.63 204 209 205
-5.26 2.31 3.50 194 199 195
-4.17 2.37 2.46 194 199 193
-4.17 2.29 2.46 195 200 194
-4.17 2.21 2.46 198 203 199
-4.04 2.16 2.33 194 199 195
-3.88 2.12 2.18 200 203 196
-3.60 2.11 1.91 200 203 196
-3.60 2.02 1.91 200 203 196
-3.60 1.94 1.91 200 203 196
-0.27 2.34 -1.28 206 211 207
-0.27 2.24 -1.28 195 200 196
-0.27 2.15 -1.28 137 141 140
-0.27 2.06 -1.28 156 160 159
-0.27 1.97 -1.28 158 162 161
-0.27 1.88 -1.28 161 165 164
-0.27 1.78 -1.28 155 159 158
-0.27 1.69 -1.28 159 165 165
-0.27 1.60 -1.28 159 165 165
-0.27 1.51 -1.28 159 165 165
-0.27 1.42 -1.28 158 164 164
-0.27 1.32 -1.28 159 163 162
-0.27 1.23 -1.28 159 163 162
-0.27 1.14 -1.28 161 166 162
-0.45 1.01 -1.10 162 167 163
-0.45 0.92 -1.10 160 165 161
-0.45 0.83 -1.10 161 166 162
-0.45 0.73 -1.10 160 167 160
-0.45 0.64 -1.10 160 167 160
-0.45 0.55 -1.10 158 168 160
-0.45 0.46 -1.10 158 168 160
-0.45 0.37 -1.10 158 168 159
-0.45 0.28 -1.10 158 168 160
-0.45 0.18 -1.10 159 168 163
-0.45 0.09 -1.10 159 168 165
-0.45 0.00 -1.10 159 168 165
-0.45 -0.09 -1.10 159 168 165
-0.45 -0.18 -1.10 159 168 165
-0.45 -0.27 -1.10 159 168 165
-0.45 -0.37 -1.10 159 168 165
-0.45 -0.46 -1.10 157 166 163
-0.27 -0.52 -1.28 157 166 163
-0.27 -0.61 -1.28 158 167 164
-0.27 -0.70 -1.28 159 168 165
-0.27 -0.79 -1.28 160 169 166
-0.27 -0.89 -1.28 160 169 166
-0.27 -0.98 -1.28 160 169 166
-0.27 -1.07 -1.28 160 169 166
-0.27 -1.16 -1.28 156 165 162
-0.27 -1.25 -1.28 157 166 163
-0.27 -1.35 -1.28 159 168 163
-0.27 -1.44 -1.28 159 168 163
-0.27 -1.53 -1.28 160 170 162
-0.27 -1.62 -1.28 159 169 161
-0.27 -1.72 -1.28 159 170 162
-0.27 -1.81 -1.28 159 170 162
-0.27 -1.90 -1.28 162 172 164
-0.27 -1.99 -1.28 161 171 163
-0.27 -2.08 -1.28 163 169 165
-0.27 -2.18 -1.28 164 169 165
-0.27 -2.27 -1.28 165 169 168
-0.45 -2.38 -1.10 168 170 169
-0.45 -2.47 -1.10 166 167 169
-0.45 -2.57 -1.10 164 170 168
-0.27 -2.64 -1.28 162 171 168
-0.27 -2.73 -1.28 163 172 167
-0.27 -2.82 -1.28 163 172 167
-0.27 -2.91 -1.28 164 173 168
-0.45 -3.02 -1.10 163 172 167
-0.45 -3.12 -1.10 163 172 167
-0.45 -3.21 -1.10 163 172 167
-0.45 -3.30 -1.10 165 174 169
-0.45 -3.39 -1.10 164 173 168
-0.45 -3.48 -1.10 163 172 169
-0.45 -3.57 -1.10 163 172 169
-0.45 -3.67 -1.10 164 173 172
-0.45 -3.76 -1.10 165 174 173
-0.45 -3.85 -1.10 165 173 175
-0.45 -3.94 -1.10 164 172 174
-0.45 -4.03 -1.10 164 170 168
-0.45 -4.12 -1.10 164 170 168
-0.45 -4.22 -1.10 163 169 167
-0.45 -4.31 -1.10 164 170 168
-0.45 -4.40 -1.10 162 171 168
-0.45 -4.49 -1.10 162 171 168
-0.45 -4.58 -1.10 163 172 169
-0.27 -4.66 -1.28 163 172 169
-0.27 -4.75 -1.28 165 174 171
-0.27 -4.85 -1.28 166 177 173
-0.27 -4.94 -1.28 165 176 172
-0.27 -5.03 -1.28 165 176 172
-0.27 -5.12 -1.28 165 176 172
-0.45 -5.22 -1.10 165 176 172
-0.45 -5.32 -1.10 164 175 171
-0.45 -5.41 -1.10 165 174 171
-0.45 -5.50 -1.10 165 174 171
-0.45 -5.59 -1.10 165 174 171
-0.27 -5.67 -1.28 165 174 171
-0.27 -5.77 -1.28 166 175 172
-0.45 -5.87 -1.10 167 176 173
-0.45 -5.96 -1.10 167 176 173
-0.45 -6.05 -1.10 166 175 172
-0.45 -6.14 -1.10 166 175 174
-0.45 -6.23 -1.10 165 174 173
-0.45 -6.32 -1.10 164 173 172
-0.45 -6.42 -1.10 165 174 173
-0.45 -6.51 -1.10 167 176 175
-0.45 -6.60 -1.10 168 177 176
-0.45 -6.69 -1.10 168 176 178
-0.45 -6.78 -1.10 168 176 178
-0.45 -6.87 -1.10 168 177 174
-0.45 -6.97 -1.10 167 176 173
-0.45 -7.06 -1.10 166 175 172
-0.45 -7.15 -1.10 166 177 173
-0.45 -7.24 -1.10 167 178 174
-0.45 -7.33 -1.10 168 179 175
-0.45 -7.42 -1.10 169 180 176
-0.45 -7.52 -1.10 166 178 174
-0.45 -7.61 -1.10 166 178 174
-0.45 -7.70 -1.10 167 179 175
-0.45 -7.79 -1.10 168 180 176
-0.45 -7.88 -1.10 168 180 176
-0.45 -7.97 -1.10 168 180 176
-0.45 -8.07 -1.10 168 180 176
-0.45 -8.16 -1.10 169 180 176
-0.45 -8.25 -1.10 167 178 172
-0.45 -8.34 -1.10 169 178 173
-0.45 -8.43 -1.10 171 180 175
-0.45 -8.52 -1.10 171 180 175
-0.45 -8.62 -1.10 172 181 176
-0.45 -8.71 -1.10 173 182 177
-0.45 -8.80 -1.10 174 183 178
-0.45 -8.89 -1.10 175 184 179
-0.45 -8.98 -1.10 174 183 178
-0.45 -9.07 -1.10 175 184 179
-0.45 -9.17 -1.10 176 185 180
-0.45 -9.26 -1.10 175 184 179
-0.27 -9.36 -1.28 175 184 179
-0.27 -9.45 -1.28 174 183 178
-0.27 -9.54 -1.28 174 183 180
-0.27 -9.63 -1.28 174 183 182
-0.45 -9.72 -1.10 175 183 185
-0.45 -9.81 -1.10 175 183 185
-0.45 -9.90 -1.10 176 184 186
-0.45 -9.99 -1.10 177 186 185
-0.45 -10.08 -1.10 178 187 186
-0.45 -10.17 -1.10 179 188 187
-0.45 -10.26 -1.10 179 188 187
-0.45 -10.36 -1.10 180 189 186
-0.45 -10.45 -1.10 178 187 184
-0.45 -10.54 -1.10 177 186 183
-0.45 -10.63 -1.10 179 188 185
-0.45 -10.72 -1.10 179 188 185
-0.45 -10.81 -1.10 179 188 185
-0.45 -10.91 -1.10 180 189 184
-0.45 -11.00 -1.10 182 191 186
-0.45 -11.09 -1.10 180 191 187
-0.45 -11.18 -1.10 181 192 188
-0.45 -11.27 -1.10 182 193 189
-0.45 -11.36 -1.10 182 193 189
-0.27 -11.48 -1.28 182 193 189
-0.27 -11.57 -1.28 183 194 190
-0.27 -11.66 -1.28 184 195 191
-0.27 -11.75 -1.28 185 194 191
-0.27 -11.84 -1.28 185 194 191
-0.27 -11.94 -1.28 187 196 193
-0.27 -12.03 -1.28 188 197 194
-0.27 -12.12 -1.28 188 197 194
-0.27 -12.21 -1.28 189 198 195
-0.27 -12.30 -1.28 189 198 195
-0.27 -12.40 -1.28 189 198 195
-0.27 -12.49 -1.28 189 198 195
-0.27 -12.58 -1.28 189 198 195
-0.45 -12.65 -1.10 188 199 195
-0.45 -12.74 -1.10 189 200 196
-0.45 -12.83 -1.10 188 200 196
-0.45 -12.92 -1.10 189 201 197
-0.45 -13.01 -1.10 188 203 196
-0.45 -13.11 -1.10 188 203 196
-0.45 -13.20 -1.10 185 200 193
-0.45 -13.29 -1.10 190 205 198
-0.45 -13.38 -1.10 189 202 195
-0.45 -13.47 -1.10 198 209 203
-0.45 -13.56 -1.10 190 199 194
-0.45 -13.84 -1.10 199 208 203
-0.45 -13.93 -1.10 198 207 204
-0.45 -14.02 -1.10 200 207 200
-0.45 -14.11 -1.10 174 181 174
-0.45 -14.21 -1.10 194 200 190
-0.27 -14.33 -1.28 157 163 153
-0.27 -14.42 -1.28 138 143 136
-0.27 -14.51 -1.28 153 158 152
-0.27 -14.61 -1.28 182 187 183
-0.45 -14.66 -1.10 203 207 206
-0.45 -14.76 -1.10 222 228 228
-0.45 -14.85 -1.10 218 224 224
-0.45 -14.94 -1.10 209 218 215
-0.45 -15.03 -1.10 206 215 212
-0.45 -15.12 -1.10 208 219 213
-0.45 -15.21 -1.10 204 215 211
-0.45 -15.31 -1.10 198 207 206
-0.45 -15.40 -1.10 201 209 211
-0.45 -15.49 -1.10 213 218 221
-0.45 -15.58 -1.10 198 203 206
-0.45 -15.67 -1.10 212 218 218
-0.45 -15.76 -1.10 204 210 208
-0.45 -15.86 -1.10 206 212 210
-0.45 -15.95 -1.10 212 218 216
-0.45 -16.04 -1.10 208 214 212
-0.45 -16.13 -1.10 203 209 209
-0.45 -16.22 -1.10 204 210 210
-0.45 -16.31 -1.10 204 212 214
-0.45 -16.41 -1.10 207 215 217
-0.45 -16.50 -1.10 206 214 216
-0.45 -16.59 -1.10 205 213 215
-0.60 -16.64 -0.96 210 216 214
-0.60 -16.74 -0.96 211 217 215
-0.60 -16.83 -0.96 210 216 214
-0.60 -16.92 -0.96 207 213 211
-0.60 -17.01 -0.96 206 212 212
-0.60 -17.10 -0.96 209 215 215
-0.60 -17.19 -0.96 209 215 215
-0.60 -17.28 -0.96 206 212 212
-0.60 -17.37 -0.96 209 215 215
-0.60 -17.47 -0.96 210 216 216
-0.45 -17.60 -1.10 211 217 217
-0.45 -17.69 -1.10 210 216 216
-0.45 -17.78 -1.10 210 214 217
-0.45 -17.87 -1.10 211 215 218
-0.45 -17.96 -1.10 212 216 219
-0.45 -18.06 -1.10 211 215 216
-0.45 -18.15 -1.10 212 216 217
-0.45 -18.24 -1.10 213 219 219
-0.45 -18.33 -1.10 214 220 220
-0.45 -18.42 -1.10 214 220 220
-0.45 -18.51 -1.10 213 219 219
-0.45 -18.61 -1.10 213 219 219
-0.45 -18.70 -1.10 213 219 219
-0.45 -18.79 -1.10 212 218 218
-0.45 -18.88 -1.10 213 219 219
-0.45 -18.97 -1.10 214 218 219
-0.45 -19.06 -1.10 215 219 220
-0.45 -19.16 -1.10 217 218 220
-0.45 -19.25 -1.10 216 217 219
-0.45 -19.34 -1.10 215 216 218
-0.45 -19.43 -1.10 215 216 218
-0.45 -19.52 -1.10 218 217 222
-0.45 -19.61 -1.10 218 217 222
-0.45 -19.71 -1.10 217 216 221
-0.45 -19.80 -1.10 216 215 220
-0.45 -19.89 -1.10 216 215 220
-0.45 -19.98 -1.10 215 214 219
-0.45 -20.07 -1.10 214 213 218
-0.45 -20.16 -1.10 215 214 219
-0.45 -20.26 -1.10 214 213 218
-0.45 -20.35 -1.10 214 213 218
-0.45 -20.44 -1.10 214 213 218
-0.45 -20.53 -1.10 213 212 217
-0.45 -20.62 -1.10 212 211 216
-0.45 -20.71 -1.10 210 209 214
-0.45 -20.81 -1.10 210 209 214
-0.45 -20.90 -1.10 212 212 212
-0.45 -20.99 -1.10 211 211 211
-0.45 -21.08 -1.10 210 210 212
-0.60 -21.12 -0.96 210 210 212
-0.60 -21.21 -0.96 212 212 214
-0.60 -21.30 -0.96 212 212 214
-0.60 -21.39 -0.96 210 210 212
-0.60 -21.48 -0.96 208 208 210
-0.60 -21.57 -0.96 209 208 213
-0.60 -21.66 -0.96 211 210 215
-0.60 -21.76 -0.96 205 204 209
-0.45 -21.90 -1.10 206 205 210
-0.45 -22.00 -1.10 205 204 209
-0.60 -22.03 -0.96 202 201 206
-0.60 -22.12 -0.96 202 201 206
-0.60 -22.21 -0.96 193 192 198
-0.60 -22.30 -0.96 190 189 195
-0.60 -22.40 -0.96 186 185 191
-0.60 -22.49 -0.96 181 180 186
-0.60 -22.58 -0.96 178 177 182
-0.60 -22.67 -0.96 175 174 179
-0.60 -22.76 -0.96 174 174 176
-0.60 -22.85 -0.96 173 173 175
-0.60 -22.94 -0.96 171 171 173
-0.60 -23.03 -0.96 170 170 172
-0.60 -23.13 -0.96 170 170 170
-0.60 -23.22 -0.96 169 169 169
-0.60 -23.31 -0.96 169 169 169
-0.60 -23.40 -0.96 169 169 169
-0.60 -23.49 -0.96 168 168 166
-0.60 -23.58 -0.96 167 167 167
-0.60 -23.67 -0.96 169 171 170
-0.60 -23.76 -0.96 168 169 171
-0.45 -23.92 -1.10 167 168 170
-0.45 -24.01 -1.10 168 169 171
-0.60 -24.04 -0.96 169 171 170
-0.60 -24.13 -0.96 169 171 170
-0.60 -24.22 -0.96 168 170 169
-0.60 -24.31 -0.96 167 169 168
-0.60 -24.40 -0.96 168 170 169
-0.60 -24.49 -0.96 169 171 168
-0.45 -24.65 -1.10 171 173 170
-0.45 -24.75 -1.10 172 174 171
-0.45 -24.84 -1.10 171 173 170
-0.45 -24.93 -1.10 172 174 171
-0.45 -25.02 -1.10 174 176 173
-0.45 -25.11 -1.10 177 179 178
-0.45 -25.20 -1.10 175 177 176
-0.45 -25.30 -1.10 175 177 176
-0.45 -25.39 -1.10 178 180 179
-0.45 -25.48 -1.10 181 182 184
-0.60 -25.50 -0.96 182 183 185
-0.60 -25.59 -0.96 184 185 189
-0.60 -25.68 -0.96 186 187 191
-0.60 -25.77 -0.96 189 190 194
-0.60 -25.86 -0.96 192 193 197
-0.60 -25.96 -0.96 196 197 199
-0.60 -26.05 -0.96 200 201 203
-0.60 -26.14 -0.96 203 205 204
-0.60 -26.23 -0.96 204 206 205
-0.60 -26.32 -0.96 205 207 206
-0.60 -26.41 -0.96 206 208 207
-0.60 -26.50 -0.96 212 213 215
-0.60 -26.59 -0.96 208 209 211
-0.45 -26.76 -1.10 211 212 214
-0.45 -26.85 -1.10 213 214 216
-0.45 -26.95 -1.10 213 214 216
-0.45 -27.04 -1.10 215 215 217
-0.45 -27.13 -1.10 216 216 218
-0.45 -27.22 -1.10 217 215 218
-0.45 -27.31 -1.10 218 216 219
-0.45 -27.40 -1.10 218 216 219
-0.45 -27.50 -1.10 219 217 220
-0.60 -27.51 -0.96 222 217 221
-0.60 -27.60 -0.96 222 217 221
-0.60 -27.69 -0.96 222 217 221
-0.60 -27.78 -0.96 222 217 221
-0.60 -27.87 -0.96 222 218 219
-0.60 -27.96 -0.96 223 219 220
-0.60 -28.06 -0.96 223 219 220
-0.60 -28.15 -0.96 223 219 220
-0.60 -28.24 -0.96 223 219 220
-0.45 -28.41 -1.10 224 220 221
-0.45 -28.50 -1.10 225 221 222
-0.45 -28.60 -1.10 226 222 223
-0.45 -28.69 -1.10 227 223 224
-0.45 -28.78 -1.10 227 223 224
-0.45 -28.87 -1.10 230 226 227
-0.45 -28.96 -1.10 231 227 228
-0.45 -29.05 -1.10 232 228 229
-0.45 -29.15 -1.10 232 228 229
-0.45 -29.24 -1.10 232 228 229
-0.60 -29.24 -0.96 230 226 227
-0.60 -29.33 -0.96 231 227 228
-0.60 -29.42 -0.96 233 229 230
-0.60 -29.52 -0.96 233 229 230
-0.79 -29.50 -0.78 233 229 230
-0.60 -29.70 -0.96 231 227 228
-0.60 -29.79 -0.96 230 226 227
-0.60 -29.88 -0.96 228 224 225
-0.60 -29.97 -0.96 228 224 225
-0.60 -30.06 -0.96 227 223 224
-0.60 -30.15 -0.96 226 222 223
-0.60 -30.25 -0.96 228 224 225
-0.60 -30.34 -0.96 231 227 228
-0.60 -30.43 -0.96 233 229 230
-0.60 -30.52 -0.96 235 231 232
-0.60 -30.61 -0.96 235 231 232
-0.60 -30.70 -0.96 226 225 221
-0.60 -30.79 -0.96 228 224 221
-0.60 -30.89 -0.96 243 239 238
-0.60 -30.98 -0.96 159 150 153
-0.60 -31.07 -0.96 103 92 98
-0.60 -31.16 -0.96 121 110 116
-0.60 -31.25 -0.96 109 98 106
-0.60 -31.34 -0.96 109 102 110
-0.60 -31.43 -0.96 99 91 102
-0.49 22.27 -1.18 0 0 0
-0.49 22.18 -1.18 0 0 0
-0.49 22.09 -1.18 0 0 0
-0.49 22.00 -1.18 0 0 0
-0.49 21.91 -1.18 0 0 0
-0.49 21.81 -1.18 0 0 0
-0.49 21.72 -1.18 0 0 0
-0.49 21.63 -1.18 0 0 0
-0.49 21.54 -1.18 0 0 0
-0.31 21.58 -1.36 124 119 113
-0.31 21.49 -1.36 124 119 113
-0.31 21.40 -1.36 124 119 113
-0.49 21.17 -1.18 124 119 113
-0.49 21.08 -1.18 124 119 113
-0.49 20.99 -1.18 125 120 116
-0.49 20.90 -1.18 126 121 117
-0.49 20.81 -1.18 126 121 117
-0.49 20.71 -1.18 125 120 116
-0.49 20.62 -1.18 127 119 117
-0.49 20.53 -1.18 128 120 118
-0.49 20.44 -1.18 128 120 118
-0.49 20.35 -1.18 127 119 117
-0.49 20.26 -1.18 129 120 121
-0.49 20.16 -1.18 131 122 123
-0.49 20.07 -1.18 133 124 125
-0.49 19.98 -1.18 132 124 122
-0.49 19.89 -1.18 130 125 119
-0.49 19.80 -1.18 129 125 116
-0.49 19.71 -1.18 129 125 114
-0.49 19.61 -1.18 131 127 118
-0.49 19.52 -1.18 132 128 119
-0.49 19.43 -1.18 131 127 118
-0.49 19.34 -1.18 129 125 116
-0.49 19.25 -1.18 130 125 119
-0.49 19.16 -1.18 129 124 120
-0.49 19.06 -1.18 130 125 121
-0.49 18.97 -1.18 132 127 124
-0.49 18.88 -1.18 133 127 127
-0.49 18.79 -1.18 131 125 125
-0.49 18.70 -1.18 130 124 126
-0.49 18.61 -1.18 131 125 127
-0.49 18.51 -1.18 133 125 123
-0.49 18.42 -1.18 132 124 122
-0.49 18.33 -1.18 129 124 118
-0.49 18.24 -1.18 130 125 119
-0.49 18.15 -1.18 131 127 116
-0.49 18.06 -1.18 132 128 117
-0.31 18.08 -1.36 130 128 115
-0.31 17.99 -1.36 128 126 113
-0.31 17.90 -1.36 131 129 116
-0.31 17.81 -1.36 131 129 116
-0.49 17.60 -1.18 130 130 118
-0.49 17.51 -1.18 130 130 120
-0.49 17.41 -1.18 130 129 124
-0.49 17.32 -1.18 130 129 124
-0.49 17.23 -1.18 133 129 126
-0.49 17.14 -1.18 133 130 123
-0.49 17.05 -1.18 134 129 123
-0.49 16.96 -1.18 134 129 125
-0.49 16.86 -1.18 133 128 124
-0.49 16.77 -1.18 133 128 125
-0.49 16.68 -1.18 132 127 124
-0.49 16.59 -1.18 133 127 127
-0.49 16.50 -1.18 133 127 127
-0.49 16.41 -1.18 135 129 129
-0.49 16.31 -1.18 135 129 129
-0.65 16.13 -1.03 133 129 130
-0.49 16.13 -1.18 133 129 130
-0.49 16.04 -1.18 131 130 128
-0.49 15.95 -1.18 131 130 128
-0.49 15.86 -1.18 130 130 128
-0.49 15.76 -1.18 130 130 128
-0.49 15.67 -1.18 133 132 130
-0.49 15.58 -1.18 132 131 129
-0.49 15.49 -1.18 132 131 127
-0.49 15.40 -1.18 132 131 127
-0.49 15.31 -1.18 135 131 128
-0.49 15.21 -1.18 133 128 124
-0.49 15.12 -1.18 131 126 122
-0.49 15.03 -1.18 136 128 125
-0.49 14.94 -1.18 136 128 125
-0.49 14.85 -1.18 134 129 126
-0.49 14.76 -1.18 134 129 126
-0.49 14.66 -1.18 134 129 126
-0.49 14.57 -1.18 134 129 126
-0.49 14.48 -1.18 133 129 128
-0.49 14.39 -1.18 133 129 128
-0.49 14.30 -1.18 131 130 125
-0.49 14.21 -1.18 130 129 124
-0.49 14.11 -1.18 129 128 123
-0.49 14.02 -1.18 129 128 123
-0.49 13.93 -1.18 130 129 124
-0.49 13.84 -1.18 130 129 124
-0.49 13.75 -1.18 130 129 125
-0.31 13.75 -1.36 130 129 125
-0.31 13.66 -1.36 129 128 124
-0.49 13.47 -1.18 129 128 124
-0.49 13.38 -1.18 130 129 125
-0.49 13.29 -1.18 131 130 126
-0.49 13.20 -1.18 132 131 127
-0.49 13.11 -1.18 132 131 127
-0.49 13.01 -1.18 132 131 127
-0.49 12.92 -1.18 130 133 124
-0.49 12.83 -1.18 128 131 122
-0.49 12.74 -1.18 127 128 120
-0.49 12.65 -1.18 127 128 120
-0.49 12.56 -1.18 129 128 123
-0.49 12.47 -1.18 130 129 124
-0.49 12.37 -1.18 131 128 123
-0.49 12.28 -1.18 131 128 123
-0.49 12.19 -1.18 133 130 125
-0.49 12.10 -1.18 132 129 124
-0.65 11.93 -1.03 131 128 123
-0.65 11.84 -1.03 131 128 123
-0.65 11.75 -1.03 131 128 123
-0.65 11.66 -1.03 132 129 124
-0.65 11.56 -1.03 131 130 125
-0.65 11.47 -1.03 131 130 125
-0.65 11.38 -1.03 130 129 125
-0.83 11.20 -0.86 129 128 124
-5.04 9.11 3.18 130 126 125
-5.17 8.97 3.31 130 126 125
-5.17 8.89 3.31 131 127 128
-5.30 8.75 3.43 130 126 127
-5.30 8.67 3.43 126 124 127
-5.30 8.59 3.43 131 130 135
-5.30 8.51 3.43 150 149 154
-5.30 8.43 3.43 165 166 170
-5.30 8.35 3.43 141 142 146
-5.30 8.27 3.43 27 30 35
-5.17 8.24 3.31 34 37 42
-5.30 8.10 3.43 25 30 34
-5.30 8.02 3.43 15 20 24
-5.30 7.94 3.43 17 22 25
-5.30 7.86 3.43 23 28 31
-5.30 7.78 3.43 16 21 24
-5.30 7.70 3.43 15 19 22
-5.30 7.62 3.43 17 21 24
-5.30 7.54 3.43 16 15 20
-5.30 7.46 3.43 66 63 70
-5.43 7.32 3.56 158 151 159
-5.43 7.24 3.56 167 155 165
-5.43 7.16 3.56 143 130 140
-5.43 7.08 3.56 144 128 139
-5.43 7.00 3.56 147 131 142
-5.43 6.92 3.56 150 138 148
-5.43 6.84 3.56 145 133 143
-5.43 6.76 3.56 145 138 146
-5.43 6.68 3.56 146 138 149
-5.43 6.60 3.56 142 139 150
-5.43 6.52 3.56 141 139 152
-5.43 6.44 3.56 142 140 153
-5.43 6.36 3.56 140 140 152
-5.43 6.28 3.56 140 140 152
-5.43 6.20 3.56 138 140 153
-5.43 6.12 3.56 138 140 153
-5.43 6.04 3.56 137 141 152
-5.43 5.96 3.56 141 145 156
-5.43 5.72 3.56 138 147 154
-5.43 5.64 3.56 137 146 153
-5.43 5.56 3.56 138 147 152
-5.56 5.43 3.68 138 147 152
-5.56 5.35 3.68 135 146 152
-5.56 5.27 3.68 136 147 153
-5.56 5.19 3.68 139 150 156
-5.56 5.11 3.68 140 151 157
-5.56 5.03 3.68 142 151 158
-5.56 4.95 3.68 143 152 159
-5.56 4.87 3.68 145 152 160
-5.69 4.75 3.81 146 153 161
-5.69 4.67 3.81 146 153 163
-5.69 4.59 3.81 142 149 159
-5.69 4.51 3.81 141 148 158
-5.69 4.43 3.81 141 150 159
-5.69 4.35 3.81 141 150 159
-5.69 4.27 3.81 139 149 158
-5.69 4.19 3.81 138 148 157
-5.69 4.11 3.81 141 151 161
-5.69 4.03 3.81 135 145 155
-5.69 3.95 3.81 81 94 103
-5.69 3.87 3.81 74 87 96
-5.69 3.79 3.81 88 102 113
-5.69 3.71 3.81 138 152 163
-5.69 3.63 3.81 134 151 161
-5.69 3.56 3.81 141 158 168
-5.69 3.48 3.81 137 155 165
-5.69 3.40 3.81 137 155 165
-5.69 3.32 3.81 138 156 166
-5.69 3.24 3.81 139 157 167
-5.69 3.16 3.81 140 156 169
-5.82 3.04 3.93 140 156 169
-5.82 2.96 3.93 140 156 169
-5.82 2.88 3.93 139 155 168
-5.82 2.80 3.93 140 157 167
-5.69 2.76 3.81 140 157 167
-5.69 2.68 3.81 144 158 167
-5.69 2.60 3.81 162 173 179
-5.69 2.52 3.81 163 171 174
-5.56 2.48 3.68 158 166 168
-5.43 2.44 3.56 167 173 173
-5.30 2.39 3.43 203 208 204
-5.17 2.35 3.31 195 200 196
-5.04 2.31 3.18 198 200 197
-4.76 2.30 2.91 200 202 199
-4.50 2.29 2.66 195 200 196
-4.50 2.21 2.66 195 200 196
-4.21 2.21 2.38 198 203 199
-4.08 2.16 2.26 194 199 195
-3.93 2.12 2.11 197 202 195
-3.64 2.11 1.84 197 202 195
-3.64 2.02 1.84 197 202 196
-3.64 1.94 1.84 197 202 196
-0.49 2.29 -1.18 200 205 201
-0.31 2.24 -1.36 199 204 200
-0.49 2.11 -1.18 137 141 140
-0.49 2.02 -1.18 159 163 162
-0.49 1.92 -1.18 158 162 161
-0.31 1.88 -1.36 161 165 164
-0.31 1.78 -1.36 158 162 161
-0.31 1.69 -1.36 158 164 164
-0.49 1.56 -1.18 159 165 165
-0.49 1.47 -1.18 159 165 163
-0.49 1.37 -1.18 159 165 163
-0.49 1.28 -1.18 160 164 163
-0.49 1.19 -1.18 160 164 163
-0.49 1.10 -1.18 161 166 162
-0.49 1.01 -1.18 161 166 162
-0.49 0.92 -1.18 160 165 161
-0.49 0.83 -1.18 160 165 161
-0.49 0.73 -1.18 160 167 160
-0.49 0.64 -1.18 161 168 161
-0.49 0.55 -1.18 159 169 161
-0.49 0.46 -1.18 160 170 162
-0.65 0.34 -1.03 160 170 162
-0.65 0.24 -1.03 160 169 164
-0.65 0.15 -1.03 160 169 164
-0.65 0.06 -1.03 159 168 165
-0.49 0.00 -1.18 159 168 165
-0.49 -0.09 -1.18 158 167 164
-0.49 -0.18 -1.18 158 167 164
-0.49 -0.27 -1.18 158 167 164
-0.49 -0.37 -1.18 158 167 164
-0.49 -0.46 -1.18 159 168 165
-0.49 -0.55 -1.18 159 168 165
-0.49 -0.64 -1.18 160 169 166
-0.49 -0.73 -1.18 160 169 166
-0.49 -0.82 -1.18 160 169 166
-0.49 -0.92 -1.18 159 168 165
-0.49 -1.01 -1.18 158 167 164
-0.49 -1.10 -1.18 157 166 163
-0.49 -1.19 -1.18 159 168 163
-0.49 -1.28 -1.18 159 168 163
-0.49 -1.37 -1.18 161 170 165
-0.49 -1.47 -1.18 161 170 165
-0.49 -1.56 -1.18 161 171 163
-0.49 -1.65 -1.18 160 170 162
-0.49 -1.74 -1.18 160 170 162
-0.49 -1.83 -1.18 161 171 163
-0.49 -1.92 -1.18 162 172 164
-0.49 -2.02 -1.18 161 171 163
-0.49 -2.11 -1.18 162 168 164
-0.49 -2.20 -1.18 164 169 165
-0.49 -2.29 -1.18 165 169 168
-0.49 -2.38 -1.18 167 169 168
-0.49 -2.47 -1.18 164 168 167
-0.49 -2.57 -1.18 164 170 168
-0.49 -2.66 -1.18 162 171 168
-0.31 -2.73 -1.36 162 171 168
-0.31 -2.82 -1.36 162 171 168
-0.49 -2.93 -1.18 162 171 166
-0.49 -3.02 -1.18 162 171 166
-0.49 -3.12 -1.18 162 171 166
-0.49 -3.21 -1.18 163 172 167
-0.49 -3.30 -1.18 164 173 168
-0.49 -3.39 -1.18 162 171 166
-0.49 -3.48 -1.18 161 170 167
-0.49 -3.57 -1.18 161 170 167
-0.49 -3.67 -1.18 162 171 170
-0.49 -3.76 -1.18 163 172 171
-0.49 -3.85 -1.18 163 171 173
-0.49 -3.94 -1.18 162 170 172
-0.49 -4.03 -1.18 166 172 170
-0.49 -4.12 -1.18 165 171 169
-0.49 -4.22 -1.18 163 172 169
-0.49 -4.31 -1.18 162 171 168
-0.49 -4.40 -1.18 162 171 168
-0.49 -4.49 -1.18 162 171 168
-0.49 -4.58 -1.18 162 171 168
-0.49 -4.67 -1.18 162 171 168
-0.49 -4.77 -1.18 164 173 170
-0.49 -4.86 -1.18 163 174 170
-0.49 -4.95 -1.18 162 173 169
-0.49 -5.04 -1.18 162 173 169
-0.49 -5.13 -1.18 163 174 170
-0.49 -5.22 -1.18 164 175 171
-0.49 -5.32 -1.18 163 174 170
-0.49 -5.41 -1.18 165 174 171
-0.49 -5.50 -1.18 165 174 171
-0.49 -5.59 -1.18 165 174 171
-0.49 -5.68 -1.18 165 174 171
-0.49 -5.77 -1.18 166 175 172
-0.49 -5.87 -1.18 166 175 172
-0.49 -5.96 -1.18 166 175 172
-0.49 -6.05 -1.18 166 175 172
-0.49 -6.14 -1.18 166 175 174
-0.49 -6.23 -1.18 165 174 173
-0.49 -6.32 -1.18 164 173 172
-0.65 -6.42 -1.03 165 174 173
-0.65 -6.51 -1.03 166 175 174
-0.65 -6.60 -1.03 168 177 176
-0.65 -6.69 -1.03 168 177 176
-0.65 -6.78 -1.03 168 177 176
-0.65 -6.88 -1.03 166 175 172
-0.65 -6.97 -1.03 164 175 171
-0.65 -7.06 -1.03 164 175 171
-0.65 -7.15 -1.03 164 175 171
-0.49 -7.24 -1.18 166 177 173
-0.49 -7.33 -1.18 167 178 174
-0.49 -7.42 -1.18 168 179 175
-0.65 -7.51 -1.03 166 177 173
-0.65 -7.61 -1.03 167 178 174
-0.65 -7.70 -1.03 166 178 174
-0.65 -7.79 -1.03 167 179 175
-0.65 -7.88 -1.03 167 179 175
-0.49 -7.97 -1.18 167 179 175
-0.49 -8.07 -1.18 166 178 174
-0.49 -8.16 -1.18 167 178 174
-0.49 -8.25 -1.18 169 180 174
-0.49 -8.34 -1.18 171 180 175
-0.49 -8.43 -1.18 171 180 175
-0.49 -8.52 -1.18 171 180 175
-0.49 -8.62 -1.18 170 179 174
-0.49 -8.71 -1.18 171 180 175
-0.49 -8.80 -1.18 172 181 176
-0.49 -8.89 -1.18 174 183 178
-0.49 -8.98 -1.18 173 182 177
-0.49 -9.07 -1.18 173 182 177
-0.49 -9.17 -1.18 174 183 178
-0.49 -9.26 -1.18 174 183 178
-0.49 -9.35 -1.18 175 184 179
-0.49 -9.44 -1.18 175 184 179
-0.31 -9.54 -1.36 176 185 182
-0.49 -9.62 -1.18 175 184 181
-0.49 -9.72 -1.18 175 184 183
-0.49 -9.81 -1.18 176 185 184
-0.49 -9.90 -1.18 177 186 185
-0.49 -9.99 -1.18 178 187 186
-0.49 -10.08 -1.18 178 187 186
-0.49 -10.17 -1.18 177 186 185
-0.49 -10.26 -1.18 177 186 185
-0.49 -10.36 -1.18 179 188 185
-0.49 -10.45 -1.18 177 186 183
-0.49 -10.54 -1.18 177 186 183
-0.65 -10.62 -1.03 179 188 185
-0.65 -10.71 -1.03 179 188 185
-0.65 -10.80 -1.03 179 188 185
-0.65 -10.89 -1.03 180 189 186
-0.49 -11.00 -1.18 182 191 188
-0.49 -11.09 -1.18 179 190 186
-0.49 -11.18 -1.18 180 191 187
-0.49 -11.27 -1.18 181 192 188
-0.49 -11.36 -1.18 181 192 188
-0.49 -11.46 -1.18 181 192 188
-0.31 -11.57 -1.36 183 192 189
-0.31 -11.66 -1.36 184 193 190
-0.49 -11.73 -1.18 185 194 191
-0.49 -11.82 -1.18 185 194 191
-0.49 -11.91 -1.18 186 195 192
-0.49 -12.01 -1.18 186 195 192
-0.49 -12.10 -1.18 186 195 192
-0.49 -12.19 -1.18 187 196 193
-0.49 -12.28 -1.18 187 196 193
-0.49 -12.37 -1.18 188 197 194
-0.49 -12.46 -1.18 190 196 194
-0.49 -12.56 -1.18 190 196 194
-0.49 -12.65 -1.18 190 196 194
-0.49 -12.74 -1.18 190 196 194
-0.49 -12.83 -1.18 188 197 194
-0.49 -12.92 -1.18 188 197 194
-0.65 -12.99 -1.03 188 197 194
-0.65 -13.08 -1.03 188 197 194
-0.65 -13.17 -1.03 190 199 196
-0.65 -13.27 -1.03 203 212 209
-0.65 -13.36 -1.03 224 233 230
-0.65 -13.45 -1.03 227 233 229
-0.65 -13.54 -1.03 233 239 235
-0.65 -13.81 -1.03 190 196 186
-0.49 -13.93 -1.18 204 210 198
-0.49 -14.02 -1.18 175 181 167
-0.49 -14.11 -1.18 166 172 158
-0.49 -14.21 -1.18 229 233 219
-0.49 -14.30 -1.18 188 191 180
-0.49 -14.39 -1.18 230 232 221
-0.49 -14.48 -1.18 237 238 232
-0.49 -14.57 -1.18 180 181 176
-0.49 -14.66 -1.18 133 133 133
-0.49 -14.76 -1.18 149 151 150
-0.49 -14.85 -1.18 167 168 170
-0.49 -14.94 -1.18 194 198 199
-0.49 -15.03 -1.18 195 199 200
-0.49 -15.12 -1.18 205 209 208
-0.49 -15.21 -1.18 201 205 206
-0.49 -15.31 -1.18 208 212 213
-0.49 -15.40 -1.18 201 205 208
-0.49 -15.49 -1.18 197 201 204
-0.65 -15.55 -1.03 202 206 209
-0.65 -16.00 -1.03 206 210 211
-0.65 -16.10 -1.03 210 214 215
-0.65 -16.19 -1.03 210 214 215
-0.65 -16.28 -1.03 206 210 211
-0.65 -16.37 -1.03 206 210 211
-0.65 -16.46 -1.03 212 213 217
-0.65 -16.55 -1.03 217 218 222
-0.83 -16.60 -0.86 207 213 211
-0.83 -16.69 -0.86 210 216 214
-0.83 -16.78 -0.86 212 218 216
-0.83 -16.87 -0.86 211 217 215
-0.83 -16.96 -0.86 210 216 216
-0.83 -17.06 -0.86 210 216 216
-0.83 -17.15 -0.86 212 218 218
-0.83 -17.24 -0.86 213 219 219
-0.83 -17.33 -0.86 207 213 213
-0.65 -17.47 -1.03 208 214 214
-0.65 -17.56 -1.03 210 214 215
-0.65 -17.65 -1.03 210 214 215
-0.65 -17.74 -1.03 209 213 216
-0.49 -17.87 -1.18 210 214 217
-0.49 -17.96 -1.18 212 216 219
-0.65 -18.01 -1.03 210 214 215
-0.65 -18.10 -1.03 210 214 215
-0.65 -18.20 -1.03 211 215 216
-0.65 -18.29 -1.03 211 215 216
-0.65 -18.38 -1.03 209 215 215
-0.83 -18.42 -0.86 209 215 215
-0.83 -18.51 -0.86 210 216 216
-0.65 -18.65 -1.03 210 216 216
-0.65 -18.74 -1.03 210 216 216
-0.65 -18.83 -1.03 211 217 217
-0.65 -18.93 -1.03 214 218 219
-0.65 -19.02 -1.03 215 219 220
-0.65 -19.11 -1.03 217 218 220
-0.65 -19.20 -1.03 216 217 219
-0.65 -19.29 -1.03 215 216 218
-0.65 -19.38 -1.03 215 216 218
-0.65 -19.47 -1.03 216 215 220
-0.65 -19.57 -1.03 216 215 220
-0.65 -19.66 -1.03 217 216 221
-0.65 -19.75 -1.03 217 216 221
-0.49 -19.89 -1.18 217 216 221
-0.49 -19.98 -1.18 217 216 221
-0.65 -20.02 -1.03 216 215 220
-0.65 -20.11 -1.03 215 214 219
-0.65 -20.20 -1.03 215 214 219
-0.65 -20.30 -1.03 214 213 218
-0.65 -20.39 -1.03 214 213 218
-0.65 -20.48 -1.03 213 212 217
-0.65 -20.57 -1.03 213 212 217
-0.65 -20.66 -1.03 213 212 217
-0.65 -20.75 -1.03 213 212 217
-0.65 -20.84 -1.03 213 213 215
-0.65 -20.93 -1.03 211 211 213
-0.65 -21.03 -1.03 210 210 212
-0.83 -21.05 -0.86 210 210 212
-0.83 -21.14 -0.86 211 211 213
-0.83 -21.23 -0.86 212 212 214
-0.83 -21.33 -0.86 210 210 212
-0.83 -21.42 -0.86 208 208 210
-0.83 -21.51 -0.86 208 207 212
-0.83 -21.60 -0.86 210 209 214
-0.83 -21.69 -0.86 206 205 210
-0.65 -21.85 -1.03 206 205 210
-0.65 -21.94 -1.03 206 205 210
-0.65 -22.03 -1.03 203 202 207
-0.83 -22.05 -0.86 203 202 207
-0.83 -22.14 -0.86 193 192 197
-0.83 -22.23 -0.86 191 190 195
-0.83 -22.33 -0.86 187 186 191
-0.83 -22.42 -0.86 181 180 185
-0.83 -22.51 -0.86 176 176 178
-0.83 -22.60 -0.86 174 174 176
-0.83 -22.69 -0.86 174 174 176
-0.83 -22.78 -0.86 175 175 177
-0.83 -22.87 -0.86 171 171 171
-0.83 -22.96 -0.86 170 170 170
-0.83 -23.05 -0.86 168 168 168
-0.83 -23.14 -0.86 168 168 168
-0.83 -23.23 -0.86 168 168 168
-0.83 -23.32 -0.86 169 169 169
-0.83 -23.42 -0.86 170 170 168
-0.83 -23.51 -0.86 170 170 170
-0.83 -23.60 -0.86 168 170 169
-0.83 -23.69 -0.86 167 168 170
-0.83 -23.78 -0.86 166 167 169
-0.65 -23.95 -1.03 167 168 170
-0.65 -24.04 -1.03 168 170 169
-0.83 -24.05 -0.86 170 172 171
-0.83 -24.14 -0.86 170 172 171
-0.83 -24.23 -0.86 169 171 170
-0.83 -24.32 -0.86 168 170 169
-0.83 -24.42 -0.86 168 170 167
-0.65 -24.59 -1.03 171 173 170
-0.65 -24.68 -1.03 172 174 171
-0.65 -24.77 -1.03 171 173 170
-0.65 -24.86 -1.03 172 174 171
-0.65 -24.95 -1.03 174 176 173
-0.65 -25.04 -1.03 175 177 176
-0.65 -25.13 -1.03 175 177 176
-0.65 -25.23 -1.03 176 178 177
-0.65 -25.32 -1.03 179 181 180
-0.65 -25.41 -1.03 180 181 183
-0.65 -25.50 -1.03 181 182 184
-0.65 -25.59 -1.03 185 186 190
-0.65 -25.68 -1.03 188 189 193
-0.65 -25.77 -1.03 191 192 196
-0.65 -25.86 -1.03 193 194 198
-0.65 -25.96 -1.03 196 197 199
-0.65 -26.05 -1.03 199 200 202
-0.65 -26.14 -1.03 201 203 202
-0.65 -26.23 -1.03 203 205 204
-0.65 -26.32 -1.03 205 207 206
-0.65 -26.41 -1.03 206 208 207
-0.65 -26.50 -1.03 212 214 213
-0.65 -26.59 -1.03 209 211 210
-0.65 -26.69 -1.03 211 213 212
-0.65 -26.78 -1.03 214 214 214
-0.65 -26.87 -1.03 214 214 214
-0.65 -26.96 -1.03 215 215 215
-0.65 -27.05 -1.03 217 217 217
-0.65 -27.14 -1.03 219 217 218
-0.49 -27.31 -1.18 218 216 217
-0.49 -27.40 -1.18 218 216 217
-0.65 -27.42 -1.03 218 216 217
-0.65 -27.51 -1.03 221 217 218
-0.65 -27.60 -1.03 221 217 218
-0.65 -27.69 -1.03 222 218 219
-0.65 -27.78 -1.03 222 218 219
-0.65 -27.87 -1.03 222 218 219
-0.65 -27.96 -1.03 223 219 220
-0.65 -28.06 -1.03 224 220 221
-0.65 -28.15 -1.03 224 220 221
-0.65 -28.24 -1.03 224 220 221
-0.65 -28.33 -1.03 223 219 220
-0.65 -28.42 -1.03 223 219 220
-0.49 -28.60 -1.18 224 220 221
-0.49 -28.69 -1.18 224 220 221
-0.49 -28.78 -1.18 224 220 221
-0.49 -28.87 -1.18 226 222 223
-0.65 -28.88 -1.03 226 222 223
-0.65 -28.97 -1.03 226 222 223
-0.65 -29.06 -1.03 226 222 223
-0.65 -29.15 -1.03 226 222 223
-0.65 -29.24 -1.03 229 225 226
-0.83 -29.23 -0.86 230 226 227
-0.83 -29.32 -0.86 232 228 229
-0.83 -29.41 -0.86 234 230 231
-0.83 -29.50 -0.86 235 231 232
-0.83 -29.59 -0.86 235 231 232
-0.83 -29.69 -0.86 234 230 231
-0.83 -29.78 -0.86 233 229 230
-0.83 -29.87 -0.86 231 227 228
-0.83 -29.96 -0.86 231 227 228
-0.83 -30.05 -0.86 230 226 227
-0.83 -30.14 -0.86 231 227 228
-0.83 -30.23 -0.86 233 229 230
-0.83 -30.32 -0.86 234 230 231
-0.83 -30.41 -0.86 234 230 231
-0.83 -30.50 -0.86 234 230 231
-0.83 -30.59 -0.86 233 233 231
-0.65 -30.79 -1.03 232 231 229
-0.65 -30.89 -1.03 238 234 233
-0.65 -30.98 -1.03 173 164 167
-0.65 -31.07 -1.03 96 85 89
-0.83 -31.05 -0.86 114 103 109
-0.83 -31.14 -0.86 115 104 112
-0.83 -31.23 -0.86 116 109 116
-0.83 -31.32 -0.86 104 97 105
-0.69 22.15 -1.11 0 0 0
-0.54 22.18 -1.26 0 0 0
-0.54 22.09 -1.26 0 0 0
-0.54 22.00 -1.26 0 0 0
-0.54 21.91 -1.26 0 0 0
-0.54 21.81 -1.26 0 0 0
-0.54 21.72 -1.26 0 0 0
-0.54 21.63 -1.26 0 0 0
-0.54 21.54 -1.26 0 0 0
-0.54 21.45 -1.26 128 121 113
-0.54 21.36 -1.26 128 121 113
-0.54 21.26 -1.26 127 120 112
-0.54 21.17 -1.26 127 120 114
-0.54 21.08 -1.26 127 120 114
-0.54 20.99 -1.26 128 121 115
-0.54 20.90 -1.26 129 122 116
-0.54 20.81 -1.26 129 122 116
-0.54 20.71 -1.26 129 122 116
-0.69 20.51 -1.11 131 123 120
-0.69 20.42 -1.11 131 123 120
-0.69 20.33 -1.11 127 122 118
-0.69 20.24 -1.11 125 120 116
-0.69 20.15 -1.11 125 120 117
-0.69 20.05 -1.11 127 122 119
-0.69 19.96 -1.11 128 123 120
-0.69 19.87 -1.11 128 123 119
-0.54 19.89 -1.26 128 123 117
-0.54 19.80 -1.26 129 125 116
-0.54 19.71 -1.26 129 125 116
-0.54 19.61 -1.26 130 126 117
-0.54 19.52 -1.26 130 126 117
-0.54 19.43 -1.26 130 125 119
-0.54 19.34 -1.26 130 125 119
-0.54 19.25 -1.26 128 123 119
-0.54 19.16 -1.26 128 123 119
-0.54 19.06 -1.26 129 124 121
-0.69 18.87 -1.11 131 125 125
-0.69 18.78 -1.11 132 126 126
-0.69 18.69 -1.11 131 125 127
-0.54 18.70 -1.26 131 125 129
-0.54 18.61 -1.26 131 125 127
-0.54 18.51 -1.26 131 125 125
-0.69 18.32 -1.11 131 126 123
-0.54 18.33 -1.26 130 125 119
-0.54 18.24 -1.26 129 124 118
-0.54 18.15 -1.26 129 125 116
-0.54 18.06 -1.26 129 125 116
-0.54 17.96 -1.26 129 127 114
-0.54 17.87 -1.26 129 127 114
-0.54 17.78 -1.26 132 130 118
-0.54 17.69 -1.26 132 130 118
-0.54 17.60 -1.26 130 130 120
-0.54 17.51 -1.26 130 130 122
-0.54 17.41 -1.26 130 129 124
-0.54 17.32 -1.26 130 129 125
-0.54 17.23 -1.26 132 128 125
-0.54 17.14 -1.26 135 132 125
-0.54 17.05 -1.26 136 131 125
-0.69 16.86 -1.11 135 130 126
-0.69 16.77 -1.11 134 129 125
-0.69 16.68 -1.11 132 127 124
-0.69 16.59 -1.11 132 127 124
-0.69 16.49 -1.11 133 127 127
-0.69 16.40 -1.11 134 128 128
-0.69 16.31 -1.11 135 129 129
-0.69 16.22 -1.11 135 129 129
-0.69 16.13 -1.11 133 129 130
-0.69 16.04 -1.11 133 129 130
-0.69 15.95 -1.11 131 130 128
-0.54 15.95 -1.26 131 130 128
-0.69 15.76 -1.11 130 130 128
-0.69 15.67 -1.11 130 130 128
-0.69 15.58 -1.11 132 131 129
-0.69 15.49 -1.11 132 131 129
-0.69 15.40 -1.11 133 132 128
-0.69 15.31 -1.11 133 132 128
-0.54 15.31 -1.26 135 131 128
-0.54 15.21 -1.26 132 129 124
-0.54 15.12 -1.26 131 128 123
-0.54 15.03 -1.26 135 130 126
-0.69 14.85 -1.11 134 129 125
-0.69 14.76 -1.11 134 129 126
-0.69 14.67 -1.11 133 128 125
-0.69 14.58 -1.11 132 128 125
-0.54 14.57 -1.26 132 128 125
-0.54 14.48 -1.26 132 128 127
-0.54 14.39 -1.26 132 128 127
-0.54 14.30 -1.26 132 129 124
-0.54 14.21 -1.26 132 129 124
-0.54 14.11 -1.26 130 129 124
-0.54 14.02 -1.26 129 128 123
-0.54 13.93 -1.26 128 127 122
-0.54 13.84 -1.26 129 128 123
-0.54 13.75 -1.26 130 129 125
-0.54 13.66 -1.26 131 130 126
-0.54 13.56 -1.26 127 126 122
-0.54 13.47 -1.26 129 128 124
-0.69 13.30 -1.11 130 129 125
-0.69 13.21 -1.11 132 131 127
-0.69 13.12 -1.11 132 131 127
-0.69 13.03 -1.11 132 131 127
-0.69 12.93 -1.11 129 128 124
-0.69 12.84 -1.11 130 133 124
-0.69 12.75 -1.11 128 131 122
-0.69 12.66 -1.11 125 128 121
-0.69 12.57 -1.11 126 129 122
-0.69 12.48 -1.11 129 130 124
-0.69 12.39 -1.11 131 130 125
-0.69 12.29 -1.11 129 128 123
-0.69 12.20 -1.11 130 127 122
-0.69 12.11 -1.11 133 129 126
-0.69 12.02 -1.11 132 128 125
-0.69 11.93 -1.11 131 127 124
-0.69 11.84 -1.11 131 127 124
-0.69 11.75 -1.11 131 127 126
-0.69 11.66 -1.11 132 128 127
-0.69 11.56 -1.11 132 128 127
-0.69 11.47 -1.11 132 128 127
-0.88 11.29 -0.94 130 128 129
-0.88 11.20 -0.94 129 127 128
-5.08 9.11 3.11 128 126 127
-5.08 9.03 3.11 129 127 128
-5.21 8.89 3.24 131 127 128
-5.21 8.81 3.24 131 127 128
-5.21 8.73 3.24 128 126 129
-5.21 8.65 3.24 124 122 125
-5.21 8.57 3.24 149 147 150
-5.21 8.49 3.24 159 160 164
-5.21 8.41 3.24 166 167 171
-5.21 8.32 3.24 37 41 44
-5.21 8.24 3.24 31 35 38
-5.21 8.16 3.24 26 29 34
-5.34 8.02 3.36 20 23 28
-5.34 7.94 3.36 19 22 27
-5.34 7.86 3.36 28 31 36
-5.34 7.78 3.36 18 21 26
-5.34 7.70 3.36 16 19 24
-5.34 7.62 3.36 20 23 28
-5.34 7.54 3.36 0 0 5
-5.34 7.46 3.36 14 13 19
-5.34 7.38 3.36 85 80 87
-5.47 7.24 3.49 165 155 163
-5.47 7.16 3.49 158 147 155
-5.47 7.08 3.49 145 132 141
-5.47 7.00 3.49 148 135 144
-5.47 6.92 3.49 147 136 144
-5.47 6.84 3.49 145 134 142
-5.47 6.76 3.49 144 137 144
-5.47 6.68 3.49 144 137 145
-5.47 6.60 3.49 142 139 148
-5.47 6.52 3.49 143 141 152
-5.47 6.44 3.49 143 141 152
-5.47 6.36 3.49 141 141 153
-5.47 6.28 3.49 140 140 152
-5.47 6.20 3.49 140 140 152
-5.47 6.12 3.49 141 141 153
-5.47 6.04 3.49 137 141 152
-5.47 5.96 3.49 141 145 156
-5.47 5.72 3.49 138 145 155
-5.47 5.64 3.49 138 145 155
-5.47 5.56 3.49 138 147 154
-5.47 5.48 3.49 138 147 154
-5.47 5.40 3.49 136 147 153
-5.60 5.27 3.61 138 149 155
-5.60 5.19 3.61 142 151 158
-5.60 5.11 3.61 143 152 159
-5.60 5.03 3.61 145 152 160
-5.60 4.95 3.61 145 152 160
-5.60 4.87 3.61 144 151 159
-5.60 4.79 3.61 144 151 159
-5.60 4.71 3.61 145 152 162
-5.73 4.59 3.74 142 151 160
-5.73 4.51 3.74 141 150 159
-5.73 4.43 3.74 139 149 158
-5.73 4.35 3.74 139 149 158
-5.73 4.27 3.74 139 149 158
-5.73 4.19 3.74 139 149 158
-5.73 4.11 3.74 137 150 159
-5.73 4.03 3.74 152 165 174
-5.73 3.95 3.74 153 167 178
-5.73 3.87 3.74 145 159 170
-5.73 3.79 3.74 140 157 167
-5.73 3.71 3.74 142 159 169
-5.73 3.63 3.74 137 155 165
-5.73 3.56 3.74 136 154 164
-5.73 3.48 3.74 137 155 165
-5.73 3.40 3.74 137 155 165
-5.73 3.32 3.74 138 156 168
-5.73 3.24 3.74 139 157 169
-5.73 3.16 3.74 139 157 169
-5.73 3.08 3.74 139 157 169
-5.73 3.00 3.74 139 157 169
-5.73 2.92 3.74 138 156 168
-5.73 2.84 3.74 141 157 170
-5.73 2.76 3.74 141 157 170
-5.73 2.68 3.74 144 158 167
-5.73 2.60 3.74 158 171 177
-5.60 2.56 3.61 163 173 175
-5.60 2.48 3.61 158 166 168
-5.47 2.44 3.49 165 171 171
-5.34 2.39 3.36 202 206 205
-5.21 2.35 3.24 196 200 199
-5.08 2.31 3.11 197 199 196
-4.80 2.30 2.84 199 201 198
-4.67 2.26 2.71 195 200 196
-4.67 2.18 2.71 197 202 198
-4.41 2.16 2.46 198 203 199
-4.25 2.12 2.31 195 200 196
-3.97 2.12 2.04 197 202 196
-3.68 2.11 1.76 197 202 196
-3.68 2.02 1.76 197 202 196
-3.55 1.97 1.64 197 202 196
-0.54 2.29 -1.26 195 200 196
-0.54 2.20 -1.26 207 212 208
-0.69 2.07 -1.11 138 142 141
-0.54 2.02 -1.26 160 164 163
-0.54 1.92 -1.26 158 162 161
-0.54 1.83 -1.26 160 164 163
-0.54 1.74 -1.26 161 165 164
-0.54 1.65 -1.26 158 164 162
-0.54 1.56 -1.26 159 165 163
-0.54 1.47 -1.26 161 165 164
-0.54 1.37 -1.26 161 165 164
-0.54 1.28 -1.26 162 166 165
-0.54 1.19 -1.26 162 166 165
-0.54 1.10 -1.26 162 167 163
-0.54 1.01 -1.26 162 167 163
-0.69 0.88 -1.11 161 166 162
-0.69 0.79 -1.11 161 166 162
-0.69 0.70 -1.11 161 168 161
-0.69 0.61 -1.11 161 168 161
-0.69 0.52 -1.11 160 170 162
-0.69 0.43 -1.11 160 170 162
-0.69 0.34 -1.11 160 170 162
-0.69 0.24 -1.11 160 169 164
-0.69 0.15 -1.11 160 169 164
-0.69 0.06 -1.11 160 169 166
-0.69 -0.03 -1.11 160 169 166
-0.69 -0.12 -1.11 159 168 165
-0.69 -0.21 -1.11 159 168 165
-0.69 -0.30 -1.11 159 168 165
-0.69 -0.39 -1.11 160 169 166
-0.69 -0.49 -1.11 159 168 165
-0.54 -0.55 -1.26 160 169 166
-0.54 -0.64 -1.26 160 169 166
-0.54 -0.73 -1.26 160 169 166
-0.54 -0.82 -1.26 160 169 166
-0.54 -0.92 -1.26 158 167 164
-0.54 -1.01 -1.26 157 166 163
-0.54 -1.10 -1.26 156 165 162
-0.54 -1.19 -1.26 160 170 162
-0.54 -1.28 -1.26 161 171 163
-0.54 -1.37 -1.26 162 172 164
-0.54 -1.47 -1.26 162 172 164
-0.54 -1.56 -1.26 161 171 163
-0.54 -1.65 -1.26 160 170 162
-0.54 -1.74 -1.26 160 170 162
-0.54 -1.83 -1.26 161 171 163
-0.54 -1.92 -1.26 163 170 163
-0.54 -2.02 -1.26 162 169 162
-0.69 -2.13 -1.11 162 168 164
-0.69 -2.22 -1.11 162 168 164
-0.69 -2.31 -1.11 164 169 165
-0.69 -2.40 -1.11 165 170 166
-0.69 -2.49 -1.11 164 168 167
-0.54 -2.57 -1.26 164 170 168
-0.54 -2.66 -1.26 162 171 168
-0.54 -2.75 -1.26 161 170 167
-0.54 -2.84 -1.26 161 170 167
-0.54 -2.93 -1.26 161 170 165
-0.54 -3.02 -1.26 161 170 165
-0.54 -3.12 -1.26 162 171 166
-0.54 -3.21 -1.26 163 172 167
-0.54 -3.30 -1.26 163 172 167
-0.54 -3.39 -1.26 162 171 166
-0.54 -3.48 -1.26 161 170 167
-0.54 -3.57 -1.26 161 170 167
-0.69 -3.68 -1.11 162 171 170
-0.69 -3.77 -1.11 162 171 170
-0.69 -3.86 -1.11 162 171 170
-0.69 -3.95 -1.11 162 171 170
-0.69 -4.05 -1.11 164 173 170
-0.69 -4.14 -1.11 164 173 170
-0.69 -4.23 -1.11 163 172 169
-0.54 -4.31 -1.26 163 172 169
-0.54 -4.40 -1.26 163 172 169
-0.54 -4.49 -1.26 163 172 169
-0.54 -4.58 -1.26 163 172 169
-0.54 -4.67 -1.26 163 172 169
-0.54 -4.77 -1.26 165 174 171
-0.54 -4.86 -1.26 163 174 170
-0.54 -4.95 -1.26 162 173 169
-0.54 -5.04 -1.26 161 172 168
-0.54 -5.13 -1.26 163 174 170
-0.54 -5.22 -1.26 165 176 172
-0.54 -5.32 -1.26 165 176 172
-0.54 -5.41 -1.26 165 174 171
-0.54 -5.50 -1.26 164 173 170
-0.54 -5.59 -1.26 164 173 170
-0.54 -5.68 -1.26 165 174 171
-0.54 -5.77 -1.26 165 174 171
-0.54 -5.87 -1.26 166 175 172
-0.54 -5.96 -1.26 166 175 172
-0.69 -6.05 -1.11 165 174 171
-0.69 -6.15 -1.11 166 175 172
-0.69 -6.24 -1.11 165 174 171
-0.69 -6.33 -1.11 165 174 173
-0.69 -6.42 -1.11 165 174 173
-0.69 -6.51 -1.11 166 175 174
-0.69 -6.60 -1.11 167 176 175
-0.69 -6.69 -1.11 168 177 176
-0.88 -6.79 -0.94 168 177 176
-0.88 -6.88 -0.94 167 176 173
-0.69 -6.97 -1.11 166 177 173
-0.69 -7.06 -1.11 165 176 172
-0.69 -7.15 -1.11 166 177 173
-0.69 -7.24 -1.11 167 178 174
-0.69 -7.33 -1.11 168 179 175
-0.69 -7.42 -1.11 169 180 176
-0.69 -7.51 -1.11 167 178 174
-0.69 -7.61 -1.11 168 179 175
-0.69 -7.70 -1.11 168 179 175
-0.69 -7.79 -1.11 168 179 175
-0.69 -7.88 -1.11 168 179 175
-0.69 -7.97 -1.11 167 178 174
-0.69 -8.06 -1.11 166 178 174
-0.69 -8.15 -1.11 167 178 174
-0.69 -8.25 -1.11 171 182 178
-0.69 -8.34 -1.11 172 181 178
-0.69 -8.43 -1.11 171 180 177
-0.69 -8.52 -1.11 170 179 176
-0.69 -8.61 -1.11 169 178 175
-0.69 -8.70 -1.11 170 179 176
-0.69 -8.79 -1.11 171 180 177
-0.69 -8.88 -1.11 172 181 178
-0.69 -8.98 -1.11 173 182 177
-0.69 -9.07 -1.11 172 181 176
-0.69 -9.16 -1.11 172 181 176
-0.69 -9.25 -1.11 173 182 177
-0.54 -9.35 -1.26 174 183 178
-0.54 -9.44 -1.26 176 185 180
-0.54 -9.53 -1.26 177 186 181
-0.69 -9.61 -1.11 176 185 182
-0.69 -9.71 -1.11 176 185 182
-0.69 -9.80 -1.11 178 187 184
-0.69 -9.89 -1.11 179 188 185
-0.69 -9.98 -1.11 179 188 185
-0.54 -10.08 -1.26 178 187 184
-0.54 -10.17 -1.26 176 185 182
-0.54 -10.26 -1.26 175 184 181
-0.69 -10.34 -1.11 179 188 185
-0.69 -10.44 -1.11 178 187 184
-0.69 -10.53 -1.11 178 187 186
-0.69 -10.62 -1.11 179 188 187
-0.69 -10.71 -1.11 179 188 187
-0.69 -10.80 -1.11 179 188 187
-0.69 -10.89 -1.11 180 189 188
-0.69 -10.98 -1.11 182 191 190
-0.69 -11.08 -1.11 181 190 187
-0.69 -11.17 -1.11 181 190 187
-0.69 -11.26 -1.11 182 191 188
-0.69 -11.35 -1.11 182 191 188
-0.69 -11.44 -1.11 182 191 188
-0.54 -11.55 -1.26 183 192 189
-0.54 -11.64 -1.26 184 193 190
-0.54 -11.73 -1.26 185 194 191
-0.54 -11.82 -1.26 185 194 191
-0.69 -11.90 -1.11 185 194 191
-0.69 -11.99 -1.11 185 194 191
-0.69 -12.08 -1.11 186 195 192
-0.69 -12.17 -1.11 187 196 193
-0.69 -12.26 -1.11 188 197 194
-0.69 -12.35 -1.11 191 197 195
-0.69 -12.44 -1.11 191 197 193
-0.69 -12.54 -1.11 192 197 193
-0.69 -12.63 -1.11 192 196 195
-0.69 -12.72 -1.11 191 195 194
-0.69 -12.81 -1.11 193 194 196
-0.69 -12.90 -1.11 192 193 195
-0.69 -12.99 -1.11 192 193 197
-0.69 -13.08 -1.11 191 192 196
-0.69 -13.17 -1.11 195 196 200
-0.69 -13.27 -1.11 224 225 229
-0.69 -13.36 -1.11 126 130 131
-0.69 -13.45 -1.11 68 72 71
-0.69 -13.54 -1.11 140 144 143
-0.69 -13.81 -1.11 201 205 191
-0.69 -13.91 -1.11 204 206 192
-0.54 -14.02 -1.26 173 176 159
-0.54 -14.11 -1.26 175 178 161
-0.54 -14.21 -1.26 207 208 192
-0.54 -14.30 -1.26 158 159 145
-0.54 -14.39 -1.26 236 236 224
-0.54 -14.48 -1.26 255 255 248
-0.54 -14.57 -1.26 255 255 251
-0.54 -14.66 -1.26 216 214 215
-0.54 -14.76 -1.26 174 172 175
-0.54 -14.85 -1.26 137 135 140
-0.69 -14.91 -1.11 149 148 153
-0.69 -15.00 -1.11 176 175 180
-0.69 -15.09 -1.11 171 171 173
-0.69 -15.18 -1.11 184 183 188
-0.69 -15.27 -1.11 199 200 204
-0.69 -15.37 -1.11 207 208 213
-0.69 -15.46 -1.11 207 211 214
-0.69 -15.55 -1.11 210 214 217
-0.69 -16.00 -1.11 206 210 213
-0.69 -16.10 -1.11 210 211 213
-0.69 -16.19 -1.11 210 211 213
-0.69 -16.28 -1.11 214 214 216
-0.69 -16.37 -1.11 212 212 214
-0.69 -16.46 -1.11 211 209 212
-0.88 -16.51 -0.94 207 207 209
-0.88 -16.60 -0.94 210 212 211
-0.88 -16.69 -0.94 206 210 209
-0.88 -16.78 -0.94 206 210 209
-0.88 -16.87 -0.94 209 213 212
-0.88 -16.96 -0.94 211 215 216
-0.88 -17.06 -0.94 210 214 215
-0.88 -17.15 -0.94 209 213 214
-0.88 -17.24 -0.94 208 212 213
-0.88 -17.33 -0.94 208 212 213
-0.88 -17.42 -0.94 208 212 213
-0.88 -17.51 -0.94 209 213 214
-0.88 -17.60 -0.94 208 212 213
-0.88 -17.69 -0.94 207 212 215
-0.69 -17.83 -1.11 208 213 216
-0.69 -17.92 -1.11 208 213 216
-0.69 -18.01 -1.11 209 213 214
-0.88 -18.05 -0.94 209 213 214
-0.88 -18.15 -0.94 208 212 213
-0.88 -18.24 -0.94 207 211 212
-0.88 -18.33 -0.94 206 212 212
-0.88 -18.42 -0.94 207 213 213
-0.88 -18.51 -0.94 209 215 215
-0.88 -18.60 -0.94 210 216 216
-0.88 -18.69 -0.94 209 215 215
-0.88 -18.78 -0.94 210 216 216
-0.88 -18.87 -0.94 212 216 217
-0.88 -18.96 -0.94 214 218 219
-0.88 -19.05 -0.94 217 218 220
-0.88 -19.15 -0.94 216 217 219
-0.88 -19.24 -0.94 215 216 218
-0.69 -19.38 -1.11 215 216 218
-0.69 -19.47 -1.11 215 214 219
-0.69 -19.57 -1.11 215 214 219
-0.69 -19.66 -1.11 216 215 220
-0.69 -19.75 -1.11 217 216 221
-0.69 -19.84 -1.11 217 216 221
-0.69 -19.93 -1.11 217 216 221
-0.69 -20.02 -1.11 216 215 220
-0.88 -20.05 -0.94 215 214 219
-0.88 -20.14 -0.94 214 213 218
-0.88 -20.24 -0.94 213 212 217
-0.88 -20.33 -0.94 213 212 217
-0.88 -20.42 -0.94 213 212 217
-0.88 -20.51 -0.94 213 212 217
-0.88 -20.60 -0.94 214 213 218
-0.88 -20.69 -0.94 215 214 219
-0.88 -20.78 -0.94 213 213 215
-0.88 -20.87 -0.94 211 211 213
-0.88 -20.96 -0.94 210 210 212
-0.88 -21.05 -0.94 210 210 212
-0.88 -21.14 -0.94 210 210 212
-0.88 -21.23 -0.94 210 210 212
-0.88 -21.33 -0.94 209 209 211
