ply
format ascii 1.0
element vertex 1615
property float x
property float y
property float z
property uchar red
property uchar green
property uchar blue
end_header
0.10 18.94 -1.13 131 128 123
0.10 18.85 -1.13 132 127 123
0.10 18.75 -1.13 133 126 120
0.10 18.66 -1.13 134 125 120
0.10 18.57 -1.13 133 123 121
0.10 18.48 -1.13 134 124 122
0.10 18.38 -1.13 134 126 123
0.10 18.29 -1.13 134 126 123
0.10 18.20 -1.13 131 126 123
0.10 18.11 -1.13 129 124 121
0.10 18.01 -1.13 129 125 122
0.10 17.92 -1.13 129 125 122
0.10 17.83 -1.13 130 125 122
0.10 17.74 -1.13 130 125 122
0.26 17.74 -1.28 130 125 121
0.26 17.65 -1.28 130 125 121
0.26 17.56 -1.28 130 125 122
0.26 17.46 -1.28 128 124 121
0.26 17.37 -1.28 127 123 122
0.10 17.18 -1.13 128 124 123
0.10 17.09 -1.13 130 126 125
0.10 17.00 -1.13 130 126 123
0.10 16.90 -1.13 129 125 122
0.10 16.81 -1.13 129 125 122
0.10 16.72 -1.13 130 126 123
-0.08 16.52 -0.96 133 129 126
-0.08 16.42 -0.96 132 128 125
0.10 16.44 -1.13 132 128 127
0.10 16.35 -1.13 131 127 126
-0.08 16.15 -0.96 132 126 126
-0.08 16.06 -0.96 133 127 127
-0.08 15.96 -0.96 134 128 130
0.10 15.98 -1.13 135 129 129
0.10 15.89 -1.13 134 130 127
0.10 15.79 -1.13 133 130 125
0.10 15.70 -1.13 133 130 125
0.10 15.61 -1.13 133 130 125
0.26 15.61 -1.28 133 129 126
0.26 15.51 -1.28 133 129 126
0.26 15.42 -1.28 134 130 127
0.10 15.24 -1.13 135 131 128
0.10 15.15 -1.13 134 130 127
0.10 15.05 -1.13 132 131 129
0.10 14.96 -1.13 132 131 129
0.10 14.87 -1.13 132 131 129
0.10 14.78 -1.13 133 132 130
0.10 14.68 -1.13 133 132 130
0.10 14.59 -1.13 135 131 130
0.10 14.50 -1.13 135 131 128
0.10 14.41 -1.13 135 130 127
0.10 14.31 -1.13 134 129 125
0.26 13.93 -1.28 135 130 127
0.26 13.84 -1.28 134 129 126
0.26 13.75 -1.28 134 129 126
0.26 13.66 -1.28 133 127 127
0.26 13.56 -1.28 133 127 129
0.26 13.47 -1.28 133 127 129
0.26 13.38 -1.28 134 128 132
0.26 13.28 -1.28 135 129 133
0.26 13.19 -1.28 135 131 130
0.26 13.10 -1.28 134 130 129
0.26 13.01 -1.28 134 130 129
0.26 12.91 -1.28 133 129 128
0.26 12.82 -1.28 132 128 125
0.26 12.73 -1.28 132 128 125
0.26 12.63 -1.28 132 128 125
0.26 12.54 -1.28 132 128 125
0.10 12.37 -1.13 134 131 126
0.10 12.28 -1.13 133 130 125
0.10 12.19 -1.13 136 133 126
0.10 12.09 -1.13 135 132 125
0.10 12.00 -1.13 131 128 121
-0.08 11.82 -0.96 132 129 122
-0.08 11.73 -0.96 134 131 124
0.10 11.72 -1.13 130 127 120
-5.10 8.99 3.78 134 129 126
-5.10 8.91 3.78 133 127 127
-5.10 8.83 3.78 134 130 129
-5.23 8.69 3.90 132 128 129
-5.23 8.61 3.90 126 124 125
-5.23 8.53 3.90 147 147 145
-5.23 8.45 3.90 153 153 151
-5.23 8.37 3.90 185 187 186
-5.23 8.29 3.90 4 5 7
-5.23 8.21 3.90 31 32 34
-5.23 8.13 3.90 48 49 54
-5.23 8.05 3.90 0 0 7
-5.23 7.97 3.90 79 79 89
-5.23 7.89 3.90 170 167 174
-5.23 7.81 3.90 130 125 132
-5.23 7.73 3.90 148 142 152
-5.23 7.65 3.90 144 138 148
-5.23 7.57 3.90 136 130 140
-5.23 7.49 3.90 127 121 131
-5.36 7.35 4.03 132 126 138
-5.36 7.27 4.03 128 122 134
-5.36 7.19 4.03 133 127 137
-5.36 7.11 4.03 131 125 135
-5.36 7.03 4.03 129 126 135
-5.36 6.95 4.03 133 130 139
-5.36 6.87 4.03 137 136 142
-5.36 6.79 4.03 139 138 144
-5.36 6.71 4.03 139 140 145
-5.36 6.63 4.03 141 140 146
-5.36 6.55 4.03 144 139 146
-5.36 6.47 4.03 142 139 148
-5.36 6.39 4.03 142 139 148
-5.36 6.31 4.03 141 138 147
-5.50 6.18 4.15 141 138 147
-5.50 6.10 4.15 138 138 148
-5.50 6.02 4.15 138 138 148
-5.50 5.94 4.15 138 141 150
-5.50 5.86 4.15 141 144 153
-5.50 5.78 4.15 140 147 157
-5.50 5.70 4.15 140 147 157
-5.50 5.62 4.15 136 146 155
-5.50 5.54 4.15 135 145 154
-5.50 5.46 4.15 133 146 155
-5.50 5.38 4.15 134 147 156
-5.50 5.30 4.15 133 146 155
-5.50 5.23 4.15 132 145 154
-5.63 5.10 4.27 132 146 155
-5.63 5.02 4.27 132 146 155
-5.63 4.94 4.27 129 146 153
-5.63 4.86 4.27 134 151 158
-5.63 4.78 4.27 142 157 164
-5.63 4.70 4.27 141 154 162
-5.63 4.62 4.27 155 166 172
-5.63 4.54 4.27 155 162 170
-5.63 4.46 4.27 158 165 173
-5.63 4.39 4.27 137 146 153
-5.63 4.31 4.27 134 143 150
-5.63 4.23 4.27 139 150 156
-5.63 4.15 4.27 137 148 154
-5.63 4.07 4.27 141 152 158
-5.63 3.99 4.27 134 145 151
-5.63 3.91 4.27 139 149 158
-5.63 3.83 4.27 132 142 151
-5.63 3.75 4.27 137 150 159
-5.63 3.67 4.27 128 141 150
-5.63 3.59 4.27 132 146 157
-5.63 3.51 4.27 129 143 154
-5.63 3.43 4.27 137 151 162
-5.63 3.36 4.27 139 153 164
-5.63 3.28 4.27 139 156 166
-5.63 3.20 4.27 139 156 166
-5.76 3.08 4.40 139 157 167
-5.76 3.00 4.40 141 159 169
-5.76 2.92 4.40 141 159 169
-5.76 2.84 4.40 140 158 168
-5.76 2.76 4.40 140 160 169
-5.76 2.68 4.40 143 161 171
-5.76 2.60 4.40 140 159 165
-5.63 2.56 4.27 167 181 184
-5.63 2.48 4.27 161 171 172
-5.63 2.40 4.27 157 166 165
-5.50 2.36 4.15 197 201 200
-5.36 2.32 4.03 201 206 200
-5.10 2.31 3.78 194 196 191
-4.97 2.27 3.66 204 206 201
-4.55 2.30 3.26 196 198 193
-4.00 2.37 2.74 163 168 164
-4.00 2.29 2.74 164 169 165
-3.87 2.24 2.62 176 180 179
-3.87 2.16 2.62 198 200 199
-3.72 2.12 2.47 199 201 198
-3.59 2.07 2.35 200 200 198
-3.59 1.98 2.35 199 201 198
-3.59 1.90 2.35 199 201 198
-3.59 1.81 2.35 197 202 198
-3.43 1.77 2.20 198 203 199
0.44 2.46 -1.45 215 221 217
0.44 2.37 -1.45 148 154 150
0.26 2.23 -1.28 151 158 151
0.26 2.14 -1.28 156 163 156
0.26 2.05 -1.28 156 163 156
0.26 1.96 -1.28 157 162 156
0.26 1.86 -1.28 156 161 157
0.26 1.77 -1.28 157 162 158
0.26 1.68 -1.28 158 162 161
0.26 1.58 -1.28 159 163 162
0.26 1.49 -1.28 160 164 163
0.26 1.40 -1.28 160 164 163
0.26 1.31 -1.28 161 165 164
0.26 1.21 -1.28 161 166 162
0.26 1.12 -1.28 161 166 162
0.26 1.03 -1.28 161 166 162
0.26 0.93 -1.28 160 165 161
0.26 0.84 -1.28 160 165 161
0.10 0.72 -1.13 159 164 160
0.10 0.62 -1.13 159 164 160
0.10 0.53 -1.13 160 165 161
0.10 0.44 -1.13 161 166 160
0.10 0.35 -1.13 161 166 162
0.10 0.25 -1.13 159 168 163
0.10 0.16 -1.13 159 168 165
0.10 0.07 -1.13 159 168 165
0.10 -0.02 -1.13 158 167 164
0.10 -0.12 -1.13 157 166 163
0.10 -0.21 -1.13 156 165 162
0.10 -0.30 -1.13 156 165 162
0.10 -0.39 -1.13 158 167 162
0.10 -0.49 -1.13 158 167 162
0.10 -0.58 -1.13 159 168 163
0.10 -0.67 -1.13 159 168 163
0.10 -0.76 -1.13 159 168 163
0.10 -0.86 -1.13 159 168 163
0.10 -0.95 -1.13 159 168 163
0.10 -1.04 -1.13 159 168 163
0.26 -1.11 -1.28 157 168 164
0.26 -1.20 -1.28 157 168 164
0.26 -1.29 -1.28 157 168 164
0.26 -1.39 -1.28 158 169 165
0.26 -1.48 -1.28 158 169 165
0.26 -1.57 -1.28 159 170 166
0.10 -1.69 -1.13 160 169 166
0.10 -1.78 -1.13 160 169 166
0.10 -1.87 -1.13 160 169 164
0.10 -1.97 -1.13 160 169 164
0.10 -2.06 -1.13 160 169 164
0.10 -2.15 -1.13 160 169 164
0.10 -2.24 -1.13 160 169 164
0.10 -2.34 -1.13 160 169 164
0.10 -2.43 -1.13 163 172 167
0.10 -2.52 -1.13 162 173 169
0.26 -2.60 -1.28 161 172 168
0.26 -2.69 -1.28 160 171 167
0.26 -2.78 -1.28 160 171 167
0.26 -2.87 -1.28 160 171 167
0.10 -2.98 -1.13 161 172 168
0.10 -3.08 -1.13 163 172 169
0.10 -3.17 -1.13 164 173 170
0.10 -3.26 -1.13 163 172 169
0.10 -3.35 -1.13 163 172 169
0.10 -3.45 -1.13 164 173 170
0.10 -3.54 -1.13 164 173 170
0.10 -3.63 -1.13 164 173 170
0.10 -3.72 -1.13 164 173 170
0.10 -3.82 -1.13 164 173 170
0.10 -3.91 -1.13 164 173 170
0.10 -4.00 -1.13 163 172 169
0.10 -4.09 -1.13 163 172 169
0.10 -4.19 -1.13 164 173 170
0.26 -4.27 -1.28 164 173 170
0.26 -4.36 -1.28 165 174 171
0.26 -4.45 -1.28 166 175 172
0.26 -4.55 -1.28 166 175 172
0.26 -4.64 -1.28 164 173 170
0.26 -4.73 -1.28 164 173 170
0.26 -4.82 -1.28 165 174 171
0.26 -4.92 -1.28 165 174 171
0.26 -5.01 -1.28 165 174 171
0.26 -5.10 -1.28 165 174 171
0.26 -5.20 -1.28 165 174 171
0.26 -5.29 -1.28 165 174 171
0.26 -5.38 -1.28 166 177 171
0.10 -5.48 -1.13 165 176 170
0.10 -5.57 -1.13 164 175 169
0.10 -5.67 -1.13 163 174 168
0.10 -5.76 -1.13 163 174 168
0.10 -5.85 -1.13 162 173 167
0.10 -5.94 -1.13 162 173 169
0.10 -6.04 -1.13 161 172 168
0.10 -6.13 -1.13 161 172 168
0.10 -6.22 -1.13 162 173 169
0.10 -6.31 -1.13 163 174 170
0.10 -6.41 -1.13 163 174 170
0.10 -6.50 -1.13 163 174 170
0.10 -6.59 -1.13 164 175 171
0.10 -6.68 -1.13 165 175 174
-0.08 -6.78 -0.96 166 176 175
-0.08 -6.87 -0.96 166 177 171
0.10 -6.96 -1.13 167 178 172
0.26 -7.05 -1.28 168 179 173
0.26 -7.15 -1.28 169 180 176
0.26 -7.24 -1.28 169 180 176
0.10 -7.33 -1.13 168 179 175
0.10 -7.42 -1.13 168 179 175
0.10 -7.52 -1.13 169 179 178
-0.08 -7.61 -0.96 169 179 178
0.10 -7.70 -1.13 168 178 177
0.10 -7.79 -1.13 168 178 177
0.10 -7.89 -1.13 167 177 176
0.10 -7.98 -1.13 166 176 175
0.10 -8.07 -1.13 166 176 177
0.10 -8.16 -1.13 166 176 177
0.10 -8.26 -1.13 171 181 183
0.10 -8.35 -1.13 170 180 182
-0.08 -8.44 -0.96 170 180 181
-0.08 -8.53 -0.96 169 179 180
-0.08 -8.62 -0.96 169 179 180
0.10 -8.72 -1.13 170 180 181
0.10 -8.81 -1.13 171 181 180
0.10 -8.90 -1.13 172 182 181
0.10 -9.00 -1.13 174 185 181
0.10 -9.09 -1.13 175 186 182
0.10 -9.18 -1.13 175 186 182
0.26 -9.47 -1.28 174 185 179
0.26 -9.56 -1.28 174 185 179
0.26 -9.65 -1.28 177 186 183
0.26 -9.75 -1.28 177 186 183
0.26 -9.84 -1.28 177 186 183
0.10 -9.92 -1.13 177 186 183
0.10 -10.01 -1.13 177 186 183
0.10 -10.11 -1.13 178 187 184
0.10 -10.20 -1.13 178 187 184
0.10 -10.29 -1.13 179 188 185
-0.08 -10.37 -0.96 180 189 186
-0.08 -10.46 -0.96 180 189 186
-0.08 -10.55 -0.96 181 190 187
-0.08 -10.65 -0.96 181 190 187
-0.08 -10.74 -0.96 181 190 187
-0.08 -10.83 -0.96 181 190 187
-0.08 -10.92 -0.96 181 190 187
-0.08 -11.01 -0.96 181 190 187
-0.08 -11.11 -0.96 182 191 188
0.10 -11.22 -1.13 183 192 189
0.10 -11.31 -1.13 185 194 191
0.10 -11.40 -1.13 185 194 191
0.10 -11.49 -1.13 186 195 192
0.26 -11.60 -1.28 186 195 192
0.10 -11.68 -1.13 187 196 193
0.10 -11.77 -1.13 185 194 189
0.10 -11.86 -1.13 187 196 191
0.10 -11.96 -1.13 188 197 192
0.10 -12.05 -1.13 189 198 193
0.10 -12.14 -1.13 188 197 192
0.10 -12.23 -1.13 189 198 193
0.10 -12.33 -1.13 189 198 193
0.10 -12.42 -1.13 190 199 194
0.10 -12.51 -1.13 191 200 195
0.10 -12.60 -1.13 191 200 195
0.10 -12.70 -1.13 191 200 197
-0.08 -12.76 -0.96 191 200 197
-0.08 -12.86 -0.96 191 200 197
0.10 -12.97 -1.13 192 201 198
0.10 -13.07 -1.13 192 201 200
0.10 -13.16 -1.13 192 201 200
0.10 -13.25 -1.13 194 203 202
0.10 -13.34 -1.13 194 203 202
0.10 -13.44 -1.13 195 204 203
0.10 -13.53 -1.13 196 205 204
0.10 -13.62 -1.13 196 205 204
0.10 -13.71 -1.13 196 205 204
0.10 -13.81 -1.13 196 205 204
-0.08 -13.87 -0.96 200 209 208
-0.08 -13.96 -0.96 198 207 206
0.10 -14.08 -1.13 195 204 203
0.10 -14.18 -1.13 196 205 204
0.10 -14.27 -1.13 198 207 204
0.10 -14.36 -1.13 200 209 206
0.10 -14.45 -1.13 200 209 206
0.10 -14.55 -1.13 199 208 205
0.10 -14.64 -1.13 200 209 206
0.10 -14.73 -1.13 201 210 207
0.10 -14.82 -1.13 202 211 208
0.10 -14.92 -1.13 203 212 209
-0.08 -14.97 -0.96 204 213 212
-0.08 -15.07 -0.96 204 213 212
-0.08 -15.16 -0.96 204 212 214
-0.08 -15.25 -0.96 204 213 212
-0.08 -15.34 -0.96 207 213 211
0.10 -15.47 -1.13 207 213 209
0.10 -15.56 -1.13 207 213 209
0.10 -15.66 -1.13 207 213 209
0.10 -15.75 -1.13 209 215 211
0.10 -15.84 -1.13 208 214 212
0.10 -15.93 -1.13 208 214 212
-0.08 -15.99 -0.96 208 214 212
-0.08 -16.08 -0.96 209 215 213
-0.08 -16.17 -0.96 209 215 213
-0.08 -16.26 -0.96 210 216 214
-0.08 -16.36 -0.96 211 217 215
-0.08 -16.45 -0.96 211 217 215
-0.08 -16.54 -0.96 211 217 215
-0.08 -16.63 -0.96 210 216 214
-0.08 -16.72 -0.96 214 218 219
-0.08 -16.82 -0.96 214 218 219
-0.08 -16.91 -0.96 215 219 220
-0.08 -17.00 -0.96 215 219 220
-0.08 -17.09 -0.96 213 217 218
-0.08 -17.18 -0.96 212 216 217
-0.08 -17.28 -0.96 212 216 217
-0.08 -17.37 -0.96 212 216 217
-0.08 -17.46 -0.96 211 215 216
-0.08 -17.55 -0.96 212 216 217
-0.08 -17.64 -0.96 213 217 218
0.10 -17.78 -1.13 214 218 219
0.10 -17.88 -1.13 214 218 219
0.10 -17.97 -1.13 215 219 220
-0.08 -18.01 -0.96 217 218 220
-0.08 -18.10 -0.96 216 216 216
-0.08 -18.20 -0.96 219 217 218
-0.08 -18.29 -0.96 220 220 220
-0.08 -18.38 -0.96 222 222 222
-0.08 -18.47 -0.96 222 222 222
-0.08 -18.57 -0.96 222 222 222
-0.08 -18.66 -0.96 220 222 221
-0.08 -18.75 -0.96 219 221 220
-0.08 -18.84 -0.96 219 223 224
-0.08 -18.93 -0.96 220 224 225
-0.08 -19.03 -0.96 219 223 226
-0.08 -19.12 -0.96 217 221 224
-0.08 -19.21 -0.96 215 220 224
-0.08 -19.30 -0.96 217 222 226
-0.08 -19.39 -0.96 217 222 228
-0.08 -19.49 -0.96 216 221 227
-0.08 -19.58 -0.96 216 220 223
-0.08 -19.67 -0.96 217 221 224
-0.08 -19.76 -0.96 219 223 226
-0.08 -19.85 -0.96 220 224 227
0.10 -20.00 -1.13 222 223 227
-0.08 -20.04 -0.96 222 223 227
-0.08 -20.13 -0.96 221 220 225
-0.08 -20.22 -0.96 222 221 226
-0.08 -20.31 -0.96 222 221 226
0.10 -20.47 -1.13 223 222 227
0.10 -20.56 -1.13 223 222 227
0.10 -20.65 -1.13 222 223 227
0.10 -20.74 -1.13 223 224 228
-0.08 -20.78 -0.96 223 224 228
-0.08 -20.87 -0.96 223 224 228
-0.08 -20.96 -0.96 224 224 226
-0.08 -21.05 -0.96 224 224 226
-0.08 -21.14 -0.96 223 223 225
-0.08 -21.24 -0.96 222 222 224
-0.08 -21.33 -0.96 221 221 223
-0.08 -21.42 -0.96 221 221 223
-0.08 -21.51 -0.96 222 222 224
-0.08 -21.60 -0.96 222 222 224
-0.08 -21.70 -0.96 223 223 225
-0.08 -21.79 -0.96 223 223 225
-0.08 -21.88 -0.96 223 223 225
-0.08 -21.97 -0.96 223 223 225
-0.08 -22.06 -0.96 223 223 225
-0.08 -22.16 -0.96 224 224 226
-0.08 -22.25 -0.96 224 224 226
-0.08 -22.34 -0.96 225 225 227
-0.08 -22.43 -0.96 225 225 227
-0.08 -22.52 -0.96 224 224 226
-0.08 -22.62 -0.96 224 224 226
-0.08 -22.71 -0.96 223 223 225
0.10 -22.87 -1.13 223 223 225
0.10 -22.96 -1.13 223 223 223
0.10 -23.06 -1.13 223 223 223
0.10 -23.15 -1.13 222 222 222
0.10 -23.24 -1.13 222 222 222
0.10 -23.33 -1.13 223 223 223
0.10 -23.43 -1.13 223 223 223
0.10 -23.52 -1.13 222 222 222
0.10 -23.61 -1.13 222 222 222
-0.08 -23.63 -0.96 222 222 220
-0.08 -23.72 -0.96 223 223 223
0.10 -23.89 -1.13 221 221 221
0.10 -23.98 -1.13 221 221 223
0.10 -24.07 -1.13 222 222 224
-0.08 -24.09 -0.96 222 222 224
-0.08 -24.18 -0.96 222 222 224
-0.08 -24.27 -0.96 222 222 224
-0.08 -24.37 -0.96 221 221 221
-0.08 -24.46 -0.96 221 221 221
-0.08 -24.55 -0.96 221 221 221
-0.08 -24.64 -0.96 220 220 218
-0.08 -24.73 -0.96 220 220 218
-0.08 -24.83 -0.96 221 221 219
-0.08 -24.92 -0.96 221 221 219
-0.08 -25.01 -0.96 221 221 219
-0.08 -25.10 -0.96 221 221 219
-0.08 -25.19 -0.96 220 220 220
-0.08 -25.29 -0.96 219 219 219
-0.08 -25.38 -0.96 219 219 219
-0.08 -25.47 -0.96 219 219 219
-0.08 -25.56 -0.96 219 219 221
-0.08 -25.66 -0.96 218 218 220
-0.08 -25.75 -0.96 218 218 220
0.10 -25.92 -1.13 217 217 219
-0.08 -25.93 -0.96 216 216 218
-0.08 -26.02 -0.96 216 216 218
-0.08 -26.12 -0.96 217 217 219
-0.08 -26.21 -0.96 217 217 219
-0.08 -26.30 -0.96 217 216 221
-0.08 -26.39 -0.96 215 214 219
-0.08 -26.48 -0.96 214 213 218
-0.08 -26.58 -0.96 213 212 217
-0.08 -26.67 -0.96 213 213 213
-0.08 -26.76 -0.96 213 213 213
-0.08 -26.85 -0.96 211 211 211
-0.08 -26.94 -0.96 210 210 210
-0.08 -27.04 -0.96 210 210 210
-0.08 -27.13 -0.96 208 208 208
-0.08 -27.22 -0.96 206 206 206
-0.08 -27.31 -0.96 203 203 205
-0.08 -27.40 -0.96 200 200 202
-0.08 -27.50 -0.96 200 198 203
-0.08 -27.59 -0.96 197 195 200
-0.08 -27.68 -0.96 192 189 196
-0.08 -27.77 -0.96 192 189 196
-0.08 -27.87 -0.96 190 187 196
-0.08 -27.96 -0.96 184 181 190
-0.08 -28.05 -0.96 183 182 188
-0.08 -28.14 -0.96 182 181 187
-0.08 -28.23 -0.96 180 179 184
-0.08 -28.33 -0.96 178 177 182
-0.08 -28.42 -0.96 176 176 178
-0.08 -28.51 -0.96 174 174 176
-0.08 -28.60 -0.96 173 173 175
-0.08 -28.69 -0.96 173 173 175
-0.08 -28.79 -0.96 172 170 171
-0.08 -28.88 -0.96 171 169 170
-0.08 -28.97 -0.96 170 165 169
-0.08 -29.06 -0.96 172 166 170
-0.08 -29.15 -0.96 173 167 171
-0.08 -29.25 -0.96 172 162 170
-0.08 -29.34 -0.96 169 159 167
-0.08 -29.43 -0.96 172 162 170
-0.08 -29.52 -0.96 173 163 171
-0.08 -29.61 -0.96 173 163 171
-0.08 -29.71 -0.96 174 164 172
-0.08 -29.80 -0.96 174 165 170
-0.08 -29.89 -0.96 175 166 171
-0.08 -29.98 -0.96 175 166 171
-0.08 -30.07 -0.96 175 166 171
-0.08 -30.17 -0.96 176 167 172
-0.08 -30.26 -0.96 175 166 171
-0.08 -30.35 -0.96 176 167 172
-0.08 -30.44 -0.96 177 168 173
-0.08 -30.54 -0.96 179 170 173
-0.08 -30.63 -0.96 180 171 174
-0.08 -30.72 -0.96 180 171 174
-0.08 -30.81 -0.96 180 171 174
0.10 -31.01 -1.13 181 172 175
0.10 -31.10 -1.13 179 168 172
0.10 -31.20 -1.13 186 175 179
-0.08 -31.18 -0.96 81 66 71
-0.08 -31.27 -0.96 100 83 89
-0.08 -31.36 -0.96 104 89 94
-0.08 -31.46 -0.96 109 94 99
0.06 22.55 -1.21 0 0 0
0.06 22.45 -1.21 0 0 0
0.06 22.36 -1.21 0 0 0
0.06 22.27 -1.21 0 0 0
0.06 22.18 -1.21 0 0 0
0.06 22.08 -1.21 0 0 0
0.21 22.11 -1.36 0 0 0
0.21 22.01 -1.36 0 0 0
0.21 21.92 -1.36 0 0 0
0.21 21.83 -1.36 125 121 110
0.06 21.62 -1.21 125 121 110
0.06 21.53 -1.21 125 121 110
0.06 21.44 -1.21 125 121 110
0.06 21.34 -1.21 125 121 110
0.06 21.25 -1.21 126 119 111
0.06 21.16 -1.21 126 119 111
0.06 21.07 -1.21 130 121 114
0.06 20.97 -1.21 131 122 115
0.06 20.88 -1.21 129 120 115
0.06 20.79 -1.21 129 120 115
0.06 20.70 -1.21 129 119 117
0.06 20.60 -1.21 131 121 119
0.06 20.51 -1.21 132 122 120
0.06 20.42 -1.21 132 122 120
0.06 20.33 -1.21 132 122 121
0.06 20.23 -1.21 131 121 120
0.06 20.14 -1.21 133 126 120
0.06 20.05 -1.21 132 125 119
0.06 19.96 -1.21 131 124 118
0.06 19.86 -1.21 131 123 120
0.06 19.77 -1.21 132 124 121
0.06 19.68 -1.21 130 125 122
0.06 19.59 -1.21 129 124 121
0.06 19.49 -1.21 124 119 116
0.06 19.40 -1.21 127 122 119
0.06 19.31 -1.21 130 125 122
0.06 19.22 -1.21 132 127 124
0.06 19.12 -1.21 131 126 123
0.06 19.03 -1.21 130 125 122
0.06 18.94 -1.21 131 126 122
0.06 18.85 -1.21 134 126 123
0.06 18.75 -1.21 133 126 120
0.06 18.66 -1.21 134 125 120
0.06 18.57 -1.21 134 124 122
0.06 18.48 -1.21 135 125 123
0.06 18.38 -1.21 135 127 125
0.06 18.29 -1.21 134 126 124
0.06 18.20 -1.21 131 126 123
0.06 18.11 -1.21 130 125 122
0.06 18.01 -1.21 130 126 123
0.06 17.92 -1.21 130 126 123
0.06 17.83 -1.21 130 126 123
0.06 17.74 -1.21 131 127 124
0.06 17.64 -1.21 132 127 123
0.06 17.55 -1.21 132 127 123
0.06 17.46 -1.21 132 127 124
0.06 17.37 -1.21 132 128 127
0.06 17.27 -1.21 131 127 128
0.06 17.18 -1.21 131 127 126
0.06 17.09 -1.21 131 127 126
-0.13 16.88 -1.04 131 127 126
-0.13 16.79 -1.04 129 125 124
-0.13 16.70 -1.04 129 125 122
-0.13 16.61 -1.04 130 126 123
-0.13 16.52 -1.04 131 127 124
-0.13 16.42 -1.04 131 127 124
-0.13 16.33 -1.04 131 127 126
-0.13 16.24 -1.04 131 127 126
-0.13 16.15 -1.04 131 127 128
-0.13 16.06 -1.04 133 129 130
-0.13 15.96 -1.04 134 130 131
-0.13 15.87 -1.04 135 131 132
-0.13 15.78 -1.04 135 131 128
-0.13 15.69 -1.04 135 131 128
-0.13 15.60 -1.04 134 130 127
0.06 15.61 -1.21 133 129 126
0.06 15.52 -1.21 133 129 126
0.06 15.42 -1.21 134 130 127
0.06 15.33 -1.21 135 131 128
0.06 15.24 -1.21 135 131 128
0.06 15.15 -1.21 135 131 128
-0.13 14.95 -1.04 132 131 127
-0.13 14.86 -1.04 132 131 127
-0.13 14.77 -1.04 133 132 128
0.06 14.78 -1.21 133 132 128
0.06 14.68 -1.21 132 131 127
0.06 14.59 -1.21 132 131 127
0.06 14.50 -1.21 135 131 128
0.06 14.41 -1.21 135 131 128
0.06 14.31 -1.21 134 131 126
0.06 14.22 -1.21 134 131 126
0.21 14.21 -1.36 134 131 126
0.21 14.12 -1.36 134 131 126
0.21 14.03 -1.36 134 131 126
0.06 13.85 -1.21 135 132 127
0.06 13.76 -1.21 134 131 126
0.06 13.67 -1.21 133 130 125
0.06 13.57 -1.21 133 129 126
0.06 13.48 -1.21 133 129 126
0.06 13.39 -1.21 133 129 128
0.06 13.30 -1.21 133 129 128
0.06 13.20 -1.21 133 129 130
0.06 13.11 -1.21 135 131 130
0.06 13.02 -1.21 135 131 130
0.06 12.93 -1.21 135 131 128
0.06 12.83 -1.21 134 130 127
0.06 12.74 -1.21 133 129 126
0.06 12.65 -1.21 133 129 126
0.06 12.56 -1.21 134 131 126
0.06 12.46 -1.21 135 132 127
-0.13 12.28 -1.04 134 131 126
-0.13 12.19 -1.04 134 131 126
-0.13 12.10 -1.04 136 133 128
-0.13 12.00 -1.04 136 133 128
-0.13 11.91 -1.04 132 129 124
-0.13 11.82 -1.04 134 131 126
-0.13 11.73 -1.04 135 131 128
-0.13 11.64 -1.04 131 127 124
-5.14 8.99 3.71 133 128 125
-5.14 8.91 3.71 132 126 126
-5.14 8.83 3.71 133 129 130
-5.14 8.75 3.71 130 126 127
-5.27 8.61 3.84 125 123 124
-5.27 8.53 3.84 142 142 140
-5.27 8.45 3.84 156 156 154
-5.14 8.43 3.71 188 190 189
-5.14 8.35 3.71 38 39 41
-5.14 8.27 3.71 26 30 31
-5.27 7.81 3.84 147 146 152
-5.27 7.73 3.84 133 130 137
-5.27 7.65 3.84 129 126 133
-5.27 7.57 3.84 128 125 134
-5.27 7.49 3.84 126 123 132
-5.27 7.41 3.84 134 128 138
-5.27 7.32 3.84 132 126 136
-5.27 7.24 3.84 129 123 133
-5.40 7.11 3.96 128 122 132
-5.40 7.03 3.96 129 124 131
-5.40 6.95 3.96 135 130 137
-5.40 6.87 3.96 141 136 142
-5.40 6.79 3.96 143 138 144
-5.40 6.71 3.96 142 140 145
-5.40 6.63 3.96 142 139 146
-5.40 6.55 3.96 144 138 148
-5.40 6.47 3.96 142 139 148
-5.40 6.39 3.96 142 139 148
-5.40 6.31 3.96 141 140 148
-5.40 6.23 3.96 141 140 148
-5.40 6.15 3.96 141 141 151
-5.40 6.07 3.96 141 141 151
-5.54 5.94 4.08 136 140 151
-5.54 5.86 4.08 141 145 156
-5.54 5.78 4.08 142 148 160
-5.54 5.70 4.08 141 147 159
-5.54 5.62 4.08 137 145 156
-5.54 5.54 4.08 137 145 156
-5.54 5.46 4.08 137 147 157
-5.54 5.38 4.08 138 148 158
-5.54 5.30 4.08 138 148 158
-5.54 5.23 4.08 133 143 153
-5.54 5.15 4.08 133 147 156
-5.54 5.07 4.08 138 152 161
-5.54 4.99 4.08 134 151 158
-5.54 4.91 4.08 134 149 156
-5.54 4.83 4.08 135 150 155
-5.67 4.70 4.21 138 149 155
-5.67 4.62 4.21 147 158 164
-5.67 4.54 4.21 141 148 156
-5.67 4.46 4.21 154 158 167
-5.67 4.39 4.21 141 148 156
-5.67 4.31 4.21 142 149 157
-5.67 4.23 4.21 137 147 156
-5.67 4.15 4.21 141 151 160
-5.67 4.07 4.21 138 149 155
-5.67 3.99 4.21 142 153 159
-5.67 3.91 4.21 143 156 164
-5.67 3.83 4.21 133 146 154
-5.67 3.75 4.21 138 151 159
-5.67 3.67 4.21 131 144 152
-5.67 3.59 4.21 133 147 156
-5.67 3.51 4.21 137 151 160
-5.67 3.43 4.21 139 153 162
-5.67 3.36 4.21 140 154 163
-5.67 3.28 4.21 139 156 166
-5.67 3.20 4.21 140 157 167
-5.67 3.12 4.21 141 158 168
-5.67 3.04 4.21 141 158 168
-5.80 2.92 4.33 141 159 169
-5.80 2.84 4.33 141 159 169
-5.80 2.76 4.33 140 158 168
-5.80 2.68 4.33 141 159 169
-5.67 2.64 4.21 139 156 163
-5.67 2.56 4.21 166 180 183
-5.67 2.48 4.21 164 174 175
-5.67 2.40 4.21 158 167 166
-5.54 2.36 4.08 187 193 191
-5.40 2.32 3.96 203 208 204
-5.14 2.31 3.71 193 198 194
-3.92 2.24 2.55 185 189 188
-3.92 2.16 2.55 202 204 203
-3.63 2.15 2.28 199 201 196
-3.63 2.07 2.28 200 201 196
-3.63 1.98 2.28 199 201 196
-3.63 1.90 2.28 198 200 195
0.40 2.46 -1.53 212 218 214
0.21 2.33 -1.36 162 168 164
0.06 2.20 -1.21 148 153 149
0.06 2.10 -1.21 158 163 159
0.21 2.05 -1.36 159 164 160
0.21 1.96 -1.36 158 163 157
0.21 1.86 -1.36 158 163 159
0.06 1.73 -1.21 159 164 160
0.06 1.64 -1.21 159 163 162
0.06 1.55 -1.21 159 163 162
0.06 1.46 -1.21 159 163 162
0.06 1.36 -1.21 159 163 162
0.06 1.27 -1.21 159 163 162
0.06 1.18 -1.21 159 164 160
0.06 1.09 -1.21 159 164 160
0.06 0.99 -1.21 161 166 162
0.06 0.90 -1.21 161 166 162
0.06 0.81 -1.21 160 165 161
0.06 0.72 -1.21 160 165 161
0.06 0.62 -1.21 160 165 161
0.06 0.53 -1.21 160 165 161
0.06 0.44 -1.21 161 166 160
-0.13 0.31 -1.04 160 166 162
-0.13 0.22 -1.04 158 167 162
-0.13 0.13 -1.04 157 168 164
-0.13 0.03 -1.04 157 168 164
-0.13 -0.06 -1.04 157 168 164
-0.13 -0.15 -1.04 156 167 163
-0.13 -0.24 -1.04 156 167 163
-0.13 -0.33 -1.04 155 166 162
0.06 -0.39 -1.21 156 167 161
0.06 -0.49 -1.21 157 168 162
0.06 -0.58 -1.21 158 169 163
0.06 -0.67 -1.21 158 169 163
0.06 -0.76 -1.21 158 169 163
0.06 -0.86 -1.21 158 169 163
0.06 -0.95 -1.21 158 169 163
0.06 -1.04 -1.21 158 169 163
0.06 -1.13 -1.21 157 168 164
0.06 -1.23 -1.21 157 168 164
0.06 -1.32 -1.21 157 168 164
0.06 -1.41 -1.21 158 169 165
0.06 -1.50 -1.21 158 169 165
0.06 -1.60 -1.21 159 170 166
0.06 -1.69 -1.21 160 169 166
0.06 -1.78 -1.21 161 170 167
0.06 -1.87 -1.21 162 171 166
0.06 -1.97 -1.21 161 170 165
0.06 -2.06 -1.21 161 170 165
0.06 -2.15 -1.21 160 169 164
0.06 -2.24 -1.21 160 169 164
0.06 -2.34 -1.21 160 169 164
-0.13 -2.45 -1.04 163 172 167
-0.13 -2.54 -1.04 161 172 168
0.06 -2.61 -1.21 160 171 167
0.21 -2.69 -1.36 159 170 166
0.21 -2.78 -1.36 159 170 166
0.06 -2.89 -1.21 159 170 166
0.06 -2.98 -1.21 160 171 167
0.06 -3.08 -1.21 163 172 169
-0.13 -3.19 -1.04 164 173 170
-0.13 -3.28 -1.04 163 172 167
-0.13 -3.37 -1.04 163 172 167
-0.13 -3.46 -1.04 163 172 167
-0.13 -3.56 -1.04 163 172 167
-0.13 -3.65 -1.04 163 172 167
-0.13 -3.74 -1.04 163 172 167
-0.13 -3.83 -1.04 163 172 167
-0.13 -3.92 -1.04 163 172 169
-0.13 -4.02 -1.04 164 173 170
0.06 -4.09 -1.21 164 173 172
0.06 -4.19 -1.21 164 173 172
0.06 -4.28 -1.21 165 174 173
0.06 -4.37 -1.21 166 175 174
0.06 -4.46 -1.21 166 175 174
0.06 -4.56 -1.21 166 175 174
0.06 -4.65 -1.21 164 173 172
0.06 -4.74 -1.21 164 173 172
0.21 -4.82 -1.36 164 173 172
0.21 -4.92 -1.36 165 174 173
0.21 -5.01 -1.36 165 174 173
0.06 -5.11 -1.21 165 174 173
0.06 -5.20 -1.21 165 174 173
0.06 -5.30 -1.21 165 174 173
0.06 -5.39 -1.21 166 177 171
0.06 -5.48 -1.21 165 176 170
0.06 -5.57 -1.21 164 175 169
0.06 -5.67 -1.21 164 175 169
0.06 -5.76 -1.21 164 175 169
0.06 -5.85 -1.21 164 175 169
0.06 -5.94 -1.21 164 175 171
0.06 -6.04 -1.21 164 175 171
-0.13 -6.13 -1.04 163 174 170
-0.13 -6.23 -1.04 163 174 170
-0.13 -6.32 -1.04 164 175 171
-0.13 -6.41 -1.04 164 175 171
-0.13 -6.50 -1.04 164 175 171
-0.13 -6.60 -1.04 165 176 172
-0.13 -6.69 -1.04 166 176 175
-0.13 -6.78 -1.04 167 177 176
-0.13 -6.87 -1.04 165 176 172
-0.13 -6.96 -1.04 167 178 174
-0.13 -7.06 -1.04 168 179 175
0.06 -7.15 -1.21 168 179 175
0.06 -7.24 -1.21 168 179 175
-0.13 -7.33 -1.04 168 178 177
-0.13 -7.42 -1.04 167 177 176
-0.13 -7.52 -1.04 168 178 177
-0.13 -7.61 -1.04 168 178 177
-0.13 -7.70 -1.04 168 178 177
-0.13 -7.79 -1.04 168 178 177
-0.13 -7.88 -1.04 168 178 177
-0.13 -7.98 -1.04 168 178 177
-0.13 -8.07 -1.04 168 178 177
-0.13 -8.16 -1.04 169 179 178
-0.13 -8.25 -1.04 171 181 180
-0.13 -8.34 -1.04 171 181 180
-0.13 -8.44 -1.04 171 181 180
-0.13 -8.53 -1.04 171 181 180
-0.13 -8.62 -1.04 171 181 180
-0.13 -8.71 -1.04 172 182 181
-0.13 -8.81 -1.04 172 183 179
-0.13 -8.90 -1.04 173 184 180
-0.13 -8.99 -1.04 172 183 179
-0.13 -9.08 -1.04 174 185 181
-0.13 -9.17 -1.04 174 185 181
-0.13 -9.27 -1.04 174 185 179
-0.13 -9.36 -1.04 174 185 179
0.06 -9.46 -1.21 175 186 180
0.06 -9.55 -1.21 176 187 181
0.06 -9.64 -1.21 177 188 184
0.06 -9.74 -1.21 177 188 184
0.06 -9.83 -1.21 177 188 184
0.06 -9.92 -1.21 177 188 184
-0.13 -10.00 -1.04 177 188 184
-0.13 -10.09 -1.04 177 188 184
-0.13 -10.19 -1.04 179 188 185
-0.13 -10.28 -1.04 179 188 185
-0.13 -10.37 -1.04 177 186 183
-0.13 -10.46 -1.04 179 188 185
-0.13 -10.55 -1.04 180 189 186
-0.13 -10.65 -1.04 181 190 187
-0.13 -10.74 -1.04 182 191 186
-0.13 -10.83 -1.04 181 190 185
-0.13 -10.92 -1.04 181 190 185
-0.13 -11.01 -1.04 182 191 186
-0.13 -11.11 -1.04 181 190 187
0.06 -11.22 -1.21 182 191 188
0.06 -11.68 -1.21 186 195 192
0.06 -11.77 -1.21 186 195 192
0.06 -11.86 -1.21 187 196 193
0.06 -11.96 -1.21 188 199 195
0.06 -12.05 -1.21 189 200 196
0.06 -12.14 -1.21 188 199 195
0.06 -12.23 -1.21 188 199 195
-0.13 -12.30 -1.04 189 200 196
-0.13 -12.40 -1.04 191 202 198
-0.13 -12.49 -1.04 191 200 195
-0.13 -12.58 -1.04 191 200 195
-0.13 -12.67 -1.04 191 200 197
-0.13 -12.76 -1.04 191 200 197
-0.13 -12.86 -1.04 192 201 200
-0.13 -12.95 -1.04 192 201 200
-0.13 -13.04 -1.04 193 202 201
-0.13 -13.13 -1.04 193 202 201
-0.13 -13.22 -1.04 193 202 201
-0.13 -13.32 -1.04 194 203 202
-0.13 -13.41 -1.04 194 203 202
-0.13 -13.50 -1.04 195 204 203
-0.13 -13.59 -1.04 195 204 203
-0.13 -13.69 -1.04 195 204 203
-0.13 -13.78 -1.04 195 204 203
-0.13 -13.87 -1.04 197 206 205
-0.13 -13.96 -1.04 196 205 204
-0.13 -14.05 -1.04 198 207 204
-0.13 -14.15 -1.04 201 210 207
-0.13 -14.24 -1.04 204 213 210
-0.13 -14.33 -1.04 205 214 211
-0.13 -14.42 -1.04 203 212 207
-0.13 -14.51 -1.04 200 209 204
-0.13 -14.61 -1.04 201 210 207
-0.13 -14.70 -1.04 201 210 207
-0.13 -14.79 -1.04 203 212 209
-0.13 -14.88 -1.04 203 212 209
-0.13 -14.97 -1.04 204 213 212
-0.13 -15.07 -1.04 203 212 211
-0.13 -15.16 -1.04 202 210 212
-0.13 -15.25 -1.04 202 210 212
-0.13 -15.34 -1.04 208 214 212
-0.13 -15.43 -1.04 208 214 212
-0.13 -15.53 -1.04 207 213 211
-0.13 -15.62 -1.04 207 213 211
0.06 -15.75 -1.21 207 213 211
0.06 -15.84 -1.21 206 212 210
-0.13 -15.89 -1.04 205 211 209
-0.13 -15.99 -1.04 207 213 211
-0.13 -16.08 -1.04 208 214 212
-0.13 -16.17 -1.04 209 215 215
-0.13 -16.26 -1.04 210 216 216
-0.13 -16.36 -1.04 210 216 216
-0.13 -16.45 -1.04 210 216 216
-0.13 -16.54 -1.04 210 216 216
-0.13 -16.63 -1.04 210 216 216
-0.13 -16.72 -1.04 213 217 218
-0.13 -16.82 -1.04 213 217 218
-0.13 -16.91 -1.04 214 218 219
-0.13 -17.00 -1.04 214 218 219
-0.13 -17.09 -1.04 214 218 219
-0.13 -17.18 -1.04 213 217 218
-0.13 -17.28 -1.04 213 217 218
-0.13 -17.37 -1.04 213 217 218
-0.13 -17.46 -1.04 211 215 216
-0.13 -17.55 -1.04 213 217 218
-0.13 -17.64 -1.04 215 219 220
-0.13 -17.74 -1.04 216 220 221
-0.13 -17.83 -1.04 216 220 221
-0.13 -17.92 -1.04 215 219 220
-0.13 -18.01 -1.04 217 218 220
-0.13 -18.10 -1.04 213 214 216
-0.13 -18.20 -1.04 215 215 217
-0.13 -18.29 -1.04 217 219 218
-0.13 -18.38 -1.04 219 221 220
-0.13 -18.47 -1.04 220 222 221
-0.13 -18.57 -1.04 220 222 221
-0.13 -18.66 -1.04 219 221 220
-0.13 -18.75 -1.04 218 220 219
-0.13 -18.84 -1.04 214 218 219
-0.13 -18.93 -1.04 215 219 220
-0.31 -18.97 -0.87 215 219 222
-0.31 -19.06 -0.87 214 218 221
-0.31 -19.16 -0.87 213 218 222
-0.31 -19.25 -0.87 214 219 223
-0.31 -19.34 -0.87 215 220 226
-0.31 -19.43 -0.87 214 219 225
-0.31 -19.52 -0.87 218 222 225
-0.13 -19.67 -1.04 218 222 225
-0.13 -19.76 -1.04 218 222 225
-0.13 -19.85 -1.04 218 222 225
-0.13 -19.95 -1.04 220 221 225
-0.13 -20.04 -1.04 221 222 226
-0.13 -20.13 -1.04 223 222 227
-0.13 -20.22 -1.04 222 221 226
-0.13 -20.31 -1.04 222 221 226
-0.13 -20.41 -1.04 223 222 227
-0.13 -20.50 -1.04 223 222 227
-0.13 -20.59 -1.04 223 224 228
-0.13 -20.68 -1.04 223 224 228
-0.13 -20.78 -1.04 223 224 228
-0.13 -20.87 -1.04 223 224 228
-0.13 -20.96 -1.04 228 228 230
-0.13 -21.05 -1.04 227 227 229
-0.13 -21.14 -1.04 226 226 228
-0.13 -21.24 -1.04 226 226 228
-0.13 -21.33 -1.04 225 225 227
-0.13 -21.42 -1.04 226 226 228
-0.13 -21.51 -1.04 227 227 229
-0.13 -21.60 -1.04 227 227 229
-0.13 -21.70 -1.04 223 223 225
-0.13 -21.79 -1.04 223 223 225
-0.13 -21.88 -1.04 223 223 225
-0.13 -21.97 -1.04 223 223 225
-0.13 -22.06 -1.04 224 224 226
-0.13 -22.16 -1.04 224 224 226
-0.13 -22.25 -1.04 224 224 226
-0.13 -22.34 -1.04 225 225 227
-0.13 -22.43 -1.04 226 226 228
-0.13 -22.52 -1.04 226 226 228
-0.13 -22.62 -1.04 225 225 227
-0.13 -22.71 -1.04 224 224 226
-0.13 -22.80 -1.04 223 223 225
-0.13 -22.89 -1.04 223 223 225
-0.13 -22.98 -1.04 223 223 225
-0.13 -23.08 -1.04 222 222 222
-0.13 -23.17 -1.04 223 223 223
-0.13 -23.26 -1.04 223 223 223
-0.13 -23.35 -1.04 223 223 223
-0.13 -23.45 -1.04 222 222 220
-0.13 -23.54 -1.04 222 222 220
-0.13 -23.63 -1.04 223 223 221
-0.13 -23.72 -1.04 223 223 223
-0.13 -23.81 -1.04 224 224 226
-0.13 -23.91 -1.04 223 222 227
-0.13 -24.00 -1.04 223 223 225
-0.13 -24.09 -1.04 224 224 226
-0.13 -24.18 -1.04 224 224 226
-0.31 -24.20 -0.87 223 223 225
-0.31 -24.29 -0.87 222 222 224
-0.31 -24.38 -0.87 221 221 223
-0.31 -24.47 -0.87 221 221 221
-0.13 -24.64 -1.04 220 220 220
-0.13 -24.73 -1.04 220 220 220
-0.13 -24.83 -1.04 221 221 219
-0.13 -24.92 -1.04 221 221 219
-0.13 -25.01 -1.04 222 222 220
-0.13 -25.10 -1.04 222 222 220
-0.13 -25.19 -1.04 221 221 221
-0.13 -25.29 -1.04 220 220 220
-0.13 -25.38 -1.04 220 220 220
-0.13 -25.47 -1.04 220 220 220
-0.13 -25.56 -1.04 219 219 219
-0.13 -25.66 -1.04 218 218 218
-0.13 -25.75 -1.04 218 218 218
-0.13 -25.84 -1.04 217 217 217
-0.13 -25.93 -1.04 216 216 218
-0.13 -26.02 -1.04 217 217 219
-0.31 -26.03 -0.87 217 217 219
-0.31 -26.12 -0.87 218 218 220
-0.31 -26.21 -0.87 217 217 219
-0.31 -26.30 -0.87 216 216 218
-0.31 -26.40 -0.87 215 215 217
-0.31 -26.49 -0.87 214 214 216
-0.31 -26.58 -0.87 212 212 214
-0.31 -26.67 -0.87 213 213 215
-0.13 -26.85 -1.04 211 211 213
-0.13 -26.94 -1.04 210 210 210
-0.13 -27.04 -1.04 210 210 210
-0.13 -27.13 -1.04 209 207 208
-0.13 -27.22 -1.04 207 205 206
-0.13 -27.31 -1.04 207 205 206
-0.13 -27.40 -1.04 203 201 202
-0.13 -27.50 -1.04 203 201 204
-0.13 -27.59 -1.04 200 198 201
-0.13 -27.68 -1.04 195 193 198
-0.13 -27.77 -1.04 194 192 197
-0.13 -27.87 -1.04 192 190 195
-0.13 -27.96 -1.04 185 183 188
-0.31 -27.95 -0.87 182 180 185
-0.31 -28.05 -0.87 181 179 184
-0.31 -28.14 -0.87 179 179 181
-0.31 -28.23 -0.87 177 177 179
-0.31 -28.32 -0.87 175 175 177
-0.31 -28.41 -0.87 174 174 176
-0.31 -28.50 -0.87 174 174 174
-0.13 -28.69 -1.04 175 175 175
-0.13 -28.79 -1.04 173 171 172
-0.13 -28.88 -1.04 173 171 172
-0.13 -28.97 -1.04 173 168 172
-0.13 -29.06 -1.04 174 168 172
-0.13 -29.15 -1.04 175 169 173
-0.31 -29.15 -0.87 175 165 173
-0.31 -29.24 -0.87 172 162 170
-0.31 -29.33 -0.87 174 164 172
-0.31 -29.42 -0.87 174 164 172
-0.31 -29.51 -0.87 175 165 173
-0.31 -29.60 -0.87 176 166 174
-0.13 -29.80 -1.04 176 167 172
-0.13 -29.89 -1.04 176 167 172
-0.13 -29.98 -1.04 176 167 172
-0.31 -29.97 -0.87 175 166 171
-0.31 -30.06 -0.87 177 168 173
-0.31 -30.15 -0.87 176 167 172
-0.31 -30.25 -0.87 177 168 173
-0.31 -30.34 -0.87 177 168 173
-0.13 -30.54 -1.04 178 169 172
-0.13 -30.63 -1.04 179 170 173
-0.13 -30.72 -1.04 179 170 173
-0.13 -30.81 -1.04 179 170 173
-0.13 -30.90 -1.04 177 171 173
-0.13 -31.00 -1.04 178 169 172
-0.13 -31.09 -1.04 181 172 175
-0.13 -31.18 -1.04 94 82 86
-0.31 -31.16 -0.87 95 80 85
-0.31 -31.25 -0.87 96 84 88
-0.31 -31.35 -0.87 103 91 95
-0.31 -31.44 -0.87 107 98 103
-0.31 -31.53 -0.87 107 98 103
-0.17 22.41 -1.12 0 0 0
0.01 22.45 -1.29 0 0 0
0.01 22.36 -1.29 0 0 0
0.01 22.27 -1.29 0 0 0
0.01 22.18 -1.29 0 0 0
0.01 22.08 -1.29 0 0 0
0.01 21.99 -1.29 0 0 0
0.01 21.90 -1.29 0 0 0
0.17 21.92 -1.44 0 0 0
0.01 21.71 -1.29 123 121 108
0.01 21.62 -1.29 123 121 108
0.01 21.53 -1.29 123 121 108
0.01 21.44 -1.29 124 120 108
0.01 21.34 -1.29 124 120 108
0.01 21.25 -1.29 126 119 109
-0.17 21.03 -1.12 126 119 109
-0.17 20.94 -1.12 128 119 110
-0.17 20.84 -1.12 128 119 110
-0.17 20.75 -1.12 133 122 116
-0.17 20.66 -1.12 132 121 115
-0.17 20.57 -1.12 130 119 115
-0.17 20.48 -1.12 130 119 115
-0.17 20.38 -1.12 129 119 117
-0.17 20.29 -1.12 129 119 117
-0.17 20.20 -1.12 129 119 117
-0.17 20.11 -1.12 129 119 117
-0.17 20.02 -1.12 131 126 122
-0.17 19.92 -1.12 130 125 121
-0.17 19.83 -1.12 129 124 120
-0.17 19.74 -1.12 130 125 122
-0.17 19.65 -1.12 130 125 122
-0.17 19.55 -1.12 132 124 122
-0.17 19.46 -1.12 131 123 121
-0.17 19.37 -1.12 129 120 121
-0.17 19.28 -1.12 130 121 122
-0.17 19.19 -1.12 131 123 121
-0.17 19.09 -1.12 132 124 122
0.01 19.12 -1.29 132 124 122
0.01 19.03 -1.29 132 124 122
0.01 18.94 -1.29 133 125 122
-0.17 18.73 -1.12 133 125 122
-0.17 18.63 -1.12 133 123 121
-0.17 18.54 -1.12 134 124 122
-0.17 18.45 -1.12 133 125 122
-0.17 18.36 -1.12 133 125 122
-0.17 18.27 -1.12 130 125 122
-0.17 18.17 -1.12 130 125 122
-0.17 18.08 -1.12 129 125 122
-0.17 17.99 -1.12 130 126 123
-0.17 17.90 -1.12 131 127 124
-0.17 17.81 -1.12 132 128 125
-0.17 17.71 -1.12 132 128 125
-0.17 17.62 -1.12 132 128 125
-0.17 17.53 -1.12 132 129 124
-0.17 17.44 -1.12 131 128 121
-0.17 17.34 -1.12 131 128 123
-0.17 17.25 -1.12 135 129 131
-0.17 17.16 -1.12 133 127 131
-0.17 17.07 -1.12 132 126 128
-0.17 16.98 -1.12 133 127 129
-0.17 16.88 -1.12 132 126 126
-0.17 16.79 -1.12 131 125 125
-0.17 16.70 -1.12 130 126 125
-0.17 16.61 -1.12 132 128 127
-0.17 16.52 -1.12 131 127 126
-0.17 16.42 -1.12 131 127 126
-0.17 16.33 -1.12 131 127 126
-0.17 16.24 -1.12 131 127 126
-0.17 16.15 -1.12 129 127 128
-0.17 16.06 -1.12 130 128 129
-0.17 15.96 -1.12 131 129 130
-0.17 15.87 -1.12 131 129 130
-0.17 15.78 -1.12 135 131 130
-0.17 15.69 -1.12 135 131 130
-0.17 15.60 -1.12 134 130 129
-0.17 15.50 -1.12 134 130 129
-0.17 15.41 -1.12 134 130 129
-0.17 15.32 -1.12 134 130 127
-0.17 15.23 -1.12 134 130 127
-0.17 15.14 -1.12 135 131 128
-0.17 15.04 -1.12 134 130 127
-0.17 14.95 -1.12 132 131 126
-0.17 14.86 -1.12 132 131 126
-0.17 14.77 -1.12 132 131 126
-0.17 14.67 -1.12 132 131 126
-0.17 14.58 -1.12 131 130 125
-0.17 14.49 -1.12 129 128 123
-0.17 14.40 -1.12 132 131 127
0.01 14.41 -1.29 132 131 127
0.01 14.31 -1.29 132 131 126
0.01 14.22 -1.29 132 131 126
0.01 14.13 -1.29 132 131 126
0.01 14.04 -1.29 132 131 126
0.01 13.94 -1.29 132 132 124
0.01 13.85 -1.29 132 132 124
0.01 13.76 -1.29 132 132 124
0.01 13.67 -1.29 132 132 124
-0.17 13.48 -1.12 133 132 127
-0.17 13.39 -1.12 133 132 127
-0.17 13.29 -1.12 133 132 128
-0.17 13.20 -1.12 132 131 127
-0.17 13.11 -1.12 131 130 126
-0.17 13.02 -1.12 132 128 127
-0.17 12.93 -1.12 133 129 128
-0.17 12.83 -1.12 135 131 128
-0.17 12.74 -1.12 135 131 128
-0.17 12.65 -1.12 135 132 127
-0.17 12.56 -1.12 135 132 127
-0.17 12.46 -1.12 135 132 127
-0.17 12.37 -1.12 136 133 128
-0.17 12.28 -1.12 133 130 125
-0.17 12.19 -1.12 133 130 125
-0.17 12.10 -1.12 135 131 128
-0.17 12.00 -1.12 134 130 127
-0.17 11.91 -1.12 131 127 126
-0.17 11.82 -1.12 133 129 128
-0.17 11.73 -1.12 135 131 132
-0.17 11.64 -1.12 133 127 129
-5.05 9.05 3.52 130 124 124
-5.05 8.97 3.52 130 124 126
-5.18 8.83 3.64 132 127 131
-5.18 8.75 3.64 128 123 127
-5.18 8.67 3.64 125 123 124
-5.18 8.59 3.64 144 144 142
-5.18 8.51 3.64 150 150 148
-5.18 8.43 3.64 178 180 177
-5.18 8.35 3.64 72 74 73
-5.18 8.27 3.64 11 15 16
-5.18 7.86 3.64 167 168 173
-5.18 7.78 3.64 130 131 136
-5.18 7.70 3.64 120 119 125
-5.31 7.57 3.77 122 121 127
-5.31 7.49 3.77 130 127 134
-5.31 7.41 3.77 128 123 130
-5.31 7.32 3.77 128 123 130
-5.31 7.24 3.77 129 122 130
-5.31 7.16 3.77 131 124 132
-5.31 7.08 3.77 136 129 136
-5.31 7.00 3.77 141 134 141
-5.31 6.92 3.77 144 137 144
-5.31 6.84 3.77 144 137 144
-5.31 6.76 3.77 143 137 141
-5.44 6.63 3.89 144 137 144
-5.44 6.55 3.89 142 139 148
-5.44 6.47 3.89 142 139 148
-5.44 6.39 3.89 142 139 148
-5.44 6.31 3.89 141 139 150
-5.44 6.23 3.89 142 140 151
-5.44 6.15 3.89 139 142 151
-5.44 6.07 3.89 139 142 151
-5.44 5.99 3.89 137 141 152
-5.58 5.86 4.01 141 145 156
-5.58 5.78 4.01 141 147 159
-5.58 5.70 4.01 139 145 157
-5.44 5.67 3.89 137 145 158
-5.44 5.59 3.89 138 146 159
-5.58 5.46 4.01 139 147 160
-5.58 5.38 4.01 139 147 160
-5.58 5.30 4.01 142 150 161
-5.58 5.23 4.01 138 146 157
-5.58 5.15 4.01 135 148 157
-5.58 5.07 4.01 135 148 157
-5.58 4.99 4.01 133 148 155
-5.58 4.91 4.01 136 151 158
-5.58 4.83 4.01 139 152 158
-5.58 4.75 4.01 137 148 154
-5.58 4.67 4.01 140 149 156
-5.71 4.54 4.14 144 148 157
-5.71 4.46 4.14 142 146 155
-5.71 4.39 4.14 138 145 155
-5.71 4.31 4.14 144 151 161
-5.71 4.23 4.14 141 151 160
-5.71 4.15 4.14 137 147 156
-5.71 4.07 4.14 132 145 153
-5.71 3.99 4.14 148 161 169
-5.71 3.91 4.14 135 148 156
-5.71 3.83 4.14 130 143 151
-5.71 3.75 4.14 136 149 157
-5.71 3.67 4.14 147 160 168
-5.71 3.59 4.14 135 150 157
-5.71 3.51 4.14 138 153 160
-5.58 3.48 4.01 140 154 163
-5.71 3.36 4.14 140 154 163
-5.71 3.28 4.14 139 156 166
-5.71 3.20 4.14 140 157 167
-5.71 3.12 4.14 140 157 167
-5.71 3.04 4.14 139 156 166
-5.71 2.96 4.14 140 157 167
-5.84 2.84 4.26 140 157 167
-5.84 2.76 4.26 142 160 172
-5.71 2.72 4.14 141 158 168
-5.71 2.64 4.14 140 157 165
-5.71 2.56 4.14 163 177 180
-5.71 2.48 4.14 165 175 176
-5.58 2.44 4.01 157 167 166
-5.58 2.36 4.01 176 182 180
-5.44 2.32 3.89 203 209 205
-5.18 2.31 3.64 193 198 194
-3.96 2.24 2.48 195 199 198
-3.96 2.16 2.48 204 206 203
-3.67 2.15 2.20 197 199 194
-3.67 2.07 2.20 199 200 194
-3.67 1.98 2.20 198 201 194
-3.51 1.94 2.05 198 201 194
0.17 2.42 -1.44 211 215 214
0.01 2.29 -1.29 179 183 182
0.01 2.20 -1.29 143 147 146
0.01 2.10 -1.29 159 163 162
0.01 2.01 -1.29 159 164 160
0.01 1.92 -1.29 160 162 159
0.01 1.83 -1.29 162 164 161
0.01 1.73 -1.29 160 164 163
-0.17 1.60 -1.12 160 164 163
-0.17 1.51 -1.12 160 164 163
-0.17 1.42 -1.12 160 164 163
-0.17 1.32 -1.12 160 164 163
-0.17 1.23 -1.12 159 163 162
-0.17 1.14 -1.12 159 164 160
-0.17 1.05 -1.12 158 163 159
-0.17 0.96 -1.12 161 166 162
-0.17 0.86 -1.12 161 166 162
-0.17 0.77 -1.12 161 166 162
-0.17 0.68 -1.12 161 166 162
-0.17 0.59 -1.12 161 166 162
-0.17 0.49 -1.12 161 166 162
-0.17 0.40 -1.12 161 166 160
-0.17 0.31 -1.12 160 166 162
-0.17 0.22 -1.12 158 167 162
-0.17 0.13 -1.12 157 168 164
-0.17 0.03 -1.12 157 168 164
-0.17 -0.06 -1.12 158 169 165
-0.17 -0.15 -1.12 158 169 165
-0.17 -0.24 -1.12 156 167 163
-0.17 -0.33 -1.12 156 167 163
-0.17 -0.43 -1.12 155 166 160
-0.17 -0.52 -1.12 156 167 161
0.01 -0.58 -1.29 158 169 163
-0.17 -0.70 -1.12 158 169 163
-0.17 -0.79 -1.12 157 168 162
-0.17 -0.89 -1.12 157 168 162
-0.17 -0.98 -1.12 158 169 163
-0.17 -1.07 -1.12 159 170 164
-0.17 -1.16 -1.12 157 168 164
0.01 -1.23 -1.29 157 168 164
0.01 -1.32 -1.29 157 168 164
0.01 -1.41 -1.29 158 169 165
-0.17 -1.53 -1.12 158 169 165
-0.17 -1.62 -1.12 158 169 165
-0.17 -1.72 -1.12 159 168 165
-0.17 -1.81 -1.12 160 169 166
-0.17 -1.90 -1.12 162 171 166
-0.17 -1.99 -1.12 162 171 166
-0.17 -2.08 -1.12 162 171 166
-0.17 -2.18 -1.12 161 170 165
-0.17 -2.27 -1.12 161 170 165
-0.17 -2.36 -1.12 160 169 164
-0.17 -2.45 -1.12 162 171 166
-0.17 -2.54 -1.12 160 171 167
-0.17 -2.64 -1.12 160 171 167
0.01 -2.71 -1.29 160 171 167
0.01 -2.80 -1.29 160 171 167
-0.17 -2.91 -1.12 160 171 167
-0.17 -3.00 -1.12 161 172 168
-0.17 -3.10 -1.12 162 171 166
-0.17 -3.19 -1.12 163 172 167
-0.17 -3.28 -1.12 162 171 166
-0.17 -3.37 -1.12 162 171 166
-0.17 -3.46 -1.12 162 171 166
-0.17 -3.56 -1.12 162 171 166
-0.17 -3.65 -1.12 162 171 166
-0.17 -3.74 -1.12 162 171 166
-0.17 -3.83 -1.12 162 172 164
-0.17 -3.92 -1.12 162 171 166
-0.17 -4.02 -1.12 163 172 169
-0.17 -4.11 -1.12 162 171 170
-0.17 -4.20 -1.12 162 171 170
-0.17 -4.29 -1.12 163 172 171
-0.17 -4.39 -1.12 164 173 172
-0.17 -4.48 -1.12 164 173 172
0.01 -4.56 -1.29 163 172 171
-0.17 -4.66 -1.12 164 173 172
-0.17 -4.75 -1.12 164 173 172
-0.17 -4.85 -1.12 165 174 173
0.01 -4.93 -1.29 165 174 173
0.01 -5.02 -1.29 165 174 173
-0.17 -5.12 -1.12 165 174 173
-0.17 -5.21 -1.12 166 175 174
-0.17 -5.31 -1.12 166 175 174
-0.17 -5.40 -1.12 165 176 170
-0.17 -5.49 -1.12 164 175 169
-0.17 -5.58 -1.12 163 174 168
-0.17 -5.67 -1.12 163 174 168
-0.17 -5.77 -1.12 165 176 170
-0.17 -5.86 -1.12 166 177 171
-0.17 -5.95 -1.12 166 177 173
-0.17 -6.04 -1.12 165 176 172
-0.17 -6.13 -1.12 164 175 171
-0.17 -6.23 -1.12 165 176 172
-0.17 -6.32 -1.12 165 176 172
-0.17 -6.41 -1.12 165 176 172
-0.17 -6.50 -1.12 164 175 171
-0.17 -6.60 -1.12 165 176 172
-0.36 -6.69 -0.95 165 175 174
-0.36 -6.78 -0.95 166 176 175
-0.36 -6.87 -0.95 167 176 175
-0.17 -6.96 -1.12 167 176 175
-0.17 -7.06 -1.12 168 177 176
-0.17 -7.15 -1.12 168 177 176
-0.17 -7.24 -1.12 168 177 176
-0.17 -7.33 -1.12 169 178 177
-0.17 -7.42 -1.12 169 178 177
-0.17 -7.52 -1.12 167 176 175
-0.17 -7.61 -1.12 167 176 175
-0.17 -7.70 -1.12 168 177 176
-0.17 -7.79 -1.12 169 178 177
-0.17 -7.88 -1.12 169 178 177
-0.17 -7.98 -1.12 170 179 178
-0.17 -8.07 -1.12 171 180 177
-0.17 -8.16 -1.12 171 180 177
-0.17 -8.25 -1.12 169 180 176
-0.17 -8.34 -1.12 170 181 177
-0.17 -8.44 -1.12 170 181 177
-0.17 -8.53 -1.12 171 182 178
-0.17 -8.62 -1.12 171 182 178
-0.17 -8.71 -1.12 172 183 179
-0.17 -8.81 -1.12 172 183 179
-0.17 -8.90 -1.12 172 183 179
-0.17 -8.99 -1.12 172 183 179
-0.17 -9.08 -1.12 173 184 178
-0.17 -9.17 -1.12 173 184 178
-0.17 -9.27 -1.12 173 184 178
-0.17 -9.36 -1.12 173 184 178
0.01 -9.46 -1.29 174 185 179
0.01 -9.55 -1.29 175 186 182
0.01 -9.64 -1.29 176 187 183
0.01 -9.74 -1.29 176 186 185
0.01 -9.83 -1.29 176 186 185
-0.17 -9.91 -1.12 176 186 185
-0.17 -10.00 -1.12 177 188 184
-0.17 -10.09 -1.12 177 188 184
-0.17 -10.19 -1.12 179 188 185
-0.17 -10.28 -1.12 179 188 185
-0.17 -10.37 -1.12 176 185 182
-0.17 -10.46 -1.12 177 186 183
-0.17 -10.55 -1.12 179 188 183
-0.17 -10.65 -1.12 180 189 184
-0.17 -10.74 -1.12 181 190 185
-0.17 -10.83 -1.12 181 190 185
-0.17 -10.92 -1.12 184 190 186
-0.17 -11.01 -1.12 185 191 187
-0.17 -11.11 -1.12 183 189 187
-0.17 -11.20 -1.12 184 190 188
0.01 -11.68 -1.29 183 192 191
0.01 -11.77 -1.29 185 194 193
0.01 -11.86 -1.29 187 196 195
0.01 -11.96 -1.29 188 198 197
0.01 -12.05 -1.29 188 198 197
0.01 -12.14 -1.29 187 197 196
0.01 -12.23 -1.29 187 197 196
-0.17 -12.30 -1.12 189 199 198
-0.17 -12.40 -1.12 190 200 199
-0.17 -12.49 -1.12 190 199 194
-0.17 -12.58 -1.12 190 199 194
-0.17 -12.67 -1.12 190 199 196
-0.17 -12.76 -1.12 191 200 197
-0.17 -12.86 -1.12 191 200 199
-0.17 -12.95 -1.12 192 201 200
-0.17 -13.04 -1.12 193 201 203
-0.17 -13.13 -1.12 193 201 203
-0.17 -13.22 -1.12 193 201 203
-0.17 -13.32 -1.12 193 201 203
-0.17 -13.41 -1.12 194 202 204
-0.17 -13.50 -1.12 194 203 202
-0.17 -13.59 -1.12 194 203 202
-0.17 -13.69 -1.12 194 203 202
-0.17 -13.78 -1.12 194 203 202
-0.17 -13.87 -1.12 195 201 199
-0.17 -13.96 -1.12 198 204 202
-0.17 -14.05 -1.12 201 207 205
-0.17 -14.15 -1.12 204 210 208
-0.17 -14.24 -1.12 206 212 208
-0.17 -14.33 -1.12 205 211 207
-0.17 -14.42 -1.12 205 211 207
-0.17 -14.51 -1.12 204 210 206
-0.17 -14.61 -1.12 204 210 206
-0.17 -14.70 -1.12 204 210 206
-0.17 -14.79 -1.12 205 211 209
-0.17 -14.88 -1.12 205 211 209
-0.17 -14.97 -1.12 205 211 211
-0.17 -15.07 -1.12 205 211 211
-0.17 -15.16 -1.12 205 210 213
-0.17 -15.25 -1.12 205 210 213
-0.17 -15.34 -1.12 208 214 212
-0.17 -15.43 -1.12 207 213 211
-0.17 -15.53 -1.12 207 213 211
-0.17 -15.62 -1.12 207 213 211
-0.17 -15.71 -1.12 207 213 213
-0.17 -15.80 -1.12 206 212 212
-0.17 -15.89 -1.12 204 210 210
-0.17 -15.99 -1.12 207 213 213
-0.17 -16.08 -1.12 207 213 213
-0.17 -16.17 -1.12 208 213 216
-0.17 -16.26 -1.12 208 213 216
-0.17 -16.36 -1.12 209 214 217
-0.17 -16.45 -1.12 209 214 217
-0.17 -16.54 -1.12 210 215 218
-0.17 -16.63 -1.12 210 215 218
-0.17 -16.72 -1.12 211 215 216
-0.36 -16.77 -0.95 212 216 217
-0.36 -16.86 -0.95 213 217 218
-0.36 -16.96 -0.95 213 217 218
-0.36 -17.05 -0.95 213 217 218
-0.36 -17.14 -0.95 212 216 217
-0.36 -17.23 -0.95 212 216 217
-0.36 -17.32 -0.95 212 216 217
-0.36 -17.41 -0.95 212 216 217
-0.36 -17.51 -0.95 213 217 218
-0.36 -17.60 -0.95 214 218 219
-0.36 -17.69 -0.95 215 219 220
-0.17 -17.83 -1.12 215 219 220
-0.17 -17.92 -1.12 215 219 220
-0.17 -18.01 -1.12 216 220 221
-0.17 -18.10 -1.12 213 217 218
-0.17 -18.20 -1.12 214 218 219
-0.36 -18.24 -0.95 216 220 221
-0.36 -18.33 -0.95 217 221 222
-0.36 -18.42 -0.95 217 221 222
-0.17 -18.57 -1.12 217 221 222
-0.17 -18.66 -1.12 217 221 222
-0.17 -18.75 -1.12 217 221 222
-0.36 -18.79 -0.95 216 220 221
-0.36 -18.88 -0.95 217 221 222
-0.36 -18.97 -0.95 218 222 225
-0.36 -19.06 -0.95 217 221 224
-0.36 -19.16 -0.95 217 220 225
-0.36 -19.25 -0.95 218 221 226
-0.36 -19.34 -0.95 217 222 226
-0.36 -19.43 -0.95 215 220 224
-0.36 -19.52 -0.95 219 223 226
-0.36 -19.61 -0.95 218 222 225
-0.36 -19.71 -0.95 218 222 225
-0.17 -19.85 -1.12 218 222 225
-0.17 -19.95 -1.12 219 220 224
-0.17 -20.04 -1.12 219 220 224
-0.36 -20.07 -0.95 221 220 225
-0.36 -20.16 -0.95 220 219 224
-0.17 -20.31 -1.12 220 219 224
-0.17 -20.41 -1.12 220 219 224
-0.17 -20.50 -1.12 220 219 224
-0.17 -20.59 -1.12 219 220 224
-0.17 -20.68 -1.12 220 221 225
-0.17 -20.78 -1.12 221 222 226
-0.17 -20.87 -1.12 221 222 226
-0.17 -20.96 -1.12 220 220 222
-0.17 -21.05 -1.12 221 221 223
-0.17 -21.14 -1.12 221 221 223
-0.17 -21.24 -1.12 221 221 223
-0.17 -21.33 -1.12 221 221 223
-0.17 -21.42 -1.12 221 221 223
-0.17 -21.51 -1.12 221 221 223
-0.17 -21.60 -1.12 221 221 223
-0.36 -21.63 -0.95 220 220 222
-0.36 -21.72 -0.95 221 221 223
-0.17 -21.88 -1.12 222 222 224
-0.17 -21.97 -1.12 223 223 225
-0.17 -22.06 -1.12 223 223 225
-0.36 -22.09 -0.95 223 223 225
-0.36 -22.18 -0.95 223 223 225
-0.36 -22.27 -0.95 224 223 228
-0.36 -22.36 -0.95 225 224 229
-0.36 -22.45 -0.95 226 225 230
-0.36 -22.55 -0.95 225 224 229
-0.36 -22.64 -0.95 224 224 226
-0.36 -22.73 -0.95 222 222 224
-0.17 -22.89 -1.12 222 222 224
-0.17 -22.98 -1.12 222 222 224
-0.17 -23.08 -1.12 222 222 222
-0.17 -23.17 -1.12 223 223 223
-0.17 -23.26 -1.12 223 223 221
-0.17 -23.35 -1.12 223 223 221
-0.17 -23.45 -1.12 223 223 221
-0.17 -23.54 -1.12 223 223 221
-0.17 -23.63 -1.12 223 223 221
-0.17 -23.72 -1.12 224 224 224
-0.17 -23.81 -1.12 224 224 226
-0.17 -23.91 -1.12 223 222 227
-0.17 -24.00 -1.12 222 221 226
-0.36 -24.01 -0.95 223 222 227
-0.36 -24.10 -0.95 223 223 225
-0.36 -24.20 -0.95 223 223 225
-0.36 -24.29 -0.95 222 222 224
-0.36 -24.38 -0.95 221 221 223
-0.36 -24.47 -0.95 220 220 220
-0.36 -24.56 -0.95 219 219 219
-0.36 -24.65 -0.95 219 219 219
-0.17 -24.83 -1.12 219 219 217
-0.17 -24.92 -1.12 220 220 218
-0.17 -25.01 -1.12 221 221 219
-0.17 -25.10 -1.12 221 221 219
-0.17 -25.19 -1.12 219 219 217
-0.17 -25.29 -1.12 220 220 218
-0.17 -25.38 -1.12 220 220 218
-0.17 -25.47 -1.12 220 220 218
-0.17 -25.56 -1.12 219 219 219
-0.36 -25.57 -0.95 219 219 219
-0.36 -25.66 -0.95 218 218 218
-0.17 -25.84 -1.12 218 218 218
-0.36 -25.85 -0.95 218 218 218
