ply
format ascii 1.0
element vertex 1610
property float x
property float y
property float z
property uchar red
property uchar green
property uchar blue
end_header
-3.40 -24.84 -0.97 211 207 208
-3.40 -24.93 -0.97 211 207 208
-3.40 -25.02 -0.97 211 207 208
-3.40 -25.10 -0.97 211 207 206
-3.40 -25.19 -0.97 210 206 205
-3.40 -25.28 -0.97 210 206 205
-3.40 -25.37 -0.97 210 206 205
-3.40 -25.45 -0.97 210 206 203
-3.40 -25.54 -0.97 211 207 204
-3.25 -25.70 -1.13 209 205 204
-3.40 -25.71 -0.97 211 207 206
-3.40 -25.80 -0.97 211 207 206
-3.40 -25.89 -0.97 211 207 206
-3.40 -25.98 -0.97 211 207 206
-3.40 -26.06 -0.97 211 207 206
-3.40 -26.15 -0.97 212 208 207
-3.40 -26.24 -0.97 212 208 207
-3.40 -26.32 -0.97 213 209 208
-3.40 -26.41 -0.97 213 209 208
-3.40 -26.50 -0.97 213 209 208
-3.40 -26.59 -0.97 212 208 207
-3.40 -26.67 -0.97 211 207 206
-3.40 -26.76 -0.97 211 207 206
-3.40 -26.85 -0.97 211 207 206
-3.40 -26.93 -0.97 213 209 210
-3.40 -27.02 -0.97 213 209 210
-3.40 -27.11 -0.97 213 209 210
-3.40 -27.20 -0.97 213 209 210
-3.40 -27.28 -0.97 213 209 210
-3.40 -27.37 -0.97 213 209 210
-3.25 -27.54 -1.13 214 210 209
-3.40 -27.54 -0.97 214 210 209
-3.25 -27.72 -1.13 213 209 208
-3.25 -27.80 -1.13 214 210 209
-3.25 -27.89 -1.13 216 212 211
-3.25 -27.98 -1.13 217 213 212
-3.25 -28.07 -1.13 218 214 213
-3.25 -28.15 -1.13 219 215 214
-3.25 -28.24 -1.13 219 215 214
-3.40 -28.24 -0.97 216 214 215
-3.40 -28.33 -0.97 217 215 216
-3.40 -28.42 -0.97 217 215 216
-3.40 -28.50 -0.97 217 215 216
-3.40 -28.59 -0.97 219 215 216
-3.40 -28.68 -0.97 219 215 216
-3.40 -28.76 -0.97 219 213 215
-3.40 -28.85 -0.97 219 213 215
-3.40 -28.94 -0.97 218 212 214
-3.40 -29.02 -0.97 219 213 215
-3.40 -29.11 -0.97 219 215 216
-3.40 -29.20 -0.97 220 216 217
-3.40 -29.29 -0.97 219 217 218
-3.40 -29.37 -0.97 219 217 218
-3.40 -29.46 -0.97 218 216 217
-3.40 -29.55 -0.97 217 215 216
-3.40 -29.63 -0.97 218 214 213
-3.40 -29.72 -0.97 219 215 214
-3.40 -29.81 -0.97 219 218 216
-3.55 -29.80 -0.82 218 214 213
-3.55 -29.89 -0.82 215 211 210
-3.40 -30.07 -0.97 221 217 216
-3.40 -30.16 -0.97 229 225 224
-3.40 -30.24 -0.97 196 190 192
-3.40 -30.33 -0.97 107 98 101
-3.40 -30.42 -0.97 102 93 96
-3.40 -30.51 -0.97 118 107 111
-3.40 -30.59 -0.97 125 113 117
-3.40 -30.68 -0.97 124 112 116
-3.29 20.92 -1.20 0 0 0
-3.29 20.83 -1.20 0 0 0
-3.45 20.63 -1.05 0 0 0
-3.29 20.66 -1.20 0 0 0
-3.29 20.57 -1.20 0 0 0
-3.29 20.48 -1.20 0 0 0
-3.45 20.28 -1.05 0 0 0
-3.45 20.19 -1.05 0 0 0
-3.45 20.10 -1.05 0 0 0
-3.45 20.02 -1.05 126 123 116
-3.45 19.93 -1.05 126 123 116
-3.45 19.84 -1.05 125 122 115
-3.29 19.87 -1.20 124 121 114
-3.29 19.78 -1.20 123 120 113
-3.29 19.69 -1.20 121 121 113
-3.29 19.61 -1.20 122 122 114
-3.29 19.52 -1.20 122 121 116
-3.29 19.43 -1.20 122 121 116
-3.29 19.34 -1.20 125 122 115
-3.29 19.26 -1.20 124 121 114
-3.29 19.17 -1.20 124 121 112
-3.29 19.08 -1.20 124 121 112
-3.29 18.99 -1.20 125 121 110
-3.29 18.91 -1.20 126 122 111
-3.29 18.82 -1.20 129 122 112
-3.29 18.73 -1.20 129 122 114
-3.29 18.64 -1.20 127 123 114
-3.29 18.56 -1.20 126 121 115
-3.29 18.47 -1.20 127 122 116
-3.29 18.38 -1.20 128 123 117
-3.29 18.29 -1.20 129 124 118
-3.29 18.21 -1.20 128 123 117
-3.29 18.12 -1.20 128 123 117
-3.29 18.03 -1.20 127 122 118
-3.29 17.94 -1.20 128 123 119
-3.29 17.86 -1.20 130 125 121
-3.29 17.77 -1.20 132 127 123
-3.45 17.58 -1.05 132 127 123
-3.45 17.49 -1.05 131 126 122
-3.45 17.40 -1.05 130 125 121
-3.45 17.32 -1.05 129 124 120
-3.45 17.23 -1.05 131 127 118
-3.45 17.14 -1.05 130 126 117
-3.45 17.05 -1.05 130 125 119
-3.45 16.97 -1.05 131 126 120
-3.45 16.88 -1.05 132 127 121
-3.45 16.79 -1.05 133 128 122
-3.45 16.71 -1.05 131 126 120
-3.29 16.72 -1.20 129 124 118
-3.29 16.63 -1.20 134 129 125
-3.29 16.54 -1.20 133 128 124
-3.29 16.46 -1.20 133 128 124
-3.29 16.37 -1.20 134 129 125
-3.29 16.28 -1.20 136 131 127
-3.29 16.19 -1.20 135 130 127
-3.29 16.11 -1.20 134 129 126
-3.45 15.92 -1.05 135 132 127
-3.45 15.84 -1.05 135 132 127
-3.45 15.75 -1.05 135 131 128
-3.45 15.66 -1.05 135 131 130
-3.45 15.57 -1.05 136 130 130
-3.45 15.49 -1.05 136 130 132
-3.45 15.40 -1.05 138 129 132
-3.45 15.31 -1.05 138 129 132
-3.45 15.23 -1.05 136 127 130
-3.45 15.14 -1.05 137 128 131
-3.45 15.05 -1.05 137 128 129
-3.29 15.06 -1.20 137 128 129
-3.29 14.97 -1.20 138 130 127
-3.29 14.88 -1.20 138 130 127
-3.29 14.80 -1.20 137 132 126
-3.29 14.71 -1.20 137 132 128
-3.29 14.62 -1.20 137 132 128
-3.29 14.53 -1.20 138 133 130
-3.29 14.45 -1.20 139 134 131
-3.29 14.36 -1.20 138 133 130
-3.29 14.27 -1.20 140 134 134
-3.29 14.18 -1.20 139 135 134
-3.29 14.10 -1.20 136 132 131
-3.29 14.01 -1.20 137 133 132
-3.29 13.92 -1.20 135 131 130
-3.29 13.83 -1.20 133 132 128
-3.29 13.75 -1.20 136 135 131
-3.29 13.66 -1.20 138 137 133
-3.29 13.57 -1.20 138 137 133
-3.29 13.48 -1.20 138 137 132
-3.29 13.40 -1.20 138 137 132
-3.29 13.31 -1.20 143 140 131
-3.29 13.22 -1.20 143 140 131
-3.29 13.13 -1.20 143 140 133
-3.29 13.05 -1.20 143 140 133
-3.29 12.96 -1.20 144 139 135
-3.29 12.87 -1.20 143 138 134
-3.29 12.78 -1.20 143 138 135
-3.29 12.70 -1.20 142 137 134
-3.29 12.61 -1.20 144 135 136
-3.29 12.52 -1.20 145 136 137
-3.29 12.43 -1.20 147 138 139
-3.29 12.35 -1.20 147 138 139
-3.29 12.26 -1.20 148 138 139
-3.29 12.17 -1.20 148 138 139
-3.29 12.08 -1.20 149 138 142
-3.29 12.00 -1.20 146 137 140
-3.29 11.91 -1.20 146 137 142
-3.29 11.82 -1.20 145 136 139
-3.29 11.73 -1.20 145 136 139
-3.29 11.65 -1.20 143 138 135
-3.29 11.56 -1.20 142 137 134
-3.29 11.47 -1.20 142 137 133
-3.29 11.38 -1.20 142 137 133
-3.29 11.30 -1.20 141 138 133
-3.29 11.21 -1.20 141 138 133
-3.29 11.12 -1.20 139 138 134
-3.29 11.03 -1.20 139 138 136
-3.29 10.95 -1.20 139 138 136
-3.29 10.86 -1.20 138 136 137
-3.29 10.77 -1.20 136 134 137
-3.29 10.68 -1.20 135 133 136
-3.29 10.60 -1.20 136 135 133
-3.45 10.43 -1.05 134 133 131
-3.45 10.35 -1.05 132 131 129
-3.45 10.26 -1.05 131 130 128
-3.45 10.17 -1.05 131 130 126
-3.45 10.09 -1.05 130 129 125
-5.17 9.01 0.73 120 119 117
-5.17 8.93 0.73 122 120 121
-5.17 8.84 0.73 122 120 121
-5.17 8.76 0.73 112 110 111
-5.17 8.68 0.73 122 120 121
-5.32 8.53 0.89 154 152 155
-5.32 8.44 0.89 149 147 150
-5.32 8.36 0.89 143 142 140
-5.32 8.28 0.89 137 135 136
-5.32 8.19 0.89 139 134 138
-5.32 8.11 0.89 141 136 143
-5.32 8.03 0.89 139 134 141
-5.32 7.95 0.89 138 132 142
-5.32 7.86 0.89 140 134 146
-5.44 7.73 1.02 141 135 147
-5.44 7.64 1.02 143 138 145
-5.44 7.56 1.02 144 139 146
-5.44 7.48 1.02 140 138 143
-5.44 7.40 1.02 136 133 140
-5.44 7.31 1.02 136 135 141
-5.57 7.18 1.15 138 137 145
-5.57 7.10 1.15 135 135 145
-5.57 6.85 1.15 91 94 103
-5.57 6.77 1.15 55 57 70
-5.57 6.69 1.15 52 55 72
-5.57 6.60 1.15 59 62 81
-5.57 6.52 1.15 51 56 76
-5.57 6.44 1.15 42 47 67
-5.57 6.36 1.15 21 28 44
-5.57 6.28 1.15 32 39 55
-5.57 6.19 1.15 90 103 112
-5.57 6.11 1.15 147 160 169
-5.57 6.03 1.15 153 168 175
-5.57 5.95 1.15 129 144 151
-5.57 5.87 1.15 129 143 152
-5.57 5.78 1.15 133 147 156
-5.70 5.65 1.28 133 150 158
-5.70 5.57 1.28 132 149 157
-5.70 5.49 1.28 132 149 157
-5.70 5.41 1.28 132 149 157
-5.70 5.33 1.28 133 150 158
-5.70 5.24 1.28 133 150 158
-5.70 5.16 1.28 133 150 158
-5.70 5.08 1.28 132 149 157
-5.70 5.00 1.28 134 151 159
-5.70 4.92 1.28 133 152 159
-5.70 4.84 1.28 134 153 160
-5.57 4.80 1.15 134 153 160
-5.57 4.72 1.15 134 153 160
-5.57 4.64 1.15 134 153 160
-5.70 4.51 1.28 134 153 160
-5.70 4.43 1.28 134 154 163
-5.70 4.35 1.28 134 154 163
-5.70 4.26 1.28 136 154 164
-5.70 4.18 1.28 136 154 164
-5.70 4.10 1.28 135 153 163
-5.70 4.02 1.28 135 153 163
-5.85 3.89 1.44 136 154 164
-5.85 3.81 1.44 137 155 165
-5.85 3.72 1.44 137 155 165
-5.85 3.64 1.44 137 155 165
-5.85 3.56 1.44 138 155 165
-5.85 3.48 1.44 138 155 165
-5.85 3.40 1.44 139 156 166
-5.85 3.32 1.44 139 156 166
-5.85 3.24 1.44 140 157 167
-5.85 3.15 1.44 140 157 167
-5.85 3.07 1.44 138 155 165
-5.85 2.99 1.44 140 157 167
-5.85 2.91 1.44 138 158 167
-5.85 2.83 1.44 141 161 168
-5.85 2.75 1.44 140 159 166
-5.85 2.67 1.44 143 162 166
-5.70 2.63 1.28 155 170 175
-5.70 2.55 1.28 159 169 171
-5.57 2.50 1.15 163 168 171
-5.57 2.42 1.15 164 168 169
-5.57 2.34 1.15 202 204 203
-5.44 2.29 1.02 198 199 194
-5.32 2.25 0.89 197 198 193
-5.17 2.21 0.73 197 198 192
-4.89 2.20 0.44 197 198 192
-4.61 2.19 0.16 196 197 191
-4.48 2.14 0.03 193 194 188
-4.18 2.14 -0.29 194 197 190
-3.90 2.13 -0.58 201 204 197
-3.75 2.08 -0.73 184 187 180
-3.75 1.99 -0.73 163 166 159
-3.60 1.95 -0.89 160 165 159
-3.60 1.86 -0.89 167 172 166
-3.45 1.81 -1.05 165 170 164
-3.45 1.72 -1.05 164 169 163
-3.45 1.64 -1.05 162 168 164
-3.45 1.55 -1.05 161 167 163
-3.45 1.46 -1.05 158 164 160
-3.29 1.41 -1.20 157 163 159
-3.29 1.32 -1.20 157 163 159
-3.29 1.24 -1.20 153 162 157
-3.29 1.15 -1.20 153 162 157
-3.29 1.06 -1.20 152 161 156
-3.29 0.97 -1.20 153 162 157
-3.29 0.89 -1.20 153 162 157
-3.45 0.77 -1.05 153 162 157
-3.45 0.68 -1.05 155 161 157
-3.45 0.59 -1.05 155 161 157
-3.29 0.54 -1.20 157 163 159
-3.29 0.45 -1.20 159 165 161
-3.29 0.36 -1.20 162 169 162
-3.45 0.24 -1.05 164 171 164
-3.45 0.16 -1.05 164 171 164
-3.45 0.07 -1.05 164 171 164
-3.29 0.01 -1.20 163 170 163
-3.29 -0.07 -1.20 163 169 165
-3.29 -0.16 -1.20 166 171 167
-3.29 -0.25 -1.20 165 169 168
-3.29 -0.34 -1.20 165 169 168
-3.29 -0.42 -1.20 164 168 167
-3.29 -0.51 -1.20 164 168 167
-3.29 -0.60 -1.20 163 169 167
-3.29 -0.69 -1.20 163 169 167
-3.29 -0.77 -1.20 164 170 168
-3.45 -0.89 -1.05 164 170 168
-3.45 -0.98 -1.05 163 169 167
-3.45 -1.06 -1.05 163 169 167
-3.45 -1.15 -1.05 163 169 167
-3.45 -1.24 -1.05 163 169 167
-3.45 -1.32 -1.05 163 169 167
-3.45 -1.41 -1.05 163 169 167
-3.45 -1.50 -1.05 165 170 164
-3.45 -1.59 -1.05 164 169 163
-3.29 -1.65 -1.20 163 170 163
-3.29 -1.74 -1.20 163 170 163
-3.29 -1.82 -1.20 161 171 162
-3.45 -1.93 -1.05 161 171 162
-3.29 -2.00 -1.20 161 171 162
-3.29 -2.09 -1.20 161 171 162
-3.29 -2.17 -1.20 161 173 163
-3.29 -2.26 -1.20 161 173 163
-3.29 -2.35 -1.20 162 172 164
-3.29 -2.44 -1.20 162 172 164
-3.29 -2.52 -1.20 161 170 165
-3.29 -2.61 -1.20 161 170 165
-3.45 -2.72 -1.05 164 170 168
-3.45 -2.81 -1.05 162 166 165
-3.45 -2.89 -1.05 165 167 166
-3.29 -2.96 -1.20 165 167 166
-3.45 -3.07 -1.05 166 168 167
-3.29 -3.14 -1.20 164 168 167
-3.29 -3.22 -1.20 164 168 167
-3.29 -3.31 -1.20 164 170 168
-3.29 -3.40 -1.20 165 171 169
-3.29 -3.49 -1.20 162 168 166
-3.29 -3.57 -1.20 162 168 166
-3.29 -3.66 -1.20 162 168 166
-3.29 -3.75 -1.20 162 168 166
-3.29 -3.84 -1.20 163 167 166
-3.29 -3.92 -1.20 164 168 167
-3.29 -4.01 -1.20 165 169 168
-3.29 -4.10 -1.20 165 169 168
-3.29 -4.19 -1.20 163 169 167
-3.45 -4.29 -1.05 163 169 167
-3.45 -4.37 -1.05 160 169 166
-3.45 -4.46 -1.05 160 169 166
-3.45 -4.55 -1.05 161 170 165
-3.45 -4.63 -1.05 161 170 165
-3.45 -4.72 -1.05 161 170 165
-3.45 -4.81 -1.05 160 169 164
-3.45 -4.90 -1.05 161 170 165
-3.29 -4.97 -1.20 161 170 167
-3.29 -5.06 -1.20 162 171 168
-3.29 -5.15 -1.20 161 171 170
-3.29 -5.24 -1.20 161 171 170
-3.29 -5.32 -1.20 161 171 172
-3.29 -5.41 -1.20 161 171 172
-3.29 -5.50 -1.20 163 171 173
-3.29 -5.59 -1.20 163 171 173
-3.29 -5.67 -1.20 163 171 173
-3.29 -5.76 -1.20 162 170 172
-3.29 -5.85 -1.20 162 170 172
-3.29 -5.94 -1.20 162 170 172
-3.29 -6.02 -1.20 163 172 171
-3.29 -6.11 -1.20 163 172 171
-3.29 -6.20 -1.20 162 171 170
-3.29 -6.29 -1.20 167 176 175
-3.29 -6.37 -1.20 157 167 166
-3.29 -6.46 -1.20 158 168 167
-3.29 -6.55 -1.20 171 182 178
-3.29 -6.64 -1.20 160 171 167
-3.29 -6.72 -1.20 166 177 173
-3.29 -6.81 -1.20 161 171 170
-3.29 -6.90 -1.20 164 173 178
-3.29 -6.99 -1.20 160 169 174
-3.29 -7.07 -1.20 163 172 177
-3.29 -7.16 -1.20 169 179 181
-3.29 -7.25 -1.20 170 180 182
-3.29 -7.33 -1.20 168 176 179
-3.29 -7.42 -1.20 164 172 175
-3.29 -7.51 -1.20 166 174 176
-3.29 -7.60 -1.20 170 178 180
-3.29 -7.68 -1.20 170 179 178
-3.45 -7.77 -1.05 166 175 174
-3.45 -7.86 -1.05 164 173 170
-3.29 -7.95 -1.20 167 176 173
-3.29 -8.03 -1.20 169 178 175
-3.29 -8.12 -1.20 168 177 174
-3.45 -8.21 -1.05 167 178 172
-3.45 -8.29 -1.05 166 177 171
-3.45 -8.38 -1.05 166 177 171
-3.45 -8.47 -1.05 168 179 173
-3.45 -8.55 -1.05 169 178 173
-3.45 -8.64 -1.05 168 177 172
-3.45 -8.73 -1.05 169 178 173
-3.45 -8.82 -1.05 170 179 174
-3.45 -8.90 -1.05 173 179 175
-3.45 -8.99 -1.05 173 178 174
-3.45 -9.08 -1.05 174 179 175
-3.45 -9.16 -1.05 174 179 175
-3.45 -9.25 -1.05 175 180 176
-3.45 -9.34 -1.05 174 179 175
-3.45 -9.43 -1.05 174 179 175
-3.45 -9.51 -1.05 175 181 177
-3.45 -9.60 -1.05 175 181 177
-3.45 -9.69 -1.05 175 181 177
-3.45 -9.77 -1.05 175 181 177
-3.45 -9.86 -1.05 175 181 177
-3.29 -9.96 -1.20 175 181 177
-3.29 -10.05 -1.20 175 181 177
-3.29 -10.13 -1.20 175 181 177
-3.45 -10.21 -1.05 174 180 178
-3.45 -10.30 -1.05 175 181 179
-3.45 -10.38 -1.05 176 182 180
-3.45 -10.47 -1.05 176 182 180
-3.45 -10.56 -1.05 176 182 180
-3.29 -10.66 -1.20 175 181 179
-3.29 -10.75 -1.20 174 180 178
-3.29 -10.83 -1.20 174 180 176
-3.29 -10.92 -1.20 174 180 170
-3.29 -11.01 -1.20 165 170 163
-3.29 -11.10 -1.20 184 185 190
-3.29 -11.18 -1.20 131 134 141
-3.29 -11.27 -1.20 2 5 22
-3.29 -11.36 -1.20 27 32 64
-3.29 -11.45 -1.20 48 54 102
-3.45 -11.52 -1.05 37 47 108
-3.45 -11.60 -1.05 37 47 116
-3.45 -11.69 -1.05 32 47 114
-3.45 -11.78 -1.05 29 43 116
-3.60 -11.85 -0.89 27 40 119
-3.75 -11.91 -0.73 29 42 121
-3.90 -11.98 -0.58 32 44 116
-4.03 -12.05 -0.45 33 47 110
-4.03 -12.14 -0.45 39 51 109
-4.03 -12.22 -0.45 26 38 86
-4.03 -12.31 -0.45 28 42 79
-4.03 -12.39 -0.45 62 74 100
-4.03 -12.48 -0.45 105 115 125
-4.03 -12.56 -0.45 133 141 143
-4.03 -12.65 -0.45 149 154 147
-4.03 -12.74 -0.45 159 161 150
-4.03 -12.82 -0.45 150 152 139
-4.03 -12.91 -0.45 133 133 121
-4.03 -12.99 -0.45 160 158 146
-4.03 -13.08 -0.45 157 158 142
-3.90 -13.18 -0.58 166 168 147
-3.90 -13.27 -0.58 162 164 142
-3.90 -13.36 -0.58 157 159 137
-3.90 -13.44 -0.58 166 165 147
-3.75 -13.55 -0.73 163 161 146
-3.60 -13.67 -0.89 161 159 146
-3.60 -13.75 -0.89 166 164 151
-3.45 -13.87 -1.05 169 170 156
-3.45 -13.96 -1.05 164 165 151
-3.45 -14.22 -1.05 162 164 153
-3.60 -14.27 -0.89 158 160 149
-3.60 -14.36 -0.89 158 159 151
-3.60 -14.45 -0.89 157 158 150
-3.60 -14.54 -0.89 152 155 146
-3.60 -14.62 -0.89 150 153 144
-3.60 -14.71 -0.89 148 151 144
-3.60 -14.80 -0.89 143 146 139
-3.75 -14.85 -0.73 143 144 138
-3.75 -14.94 -0.73 145 146 140
-3.75 -15.02 -0.73 146 147 139
-3.90 -15.08 -0.58 142 143 135
-3.90 -15.16 -0.58 137 140 131
-3.90 -15.25 -0.58 136 142 132
-3.90 -15.34 -0.58 137 143 133
-3.90 -15.42 -0.58 145 151 141
-4.03 -15.48 -0.45 132 138 128
-3.90 -15.59 -0.58 118 121 114
-4.03 -15.65 -0.45 95 98 91
-4.03 -15.74 -0.45 62 63 58
-4.03 -15.82 -0.45 39 40 35
-4.03 -15.91 -0.45 51 51 49
-4.03 -15.99 -0.45 78 78 78
-4.03 -16.08 -0.45 90 91 93
-4.03 -16.16 -0.45 75 76 80
-4.03 -16.25 -0.45 56 60 63
-4.03 -16.34 -0.45 47 51 54
-4.03 -16.42 -0.45 44 48 49
-4.03 -16.51 -0.45 41 45 46
-4.18 -16.55 -0.29 35 41 41
-4.18 -16.64 -0.29 30 36 36
-4.18 -16.72 -0.29 17 23 23
-4.18 -16.81 -0.29 12 18 18
-4.33 -16.85 -0.13 16 20 19
-4.18 -16.98 -0.29 20 24 23
-4.18 -17.07 -0.29 18 22 21
-4.18 -17.15 -0.29 22 24 23
-4.18 -17.24 -0.29 22 27 23
-4.18 -17.32 -0.29 14 26 16
-4.18 -17.41 -0.29 27 34 26
-4.33 -17.45 -0.13 33 31 32
-4.33 -17.53 -0.13 45 39 43
-4.33 -17.62 -0.13 55 51 52
-4.33 -17.70 -0.13 11 10 5
-4.33 -17.79 -0.13 99 101 80
-4.33 -17.87 -0.13 245 240 208
-4.33 -17.96 -0.13 232 211 166
-4.18 -18.09 -0.29 229 199 147
-4.03 -18.22 -0.45 238 202 150
-4.03 -18.31 -0.45 231 199 152
-4.18 -18.35 -0.29 217 198 165
-4.18 -18.43 -0.29 206 198 179
-3.90 -18.60 -0.58 195 194 192
-3.75 -18.74 -0.73 199 200 205
-3.60 -18.87 -0.89 199 200 202
-3.60 -18.96 -0.89 202 202 202
-3.45 -19.09 -1.05 203 203 203
-3.45 -19.18 -1.05 203 203 203
-3.45 -19.27 -1.05 203 203 203
-3.45 -19.36 -1.05 202 202 202
-3.60 -19.39 -0.89 203 203 203
-3.60 -19.48 -0.89 201 201 201
-3.45 -19.62 -1.05 201 201 201
-3.45 -19.70 -1.05 202 202 202
-3.45 -19.79 -1.05 202 202 202
-3.45 -19.88 -1.05 203 203 203
-3.45 -19.97 -1.05 202 202 202
-3.45 -20.05 -1.05 201 201 201
-3.60 -20.09 -0.89 200 200 200
-3.60 -20.17 -0.89 202 202 204
-3.60 -20.26 -0.89 202 202 204
-3.60 -20.35 -0.89 203 203 205
-3.60 -20.43 -0.89 203 203 205
-3.60 -20.52 -0.89 204 203 208
-3.60 -20.61 -0.89 204 203 208
-3.60 -20.69 -0.89 205 204 209
-3.60 -20.78 -0.89 205 204 209
-3.60 -20.87 -0.89 204 203 208
-3.45 -21.01 -1.05 204 203 208
-3.45 -21.10 -1.05 205 205 207
-3.45 -21.19 -1.05 206 206 208
-3.45 -21.27 -1.05 206 206 206
-3.45 -21.36 -1.05 206 206 206
-3.45 -21.45 -1.05 206 206 206
-3.45 -21.53 -1.05 204 204 204
-3.45 -21.62 -1.05 205 205 205
-3.45 -21.71 -1.05 205 205 205
-3.45 -21.79 -1.05 205 205 205
-3.45 -21.88 -1.05 205 205 203
-3.45 -21.97 -1.05 205 205 203
-3.45 -22.06 -1.05 206 206 204
-3.45 -22.14 -1.05 206 206 204
-3.45 -22.23 -1.05 204 204 202
-3.45 -22.32 -1.05 206 206 204
-3.45 -22.40 -1.05 206 206 204
-3.45 -22.49 -1.05 205 205 203
-3.60 -22.52 -0.89 204 204 204
-3.60 -22.60 -0.89 205 205 205
-3.60 -22.69 -0.89 206 206 206
-3.60 -22.78 -0.89 206 206 206
-3.60 -22.86 -0.89 204 208 207
-3.60 -22.95 -0.89 204 208 207
-3.45 -23.10 -1.05 206 208 207
-3.45 -23.19 -1.05 206 208 207
-3.45 -23.28 -1.05 206 206 206
-3.45 -23.36 -1.05 206 206 206
-3.45 -23.45 -1.05 206 204 205
-3.60 -23.47 -0.89 206 204 205
-3.45 -23.62 -1.05 207 205 206
-3.45 -23.71 -1.05 206 205 203
-3.45 -23.80 -1.05 207 206 204
-3.60 -23.82 -0.89 207 207 205
-3.60 -23.90 -0.89 207 207 205
-3.60 -23.99 -0.89 205 207 204
-3.60 -24.08 -0.89 206 206 204
-3.60 -24.16 -0.89 207 206 204
-3.45 -24.32 -1.05 209 205 204
-3.45 -24.41 -1.05 210 206 205
-3.45 -24.50 -1.05 210 206 205
-3.45 -24.58 -1.05 211 207 208
-3.45 -24.67 -1.05 211 207 208
-3.60 -24.68 -0.89 211 207 208
-3.60 -24.77 -0.89 211 207 208
-3.60 -24.86 -0.89 209 205 206
-3.60 -24.94 -0.89 209 205 206
-3.60 -25.03 -0.89 209 205 206
-3.45 -25.19 -1.05 209 205 206
-3.45 -25.28 -1.05 210 206 205
-3.45 -25.37 -1.05 210 206 205
-3.45 -25.45 -1.05 210 206 203
-3.45 -25.54 -1.05 211 207 204
-3.45 -25.63 -1.05 210 206 205
-3.45 -25.71 -1.05 211 207 206
-3.45 -25.80 -1.05 211 207 206
-3.45 -25.89 -1.05 209 205 204
-3.45 -25.98 -1.05 209 205 204
-3.45 -26.06 -1.05 209 205 204
-3.45 -26.15 -1.05 210 206 205
-3.45 -26.24 -1.05 210 206 205
-3.45 -26.32 -1.05 210 206 205
-3.45 -26.41 -1.05 211 207 206
-3.45 -26.50 -1.05 211 207 206
-3.45 -26.59 -1.05 211 207 206
-3.45 -26.67 -1.05 211 207 206
-3.45 -26.76 -1.05 211 207 206
-3.60 -26.77 -0.89 212 208 207
-3.60 -26.85 -0.89 212 208 209
-3.60 -26.94 -0.89 212 208 209
-3.45 -27.11 -1.05 212 208 209
-3.45 -27.20 -1.05 212 208 209
-3.45 -27.28 -1.05 212 208 209
-3.45 -27.37 -1.05 212 208 209
-3.45 -27.46 -1.05 212 208 207
-3.45 -27.54 -1.05 212 208 207
-3.45 -27.63 -1.05 214 210 209
-3.45 -27.72 -1.05 215 211 210
-3.45 -27.81 -1.05 216 212 211
-3.45 -27.89 -1.05 216 212 211
-3.45 -27.98 -1.05 216 212 211
-3.45 -28.07 -1.05 216 212 211
-3.45 -28.15 -1.05 216 212 211
-3.45 -28.24 -1.05 214 212 213
-3.45 -28.33 -1.05 214 212 213
-3.45 -28.42 -1.05 217 213 214
-3.45 -28.50 -1.05 217 213 214
-3.45 -28.59 -1.05 217 213 214
-3.45 -28.68 -1.05 218 214 215
-3.45 -28.76 -1.05 219 213 215
-3.45 -28.85 -1.05 218 212 214
-3.45 -28.94 -1.05 219 213 215
-3.45 -29.02 -1.05 219 213 215
-3.45 -29.11 -1.05 218 214 215
-3.45 -29.20 -1.05 218 214 215
-3.45 -29.29 -1.05 218 214 215
-3.60 -29.28 -0.89 219 215 216
-3.60 -29.37 -0.89 217 215 216
-3.60 -29.45 -0.89 217 215 216
-3.60 -29.54 -0.89 218 214 213
-3.60 -29.63 -0.89 218 214 213
-3.60 -29.72 -0.89 220 216 215
-3.60 -29.80 -0.89 218 214 213
-3.60 -29.89 -0.89 216 212 211
-3.60 -29.98 -0.89 220 216 215
-3.60 -30.06 -0.89 227 223 222
-3.60 -30.15 -0.89 206 202 203
-3.60 -30.24 -0.89 130 124 126
-3.60 -30.32 -0.89 94 88 90
-3.60 -30.41 -0.89 102 93 96
-3.45 -30.59 -1.05 109 98 102
-3.45 -30.68 -1.05 114 103 107
-3.49 20.80 -1.12 0 0 0
-3.49 20.71 -1.12 0 0 0
-3.49 20.63 -1.12 0 0 0
-3.49 20.54 -1.12 0 0 0
-3.49 20.45 -1.12 0 0 0
-3.49 20.36 -1.12 0 0 0
-3.49 20.28 -1.12 0 0 0
-3.49 20.19 -1.12 0 0 0
-3.49 20.10 -1.12 0 0 0
-3.49 20.02 -1.12 125 120 116
-3.49 19.93 -1.12 125 120 116
-3.49 19.84 -1.12 125 120 116
-3.49 19.76 -1.12 124 119 116
-3.49 19.67 -1.12 124 119 116
-3.49 19.58 -1.12 123 119 116
-3.49 19.49 -1.12 124 120 117
-3.49 19.41 -1.12 124 120 117
-3.49 19.32 -1.12 125 121 118
-3.49 19.23 -1.12 125 122 117
-3.49 19.15 -1.12 124 121 116
-3.49 19.06 -1.12 125 120 114
-3.49 18.97 -1.12 124 119 113
-3.34 18.99 -1.28 127 120 112
-3.34 18.91 -1.28 127 120 112
-3.34 18.82 -1.28 128 121 111
-3.34 18.73 -1.28 128 121 113
-3.34 18.64 -1.28 127 122 116
-3.34 18.56 -1.28 127 122 118
-3.34 18.47 -1.28 126 121 117
-3.34 18.38 -1.28 127 122 118
-3.34 18.29 -1.28 128 123 119
-3.34 18.21 -1.28 129 124 120
-3.34 18.12 -1.28 129 124 120
-3.34 18.03 -1.28 128 123 117
-3.34 17.94 -1.28 129 124 118
-3.34 17.86 -1.28 130 125 119
-3.49 17.66 -1.12 132 127 121
-3.49 17.58 -1.12 132 127 121
-3.49 17.49 -1.12 131 126 120
-3.49 17.40 -1.12 129 124 118
-3.49 17.32 -1.12 128 123 117
-3.49 17.23 -1.12 132 128 119
-3.49 17.14 -1.12 131 127 118
-3.49 17.05 -1.12 131 127 118
-3.49 16.97 -1.12 132 128 119
-3.49 16.88 -1.12 134 129 123
-3.49 16.79 -1.12 133 128 122
-3.49 16.71 -1.12 131 126 120
-3.49 16.62 -1.12 129 124 118
-3.49 16.53 -1.12 132 127 123
-3.49 16.45 -1.12 133 128 124
-3.34 16.46 -1.28 135 130 126
-3.34 16.37 -1.28 135 130 126
-3.49 16.18 -1.12 134 129 126
-3.49 16.10 -1.12 134 129 126
-3.49 16.01 -1.12 134 129 126
-3.49 15.92 -1.12 133 129 126
-3.49 15.84 -1.12 133 129 126
-3.49 15.75 -1.12 134 130 129
-3.49 15.66 -1.12 134 130 129
-3.49 15.57 -1.12 135 129 131
-3.49 15.49 -1.12 136 130 132
-3.49 15.40 -1.12 138 129 132
-3.49 15.31 -1.12 138 129 132
-3.49 15.23 -1.12 136 127 130
-3.49 15.14 -1.12 136 127 130
-3.49 15.05 -1.12 137 128 129
-3.49 14.96 -1.12 138 129 130
-3.49 14.88 -1.12 139 131 128
-3.49 14.79 -1.12 139 131 128
-3.49 14.70 -1.12 137 132 126
-3.49 14.62 -1.12 137 132 126
-3.34 14.62 -1.28 137 132 126
-3.34 14.53 -1.28 138 133 127
-3.34 14.45 -1.28 139 134 130
-3.34 14.36 -1.28 139 134 130
-3.49 14.18 -1.12 140 135 132
-3.49 14.09 -1.12 140 136 133
-3.34 14.10 -1.28 138 134 131
-3.34 14.01 -1.28 139 135 134
-3.49 13.83 -1.12 137 133 132
-3.49 13.74 -1.12 135 134 130
-3.49 13.66 -1.12 137 136 132
-3.49 13.57 -1.12 139 138 134
-3.49 13.48 -1.12 139 138 134
-3.49 13.40 -1.12 139 138 133
-3.34 13.40 -1.28 142 139 134
-3.34 13.31 -1.28 143 140 133
-3.34 13.22 -1.28 144 139 133
-3.34 13.13 -1.28 144 139 135
-3.34 13.05 -1.28 144 139 135
-3.34 12.96 -1.28 144 139 136
-3.34 12.87 -1.28 143 138 135
-3.34 12.78 -1.28 143 137 137
-3.34 12.70 -1.28 143 137 137
-3.34 12.61 -1.28 143 137 137
-3.49 12.44 -1.12 144 138 138
-3.49 12.35 -1.12 145 139 139
-3.49 12.26 -1.12 145 139 139
-3.49 12.18 -1.12 145 139 139
-3.49 12.09 -1.12 145 139 139
-3.49 12.00 -1.12 146 140 140
-3.49 11.92 -1.12 147 141 141
-3.49 11.83 -1.12 146 140 142
-3.49 11.74 -1.12 145 139 141
-3.34 11.73 -1.28 144 138 140
-3.34 11.65 -1.28 144 139 136
-3.49 11.48 -1.12 143 138 135
-3.49 11.39 -1.12 143 140 135
-3.49 11.31 -1.12 143 140 135
-3.49 11.22 -1.12 141 138 133
-3.49 11.13 -1.12 141 138 133
-3.49 11.04 -1.12 139 138 134
-3.49 10.96 -1.12 139 138 134
-3.49 10.87 -1.12 139 138 136
-3.49 10.78 -1.12 138 137 135
-3.49 10.70 -1.12 136 134 135
-3.49 10.61 -1.12 135 133 134
-3.49 10.52 -1.12 138 137 135
-3.49 10.43 -1.12 136 135 133
-3.49 10.35 -1.12 135 134 130
-3.49 10.26 -1.12 133 132 128
-3.64 10.10 -0.97 131 130 126
-3.64 10.01 -0.97 130 129 125
-3.64 9.93 -0.97 128 127 123
-3.79 9.77 -0.81 126 125 121
-5.08 9.07 0.53 123 122 118
-5.21 8.93 0.66 124 123 119
-5.21 8.84 0.66 122 121 117
-5.21 8.76 0.66 116 115 113
-5.36 8.61 0.82 112 111 109
-5.36 8.53 0.82 151 149 150
-5.36 8.44 0.82 150 148 149
-5.36 8.36 0.82 147 145 146
-5.36 8.28 0.82 139 137 140
-5.36 8.19 0.82 137 135 138
-5.36 8.11 0.82 138 135 142
-5.36 8.03 0.82 138 132 142
-5.36 7.95 0.82 137 131 143
-5.36 7.86 0.82 138 132 144
-5.36 7.78 0.82 138 132 144
-5.36 7.70 0.82 141 136 143
-5.49 7.56 0.95 140 135 142
-5.49 7.48 0.95 138 135 142
-5.49 7.40 0.95 137 134 141
-5.49 7.31 0.95 137 134 143
-5.49 7.23 0.95 136 133 142
-5.49 7.15 0.95 135 133 144
-5.49 7.07 0.95 136 134 145
-5.49 6.98 0.95 129 132 141
-5.61 6.85 1.08 127 131 140
-5.61 6.77 1.08 108 112 124
-5.61 6.69 1.08 112 116 128
-5.61 6.60 1.08 122 125 140
-5.61 6.52 1.08 105 113 126
-5.61 6.44 1.08 112 120 133
-5.61 6.36 1.08 143 153 162
-5.61 6.28 1.08 150 160 169
-5.61 6.19 1.08 153 166 172
-5.61 6.11 1.08 152 165 171
-5.61 6.03 1.08 126 141 148
-5.61 5.95 1.08 136 150 159
-5.61 5.87 1.08 138 155 163
-5.61 5.78 1.08 129 146 156
-5.61 5.70 1.08 132 149 159
-5.61 5.62 1.08 132 149 159
-5.61 5.54 1.08 132 149 157
-5.74 5.41 1.21 133 150 158
-5.74 5.33 1.21 133 150 158
-5.74 5.24 1.21 134 151 159
-5.74 5.16 1.21 133 150 158
-5.61 5.13 1.08 132 149 157
-5.61 5.05 1.08 133 152 159
-5.61 4.96 1.08 134 153 160
-5.61 4.72 1.08 135 154 161
-5.61 4.64 1.08 135 154 161
-5.61 4.55 1.08 135 154 161
-5.61 4.47 1.08 135 154 161
-5.61 4.39 1.08 135 154 161
-5.74 4.26 1.21 135 154 161
-5.74 4.18 1.21 135 154 161
-5.74 4.10 1.21 135 154 161
-5.74 4.02 1.21 135 154 161
-5.74 3.94 1.21 136 155 162
-5.74 3.86 1.21 137 156 163
-5.89 3.72 1.37 136 155 162
-5.89 3.64 1.37 137 156 163
-5.89 3.56 1.37 138 157 164
-5.89 3.48 1.37 139 158 165
-5.89 3.40 1.37 140 157 165
-5.89 3.32 1.37 140 157 165
-5.89 3.24 1.37 139 156 164
-5.89 3.15 1.37 139 156 164
-5.89 3.07 1.37 138 156 166
-5.89 2.99 1.37 139 157 167
-5.89 2.91 1.37 138 158 165
-5.89 2.83 1.37 141 161 168
-5.89 2.75 1.37 140 159 166
-5.74 2.71 1.21 143 162 166
-5.74 2.63 1.21 154 169 174
-5.61 2.59 1.08 159 169 171
-5.61 2.50 1.08 163 168 172
-5.61 2.42 1.08 161 165 166
-5.49 2.38 0.95 196 198 197
-5.36 2.33 0.82 197 197 195
-5.21 2.29 0.66 196 197 192
-5.08 2.24 0.53 198 199 193
-4.93 2.20 0.37 199 200 194
-4.65 2.19 0.08 197 198 190
-4.37 2.18 -0.21 194 195 187
-4.22 2.14 -0.36 198 199 193
-3.94 2.13 -0.65 201 202 196
-3.94 2.04 -0.65 173 176 169
-3.94 1.95 -0.65 166 169 162
-3.79 1.91 -0.81 162 164 159
-3.64 1.86 -0.97 170 172 167
-3.64 1.77 -0.97 166 171 165
-3.49 1.72 -1.12 165 170 164
-3.49 1.64 -1.12 164 169 165
-3.49 1.55 -1.12 162 167 163
-3.49 1.46 -1.12 158 164 160
-3.49 1.38 -1.12 158 164 162
-3.49 1.29 -1.12 158 164 162
-3.49 1.20 -1.12 154 161 154
-3.49 1.11 -1.12 154 161 154
-3.49 1.03 -1.12 154 161 154
-3.49 0.94 -1.12 155 162 155
-3.49 0.85 -1.12 155 162 155
-3.49 0.77 -1.12 154 161 154
-3.49 0.68 -1.12 154 160 156
-3.49 0.59 -1.12 153 159 155
-3.49 0.50 -1.12 154 160 156
-3.49 0.42 -1.12 155 161 157
-3.49 0.33 -1.12 158 164 160
-3.49 0.24 -1.12 161 167 163
-3.49 0.16 -1.12 161 170 165
-3.49 0.07 -1.12 162 171 166
-3.49 -0.02 -1.12 161 170 165
-3.49 -0.11 -1.12 162 168 164
-3.49 -0.19 -1.12 165 171 169
-3.49 -0.28 -1.12 164 168 167
-3.49 -0.37 -1.12 164 168 167
-3.49 -0.45 -1.12 164 168 167
-3.49 -0.54 -1.12 166 170 169
-3.49 -0.63 -1.12 163 169 167
-3.49 -0.72 -1.12 161 167 165
-3.49 -0.80 -1.12 164 170 168
-3.49 -0.89 -1.12 164 170 168
-3.49 -0.98 -1.12 164 170 166
-3.49 -1.06 -1.12 164 170 166
-3.49 -1.15 -1.12 164 170 166
-3.49 -1.24 -1.12 163 169 165
-3.49 -1.32 -1.12 163 169 165
-3.49 -1.41 -1.12 162 168 164
-3.49 -1.50 -1.12 163 168 162
-3.49 -1.59 -1.12 163 168 162
-3.49 -1.67 -1.12 163 168 162
-3.49 -1.76 -1.12 163 168 162
-3.49 -1.85 -1.12 163 170 163
-3.49 -1.93 -1.12 163 170 163
-3.49 -2.02 -1.12 163 170 163
-3.49 -2.11 -1.12 164 171 164
-3.49 -2.20 -1.12 162 172 164
-3.49 -2.28 -1.12 161 171 163
-3.49 -2.37 -1.12 162 168 164
-3.49 -2.46 -1.12 162 168 164
-3.49 -2.54 -1.12 163 169 165
-3.49 -2.63 -1.12 163 169 165
-3.49 -2.72 -1.12 164 168 167
-3.49 -2.81 -1.12 163 168 164
-3.49 -2.89 -1.12 165 167 164
-3.49 -2.98 -1.12 164 166 163
-3.49 -3.07 -1.12 165 167 164
-3.49 -3.15 -1.12 163 168 164
-3.49 -3.24 -1.12 164 169 165
-3.49 -3.33 -1.12 164 170 166
-3.49 -3.42 -1.12 165 171 167
-3.49 -3.50 -1.12 163 169 165
-3.49 -3.59 -1.12 162 168 164
-3.49 -3.68 -1.12 162 168 164
-3.34 -3.75 -1.28 162 168 164
-3.34 -3.84 -1.28 163 169 165
-3.34 -3.92 -1.28 163 169 165
-3.49 -4.03 -1.12 164 169 165
-3.49 -4.11 -1.12 164 169 165
-3.49 -4.20 -1.12 164 170 168
-3.49 -4.29 -1.12 163 169 167
-3.49 -4.37 -1.12 163 169 167
-3.49 -4.46 -1.12 163 169 167
-3.49 -4.55 -1.12 163 169 165
-3.49 -4.63 -1.12 163 169 165
-3.49 -4.72 -1.12 162 171 166
-3.49 -4.81 -1.12 159 168 163
-3.49 -4.90 -1.12 160 169 164
-3.49 -4.98 -1.12 160 169 166
-3.49 -5.07 -1.12 161 170 167
-3.49 -5.16 -1.12 162 171 170
-3.49 -5.24 -1.12 162 171 170
-3.49 -5.33 -1.12 161 171 170
-3.49 -5.42 -1.12 161 171 170
-3.49 -5.51 -1.12 163 172 171
-3.49 -5.59 -1.12 163 172 171
-3.49 -5.68 -1.12 162 171 170
-3.49 -5.77 -1.12 161 170 169
-3.34 -5.85 -1.28 161 170 169
-3.34 -5.94 -1.28 162 171 170
-3.34 -6.02 -1.28 163 172 171
-3.49 -6.12 -1.12 164 173 172
-3.34 -6.20 -1.28 161 170 169
-3.34 -6.29 -1.28 169 178 177
-3.34 -6.37 -1.28 164 173 172
-3.34 -6.46 -1.28 169 178 177
-3.34 -6.55 -1.28 167 176 175
-3.34 -6.64 -1.28 162 171 170
-3.34 -6.72 -1.28 163 172 171
-3.34 -6.81 -1.28 148 156 158
-3.34 -6.90 -1.28 145 152 158
-3.34 -6.99 -1.28 145 153 156
-3.49 -7.07 -1.12 155 163 166
-3.49 -7.16 -1.12 164 172 175
-3.49 -7.25 -1.12 167 175 178
-3.49 -7.34 -1.12 169 177 179
-3.49 -7.42 -1.12 171 179 181
-3.49 -7.51 -1.12 163 172 171
-3.49 -7.60 -1.12 163 172 171
-3.49 -7.68 -1.12 164 173 172
-3.49 -7.77 -1.12 168 177 176
-3.49 -7.86 -1.12 169 178 175
-3.49 -7.94 -1.12 168 177 174
-3.49 -8.03 -1.12 167 176 173
-3.49 -8.12 -1.12 167 176 173
-3.49 -8.21 -1.12 168 179 175
-3.49 -8.29 -1.12 167 178 174
-3.49 -8.38 -1.12 167 178 174
-3.49 -8.47 -1.12 169 180 176
-3.49 -8.55 -1.12 170 179 176
-3.49 -8.64 -1.12 169 178 175
-3.49 -8.73 -1.12 169 178 175
-3.49 -8.82 -1.12 170 179 176
-3.49 -8.90 -1.12 173 179 177
-3.49 -8.99 -1.12 172 178 176
-3.49 -9.08 -1.12 172 178 176
-3.49 -9.16 -1.12 173 177 176
-3.49 -9.25 -1.12 174 178 177
-3.49 -9.34 -1.12 174 178 177
-3.49 -9.43 -1.12 174 178 177
-3.49 -9.51 -1.12 175 181 179
-3.49 -9.60 -1.12 175 181 179
-3.49 -9.69 -1.12 176 182 180
-3.49 -9.77 -1.12 176 182 180
-3.49 -9.86 -1.12 176 182 180
-3.49 -9.95 -1.12 175 181 179
-3.49 -10.04 -1.12 174 180 178
-3.49 -10.12 -1.12 174 180 178
-3.49 -10.21 -1.12 174 180 176
-3.49 -10.30 -1.12 175 181 177
-3.49 -10.38 -1.12 176 182 178
-3.49 -10.47 -1.12 177 183 179
-3.49 -10.56 -1.12 176 182 178
-3.49 -10.65 -1.12 175 181 177
-3.49 -10.73 -1.12 173 179 175
-3.49 -10.82 -1.12 172 179 172
-3.49 -10.91 -1.12 170 177 169
-3.49 -10.99 -1.12 163 170 163
-3.49 -11.08 -1.12 189 192 199
-3.49 -11.17 -1.12 17 22 28
-3.49 -11.25 -1.12 3 9 25
-3.49 -11.34 -1.12 38 44 76
-3.49 -11.43 -1.12 41 49 96
-3.49 -11.52 -1.12 38 48 107
-3.49 -11.60 -1.12 39 50 116
-3.64 -11.67 -0.97 35 50 115
-3.79 -11.74 -0.81 31 45 116
-3.94 -11.81 -0.65 29 42 120
-4.07 -11.88 -0.52 30 43 121
-4.22 -11.95 -0.36 32 45 115
-4.22 -12.03 -0.36 34 46 106
-4.22 -12.12 -0.36 35 49 96
-4.22 -12.20 -0.36 34 46 84
-4.22 -12.29 -0.36 49 63 90
-4.07 -12.39 -0.52 91 102 120
-4.07 -12.48 -0.52 124 133 140
-4.07 -12.56 -0.52 124 130 130
-4.07 -12.65 -0.52 122 127 120
-4.07 -12.74 -0.52 139 140 132
-4.07 -12.82 -0.52 149 151 138
-4.07 -12.91 -0.52 150 150 138
-4.07 -12.99 -0.52 170 168 156
-4.07 -13.08 -0.52 157 158 142
-3.94 -13.18 -0.65 154 155 139
-3.94 -13.27 -0.65 158 160 139
-3.94 -13.36 -0.65 163 164 146
-3.94 -13.44 -0.65 162 160 145
-3.94 -13.53 -0.65 159 157 144
-3.79 -13.64 -0.81 158 158 146
-3.64 -13.75 -0.97 159 159 147
-3.64 -13.84 -0.97 156 156 144
-3.64 -13.93 -0.97 156 156 144
-3.64 -14.01 -0.97 163 163 153
-3.64 -14.10 -0.97 168 168 158
-3.49 -14.22 -1.12 166 167 159
-3.64 -14.27 -0.97 161 162 154
-3.64 -14.36 -0.97 161 162 154
-3.64 -14.45 -0.97 162 163 155
-3.64 -14.54 -0.97 159 162 155
-3.64 -14.62 -0.97 158 161 154
-3.64 -14.71 -0.97 156 159 152
-3.64 -14.80 -0.97 150 153 146
-3.79 -14.85 -0.81 149 150 142
-3.79 -14.94 -0.81 148 149 141
-3.79 -15.02 -0.81 143 146 137
-3.94 -15.08 -0.65 138 141 132
-3.94 -15.16 -0.65 137 140 131
-3.94 -15.25 -0.65 140 143 134
-3.94 -15.34 -0.65 142 145 136
-3.94 -15.42 -0.65 140 143 136
-3.94 -15.51 -0.65 144 147 140
-3.94 -15.59 -0.65 146 148 143
-3.94 -15.68 -0.65 141 143 138
-3.94 -15.77 -0.65 125 127 124
-3.94 -15.85 -0.65 99 101 98
-3.94 -15.94 -0.65 74 74 74
-3.94 -16.02 -0.65 58 58 58
-4.07 -16.08 -0.52 46 50 51
-4.07 -16.34 -0.52 34 38 39
-4.07 -16.42 -0.52 41 47 47
-4.07 -16.51 -0.52 49 55 55
-4.22 -16.55 -0.36 52 58 58
-4.22 -16.64 -0.36 50 56 56
-4.22 -16.72 -0.36 49 55 55
-4.22 -16.81 -0.36 35 41 41
-4.37 -16.85 -0.21 24 30 28
-4.22 -16.98 -0.36 19 25 23
-4.22 -17.07 -0.36 18 22 21
-4.37 -17.11 -0.21 18 22 21
-4.37 -17.19 -0.21 10 16 14
-4.37 -17.28 -0.21 11 21 13
-4.37 -17.36 -0.21 22 28 24
-4.37 -17.45 -0.21 26 22 23
-4.37 -17.53 -0.21 37 28 31
-4.37 -17.62 -0.21 45 42 37
-4.37 -17.70 -0.21 4 1 0
-4.37 -17.79 -0.21 158 157 126
-4.37 -17.87 -0.21 253 245 199
-4.37 -17.96 -0.21 224 199 145
-4.37 -18.04 -0.21 235 200 144
-4.22 -18.18 -0.36 239 204 148
-4.22 -18.26 -0.36 224 193 147
-4.22 -18.35 -0.36 213 194 161
-4.37 -18.38 -0.21 210 202 183
-4.22 -18.52 -0.36 195 196 191
-4.07 -18.65 -0.52 197 198 202
-3.94 -18.78 -0.65 199 201 200
-3.79 -18.91 -0.81 201 201 201
-3.64 -19.05 -0.97 202 202 202
-3.64 -19.13 -0.97 203 203 203
-3.64 -19.22 -0.97 202 202 202
-3.64 -19.31 -0.97 202 202 202
-3.64 -19.39 -0.97 203 203 203
-3.64 -19.48 -0.97 202 202 202
-3.64 -19.57 -0.97 202 202 202
-3.64 -19.65 -0.97 203 203 203
-3.64 -19.74 -0.97 204 204 204
-3.64 -19.83 -0.97 204 204 204
-3.64 -19.91 -0.97 203 203 203
-3.64 -20.00 -0.97 201 201 201
-3.79 -20.03 -0.81 200 200 200
-3.79 -20.12 -0.81 201 201 201
-3.79 -20.21 -0.81 201 201 201
-3.79 -20.29 -0.81 202 202 202
-3.79 -20.38 -0.81 203 203 203
-3.79 -20.47 -0.81 204 204 206
-3.79 -20.55 -0.81 204 204 206
-3.79 -20.64 -0.81 204 203 208
-3.64 -20.78 -0.97 204 203 208
-3.64 -20.87 -0.97 203 202 207
-3.64 -20.95 -0.97 204 203 208
-3.49 -21.10 -1.12 205 204 209
-3.49 -21.19 -1.12 206 205 210
-3.49 -21.27 -1.12 206 206 208
-3.49 -21.36 -1.12 205 205 207
-3.49 -21.45 -1.12 204 204 206
-3.49 -21.53 -1.12 206 206 208
-3.49 -21.62 -1.12 205 205 207
-3.49 -21.71 -1.12 205 205 205
-3.49 -21.79 -1.12 205 205 205
-3.49 -21.88 -1.12 207 207 207
-3.49 -21.97 -1.12 207 207 207
-3.64 -22.00 -0.97 207 207 205
-3.64 -22.08 -0.97 206 206 204
-3.64 -22.17 -0.97 204 204 202
-3.64 -22.26 -0.97 205 205 203
-3.64 -22.34 -0.97 206 206 206
-3.64 -22.43 -0.97 204 204 204
-3.64 -22.52 -0.97 204 204 204
-3.64 -22.60 -0.97 205 205 205
-3.64 -22.69 -0.97 206 206 208
-3.64 -22.78 -0.97 205 205 207
-3.64 -22.86 -0.97 206 207 209
-3.64 -22.95 -0.97 206 207 209
-3.64 -23.04 -0.97 207 207 209
-3.64 -23.12 -0.97 206 206 208
-3.64 -23.21 -0.97 205 205 205
-3.64 -23.30 -0.97 205 205 205
-3.64 -23.38 -0.97 206 204 205
-3.64 -23.47 -0.97 206 204 205
-3.64 -23.56 -0.97 205 203 204
-3.64 -23.64 -0.97 205 204 202
-3.64 -23.73 -0.97 206 205 203
-3.64 -23.82 -0.97 206 205 203
-3.64 -23.90 -0.97 206 205 203
-3.64 -23.99 -0.97 205 204 202
-3.64 -24.08 -0.97 205 204 202
-3.64 -24.16 -0.97 209 205 204
-3.64 -24.25 -0.97 209 205 204
-3.64 -24.34 -0.97 210 206 205
-3.64 -24.42 -0.97 210 206 205
-3.64 -24.51 -0.97 211 207 208
-3.64 -24.60 -0.97 211 207 208
-3.64 -24.68 -0.97 211 207 208
-3.64 -24.77 -0.97 211 207 208
-3.64 -24.86 -0.97 208 204 205
-3.64 -24.94 -0.97 208 204 205
-3.64 -25.03 -0.97 209 205 206
-3.64 -25.12 -0.97 210 206 207
-3.64 -25.20 -0.97 210 206 205
-3.64 -25.29 -0.97 210 206 205
-3.49 -25.45 -1.12 210 206 205
-3.49 -25.54 -1.12 210 206 205
-3.49 -25.63 -1.12 211 207 206
-3.49 -25.71 -1.12 210 206 205
-3.49 -25.80 -1.12 209 205 204
-3.49 -25.89 -1.12 208 204 203
-3.49 -25.98 -1.12 208 204 203
-3.49 -26.06 -1.12 208 204 203
-3.49 -26.15 -1.12 209 205 204
-3.64 -26.16 -0.97 208 204 203
-3.64 -26.25 -0.97 209 205 204
-3.64 -26.33 -0.97 210 206 205
-3.64 -26.42 -0.97 210 206 205
-3.64 -26.51 -0.97 210 206 205
-3.64 -26.59 -0.97 210 206 205
-3.64 -26.68 -0.97 210 206 205
-3.64 -26.77 -0.97 211 207 206
-3.64 -26.85 -0.97 211 207 208
-3.64 -26.94 -0.97 211 207 208
-3.64 -27.03 -0.97 211 207 208
-3.64 -27.11 -0.97 211 207 208
-3.64 -27.20 -0.97 211 207 208
-3.49 -27.37 -1.12 211 207 208
-3.49 -27.46 -1.12 211 207 208
-3.64 -27.46 -0.97 211 207 208
-3.64 -27.55 -0.97 214 210 209
-3.64 -27.63 -0.97 214 210 209
-3.49 -27.81 -1.12 214 210 209
-3.49 -27.89 -1.12 214 210 209
-3.49 -27.98 -1.12 215 211 210
-3.64 -27.98 -0.97 215 211 210
-3.64 -28.07 -0.97 215 211 210
-3.64 -28.15 -0.97 214 212 213
-3.64 -28.24 -0.97 214 212 213
-3.64 -28.33 -0.97 216 212 213
-3.64 -28.41 -0.97 216 212 213
-3.64 -28.50 -0.97 216 212 213
-3.64 -28.59 -0.97 216 212 213
-3.64 -28.67 -0.97 218 212 214
-3.64 -28.76 -0.97 218 212 214
-3.64 -28.85 -0.97 220 214 216
-3.64 -28.93 -0.97 219 213 215
-3.64 -29.02 -0.97 217 213 214
-3.64 -29.11 -0.97 216 212 213
-3.64 -29.19 -0.97 216 212 213
-3.64 -29.28 -0.97 217 213 214
-3.64 -29.37 -0.97 216 214 215
-3.64 -29.45 -0.97 219 215 216
-3.64 -29.54 -0.97 218 214 213
-3.64 -29.63 -0.97 218 212 212
-3.79 -29.62 -0.81 220 214 214
-3.79 -29.71 -0.81 219 215 214
-3.79 -29.79 -0.81 217 213 212
-3.79 -29.88 -0.81 219 215 214
-3.64 -30.06 -0.97 224 220 219
-3.64 -30.15 -0.97 206 202 203
-3.64 -30.24 -0.97 149 145 146
-3.64 -30.32 -0.97 83 79 80
-3.64 -30.41 -0.97 91 87 88
-3.64 -30.50 -0.97 100 94 96
-3.64 -30.58 -0.97 102 96 98
-3.53 20.80 -1.20 0 0 0
-3.53 20.71 -1.20 0 0 0
-3.53 20.63 -1.20 0 0 0
-3.53 20.54 -1.20 0 0 0
-3.53 20.45 -1.20 0 0 0
-3.53 20.36 -1.20 0 0 0
-3.53 20.28 -1.20 0 0 0
-3.53 20.19 -1.20 0 0 0
-3.53 20.10 -1.20 0 0 0
-3.53 20.02 -1.20 127 118 119
-3.53 19.93 -1.20 127 118 119
-3.53 19.84 -1.20 127 118 119
-3.53 19.76 -1.20 127 118 119
-3.53 19.67 -1.20 126 117 118
-3.53 19.58 -1.20 124 118 118
-3.53 19.49 -1.20 124 118 118
-3.53 19.41 -1.20 124 119 116
-3.53 19.32 -1.20 125 120 117
-3.53 19.23 -1.20 124 119 116
-3.53 19.15 -1.20 124 119 116
-3.53 19.06 -1.20 124 119 113
-3.53 18.97 -1.20 124 119 113
-3.53 18.88 -1.20 127 120 112
-3.53 18.80 -1.20 128 121 113
-3.53 18.71 -1.20 130 121 112
-3.53 18.62 -1.20 131 122 115
-3.53 18.54 -1.20 128 123 117
-3.53 18.45 -1.20 127 122 118
-3.53 18.36 -1.20 127 122 118
-3.38 18.38 -1.36 129 124 120
-3.38 18.29 -1.36 129 124 120
-3.38 18.21 -1.36 129 124 120
-3.53 18.01 -1.20 129 124 120
-3.53 17.93 -1.20 129 124 118
-3.53 17.84 -1.20 130 125 119
-3.53 17.75 -1.20 131 126 120
-3.53 17.66 -1.20 131 126 120
-3.53 17.58 -1.20 132 127 121
-3.53 17.49 -1.20 131 126 120
-3.53 17.40 -1.20 131 126 120
-3.68 17.21 -1.04 130 125 119
-3.68 17.13 -1.04 132 130 118
-3.68 17.04 -1.04 131 129 117
-3.68 16.95 -1.04 131 128 119
-3.68 16.87 -1.04 131 128 119
-3.53 16.88 -1.20 133 129 120
-3.53 16.79 -1.20 133 129 120
-3.53 16.71 -1.20 131 126 120
-3.53 16.62 -1.20 130 125 119
-3.53 16.53 -1.20 130 125 121
-3.53 16.45 -1.20 132 127 123
-3.53 16.36 -1.20 134 129 126
-3.53 16.27 -1.20 134 129 126
-3.53 16.18 -1.20 130 126 123
-3.53 16.10 -1.20 131 127 126
-3.53 16.01 -1.20 132 128 127
-3.53 15.92 -1.20 132 128 125
-3.68 15.74 -1.04 132 128 125
-3.68 15.65 -1.04 132 128 125
-3.68 15.56 -1.04 132 128 125
-3.68 15.48 -1.04 134 128 128
-3.68 15.39 -1.04 134 128 128
-3.68 15.30 -1.04 137 128 129
-3.68 15.22 -1.04 137 128 129
-3.68 15.13 -1.04 136 127 128
-3.68 15.04 -1.04 137 128 129
-3.53 15.05 -1.20 138 130 128
-3.53 14.96 -1.20 139 131 129
-3.53 14.88 -1.20 140 132 129
-3.53 14.79 -1.20 140 132 129
-3.53 14.70 -1.20 138 133 127
-3.53 14.62 -1.20 138 133 127
-3.53 14.53 -1.20 140 133 125
-3.53 14.44 -1.20 140 133 125
-3.53 14.35 -1.20 141 134 126
-3.53 14.27 -1.20 141 134 128
-3.53 14.18 -1.20 140 135 129
-3.53 14.09 -1.20 141 136 133
-3.53 14.01 -1.20 140 135 132
-3.53 13.92 -1.20 141 137 134
-3.53 13.83 -1.20 140 136 133
-3.53 13.74 -1.20 140 136 133
-3.53 13.66 -1.20 140 136 133
-3.53 13.57 -1.20 138 137 133
-3.53 13.48 -1.20 139 138 134
-3.53 13.40 -1.20 139 138 134
-3.53 13.31 -1.20 142 138 135
-3.53 13.22 -1.20 142 137 133
-3.53 13.13 -1.20 144 136 133
-3.53 13.05 -1.20 145 137 134
-3.53 12.96 -1.20 146 138 135
-3.53 12.87 -1.20 146 138 136
-3.53 12.79 -1.20 146 138 136
-3.53 12.70 -1.20 144 138 138
-3.53 12.61 -1.20 144 138 138
-3.53 12.53 -1.20 143 137 137
-3.53 12.44 -1.20 144 138 138
-3.53 12.35 -1.20 144 140 139
-3.53 12.26 -1.20 144 140 139
-3.53 12.18 -1.20 143 139 138
-3.53 12.09 -1.20 143 139 138
-3.53 12.00 -1.20 144 140 139
-3.53 11.92 -1.20 146 140 140
-3.53 11.83 -1.20 146 140 142
-3.53 11.74 -1.20 145 139 139
-3.53 11.65 -1.20 145 139 139
-3.53 11.57 -1.20 143 139 136
-3.53 11.48 -1.20 143 139 136
-3.53 11.39 -1.20 142 138 135
-3.53 11.31 -1.20 142 138 135
-3.53 11.22 -1.20 142 139 134
-3.53 11.13 -1.20 142 139 134
-3.53 11.04 -1.20 139 138 134
-3.68 10.88 -1.04 139 138 134
-3.68 10.79 -1.04 139 138 136
-3.53 10.78 -1.20 138 137 135
-3.53 10.70 -1.20 137 136 134
-3.53 10.61 -1.20 136 135 133
-3.53 10.52 -1.20 139 138 134
-3.68 10.36 -1.04 138 137 133
-3.68 10.27 -1.04 136 135 131
-3.68 10.19 -1.04 134 133 129
-3.68 10.10 -1.04 132 131 126
-3.84 9.94 -0.88 130 129 124
-3.84 9.85 -0.88 128 127 122
-3.84 9.77 -0.88 128 127 122
-5.12 9.07 0.46 126 125 120
-5.12 8.99 0.46 125 124 119
-5.25 8.84 0.59 123 122 117
-5.25 8.76 0.59 122 121 117
-5.25 8.68 0.59 107 106 102
-5.25 8.60 0.59 147 146 144
-5.40 8.44 0.75 153 152 150
-5.40 8.36 0.75 150 148 149
-5.40 8.28 0.75 140 138 141
-5.40 8.19 0.75 137 135 138
-5.40 8.11 0.75 138 135 142
-5.40 8.03 0.75 136 133 142
-5.40 7.95 0.75 136 133 144
-5.40 7.86 0.75 136 133 144
-5.40 7.78 0.75 134 131 142
-5.40 7.70 0.75 133 130 139
-5.53 7.56 0.88 133 130 139
-5.53 7.48 0.88 136 133 140
-5.53 7.40 0.88 139 136 143
-5.53 7.31 0.88 136 133 142
-5.53 7.23 0.88 130 127 138
-5.53 7.15 0.88 128 125 136
-5.53 7.07 0.88 128 126 139
-5.53 6.98 0.88 106 110 119
-5.65 6.85 1.01 121 128 138
-5.65 6.77 1.01 132 139 149
-5.65 6.69 1.01 148 154 166
-5.65 6.60 1.01 153 159 171
-5.65 6.52 1.01 136 147 153
-5.65 6.44 1.01 151 162 168
-5.65 6.36 1.01 138 152 153
-5.53 6.33 0.88 144 158 159
-5.53 6.24 0.88 132 148 148
-5.53 6.16 0.88 121 136 139
-5.65 6.03 1.01 133 151 155
-5.65 5.95 1.01 132 149 157
-5.65 5.87 1.01 126 143 153
-5.65 5.78 1.01 130 146 159
-5.65 5.70 1.01 131 148 158
-5.65 5.62 1.01 131 148 158
-5.65 5.54 1.01 132 149 159
-5.65 5.46 1.01 133 150 160
-5.65 5.37 1.01 134 151 161
-5.65 5.29 1.01 135 152 162
-5.65 5.21 1.01 134 152 162
-5.65 5.13 1.01 134 152 162
-5.65 5.05 1.01 133 151 161
-5.65 4.96 1.01 133 152 159
-5.65 4.72 1.01 135 154 161
-5.65 4.64 1.01 136 155 162
-5.65 4.55 1.01 136 155 162
-5.65 4.47 1.01 134 153 160
-5.65 4.39 1.01 134 153 160
-5.65 4.31 1.01 134 153 160
-5.78 4.18 1.14 134 153 160
-5.78 4.10 1.14 135 154 161
-5.78 4.02 1.14 135 154 161
-5.78 3.94 1.14 136 155 162
-5.78 3.86 1.14 136 155 162
-5.78 3.77 1.14 136 155 162
-5.78 3.69 1.14 137 156 163
-5.78 3.61 1.14 138 157 164
-5.78 3.53 1.14 139 158 165
-5.78 3.45 1.14 140 159 166
-5.78 3.37 1.14 139 158 165
-5.78 3.28 1.14 138 157 164
-5.78 3.20 1.14 138 157 164
-5.78 3.12 1.14 138 157 164
-5.93 2.99 1.30 139 158 165
-5.93 2.91 1.30 138 158 165
-5.93 2.83 1.30 139 163 167
-5.78 2.79 1.14 139 160 165
-5.78 2.71 1.14 142 161 165
-5.78 2.63 1.14 153 168 173
-5.65 2.59 1.01 158 169 171
-5.65 2.50 1.01 161 169 172
-5.65 2.42 1.01 160 164 165
-5.53 2.38 0.88 191 192 194
-5.40 2.33 0.75 197 197 195
-5.25 2.29 0.59 195 195 193
-5.12 2.24 0.46 198 199 193
-4.85 2.23 0.17 198 199 193
-4.69 2.19 0.01 198 199 191
-4.42 2.18 -0.28 197 198 190
-4.26 2.14 -0.44 204 205 197
-4.11 2.09 -0.59 191 192 184
-3.99 2.04 -0.73 165 168 161
-3.99 1.95 -0.73 169 172 165
-3.84 1.91 -0.88 166 168 163
-3.68 1.86 -1.04 169 171 166
-3.68 1.77 -1.04 166 171 165
-3.68 1.69 -1.04 165 170 164
-3.68 1.60 -1.04 164 169 165
-3.68 1.51 -1.04 162 167 163
-3.68 1.43 -1.04 159 165 163
-3.53 1.38 -1.20 158 164 162
-3.53 1.29 -1.20 158 164 160
-3.53 1.20 -1.20 155 160 154
-3.53 1.11 -1.20 155 160 153
-3.53 1.03 -1.20 155 160 153
-3.53 0.94 -1.20 155 160 153
-3.53 0.85 -1.20 154 159 153
-3.53 0.77 -1.20 154 159 153
-3.53 0.68 -1.20 153 160 153
-3.53 0.59 -1.20 153 160 153
-3.53 0.50 -1.20 153 159 155
-3.53 0.42 -1.20 154 160 156
-3.53 0.33 -1.20 155 161 159
-3.53 0.24 -1.20 159 165 163
-3.68 0.12 -1.04 160 169 166
-3.68 0.04 -1.04 161 170 167
-3.68 -0.05 -1.04 160 169 166
-3.68 -0.14 -1.04 161 167 165
-3.53 -0.19 -1.20 163 169 167
-3.53 -0.28 -1.20 163 167 166
-3.68 -0.40 -1.04 163 167 166
-3.68 -0.48 -1.04 163 167 166
-3.68 -0.57 -1.04 164 168 167
-3.68 -0.66 -1.04 162 168 164
-3.68 -0.74 -1.04 161 167 163
-3.68 -0.83 -1.04 163 169 165
-3.68 -0.92 -1.04 163 169 165
-3.68 -1.00 -1.04 163 169 165
-3.68 -1.09 -1.04 164 170 166
-3.68 -1.18 -1.04 163 169 165
-3.68 -1.26 -1.04 163 169 165
-3.68 -1.35 -1.04 162 168 164
-3.68 -1.44 -1.04 162 168 164
-3.68 -1.52 -1.04 163 168 162
-3.68 -1.61 -1.04 163 168 162
-3.68 -1.70 -1.04 163 168 162
-3.53 -1.76 -1.20 163 168 162
-3.53 -1.85 -1.20 163 168 162
-3.53 -1.93 -1.20 163 168 162
-3.53 -2.02 -1.20 164 169 163
-3.53 -2.11 -1.20 164 169 163
-3.53 -2.20 -1.20 163 168 164
-3.53 -2.28 -1.20 162 167 163
-3.53 -2.37 -1.20 161 166 162
-3.53 -2.46 -1.20 162 167 163
-3.68 -2.56 -1.04 164 169 165
-3.68 -2.65 -1.04 165 170 166
-3.68 -2.74 -1.04 163 167 166
-3.68 -2.82 -1.04 166 168 165
-3.68 -2.91 -1.04 165 167 164
-3.68 -3.00 -1.04 163 168 164
-3.68 -3.08 -1.04 163 168 164
-3.68 -3.17 -1.04 162 168 164
-3.68 -3.26 -1.04 163 169 165
-3.68 -3.35 -1.04 163 169 165
-3.68 -3.43 -1.04 163 169 165
-3.53 -3.50 -1.20 162 171 166
-3.53 -3.59 -1.20 162 171 166
-3.53 -3.68 -1.20 163 169 165
-3.53 -3.76 -1.20 163 169 165
-3.53 -3.85 -1.20 162 168 164
-3.53 -3.94 -1.20 162 168 164
-3.53 -4.03 -1.20 163 168 164
-3.53 -4.11 -1.20 163 168 164
-3.53 -4.20 -1.20 164 170 168
-3.53 -4.29 -1.20 164 170 168
-3.68 -4.39 -1.04 164 170 166
-3.68 -4.47 -1.04 164 170 166
-3.68 -4.56 -1.04 164 170 166
-3.68 -4.65 -1.04 165 171 167
-3.68 -4.73 -1.04 165 171 167
-3.68 -4.82 -1.04 161 170 165
-3.68 -4.91 -1.04 161 170 165
-3.53 -4.98 -1.20 162 171 168
-3.53 -5.07 -1.20 162 171 168
-3.53 -5.16 -1.20 163 172 171
-3.53 -5.24 -1.20 163 172 171
-3.53 -5.33 -1.20 163 172 171
-3.53 -5.42 -1.20 163 172 171
-3.53 -5.51 -1.20 161 170 167
-3.53 -5.59 -1.20 161 170 167
-3.53 -5.68 -1.20 161 170 167
-3.53 -5.77 -1.20 161 170 167
-3.53 -5.85 -1.20 162 171 170
-3.53 -5.94 -1.20 163 172 171
-3.53 -6.03 -1.20 164 173 172
-3.53 -6.12 -1.20 165 174 173
-3.53 -6.20 -1.20 162 171 170
-3.53 -6.29 -1.20 162 171 170
-3.53 -6.38 -1.20 166 175 174
-3.53 -6.46 -1.20 163 172 171
-3.53 -6.55 -1.20 169 178 177
-3.53 -6.64 -1.20 173 182 181
-3.53 -6.73 -1.20 152 161 160
-3.53 -6.81 -1.20 151 160 159
-3.53 -6.90 -1.20 248 255 255
-3.53 -6.99 -1.20 216 224 226
-3.53 -7.07 -1.20 163 171 173
-3.53 -7.16 -1.20 138 146 148
-3.53 -7.25 -1.20 153 161 163
-3.53 -7.34 -1.20 167 176 175
-3.53 -7.42 -1.20 164 173 172
-3.53 -7.51 -1.20 167 176 175
-3.53 -7.60 -1.20 171 180 179
-3.53 -7.68 -1.20 171 180 179
-3.68 -7.77 -1.04 166 175 174
-3.68 -7.86 -1.04 162 171 168
-3.53 -7.94 -1.20 163 172 169
-3.53 -8.03 -1.20 170 179 176
-3.53 -8.12 -1.20 176 185 182
-3.68 -8.20 -1.04 170 180 179
-3.68 -8.29 -1.04 168 178 177
-3.53 -8.38 -1.20 168 178 177
-3.53 -8.47 -1.20 169 179 178
-3.53 -8.55 -1.20 170 179 178
-3.53 -8.64 -1.20 168 177 176
-3.53 -8.73 -1.20 168 177 176
-3.53 -8.82 -1.20 169 178 177
-3.53 -8.90 -1.20 171 180 179
-3.53 -8.99 -1.20 171 177 175
-3.53 -9.08 -1.20 171 177 175
-3.53 -9.16 -1.20 172 178 176
-3.53 -9.25 -1.20 173 179 177
-3.53 -9.34 -1.20 173 179 177
-3.53 -9.43 -1.20 174 180 178
-3.53 -9.51 -1.20 174 180 178
-3.53 -9.60 -1.20 174 180 178
-3.68 -9.68 -1.04 175 181 179
-3.68 -9.76 -1.04 175 181 179
-3.68 -9.85 -1.04 175 181 179
-3.68 -9.94 -1.04 175 181 179
-3.53 -10.04 -1.20 174 180 178
-3.53 -10.12 -1.20 174 180 178
-3.53 -10.21 -1.20 176 182 178
-3.68 -10.28 -1.04 175 181 177
-3.68 -10.37 -1.04 176 182 178
-3.68 -10.46 -1.04 176 182 178
-3.68 -10.54 -1.04 176 182 178
-3.53 -10.65 -1.20 174 180 176
-3.53 -10.73 -1.20 173 179 175
-3.53 -10.82 -1.20 172 178 174
-3.53 -10.91 -1.20 169 179 170
-3.53 -10.99 -1.20 162 171 166
-3.53 -11.08 -1.20 171 176 182
-3.53 -11.17 -1.20 0 1 7
-3.53 -11.25 -1.20 11 19 32
-3.53 -11.34 -1.20 43 49 81
