ply
format ascii 1.0
element vertex 1650
property float x
property float y
property float z
property uchar red
property uchar green
property uchar blue
end_header
4.00 21.45 -1.38 129 125 114
4.00 21.35 -1.38 130 126 115
4.00 21.26 -1.38 129 125 116
4.00 21.16 -1.38 130 126 117
4.00 21.06 -1.38 131 126 120
4.00 20.96 -1.38 131 126 120
4.00 20.86 -1.38 131 126 122
4.00 20.76 -1.38 131 126 122
4.00 20.66 -1.38 131 126 122
4.00 20.57 -1.38 132 127 123
4.00 20.47 -1.38 136 129 123
4.00 20.37 -1.38 134 126 123
4.00 20.27 -1.38 133 125 122
4.00 20.17 -1.38 135 126 127
4.00 20.07 -1.38 134 128 128
4.00 19.97 -1.38 134 128 130
4.00 19.88 -1.38 132 128 129
4.00 19.78 -1.38 132 128 129
4.00 19.68 -1.38 130 129 125
4.00 19.58 -1.38 131 130 126
4.00 19.48 -1.38 133 130 125
4.00 19.38 -1.38 132 129 124
4.00 19.28 -1.38 131 127 124
4.00 19.19 -1.38 132 128 125
4.00 19.09 -1.38 135 129 129
3.78 18.86 -1.20 134 129 126
3.78 18.76 -1.20 135 127 125
3.78 18.66 -1.20 135 126 127
3.78 18.57 -1.20 136 127 128
4.00 18.59 -1.38 138 129 132
4.00 18.50 -1.38 139 130 133
4.00 18.40 -1.38 137 131 133
4.00 18.30 -1.38 136 130 132
4.00 18.20 -1.38 134 130 129
4.00 18.10 -1.38 134 130 129
4.00 18.00 -1.38 134 130 127
4.00 17.90 -1.38 134 130 127
4.00 17.81 -1.38 133 133 125
4.00 17.71 -1.38 133 133 125
4.00 17.61 -1.38 133 133 121
4.00 17.51 -1.38 133 133 121
4.00 17.41 -1.38 135 133 121
4.00 17.31 -1.38 135 133 121
4.00 17.21 -1.38 135 133 121
4.00 17.12 -1.38 136 134 122
4.00 17.02 -1.38 136 134 122
4.00 16.92 -1.38 136 134 122
3.78 16.51 -1.20 136 133 124
3.78 16.41 -1.20 134 134 124
3.78 16.31 -1.20 133 133 125
3.78 16.21 -1.20 133 132 127
3.78 16.11 -1.20 135 134 129
3.78 16.01 -1.20 136 135 130
3.78 15.92 -1.20 134 133 128
3.78 15.82 -1.20 134 135 130
3.78 15.72 -1.20 134 135 130
3.78 15.62 -1.20 134 135 130
4.00 15.64 -1.38 134 135 130
4.00 15.54 -1.38 135 134 129
4.00 15.44 -1.38 135 134 129
4.00 15.34 -1.38 135 134 129
4.00 15.24 -1.38 134 133 128
4.00 15.15 -1.38 135 134 129
4.00 15.05 -1.38 133 132 127
3.78 14.84 -1.20 134 133 128
3.78 14.74 -1.20 135 134 129
3.78 14.64 -1.20 138 135 128
3.78 14.54 -1.20 137 134 127
3.78 14.45 -1.20 139 136 129
3.78 14.35 -1.20 137 137 127
3.78 14.25 -1.20 137 137 127
3.78 14.15 -1.20 137 137 129
3.78 14.05 -1.20 137 137 129
3.78 13.96 -1.20 137 137 129
3.78 13.86 -1.20 137 137 129
3.78 13.76 -1.20 137 137 129
3.78 13.66 -1.20 137 137 129
3.59 13.47 -1.03 137 137 129
3.38 13.27 -0.85 137 137 129
-4.87 9.25 6.29 137 136 131
-5.00 9.11 6.41 138 137 132
-5.00 9.03 6.41 139 138 133
-5.00 8.95 6.41 139 138 133
-5.00 8.87 6.41 139 138 133
-5.00 8.79 6.41 138 137 133
-5.00 8.71 6.41 140 139 135
-5.00 8.64 6.41 138 137 135
-5.00 8.56 6.41 148 147 145
-5.14 8.42 6.53 157 156 154
-5.14 8.34 6.53 154 152 153
-5.14 8.26 6.53 154 152 153
-5.14 8.18 6.53 158 153 157
-5.14 8.11 6.53 157 151 155
-5.14 8.03 6.53 159 150 155
-5.14 7.95 6.53 159 150 155
-5.14 7.87 6.53 161 148 155
-5.14 7.79 6.53 160 148 152
-5.14 7.72 6.53 162 147 152
-5.14 7.64 6.53 161 146 151
-5.14 7.56 6.53 161 146 151
-5.14 7.48 6.53 160 148 150
-5.14 7.40 6.53 160 148 150
-5.14 7.33 6.53 159 147 149
-5.14 7.25 6.53 159 147 149
-5.24 7.12 6.62 158 146 150
-5.24 7.05 6.62 158 146 150
-5.24 6.97 6.62 158 147 153
-5.24 6.89 6.62 158 147 153
-5.24 6.81 6.62 157 146 152
-5.24 6.74 6.62 157 146 152
-5.38 6.60 6.74 157 146 154
-5.38 6.53 6.74 157 146 154
-5.24 6.50 6.62 156 144 154
-5.38 6.37 6.74 156 144 154
-5.38 6.29 6.74 156 144 154
-5.38 6.22 6.74 155 143 155
-5.38 6.14 6.74 156 145 159
-5.38 6.06 6.74 156 146 157
-5.51 5.93 6.85 155 145 156
-5.51 5.85 6.85 152 147 154
-5.51 5.78 6.85 152 147 154
-5.51 5.70 6.85 150 148 153
-5.51 5.62 6.85 149 147 152
-5.51 5.54 6.85 149 150 155
-5.51 5.47 6.85 148 149 154
-5.51 5.39 6.85 145 148 155
-5.51 5.31 6.85 145 148 157
-5.51 5.24 6.85 145 149 158
-5.51 5.16 6.85 145 149 160
-5.51 5.08 6.85 143 149 161
-5.51 5.00 6.85 142 148 160
-5.51 4.93 6.85 139 149 161
-5.51 4.85 6.85 140 150 162
-5.51 4.77 6.85 139 151 163
-5.51 4.70 6.85 140 152 164
-5.51 4.62 6.85 139 153 162
-5.62 4.50 6.95 139 153 162
-5.62 4.43 6.95 137 154 162
-5.62 4.35 6.95 137 154 162
-5.62 4.27 6.95 138 155 163
-5.51 4.23 6.85 140 157 167
-5.62 4.12 6.95 140 157 167
-5.62 4.04 6.95 139 155 168
-5.62 3.97 6.95 140 156 169
-5.62 3.89 6.95 142 158 171
-5.62 3.81 6.95 144 161 171
-5.62 3.73 6.95 143 157 166
-5.62 3.66 6.95 145 160 167
-5.62 3.58 6.95 147 162 169
-5.62 3.50 6.95 147 162 169
-5.62 3.43 6.95 147 162 169
-5.62 3.35 6.95 147 162 169
-5.62 3.27 6.95 148 163 168
-5.62 3.20 6.95 150 165 170
-5.62 3.12 6.95 151 166 171
-5.62 3.04 6.95 150 165 170
-5.76 2.92 7.06 150 165 170
-5.76 2.85 7.06 150 165 170
-5.62 2.81 6.95 151 166 171
-5.62 2.73 6.95 152 167 172
-5.62 2.66 6.95 153 168 171
-5.51 2.61 6.85 153 167 170
-5.51 2.54 6.85 163 176 182
-5.38 2.50 6.74 167 178 182
-5.14 2.49 6.53 162 172 174
-5.00 2.45 6.41 202 213 209
-5.00 2.37 6.41 192 203 197
-5.00 2.29 6.41 194 205 197
-4.73 2.29 6.18 194 205 197
-4.60 2.25 6.06 194 203 198
-4.33 2.24 5.83 195 204 199
-4.06 2.23 5.59 196 205 202
-4.06 2.15 5.59 197 206 203
-3.79 2.14 5.36 199 205 203
-3.49 2.14 5.10 199 205 203
-3.22 2.13 4.87 198 205 198
-3.22 2.05 4.87 198 205 198
-3.09 2.00 4.75 198 207 202
-3.09 1.92 4.75 196 205 200
3.78 3.36 -1.20 196 205 200
3.78 3.26 -1.20 217 226 221
3.78 3.17 -1.20 155 164 159
3.78 3.07 -1.20 149 158 153
3.78 2.97 -1.20 155 164 161
3.78 2.87 -1.20 155 164 161
3.78 2.77 -1.20 155 166 162
3.78 2.68 -1.20 155 166 162
3.78 2.58 -1.20 155 166 162
3.78 2.48 -1.20 156 167 163
3.78 2.38 -1.20 156 167 163
3.78 2.28 -1.20 155 166 160
3.78 2.19 -1.20 155 166 160
3.59 2.05 -1.03 156 167 161
3.59 1.95 -1.03 156 167 161
3.78 1.89 -1.20 156 167 161
3.78 1.79 -1.20 156 167 161
3.59 1.66 -1.03 156 167 161
3.59 1.56 -1.03 155 166 160
3.78 1.50 -1.20 155 166 160
3.78 1.40 -1.20 155 166 160
3.78 1.30 -1.20 156 167 161
3.78 1.21 -1.20 156 167 161
4.00 1.15 -1.38 155 166 160
4.00 1.05 -1.38 155 166 160
3.78 0.91 -1.20 155 166 160
3.78 0.81 -1.20 155 164 159
4.00 0.75 -1.38 159 164 160
4.00 0.66 -1.38 161 163 160
4.00 0.56 -1.38 159 164 160
4.00 0.46 -1.38 159 164 160
4.00 0.36 -1.38 159 164 160
4.00 0.26 -1.38 158 164 160
3.78 0.13 -1.20 158 164 160
3.78 0.03 -1.20 157 166 161
3.78 -0.07 -1.20 157 166 161
3.78 -0.17 -1.20 158 167 162
3.78 -0.27 -1.20 159 168 163
3.78 -0.36 -1.20 158 169 163
3.78 -0.46 -1.20 158 169 163
3.78 -0.56 -1.20 158 169 163
3.78 -0.66 -1.20 158 169 163
3.78 -0.76 -1.20 159 168 163
3.78 -0.85 -1.20 161 170 165
3.78 -0.95 -1.20 161 170 165
3.78 -1.05 -1.20 161 170 165
3.78 -1.15 -1.20 161 170 165
3.78 -1.25 -1.20 162 171 166
4.00 -1.32 -1.38 162 171 166
4.00 -1.41 -1.38 159 168 163
3.78 -1.54 -1.20 161 170 167
3.78 -1.64 -1.20 161 170 167
3.78 -1.74 -1.20 161 170 167
3.78 -1.84 -1.20 161 170 167
3.78 -1.93 -1.20 160 169 166
3.78 -2.03 -1.20 160 169 166
3.78 -2.13 -1.20 163 172 169
3.78 -2.23 -1.20 162 172 171
3.78 -2.33 -1.20 162 172 171
3.78 -2.42 -1.20 162 172 171
3.78 -2.52 -1.20 162 172 171
3.78 -2.62 -1.20 162 172 171
3.78 -2.72 -1.20 162 172 171
3.78 -2.82 -1.20 161 171 170
3.78 -2.91 -1.20 161 171 170
3.78 -3.01 -1.20 162 173 169
3.78 -3.11 -1.20 162 173 169
3.78 -3.21 -1.20 162 173 169
3.78 -3.31 -1.20 162 173 169
3.78 -3.40 -1.20 161 172 168
3.78 -3.50 -1.20 161 172 168
3.78 -3.60 -1.20 162 173 169
3.78 -3.70 -1.20 162 173 169
4.00 -3.78 -1.38 161 172 168
4.00 -3.88 -1.38 162 173 169
3.78 -3.99 -1.20 163 174 170
3.78 -4.09 -1.20 163 174 170
3.78 -4.19 -1.20 163 174 170
3.78 -4.29 -1.20 163 174 170
3.78 -4.39 -1.20 163 174 170
3.78 -4.48 -1.20 162 173 169
3.78 -4.58 -1.20 163 174 170
3.78 -4.68 -1.20 165 176 172
3.78 -4.78 -1.20 165 176 172
4.00 -4.86 -1.38 165 176 172
4.00 -4.96 -1.38 166 177 173
4.00 -5.06 -1.38 166 177 173
4.00 -5.16 -1.38 167 178 174
4.00 -5.26 -1.38 166 175 172
4.00 -5.36 -1.38 166 175 172
4.00 -5.45 -1.38 166 177 173
4.00 -5.55 -1.38 166 177 173
4.00 -5.65 -1.38 164 176 172
4.00 -5.75 -1.38 164 176 172
4.00 -5.85 -1.38 163 178 173
4.00 -5.95 -1.38 163 178 173
4.00 -6.24 -1.38 165 180 175
4.00 -6.34 -1.38 165 180 175
4.00 -6.44 -1.38 168 180 176
4.00 -6.54 -1.38 168 180 176
3.78 -6.64 -1.20 168 180 176
3.78 -6.74 -1.20 167 179 175
3.78 -6.84 -1.20 167 178 174
4.00 -6.93 -1.38 167 178 174
4.00 -7.03 -1.38 169 180 176
4.00 -7.13 -1.38 171 182 178
4.00 -7.23 -1.38 170 181 177
4.00 -7.33 -1.38 169 180 176
4.00 -7.43 -1.38 170 181 177
4.00 -7.52 -1.38 169 180 176
3.78 -7.62 -1.20 170 181 177
3.78 -7.72 -1.20 171 182 178
3.78 -7.82 -1.20 172 183 179
3.78 -7.92 -1.20 172 183 179
3.78 -8.01 -1.20 172 183 179
3.78 -8.11 -1.20 172 183 179
3.59 -8.21 -1.03 172 183 179
3.59 -8.30 -1.03 171 183 179
3.59 -8.40 -1.03 171 183 179
3.78 -8.50 -1.20 172 183 179
3.78 -8.60 -1.20 173 184 180
3.78 -8.70 -1.20 174 183 180
3.78 -8.80 -1.20 174 183 180
3.78 -8.90 -1.20 173 184 180
3.78 -9.00 -1.20 173 184 180
3.78 -9.09 -1.20 172 187 180
3.78 -9.19 -1.20 172 187 180
3.78 -9.29 -1.20 175 188 181
3.78 -9.39 -1.20 176 189 182
4.00 -9.50 -1.38 180 189 184
3.78 -9.58 -1.20 179 188 183
3.78 -9.68 -1.20 181 187 183
3.78 -9.78 -1.20 179 188 185
3.78 -9.88 -1.20 179 188 185
3.78 -9.98 -1.20 180 189 186
3.78 -10.07 -1.20 182 191 188
3.78 -10.17 -1.20 182 191 188
3.78 -10.27 -1.20 181 190 187
3.78 -10.37 -1.20 181 190 187
3.78 -10.47 -1.20 183 192 189
3.78 -10.56 -1.20 183 192 189
3.78 -10.66 -1.20 182 191 188
3.78 -10.76 -1.20 182 191 188
3.78 -10.86 -1.20 183 192 189
3.78 -10.96 -1.20 184 193 190
3.78 -11.05 -1.20 185 194 191
3.78 -11.15 -1.20 186 195 192
3.78 -11.25 -1.20 189 198 195
3.78 -11.35 -1.20 185 194 193
3.78 -11.45 -1.20 187 196 195
3.78 -11.55 -1.20 191 200 199
3.78 -11.64 -1.20 191 200 199
3.59 -11.72 -1.03 192 201 200
3.78 -11.84 -1.20 193 202 199
3.78 -11.94 -1.20 195 204 201
3.78 -12.04 -1.20 196 205 202
3.78 -12.13 -1.20 197 206 203
3.59 -12.21 -1.03 199 208 203
3.59 -12.31 -1.03 201 210 205
3.78 -12.43 -1.20 202 211 206
3.78 -12.53 -1.20 204 213 208
3.78 -12.62 -1.20 206 215 210
3.78 -12.72 -1.20 207 216 211
3.78 -12.82 -1.20 209 218 215
3.78 -12.92 -1.20 209 218 215
3.59 -12.99 -1.03 209 220 216
3.78 -13.11 -1.20 209 220 216
3.78 -13.21 -1.20 210 221 217
3.78 -13.31 -1.20 211 222 218
3.59 -13.38 -1.03 211 222 218
3.59 -13.48 -1.03 212 223 219
3.59 -13.58 -1.03 210 221 217
3.59 -13.68 -1.03 211 222 218
3.59 -13.77 -1.03 214 223 220
3.59 -13.87 -1.03 218 224 222
3.59 -13.97 -1.03 218 224 222
3.59 -14.07 -1.03 218 224 222
3.59 -14.16 -1.03 218 224 222
3.59 -14.26 -1.03 213 222 219
3.59 -14.36 -1.03 214 223 220
3.38 -14.42 -0.85 215 224 221
3.38 -14.52 -0.85 216 225 222
3.59 -14.65 -1.03 216 225 222
3.59 -14.75 -1.03 217 226 223
3.59 -14.85 -1.03 217 226 223
3.59 -14.95 -1.03 218 227 224
3.59 -15.04 -1.03 220 229 226
3.59 -15.14 -1.03 219 228 225
3.59 -15.24 -1.03 220 226 224
3.78 -15.37 -1.20 221 227 225
3.78 -15.47 -1.20 224 228 227
3.78 -15.57 -1.20 225 229 228
3.78 -15.66 -1.20 227 229 228
3.78 -15.76 -1.20 227 229 228
3.78 -15.86 -1.20 224 230 228
3.78 -15.96 -1.20 225 231 229
3.78 -16.06 -1.20 226 232 230
3.78 -16.15 -1.20 226 232 230
3.78 -16.25 -1.20 224 230 228
3.59 -16.31 -1.03 224 230 228
3.59 -16.41 -1.03 224 230 228
3.59 -16.51 -1.03 226 232 230
3.59 -16.61 -1.03 227 233 231
3.59 -16.70 -1.03 228 234 232
3.59 -16.80 -1.03 227 233 231
3.59 -16.90 -1.03 226 232 230
3.59 -17.00 -1.03 226 232 230
3.38 -17.05 -0.85 227 233 231
3.38 -17.14 -0.85 229 235 233
3.59 -17.29 -1.03 227 233 231
3.59 -17.39 -1.03 227 233 231
3.59 -17.48 -1.03 228 234 232
3.59 -17.58 -1.03 228 234 232
3.59 -17.68 -1.03 228 234 232
3.59 -17.78 -1.03 228 234 232
3.59 -17.87 -1.03 228 234 232
3.59 -17.97 -1.03 228 234 232
3.59 -18.07 -1.03 229 235 233
3.59 -18.17 -1.03 228 234 232
3.59 -18.27 -1.03 228 234 232
3.59 -18.36 -1.03 227 233 231
3.59 -18.46 -1.03 228 234 232
3.59 -18.56 -1.03 230 236 234
3.59 -18.66 -1.03 230 236 234
3.59 -18.75 -1.03 228 234 232
3.59 -18.85 -1.03 228 234 232
3.59 -18.95 -1.03 228 234 232
3.59 -19.05 -1.03 228 234 232
3.59 -19.14 -1.03 228 232 231
3.59 -19.24 -1.03 228 232 231
3.59 -19.34 -1.03 230 234 233
3.59 -19.44 -1.03 231 235 234
3.59 -19.53 -1.03 232 236 235
3.59 -19.63 -1.03 232 236 235
3.59 -19.73 -1.03 232 236 235
3.59 -19.83 -1.03 232 236 235
3.78 -19.98 -1.20 234 236 235
3.59 -20.02 -1.03 234 236 235
3.59 -20.12 -1.03 234 236 235
3.59 -20.22 -1.03 234 236 235
3.59 -20.32 -1.03 231 237 235
3.78 -20.47 -1.20 230 236 234
3.78 -20.57 -1.20 229 235 233
3.78 -20.67 -1.20 230 236 234
3.78 -20.76 -1.20 230 236 234
3.78 -20.86 -1.20 230 236 234
3.78 -20.96 -1.20 229 233 232
3.78 -21.06 -1.20 227 231 230
3.59 -21.10 -1.03 228 232 231
3.59 -21.19 -1.03 228 232 231
3.59 -21.29 -1.03 229 233 232
3.59 -21.39 -1.03 229 233 232
3.59 -21.49 -1.03 229 233 232
3.59 -21.59 -1.03 229 233 232
3.59 -21.68 -1.03 231 233 232
3.59 -21.78 -1.03 232 234 233
3.59 -21.88 -1.03 231 231 231
3.59 -21.98 -1.03 230 230 230
3.59 -22.07 -1.03 230 230 230
3.59 -22.17 -1.03 230 230 228
3.59 -22.27 -1.03 230 230 228
3.59 -22.37 -1.03 229 229 227
3.59 -22.46 -1.03 228 228 226
3.59 -22.56 -1.03 227 227 225
3.59 -22.66 -1.03 227 227 225
3.59 -22.76 -1.03 228 229 224
3.59 -22.86 -1.03 230 231 226
3.59 -22.95 -1.03 230 231 226
3.59 -23.05 -1.03 228 229 224
3.59 -23.15 -1.03 228 229 224
3.59 -23.25 -1.03 226 226 224
3.59 -23.34 -1.03 227 227 225
3.59 -23.44 -1.03 229 229 227
3.59 -23.54 -1.03 229 229 227
3.59 -23.64 -1.03 229 229 227
3.59 -23.73 -1.03 228 228 226
3.78 -23.90 -1.20 228 228 228
3.78 -24.00 -1.20 229 229 229
3.78 -24.10 -1.20 227 227 229
3.78 -24.20 -1.20 227 227 229
3.78 -24.30 -1.20 228 228 230
3.78 -24.39 -1.20 227 227 229
3.78 -24.49 -1.20 226 226 228
3.78 -24.59 -1.20 226 226 228
3.78 -24.69 -1.20 227 226 231
3.78 -24.79 -1.20 227 226 231
3.59 -24.81 -1.03 226 226 228
3.59 -24.91 -1.03 224 224 226
3.59 -25.00 -1.03 224 224 226
3.59 -25.10 -1.03 225 225 227
3.59 -25.20 -1.03 225 225 227
3.59 -25.30 -1.03 224 224 226
3.59 -25.39 -1.03 224 224 226
3.59 -25.49 -1.03 226 226 228
3.59 -25.59 -1.03 224 224 226
3.38 -25.60 -0.85 225 225 227
3.38 -25.69 -0.85 225 225 227
3.59 -25.88 -1.03 225 225 227
3.59 -25.98 -1.03 225 225 227
3.59 -26.08 -1.03 225 225 227
3.59 -26.18 -1.03 224 223 228
3.59 -26.27 -1.03 223 222 227
3.59 -26.37 -1.03 222 221 227
3.59 -26.47 -1.03 221 220 225
3.38 -26.47 -0.85 219 218 223
3.38 -26.57 -0.85 219 218 223
3.59 -26.76 -1.03 219 218 223
3.59 -26.86 -1.03 220 220 222
3.38 -26.86 -0.85 221 221 223
3.38 -26.96 -0.85 219 219 221
3.38 -27.05 -0.85 219 219 221
3.38 -27.15 -0.85 219 218 223
3.38 -27.25 -0.85 219 218 223
3.38 -27.35 -0.85 219 218 223
3.38 -27.44 -0.85 219 218 223
3.38 -27.54 -0.85 219 218 224
3.38 -27.64 -0.85 218 217 222
3.38 -27.73 -0.85 215 216 218
3.38 -27.83 -0.85 215 217 216
3.38 -27.93 -0.85 216 218 217
3.38 -28.03 -0.85 216 218 217
3.38 -28.12 -0.85 216 218 217
3.38 -28.61 -0.85 217 219 216
3.38 -28.71 -0.85 215 217 214
3.38 -28.80 -0.85 215 217 214
3.38 -28.90 -0.85 216 218 215
3.19 -28.90 -0.68 216 218 215
3.19 -29.00 -0.68 214 216 213
3.19 -29.10 -0.68 216 216 216
3.19 -29.19 -0.68 217 217 217
3.38 -29.39 -0.85 219 217 218
3.38 -29.48 -0.85 220 218 219
3.38 -29.58 -0.85 219 217 218
3.38 -29.68 -0.85 219 217 218
3.38 -29.77 -0.85 220 218 219
3.38 -29.87 -0.85 220 218 219
3.19 -29.87 -0.68 219 217 218
3.19 -29.97 -0.68 219 217 218
3.19 -30.06 -0.68 222 218 219
3.19 -30.16 -0.68 222 218 219
3.19 -30.26 -0.68 222 218 219
3.19 -30.35 -0.68 222 218 219
3.19 -30.64 -0.68 221 219 224
3.19 -30.74 -0.68 222 220 223
3.59 -31.45 -1.03 221 217 218
3.59 -31.55 -1.03 221 217 218
3.19 -36.84 -0.68 0 0 0
3.19 -36.93 -0.68 0 0 0
3.19 -37.03 -0.68 0 0 0
3.00 -37.00 -0.52 0 0 0
3.00 -37.09 -0.52 0 0 0
3.00 -37.19 -0.52 0 0 0
3.00 -37.28 -0.52 0 0 0
3.00 -37.38 -0.52 0 0 0
3.00 -37.48 -0.52 0 0 0
3.00 -37.57 -0.52 0 0 0
3.00 -37.67 -0.52 0 0 0
3.19 -37.90 -0.68 0 0 0
3.33 24.06 -0.93 0 0 0
3.55 24.12 -1.12 0 0 0
3.33 23.86 -0.93 0 0 0
3.55 23.92 -1.12 0 0 0
3.55 23.82 -1.12 0 0 0
3.55 23.73 -1.12 0 0 0
3.55 23.63 -1.12 0 0 0
3.55 23.53 -1.12 0 0 0
3.55 23.43 -1.12 0 0 0
3.55 23.34 -1.12 130 120 108
3.55 23.24 -1.12 130 120 108
3.55 23.14 -1.12 129 119 109
3.55 23.04 -1.12 128 120 109
3.55 22.94 -1.12 127 118 111
3.55 22.85 -1.12 127 118 111
3.55 22.75 -1.12 127 117 115
3.55 22.65 -1.12 126 118 115
3.55 22.55 -1.12 127 119 117
3.55 22.46 -1.12 123 118 115
3.55 22.36 -1.12 125 120 117
3.55 22.26 -1.12 127 122 118
3.73 22.29 -1.28 127 122 118
3.73 22.19 -1.28 126 123 116
3.73 22.10 -1.28 126 123 116
3.73 22.00 -1.28 125 122 113
3.73 21.90 -1.28 125 122 113
3.95 21.95 -1.47 129 125 116
3.95 21.85 -1.47 127 123 114
3.95 21.75 -1.47 128 124 113
3.95 21.65 -1.47 129 125 114
3.95 21.55 -1.47 129 125 114
3.95 21.45 -1.47 129 125 114
3.95 21.35 -1.47 131 127 116
3.95 21.26 -1.47 128 124 113
3.95 21.16 -1.47 129 125 114
3.95 21.06 -1.47 131 127 118
3.95 20.96 -1.47 131 127 118
3.73 20.72 -1.28 131 126 120
3.73 20.62 -1.28 131 126 120
3.73 20.53 -1.28 131 126 122
3.73 20.43 -1.28 133 125 122
3.73 20.33 -1.28 134 127 119
3.73 20.23 -1.28 134 125 120
3.73 20.13 -1.28 134 127 121
3.73 20.04 -1.28 135 127 125
3.73 19.94 -1.28 134 129 126
3.73 19.84 -1.28 132 126 126
3.73 19.74 -1.28 131 127 126
3.73 19.64 -1.28 132 128 127
3.73 19.55 -1.28 131 128 123
3.73 19.45 -1.28 132 129 124
3.73 19.35 -1.28 130 130 122
3.95 19.38 -1.47 129 129 121
3.95 19.28 -1.47 129 128 123
3.73 19.06 -1.28 131 130 126
3.73 18.96 -1.28 134 130 127
3.73 18.86 -1.28 136 130 130
3.73 18.76 -1.28 137 128 129
3.73 18.66 -1.28 137 128 129
3.73 18.57 -1.28 137 128 129
3.73 18.47 -1.28 135 129 131
3.73 18.37 -1.28 135 129 131
3.73 18.27 -1.28 135 129 131
3.73 18.17 -1.28 134 128 130
3.73 18.07 -1.28 133 129 128
3.73 17.98 -1.28 134 130 129
3.73 17.88 -1.28 134 131 126
3.73 17.78 -1.28 135 132 127
3.73 17.68 -1.28 135 132 123
3.73 17.58 -1.28 135 132 123
3.95 17.61 -1.47 132 132 120
3.95 17.51 -1.47 132 132 120
3.95 17.41 -1.47 135 132 123
3.95 17.31 -1.47 135 132 123
3.95 17.21 -1.47 136 133 124
3.73 17.00 -1.28 137 134 125
3.73 16.90 -1.28 137 135 123
3.73 16.80 -1.28 137 135 123
3.73 16.70 -1.28 136 134 122
3.73 16.60 -1.28 137 134 125
3.73 16.51 -1.28 137 134 125
3.73 16.41 -1.28 134 134 126
3.55 16.21 -1.12 133 133 125
3.55 16.11 -1.12 133 132 127
3.55 16.01 -1.12 135 134 129
3.55 15.91 -1.12 136 135 130
3.73 15.92 -1.28 136 135 130
3.73 15.82 -1.28 134 135 129
3.73 15.72 -1.28 134 135 129
3.73 15.62 -1.28 134 135 129
3.73 15.52 -1.28 134 135 129
3.73 15.43 -1.28 135 134 129
3.73 15.33 -1.28 135 134 129
3.73 15.23 -1.28 134 133 128
3.73 15.13 -1.28 134 133 128
3.73 15.03 -1.28 135 135 127
3.73 14.94 -1.28 133 133 125
3.73 14.84 -1.28 133 133 125
3.73 14.74 -1.28 134 134 126
3.73 14.64 -1.28 136 133 126
3.73 14.54 -1.28 136 133 126
3.73 14.45 -1.28 139 136 129
3.73 14.35 -1.28 136 136 128
3.73 14.25 -1.28 135 135 127
3.73 14.15 -1.28 135 135 127
3.73 14.05 -1.28 135 135 127
3.73 13.96 -1.28 134 134 126
3.73 13.86 -1.28 134 134 126
3.33 13.37 -0.93 136 135 130
3.33 13.27 -0.93 136 135 130
2.74 12.89 -0.42 136 135 130
2.74 12.80 -0.42 136 135 130
-4.77 9.15 6.11 137 136 131
-4.77 9.08 6.11 137 136 131
-4.91 8.93 6.22 136 135 130
-5.04 8.79 6.34 136 135 130
-5.04 8.71 6.34 139 135 132
-5.04 8.64 6.34 138 134 131
-5.04 8.56 6.34 146 142 141
-5.04 8.48 6.34 155 151 150
-5.04 8.40 6.34 155 151 152
-5.04 8.32 6.34 155 151 152
-5.04 8.24 6.34 157 152 156
-5.04 8.17 6.34 157 151 155
-5.04 8.09 6.34 157 151 155
-5.04 8.01 6.34 159 150 155
-5.04 7.93 6.34 159 148 154
-5.04 7.85 6.34 159 148 152
-5.04 7.77 6.34 159 147 151
-5.04 7.70 6.34 158 146 150
-5.17 7.56 6.46 158 146 150
-5.17 7.48 6.46 159 147 149
-5.17 7.40 6.46 159 147 149
-5.17 7.33 6.46 159 147 149
-5.17 7.25 6.46 158 146 148
-5.17 7.17 6.46 158 146 150
-5.28 7.05 6.55 158 146 150
-5.28 6.97 6.55 157 146 152
-5.28 6.89 6.55 156 145 151
-5.28 6.81 6.55 157 146 152
-5.28 6.74 6.55 157 146 152
-5.28 6.66 6.55 157 146 154
-5.28 6.58 6.55 157 146 154
-5.28 6.50 6.55 155 145 154
-5.28 6.42 6.55 155 145 154
-5.42 6.29 6.67 154 144 153
-5.42 6.22 6.67 154 144 153
-5.42 6.14 6.67 155 145 156
-5.42 6.06 6.67 153 145 156
-5.42 5.98 6.67 154 146 157
-5.42 5.91 6.67 152 147 154
-5.42 5.83 6.67 152 147 154
-5.42 5.75 6.67 150 147 154
-5.42 5.67 6.67 149 146 153
-5.42 5.60 6.67 149 150 155
-5.42 5.52 6.67 149 149 157
-5.42 5.44 6.67 146 149 156
-5.55 5.31 6.79 146 149 158
-5.55 5.24 6.79 144 151 161
-5.55 5.16 6.79 144 151 161
-5.55 5.08 6.79 144 150 162
-5.55 5.00 6.79 142 150 161
-5.55 4.93 6.79 139 149 161
-5.55 4.85 6.79 138 150 162
-5.55 4.77 6.79 139 151 163
-5.55 4.70 6.79 140 152 164
-5.55 4.62 6.79 140 154 163
-5.55 4.54 6.79 140 154 163
-5.55 4.46 6.79 139 156 164
-5.55 4.39 6.79 139 156 164
-5.55 4.31 6.79 136 155 162
-5.55 4.23 6.79 138 156 166
-5.55 4.16 6.79 138 156 166
-5.66 4.04 6.88 138 156 168
-5.66 3.97 6.88 138 156 168
-5.66 3.89 6.88 139 157 169
-5.66 3.81 6.88 141 159 171
-5.66 3.73 6.88 140 157 165
-5.66 3.66 6.88 142 159 167
-5.66 3.58 6.88 143 160 168
-5.66 3.50 6.88 143 160 168
-5.66 3.43 6.88 143 160 168
-5.66 3.35 6.88 143 160 168
-5.66 3.27 6.88 144 161 168
-5.66 3.20 6.88 145 162 169
-5.66 3.12 6.88 144 161 168
-5.66 3.04 6.88 144 161 168
-5.66 2.97 6.88 144 161 168
-5.66 2.89 6.88 145 162 169
-5.66 2.81 6.88 146 163 170
-5.66 2.73 6.88 146 163 170
-5.55 2.69 6.79 146 163 170
-5.55 2.61 6.79 147 162 169
-5.55 2.54 6.79 161 174 182
-5.28 2.54 6.55 166 177 183
-5.17 2.49 6.46 161 172 176
-5.04 2.45 6.34 198 208 207
-5.04 2.37 6.34 193 204 200
-5.04 2.29 6.34 194 203 198
-4.77 2.29 6.11 196 205 200
-4.64 2.25 5.99 193 202 199
-4.37 2.24 5.76 195 204 201
-4.23 2.20 5.64 198 204 204
-4.10 2.15 5.52 200 206 206
-3.69 2.18 5.17 200 206 204
-3.40 2.18 4.91 199 205 203
-3.26 2.13 4.80 198 204 200
-3.26 2.05 4.80 197 203 199
-3.13 2.00 4.68 198 207 204
-3.13 1.92 4.68 192 201 198
3.55 3.32 -1.12 195 204 201
3.73 3.26 -1.28 212 221 218
3.55 3.12 -1.12 171 180 177
3.55 3.02 -1.12 145 154 151
3.55 2.93 -1.12 156 165 160
3.55 2.83 -1.12 156 165 160
3.55 2.73 -1.12 156 165 160
3.55 2.63 -1.12 156 165 160
3.55 2.54 -1.12 157 166 161
3.55 2.44 -1.12 157 166 161
3.55 2.34 -1.12 158 167 162
3.55 2.24 -1.12 156 165 160
3.55 2.14 -1.12 156 165 160
3.55 2.05 -1.12 157 166 161
3.55 1.95 -1.12 157 166 161
3.55 1.85 -1.12 157 166 161
3.55 1.75 -1.12 157 166 161
3.55 1.66 -1.12 157 166 161
3.55 1.56 -1.12 157 166 161
3.55 1.46 -1.12 156 165 160
3.55 1.36 -1.12 156 165 160
3.73 1.30 -1.28 157 166 161
3.73 1.21 -1.28 157 166 161
3.73 1.11 -1.28 157 166 161
3.73 1.01 -1.28 156 165 160
3.73 0.91 -1.28 156 165 160
3.73 0.81 -1.28 156 165 160
3.73 0.71 -1.28 159 165 161
3.73 0.62 -1.28 159 165 161
3.73 0.52 -1.28 159 165 161
3.73 0.42 -1.28 158 164 160
3.73 0.32 -1.28 158 164 160
3.73 0.22 -1.28 157 163 159
3.73 0.13 -1.28 157 163 159
3.73 0.03 -1.28 155 164 159
3.73 -0.07 -1.28 156 165 160
3.55 -0.20 -1.12 157 166 161
3.55 -0.30 -1.12 158 167 162
3.55 -0.39 -1.12 159 168 163
3.55 -0.49 -1.12 159 168 163
3.55 -0.59 -1.12 159 168 163
3.55 -0.69 -1.12 158 167 162
3.55 -0.79 -1.12 157 167 159
3.55 -0.88 -1.12 159 169 161
3.55 -0.98 -1.12 161 170 165
3.55 -1.08 -1.12 161 170 165
3.55 -1.18 -1.12 161 170 165
3.55 -1.27 -1.12 162 171 166
3.73 -1.34 -1.28 161 170 165
3.73 -1.44 -1.28 159 168 163
3.73 -1.54 -1.28 162 171 168
3.73 -1.64 -1.28 162 171 168
3.73 -1.74 -1.28 162 171 168
3.73 -1.84 -1.28 161 170 167
3.73 -1.93 -1.28 160 169 166
3.73 -2.03 -1.28 160 169 166
3.73 -2.13 -1.28 162 171 170
3.73 -2.23 -1.28 162 173 169
3.73 -2.33 -1.28 162 173 169
3.73 -2.42 -1.28 162 173 169
3.73 -2.52 -1.28 163 174 170
3.73 -2.62 -1.28 162 173 169
3.73 -2.72 -1.28 162 173 169
3.73 -2.82 -1.28 162 173 169
3.73 -2.91 -1.28 162 173 169
3.55 -3.03 -1.12 162 173 169
3.55 -3.13 -1.12 162 173 169
3.55 -3.23 -1.12 162 172 171
3.55 -3.32 -1.12 162 172 171
3.55 -3.42 -1.12 161 171 170
3.55 -3.52 -1.12 161 171 170
3.55 -3.62 -1.12 162 172 171
3.55 -3.71 -1.12 162 172 171
3.73 -3.80 -1.28 161 172 168
3.73 -3.89 -1.28 162 173 169
3.73 -3.99 -1.28 164 175 171
3.73 -4.09 -1.28 164 175 171
3.73 -4.19 -1.28 164 175 171
3.73 -4.29 -1.28 163 174 170
3.73 -4.39 -1.28 163 174 170
3.55 -4.50 -1.12 161 172 168
3.55 -4.59 -1.12 163 174 170
3.73 -4.68 -1.28 165 176 172
3.73 -4.78 -1.28 166 177 173
3.73 -4.88 -1.28 166 177 173
3.73 -4.97 -1.28 166 177 173
3.73 -5.07 -1.28 167 178 174
3.73 -5.17 -1.28 167 178 174
3.73 -5.27 -1.28 166 175 172
3.73 -5.37 -1.28 167 176 173
3.73 -5.46 -1.28 168 177 174
3.95 -5.55 -1.47 168 177 174
3.95 -5.65 -1.47 166 177 173
3.95 -5.75 -1.47 166 177 173
3.73 -5.86 -1.28 165 177 173
3.73 -5.95 -1.28 165 177 173
3.73 -6.05 -1.28 165 177 173
3.73 -6.15 -1.28 166 178 174
3.73 -6.25 -1.28 167 179 175
3.95 -6.34 -1.47 168 180 176
3.73 -6.45 -1.28 168 179 175
3.73 -6.54 -1.28 168 179 175
3.73 -6.64 -1.28 168 179 175
3.73 -6.74 -1.28 168 179 175
3.73 -6.84 -1.28 168 179 175
3.73 -6.94 -1.28 168 179 175
3.73 -7.03 -1.28 169 180 176
3.73 -7.13 -1.28 170 181 177
3.73 -7.23 -1.28 169 180 176
3.73 -7.33 -1.28 168 179 175
3.73 -7.43 -1.28 168 179 175
3.73 -7.52 -1.28 170 181 177
3.73 -7.62 -1.28 170 181 177
3.73 -7.72 -1.28 171 182 178
3.73 -7.82 -1.28 172 183 179
3.73 -7.92 -1.28 172 183 179
3.73 -8.01 -1.28 172 183 179
3.73 -8.11 -1.28 172 183 179
3.55 -8.21 -1.12 172 183 179
3.55 -8.30 -1.12 173 185 181
3.55 -8.79 -1.12 174 183 180
3.55 -8.89 -1.12 173 184 180
3.55 -8.99 -1.12 174 185 181
3.55 -9.09 -1.12 171 186 179
3.55 -9.18 -1.12 172 187 180
3.55 -9.28 -1.12 175 188 181
3.55 -9.38 -1.12 176 189 182
3.55 -9.48 -1.12 179 188 183
3.73 -9.58 -1.28 179 188 183
3.73 -9.68 -1.28 180 186 182
3.73 -9.78 -1.28 179 188 185
3.73 -9.88 -1.28 178 187 184
3.73 -9.98 -1.28 179 188 185
3.55 -10.06 -1.12 180 189 186
3.55 -10.16 -1.12 180 189 186
3.55 -10.26 -1.12 179 188 185
3.55 -10.36 -1.12 179 188 185
3.55 -10.45 -1.12 181 190 187
3.55 -10.55 -1.12 182 191 188
3.55 -10.65 -1.12 181 190 187
3.55 -10.75 -1.12 181 190 187
3.73 -10.86 -1.28 183 192 189
3.73 -10.96 -1.28 185 194 191
3.73 -11.05 -1.28 185 194 191
3.55 -11.14 -1.12 186 195 192
3.73 -11.25 -1.28 188 197 196
3.73 -11.35 -1.28 187 196 195
3.73 -11.45 -1.28 187 195 197
3.55 -11.53 -1.12 189 197 199
3.55 -11.62 -1.12 191 200 199
3.55 -11.72 -1.12 192 201 200
3.55 -11.82 -1.12 193 202 201
3.55 -11.92 -1.12 194 203 202
3.55 -12.02 -1.12 195 204 201
3.55 -12.11 -1.12 196 205 202
3.55 -12.21 -1.12 198 207 204
3.55 -12.31 -1.12 200 209 206
3.55 -12.41 -1.12 201 210 205
3.55 -12.50 -1.12 202 211 206
3.55 -12.60 -1.12 203 212 207
3.55 -12.70 -1.12 204 213 208
3.55 -12.80 -1.12 208 217 214
3.55 -12.89 -1.12 209 218 215
3.55 -12.99 -1.12 208 219 215
3.55 -13.09 -1.12 209 220 216
3.55 -13.19 -1.12 210 221 217
3.55 -13.28 -1.12 211 222 218
3.55 -13.38 -1.12 212 223 219
3.55 -13.48 -1.12 212 223 219
3.55 -13.58 -1.12 212 223 219
3.55 -13.68 -1.12 214 225 221
3.55 -13.77 -1.12 217 226 223
3.55 -13.87 -1.12 217 223 221
3.55 -13.97 -1.12 216 222 220
3.55 -14.07 -1.12 217 223 221
3.33 -14.13 -0.93 219 225 223
3.33 -14.23 -0.93 219 223 222
3.33 -14.32 -0.93 220 224 223
3.33 -14.42 -0.93 219 225 223
3.33 -14.52 -0.93 219 225 223
3.33 -14.62 -0.93 219 225 223
3.33 -14.71 -0.93 218 224 222
3.33 -14.81 -0.93 217 226 223
3.33 -14.91 -0.93 217 226 223
3.33 -15.00 -0.93 218 227 224
3.55 -15.14 -1.12 217 226 223
3.55 -15.24 -1.12 219 225 223
3.55 -15.34 -1.12 219 225 223
3.55 -15.43 -1.12 220 226 224
3.73 -15.57 -1.28 222 228 226
3.55 -15.63 -1.12 224 228 227
3.55 -15.73 -1.12 224 228 227
3.55 -15.82 -1.12 220 226 224
3.55 -15.92 -1.12 222 228 226
3.55 -16.02 -1.12 224 230 228
3.55 -16.12 -1.12 226 232 230
3.55 -16.21 -1.12 226 232 230
3.55 -16.31 -1.12 226 232 230
3.55 -16.41 -1.12 225 231 229
3.55 -16.51 -1.12 226 232 230
3.55 -16.61 -1.12 227 233 231
3.33 -16.66 -0.93 227 233 231
3.33 -16.75 -0.93 226 232 230
3.33 -16.85 -0.93 225 231 229
3.33 -16.95 -0.93 226 232 230
3.33 -17.05 -0.93 228 234 232
3.33 -17.14 -0.93 230 236 234
3.33 -17.24 -0.93 230 236 234
3.33 -17.34 -0.93 229 235 233
3.33 -17.43 -0.93 229 235 233
3.33 -17.53 -0.93 228 234 232
3.55 -17.68 -1.12 228 234 232
3.33 -17.73 -0.93 228 234 232
3.33 -17.82 -0.93 229 235 233
3.33 -17.92 -0.93 229 235 233
3.33 -18.02 -0.93 230 236 234
3.33 -18.11 -0.93 228 234 232
3.33 -18.21 -0.93 227 233 231
3.33 -18.31 -0.93 227 233 231
3.33 -18.41 -0.93 229 235 233
3.33 -18.50 -0.93 231 237 235
3.33 -18.60 -0.93 230 236 234
3.33 -18.70 -0.93 230 236 234
3.33 -18.79 -0.93 229 235 233
3.33 -18.89 -0.93 228 234 232
3.33 -18.99 -0.93 227 233 231
3.55 -19.14 -1.12 228 232 231
3.55 -19.24 -1.12 229 233 232
3.55 -19.34 -1.12 231 235 234
3.55 -19.44 -1.12 233 237 236
3.55 -19.53 -1.12 232 236 235
3.55 -19.63 -1.12 232 236 235
3.55 -19.73 -1.12 232 236 235
3.55 -19.83 -1.12 232 236 235
3.55 -19.93 -1.12 234 236 235
3.55 -20.02 -1.12 234 236 235
3.55 -20.12 -1.12 234 236 235
3.55 -20.22 -1.12 234 236 235
3.55 -20.32 -1.12 230 236 234
3.55 -20.41 -1.12 229 235 233
3.55 -20.51 -1.12 229 235 233
3.55 -20.61 -1.12 229 235 233
3.55 -20.71 -1.12 231 235 234
3.55 -20.80 -1.12 231 235 234
3.55 -20.90 -1.12 230 234 233
3.55 -21.00 -1.12 227 231 230
3.55 -21.10 -1.12 228 232 231
3.33 -21.13 -0.93 228 232 231
3.33 -21.22 -0.93 228 232 231
3.33 -21.32 -0.93 230 232 231
3.55 -21.49 -1.12 230 232 231
3.55 -21.59 -1.12 230 232 231
3.55 -21.68 -1.12 230 232 231
3.33 -21.71 -0.93 235 235 235
3.33 -21.81 -0.93 234 234 234
3.55 -21.98 -1.12 232 232 232
3.55 -22.07 -1.12 231 231 231
3.55 -22.17 -1.12 231 231 229
3.33 -22.20 -0.93 230 230 228
3.55 -22.37 -1.12 230 230 228
3.55 -22.46 -1.12 229 229 227
3.55 -22.56 -1.12 228 228 226
3.55 -22.66 -1.12 228 228 226
3.55 -22.76 -1.12 228 228 226
3.55 -22.86 -1.12 230 230 228
3.55 -22.95 -1.12 231 231 229
3.55 -23.05 -1.12 229 229 227
3.55 -23.15 -1.12 229 229 227
3.55 -23.25 -1.12 228 228 226
3.55 -23.34 -1.12 228 228 226
3.55 -23.44 -1.12 229 229 227
3.55 -23.54 -1.12 228 228 226
3.55 -23.64 -1.12 227 227 225
3.55 -23.73 -1.12 227 227 225
3.55 -23.83 -1.12 227 227 227
3.55 -23.93 -1.12 228 228 228
3.55 -24.03 -1.12 227 227 229
3.73 -24.20 -1.28 227 227 229
3.73 -24.30 -1.28 227 227 229
3.55 -24.32 -1.12 226 226 228
3.55 -24.42 -1.12 225 225 227
3.55 -24.52 -1.12 225 225 227
3.55 -24.61 -1.12 225 224 229
3.55 -24.71 -1.12 225 224 229
3.55 -24.81 -1.12 225 225 227
3.55 -24.91 -1.12 225 225 227
3.33 -24.92 -0.93 225 225 227
3.33 -25.01 -0.93 226 226 228
3.33 -25.11 -0.93 226 226 228
3.33 -25.21 -0.93 225 225 227
3.33 -25.30 -0.93 225 225 227
3.33 -25.40 -0.93 225 225 227
3.33 -25.50 -0.93 224 224 226
3.33 -25.60 -0.93 224 224 226
3.33 -25.69 -0.93 224 224 226
3.33 -25.79 -0.93 224 224 226
3.33 -25.89 -0.93 225 225 227
3.33 -25.98 -0.93 225 225 227
3.33 -26.08 -0.93 225 224 229
3.33 -26.18 -0.93 224 223 228
3.55 -26.37 -1.12 223 222 228
3.33 -26.37 -0.93 222 221 226
3.33 -26.47 -0.93 220 219 224
3.33 -26.57 -0.93 220 220 222
3.33 -26.67 -0.93 220 220 222
3.33 -26.76 -0.93 220 220 222
3.33 -26.86 -0.93 221 221 223
3.33 -26.96 -0.93 219 219 221
3.33 -27.05 -0.93 219 219 221
3.33 -27.15 -0.93 218 218 220
3.33 -27.25 -0.93 218 218 220
3.33 -27.35 -0.93 218 217 222
3.33 -27.44 -0.93 218 217 222
3.33 -27.54 -0.93 219 218 224
3.33 -27.64 -0.93 219 218 224
3.33 -27.73 -0.93 215 216 218
3.33 -27.83 -0.93 215 216 218
3.33 -27.93 -0.93 214 215 217
3.33 -28.03 -0.93 215 216 218
3.33 -28.12 -0.93 215 216 218
3.33 -28.22 -0.93 216 218 217
3.33 -28.32 -0.93 217 219 218
3.33 -28.41 -0.93 216 216 216
3.33 -28.51 -0.93 217 217 217
3.33 -28.61 -0.93 218 218 218
3.33 -28.71 -0.93 217 217 217
3.33 -28.80 -0.93 217 217 217
3.33 -28.90 -0.93 217 217 217
3.14 -28.90 -0.77 217 217 217
3.14 -29.00 -0.77 216 216 216
3.14 -29.10 -0.77 215 215 217
3.14 -29.19 -0.77 216 216 218
3.14 -29.29 -0.77 218 218 220
3.33 -29.48 -0.93 219 219 221
3.33 -29.58 -0.93 220 220 222
3.33 -29.68 -0.93 220 220 222
3.33 -29.77 -0.93 220 220 222
3.33 -29.87 -0.93 220 220 222
3.33 -29.97 -0.93 218 218 220
3.14 -29.97 -0.77 218 218 220
3.14 -30.06 -0.77 219 217 220
3.14 -30.16 -0.77 219 217 220
3.14 -30.64 -0.77 222 220 223
3.14 -30.74 -0.77 223 221 224
3.14 -30.84 -0.77 223 221 224
3.33 -31.04 -0.93 222 220 221
3.33 -31.13 -0.93 222 220 221
3.33 -31.23 -0.93 224 220 221
3.55 -31.45 -1.12 225 221 222
3.55 -31.55 -1.12 227 223 224
3.14 -31.81 -0.77 237 232 236
3.14 -31.90 -0.77 194 189 193
3.14 -32.00 -0.77 92 85 92
3.33 -32.20 -0.93 75 68 75
3.33 -35.99 -0.93 98 91 99
3.33 -36.09 -0.93 99 94 101
3.33 -36.19 -0.93 100 95 102
3.33 -36.28 -0.93 102 95 103
3.33 -36.38 -0.93 102 92 101
3.33 -36.48 -0.93 97 87 96
3.14 -36.45 -0.77 93 81 91
3.33 -36.67 -0.93 0 0 0
3.14 -36.64 -0.77 0 0 0
3.14 -36.74 -0.77 0 0 0
3.14 -36.84 -0.77 0 0 0
2.95 -36.80 -0.60 0 0 0
2.95 -36.90 -0.60 0 0 0
2.95 -37.00 -0.60 0 0 0
2.95 -37.09 -0.60 0 0 0
2.95 -37.19 -0.60 0 0 0
2.95 -37.28 -0.60 0 0 0
2.95 -37.38 -0.60 0 0 0
2.74 -37.33 -0.42 0 0 0
2.74 -37.42 -0.42 0 0 0
2.95 -37.67 -0.60 0 0 0
2.95 -37.77 -0.60 0 0 0
3.28 24.06 -1.01 0 0 0
3.28 23.96 -1.01 0 0 0
3.28 23.86 -1.01 0 0 0
3.28 23.77 -1.01 0 0 0
3.28 23.67 -1.01 0 0 0
3.28 23.57 -1.01 0 0 0
3.28 23.47 -1.01 0 0 0
3.28 23.38 -1.01 0 0 0
3.28 23.28 -1.01 0 0 0
3.28 23.18 -1.01 129 119 110
3.28 23.09 -1.01 129 119 110
3.28 22.99 -1.01 129 119 110
3.28 22.89 -1.01 127 118 111
3.28 22.79 -1.01 127 118 111
3.28 22.70 -1.01 126 119 113
3.28 22.60 -1.01 126 119 113
3.28 22.50 -1.01 125 120 116
3.28 22.41 -1.01 126 121 117
3.28 22.31 -1.01 124 119 116
3.28 22.21 -1.01 125 120 117
3.50 22.26 -1.20 125 122 117
3.50 22.16 -1.20 126 123 118
3.50 22.07 -1.20 126 123 116
3.69 22.10 -1.37 125 122 115
3.69 22.00 -1.37 125 122 115
3.69 21.90 -1.37 125 122 115
3.69 21.80 -1.37 129 125 116
3.69 21.70 -1.37 127 123 114
3.69 21.61 -1.37 127 123 114
3.69 21.51 -1.37 129 125 116
3.69 21.41 -1.37 128 124 115
3.69 21.31 -1.37 129 125 114
3.69 21.21 -1.37 131 127 116
3.69 21.12 -1.37 128 124 113
3.69 21.02 -1.37 129 125 114
3.69 20.92 -1.37 131 127 118
3.69 20.82 -1.37 131 127 118
3.50 20.60 -1.20 131 126 120
3.50 20.50 -1.20 130 125 119
3.50 20.41 -1.20 130 125 119
3.50 20.31 -1.20 132 125 119
3.50 20.21 -1.20 133 126 118
3.50 20.11 -1.20 134 125 120
3.50 20.02 -1.20 135 128 122
3.50 19.92 -1.20 136 128 125
3.50 19.82 -1.20 136 128 126
3.50 19.72 -1.20 133 125 123
3.50 19.62 -1.20 132 127 124
3.50 19.53 -1.20 133 128 125
3.50 19.43 -1.20 131 128 121
3.50 19.33 -1.20 131 128 121
3.50 19.23 -1.20 129 129 119
3.50 19.14 -1.20 129 129 119
3.69 19.15 -1.37 130 129 124
3.69 19.06 -1.37 131 130 125
3.50 18.84 -1.20 134 130 127
3.50 18.75 -1.20 135 131 130
3.50 18.65 -1.20 135 129 129
3.50 18.55 -1.20 135 129 129
3.50 18.45 -1.20 135 129 129
3.50 18.36 -1.20 134 128 130
3.50 18.26 -1.20 134 128 130
3.50 18.16 -1.20 133 129 130
3.50 18.06 -1.20 132 128 129
3.50 17.96 -1.20 132 128 127
3.69 17.98 -1.37 133 129 128
3.69 17.88 -1.37 134 131 126
3.69 17.78 -1.37 135 132 127
3.69 17.68 -1.37 135 132 125
3.69 17.58 -1.37 134 131 124
3.69 17.49 -1.37 132 132 122
3.69 17.39 -1.37 131 131 121
3.69 17.29 -1.37 136 133 126
3.69 17.19 -1.37 136 133 126
3.69 17.09 -1.37 136 133 126
3.50 16.89 -1.20 136 133 126
3.50 16.79 -1.20 136 133 124
3.50 16.69 -1.20 136 133 124
3.50 16.60 -1.20 136 133 124
3.50 16.50 -1.20 137 134 125
3.50 16.40 -1.20 137 134 125
3.50 16.30 -1.20 134 134 126
3.50 16.21 -1.20 134 134 126
3.28 15.99 -1.01 134 133 128
3.28 15.90 -1.01 135 134 129
3.50 15.91 -1.20 135 134 129
3.50 15.82 -1.20 136 135 130
3.50 15.72 -1.20 132 133 127
3.50 15.62 -1.20 133 134 128
3.50 15.52 -1.20 133 134 128
3.50 15.43 -1.20 134 135 129
3.50 15.33 -1.20 135 134 129
3.50 15.23 -1.20 135 134 129
3.50 15.13 -1.20 135 135 127
3.50 15.03 -1.20 135 135 127
3.50 14.94 -1.20 134 134 126
3.50 14.84 -1.20 134 134 126
3.50 14.74 -1.20 135 135 127
3.50 14.64 -1.20 135 135 127
3.50 14.55 -1.20 138 135 128
3.50 14.45 -1.20 138 135 128
3.50 14.35 -1.20 139 136 129
3.50 14.25 -1.20 135 134 129
3.50 14.16 -1.20 135 134 129
3.50 14.06 -1.20 134 133 128
3.50 13.96 -1.20 134 133 128
3.50 13.86 -1.20 134 133 128
3.28 13.66 -1.01 133 132 127
3.28 13.37 -1.01 134 133 128
3.28 13.27 -1.01 134 133 128
3.28 13.17 -1.01 135 134 129
2.69 12.80 -0.50 135 134 129
-4.81 9.15 6.04 135 134 129
-4.81 9.08 6.04 135 134 129
-4.94 8.93 6.16 135 134 129
-4.94 8.85 6.16 135 134 129
-4.94 8.78 6.16 137 133 130
-4.94 8.70 6.16 137 133 130
-5.08 8.56 6.27 144 140 139
-5.08 8.48 6.27 154 150 149
-5.08 8.40 6.27 158 154 155
-5.08 8.32 6.27 156 152 153
-5.08 8.24 6.27 156 152 153
-5.08 8.17 6.27 157 151 155
-5.08 8.09 6.27 157 151 155
-5.08 8.01 6.27 159 150 153
-5.08 7.93 6.27 159 150 153
-5.08 7.85 6.27 160 149 153
-5.08 7.77 6.27 160 149 153
-5.08 7.70 6.27 159 148 152
-5.08 7.62 6.27 159 148 152
-5.21 7.48 6.39 158 146 148
-5.21 7.40 6.39 158 146 148
-5.21 7.33 6.39 158 146 148
-5.21 7.25 6.39 158 146 148
-5.21 7.17 6.39 158 146 150
-5.21 7.09 6.39 157 145 149
-5.32 6.97 6.48 156 145 151
-5.32 6.89 6.48 156 145 151
-5.32 6.81 6.48 156 145 151
-5.32 6.74 6.48 156 145 151
-5.32 6.66 6.48 155 145 153
-5.32 6.58 6.48 155 145 153
-5.32 6.50 6.48 155 145 154
-5.32 6.42 6.48 155 145 154
-5.32 6.35 6.48 155 145 154
-5.32 6.27 6.48 155 145 154
-5.32 6.19 6.48 155 145 156
-5.32 6.11 6.48 153 145 156
-5.46 5.98 6.60 153 145 156
-5.46 5.91 6.60 152 147 154
-5.46 5.83 6.60 151 146 153
-5.46 5.75 6.60 148 147 153
-5.46 5.67 6.60 148 147 153
-5.46 5.60 6.60 148 148 156
-5.46 5.52 6.60 148 148 156
-5.46 5.44 6.60 145 149 158
-5.46 5.36 6.60 145 149 158
-5.46 5.29 6.60 143 150 160
-5.46 5.21 6.60 143 150 160
-5.46 5.13 6.60 144 150 162
-5.46 5.05 6.60 143 151 162
-5.46 4.98 6.60 140 150 162
-5.46 4.90 6.60 138 150 162
-5.59 4.77 6.72 138 151 160
-5.59 4.70 6.72 138 151 160
-5.59 4.62 6.72 138 152 161
-5.59 4.54 6.72 139 153 162
-5.59 4.46 6.72 138 155 163
-5.59 4.39 6.72 138 155 163
-5.59 4.31 6.72 136 155 162
-5.59 4.23 6.72 138 156 166
-5.59 4.16 6.72 138 156 166
-5.59 4.08 6.72 138 156 166
-5.59 4.00 6.72 138 156 166
-5.59 3.92 6.72 138 158 169
-5.59 3.85 6.72 139 159 170
-5.59 3.77 6.72 141 159 169
-5.59 3.69 6.72 142 160 170
-5.59 3.62 6.72 143 161 171
-5.70 3.50 6.81 143 161 171
-5.70 3.43 6.81 143 161 171
-5.70 3.35 6.81 143 161 171
-5.70 3.27 6.81 143 162 169
-5.70 3.20 6.81 144 163 170
-5.70 3.12 6.81 145 164 171
-5.70 3.04 6.81 145 164 171
-5.70 2.97 6.81 146 165 172
-5.70 2.89 6.81 146 165 172
-5.70 2.81 6.81 147 166 173
-5.59 2.77 6.72 147 166 173
-5.59 2.69 6.72 147 166 172
-5.59 2.61 6.72 147 164 171
-5.59 2.54 6.72 160 173 182
-5.32 2.54 6.48 168 178 187
-5.21 2.49 6.39 164 175 179
-5.21 2.41 6.39 196 206 205
-5.08 2.37 6.27 195 206 202
-4.94 2.33 6.16 194 203 198
-4.81 2.29 6.04 195 204 199
-4.68 2.25 5.92 197 203 201
-4.54 2.20 5.80 198 204 202
-4.27 2.20 5.57 199 205 205
-4.14 2.15 5.45 200 206 206
-3.73 2.18 5.10 200 206 206
-3.44 2.18 4.84 200 206 206
-3.30 2.13 4.73 198 204 202
-3.30 2.05 4.73 198 204 202
-3.17 2.00 4.61 192 201 198
-3.17 1.92 4.61 185 194 191
3.50 3.32 -1.20 193 202 199
3.50 3.22 -1.20 205 214 211
3.50 3.12 -1.20 188 197 194
3.50 3.02 -1.20 139 148 145
3.50 2.93 -1.20 157 166 161
3.50 2.83 -1.20 157 166 161
3.50 2.73 -1.20 156 165 160
3.50 2.63 -1.20 156 165 160
3.50 2.54 -1.20 156 165 160
3.28 2.39 -1.01 157 166 161
3.28 2.29 -1.01 158 167 162
3.28 2.19 -1.01 158 164 160
3.28 2.10 -1.01 158 164 160
3.28 2.00 -1.01 158 164 160
3.28 1.90 -1.01 158 164 160
3.50 1.85 -1.20 159 165 161
3.50 1.75 -1.20 159 165 161
3.50 1.66 -1.20 157 166 161
3.50 1.56 -1.20 158 167 162
3.50 1.46 -1.20 156 165 160
3.50 1.36 -1.20 157 166 161
3.50 1.27 -1.20 157 166 161
3.50 1.17 -1.20 157 166 161
3.69 1.11 -1.37 157 166 163
3.69 1.01 -1.37 157 166 163
3.69 0.91 -1.37 156 165 162
3.50 0.78 -1.20 156 165 162
3.50 0.68 -1.20 158 167 162
3.69 0.62 -1.37 158 167 162
3.69 0.52 -1.37 158 167 162
3.50 0.39 -1.20 157 166 161
3.50 0.29 -1.20 157 166 161
3.50 0.19 -1.20 156 165 160
3.50 0.09 -1.20 156 165 160
3.50 -0.00 -1.20 155 164 159
3.50 -0.10 -1.20 156 165 160
3.50 -0.20 -1.20 157 166 161
3.50 -0.30 -1.20 158 167 162
3.50 -0.39 -1.20 159 168 163
3.50 -0.49 -1.20 159 168 163
3.50 -0.59 -1.20 159 169 161
3.50 -0.69 -1.20 158 168 160
3.50 -0.79 -1.20 157 167 159
3.50 -0.88 -1.20 158 168 160
3.50 -0.98 -1.20 160 170 162
3.50 -1.08 -1.20 160 170 162
3.50 -1.18 -1.20 160 170 162
3.50 -1.27 -1.20 160 170 162
3.50 -1.37 -1.20 160 169 164
3.69 -1.44 -1.37 160 169 164
3.69 -1.54 -1.37 161 170 167
3.50 -1.66 -1.20 161 170 167
3.50 -1.76 -1.20 161 170 169
3.50 -1.86 -1.20 161 170 169
3.50 -1.96 -1.20 160 169 168
3.50 -2.05 -1.20 160 169 168
3.50 -2.15 -1.20 162 171 168
3.50 -2.25 -1.20 162 173 167
3.50 -2.35 -1.20 162 173 165
3.50 -2.45 -1.20 162 173 167
3.50 -2.54 -1.20 163 174 168
3.50 -2.64 -1.20 163 174 168
3.50 -2.74 -1.20 163 174 168
3.50 -2.84 -1.20 162 173 169
3.50 -2.93 -1.20 162 173 169
3.50 -3.03 -1.20 162 173 169
3.50 -3.13 -1.20 162 173 169
3.50 -3.23 -1.20 162 172 171
3.50 -3.32 -1.20 161 171 170
3.50 -3.42 -1.20 161 171 170
3.50 -3.52 -1.20 162 172 171
3.50 -3.62 -1.20 162 172 173
3.50 -3.71 -1.20 162 172 173
3.50 -3.81 -1.20 163 174 170
3.50 -3.91 -1.20 163 174 170
3.50 -4.01 -1.20 165 176 172
3.50 -4.11 -1.20 165 176 172
3.50 -4.20 -1.20 164 175 171
3.50 -4.30 -1.20 164 175 171
3.50 -4.40 -1.20 164 175 171
3.50 -4.50 -1.20 161 172 168
3.50 -4.59 -1.20 163 174 170
3.50 -4.69 -1.20 165 176 172
3.50 -4.79 -1.20 166 177 173
3.50 -4.89 -1.20 167 178 174
3.50 -4.98 -1.20 167 178 174
3.50 -5.08 -1.20 167 178 174
3.50 -5.18 -1.20 168 177 174
3.50 -5.28 -1.20 167 176 173
3.50 -5.37 -1.20 169 175 173
3.50 -5.47 -1.20 168 177 174
3.69 -5.56 -1.37 168 177 174
3.69 -5.66 -1.37 167 176 173
3.69 -5.76 -1.37 167 176 173
3.69 -5.86 -1.37 167 176 173
3.69 -5.95 -1.37 167 176 173
3.69 -6.05 -1.37 165 176 172
3.69 -6.15 -1.37 167 178 174
3.90 -6.24 -1.55 169 180 176
3.69 -6.35 -1.37 169 180 176
3.69 -6.45 -1.37 168 179 175
3.69 -6.54 -1.37 167 178 174
3.69 -6.64 -1.37 167 178 174
3.69 -6.74 -1.37 168 179 175
3.69 -6.84 -1.37 168 179 175
3.69 -6.94 -1.37 168 179 175
3.69 -7.03 -1.37 169 180 176
3.69 -7.13 -1.37 169 180 176
3.69 -7.23 -1.37 169 180 176
3.69 -7.33 -1.37 169 180 176
3.69 -7.43 -1.37 169 180 176
3.69 -7.52 -1.37 171 182 178
3.50 -7.62 -1.20 171 182 178
3.50 -7.72 -1.20 170 182 178
3.50 -7.82 -1.20 171 183 179
3.50 -7.91 -1.20 171 183 179
3.50 -8.01 -1.20 171 183 179
3.50 -8.11 -1.20 172 184 180
3.50 -8.21 -1.20 172 184 180
3.50 -8.30 -1.20 172 187 182
3.50 -8.79 -1.20 175 184 181
3.50 -8.89 -1.20 173 184 180
3.50 -8.99 -1.20 173 184 180
3.50 -9.09 -1.20 170 185 178
3.50 -9.18 -1.20 172 187 180
3.50 -9.28 -1.20 174 189 182
3.50 -9.38 -1.20 177 190 183
3.50 -9.48 -1.20 178 189 183
3.50 -9.57 -1.20 178 189 183
3.50 -9.67 -1.20 178 187 182
3.50 -9.77 -1.20 179 188 185
3.50 -9.87 -1.20 179 188 185
3.50 -9.96 -1.20 179 188 185
3.50 -10.06 -1.20 180 189 186
3.50 -10.16 -1.20 180 189 186
3.50 -10.26 -1.20 179 188 185
3.50 -10.36 -1.20 180 189 186
3.50 -10.45 -1.20 182 191 188
3.50 -10.55 -1.20 182 191 188
3.50 -10.65 -1.20 181 190 187
3.50 -10.75 -1.20 182 191 188
3.50 -10.84 -1.20 184 193 190
3.50 -10.94 -1.20 185 194 191
3.50 -11.04 -1.20 185 194 191
3.50 -11.14 -1.20 185 194 191
3.50 -11.23 -1.20 187 196 195
3.50 -11.33 -1.20 188 197 196
3.50 -11.43 -1.20 187 195 197
3.50 -11.53 -1.20 189 197 199
3.50 -11.62 -1.20 191 199 201
3.50 -11.72 -1.20 193 201 203
3.50 -11.82 -1.20 195 204 203
3.50 -11.92 -1.20 195 204 203
3.50 -12.02 -1.20 194 203 202
3.28 -12.09 -1.01 196 205 204
3.28 -12.19 -1.01 198 207 204
3.28 -12.28 -1.01 200 209 206
3.28 -12.38 -1.01 200 209 206
3.50 -12.50 -1.20 201 210 207
3.50 -12.60 -1.20 202 211 208
3.28 -12.67 -1.01 202 211 208
3.28 -12.77 -1.01 208 217 214
3.28 -12.87 -1.01 208 217 214
3.50 -12.99 -1.20 208 219 215
3.50 -13.09 -1.20 209 220 216
3.50 -13.19 -1.20 210 221 217
3.50 -13.28 -1.20 211 222 218
3.50 -13.38 -1.20 211 222 218
3.50 -13.48 -1.20 211 222 218
3.28 -13.55 -1.01 212 223 219
3.28 -13.64 -1.01 212 223 219
3.28 -13.74 -1.01 214 223 220
3.28 -13.84 -1.01 215 221 219
3.28 -13.94 -1.01 215 221 219
3.28 -14.03 -1.01 216 222 220
3.28 -14.13 -1.01 218 222 221
3.28 -14.23 -1.01 221 225 224
3.28 -14.32 -1.01 224 226 225
3.28 -14.42 -1.01 223 227 226
3.28 -14.52 -1.01 223 227 226
3.28 -14.62 -1.01 222 228 226
3.28 -14.71 -1.01 221 227 225
3.28 -14.81 -1.01 220 229 226
3.28 -14.91 -1.01 220 229 226
3.28 -15.00 -1.01 219 228 225
3.28 -15.10 -1.01 219 228 225
3.28 -15.20 -1.01 218 227 224
3.28 -15.30 -1.01 218 227 224
3.50 -15.43 -1.20 218 227 224
3.50 -15.53 -1.20 219 228 225
3.50 -15.63 -1.20 222 228 226
3.50 -15.73 -1.20 222 228 226
3.28 -15.78 -1.01 219 225 223
3.28 -15.88 -1.01 221 227 225
3.28 -15.98 -1.01 223 229 227
3.28 -16.07 -1.01 224 230 228
3.28 -16.17 -1.01 226 232 230
3.28 -16.27 -1.01 226 232 230
3.28 -16.37 -1.01 226 232 230
3.28 -16.46 -1.01 223 229 227
3.28 -16.56 -1.01 224 230 228
3.28 -16.66 -1.01 225 231 229
3.28 -16.75 -1.01 225 231 229
3.28 -16.85 -1.01 225 231 229
3.28 -16.95 -1.01 226 232 230
3.28 -17.05 -1.01 228 234 232
3.28 -17.14 -1.01 230 236 234
3.28 -17.24 -1.01 230 236 234
3.28 -17.34 -1.01 230 236 234
3.28 -17.43 -1.01 230 236 234
3.28 -17.53 -1.01 230 236 234
3.28 -17.63 -1.01 230 236 234
3.28 -17.73 -1.01 231 237 235
3.28 -17.82 -1.01 231 237 235
3.28 -17.92 -1.01 231 237 235
3.28 -18.02 -1.01 228 234 232
3.28 -18.11 -1.01 228 234 232
3.28 -18.21 -1.01 227 233 231
3.28 -18.31 -1.01 228 234 232
3.28 -18.41 -1.01 230 236 234
3.28 -18.50 -1.01 231 237 235
3.28 -18.60 -1.01 231 237 235
3.28 -18.70 -1.01 233 239 237
3.28 -18.79 -1.01 232 238 236
3.28 -18.89 -1.01 231 237 235
3.28 -18.99 -1.01 230 236 234
3.28 -19.09 -1.01 230 234 233
3.28 -19.18 -1.01 231 235 234
3.28 -19.28 -1.01 232 236 235
3.28 -19.38 -1.01 234 238 237
3.28 -19.47 -1.01 232 236 235
3.28 -19.57 -1.01 232 236 235
3.28 -19.67 -1.01 232 236 235
3.28 -19.77 -1.01 232 236 235
3.50 -19.93 -1.20 233 235 234
3.50 -20.02 -1.20 233 235 234
3.28 -20.06 -1.01 233 235 234
3.28 -20.15 -1.01 233 235 234
3.28 -20.25 -1.01 229 233 232
3.28 -20.35 -1.01 229 233 232
3.28 -20.45 -1.01 229 233 232
3.28 -20.54 -1.01 230 234 233
3.28 -20.64 -1.01 230 234 233
3.28 -20.74 -1.01 230 234 233
3.28 -20.83 -1.01 230 234 233
3.28 -20.93 -1.01 228 232 231
3.28 -21.03 -1.01 228 232 231
3.28 -21.13 -1.01 230 232 231
3.28 -21.22 -1.01 230 232 231
3.28 -21.32 -1.01 230 232 231
3.28 -21.42 -1.01 230 232 231
3.28 -21.52 -1.01 229 231 230
3.28 -21.61 -1.01 229 231 230
3.28 -21.71 -1.01 234 234 234
3.28 -21.81 -1.01 233 233 233
3.28 -21.90 -1.01 232 232 232
3.28 -22.00 -1.01 231 231 231
3.28 -22.10 -1.01 231 231 231
3.28 -22.20 -1.01 230 230 230
3.28 -22.29 -1.01 229 229 227
3.28 -22.39 -1.01 229 229 227
3.28 -22.49 -1.01 230 230 228
3.28 -22.58 -1.01 229 229 227
3.28 -22.68 -1.01 229 229 227
3.28 -22.78 -1.01 231 231 229
3.28 -22.88 -1.01 231 231 229
3.28 -22.97 -1.01 230 230 228
3.28 -23.07 -1.01 230 230 228
3.28 -23.17 -1.01 230 230 228
3.28 -23.26 -1.01 230 230 228
3.28 -23.36 -1.01 229 229 227
3.28 -23.46 -1.01 228 228 226
3.28 -23.56 -1.01 226 226 224
3.28 -23.65 -1.01 225 225 223
3.28 -23.75 -1.01 225 225 225
3.28 -23.85 -1.01 225 225 225
3.28 -23.94 -1.01 226 226 228
3.50 -24.12 -1.20 226 226 228
3.50 -24.22 -1.20 226 226 228
3.50 -24.32 -1.20 225 225 227
3.50 -24.42 -1.20 224 224 226
3.50 -24.52 -1.20 224 224 226
3.50 -24.61 -1.20 224 223 228
3.50 -24.71 -1.20 224 223 228
3.28 -24.72 -1.01 225 225 227
3.28 -24.82 -1.01 225 225 227
3.28 -24.92 -1.01 225 225 227
3.28 -25.01 -1.01 226 226 228
3.28 -25.11 -1.01 226 226 228
3.28 -25.21 -1.01 225 225 227
3.28 -25.30 -1.01 225 225 227
3.09 -25.32 -0.85 225 225 227
3.09 -25.42 -0.85 226 226 228
3.09 -25.52 -0.85 226 226 228
3.09 -25.61 -0.85 226 226 228
3.09 -25.71 -0.85 226 226 228
3.09 -25.81 -0.85 226 226 228
3.09 -25.90 -0.85 226 226 228
3.09 -26.00 -0.85 226 226 228
3.09 -26.10 -0.85 224 223 228
3.28 -26.28 -1.01 223 222 227
3.28 -26.37 -1.01 223 222 227
3.28 -26.47 -1.01 222 221 226
3.09 -26.48 -0.85 222 222 224
3.09 -26.58 -0.85 222 222 224
3.09 -26.68 -0.85 221 221 221
3.28 -26.86 -1.01 221 221 221
3.28 -26.96 -1.01 219 219 219
3.28 -27.05 -1.01 219 219 219
3.28 -27.15 -1.01 219 219 221
3.28 -27.25 -1.01 219 219 221
3.28 -27.35 -1.01 219 218 223
3.28 -27.44 -1.01 219 218 223
3.28 -27.54 -1.01 220 219 224
3.28 -27.64 -1.01 220 219 224
3.28 -27.73 -1.01 217 218 220
3.28 -27.83 -1.01 215 216 218
