ply
format ascii 1.0
element vertex 1634
property float x
property float y
property float z
property uchar red
property uchar green
property uchar blue
end_header
12.89 18.25 -1.10 142 140 125
12.89 18.14 -1.10 140 138 123
12.89 18.03 -1.10 141 139 126
12.89 17.92 -1.10 142 140 127
12.89 17.80 -1.10 143 140 131
12.89 17.69 -1.10 144 141 134
12.89 17.58 -1.10 144 140 137
12.89 17.47 -1.10 143 141 142
13.18 17.49 -1.31 141 141 141
13.18 17.38 -1.31 139 140 142
13.18 17.27 -1.31 138 140 139
13.18 17.16 -1.31 136 138 137
13.18 17.04 -1.31 137 139 134
13.18 16.93 -1.31 139 141 136
13.18 16.82 -1.31 139 140 134
13.18 16.71 -1.31 137 138 132
13.18 16.59 -1.31 137 138 130
12.89 16.35 -1.10 136 137 129
12.89 16.24 -1.10 138 140 129
12.89 16.13 -1.10 140 142 131
12.89 16.02 -1.10 144 144 134
12.89 15.91 -1.10 145 145 135
12.89 15.79 -1.10 143 143 133
12.89 15.68 -1.10 141 141 133
13.18 15.70 -1.31 143 145 140
13.18 15.58 -1.31 143 145 142
12.89 15.35 -1.10 143 145 140
12.89 15.24 -1.10 142 144 139
13.18 15.25 -1.31 142 145 138
13.18 15.13 -1.31 142 145 138
13.18 15.02 -1.31 142 145 136
13.18 14.91 -1.31 146 149 140
13.18 14.80 -1.31 146 149 140
12.89 14.57 -1.10 146 149 142
12.89 14.45 -1.10 145 147 142
12.89 14.34 -1.10 144 146 141
12.89 14.23 -1.10 144 146 143
13.18 14.24 -1.31 144 146 145
13.18 14.12 -1.31 143 145 144
13.18 14.01 -1.31 144 148 147
13.18 13.90 -1.31 141 145 144
13.18 13.79 -1.31 141 145 144
13.18 13.68 -1.31 143 147 146
13.18 13.56 -1.31 144 148 147
13.18 13.45 -1.31 143 147 146
13.18 13.34 -1.31 142 147 143
13.18 13.23 -1.31 143 148 144
13.18 13.11 -1.31 145 147 146
13.18 13.00 -1.31 145 147 146
13.18 12.89 -1.31 145 147 146
13.18 12.78 -1.31 143 145 144
13.18 12.66 -1.31 143 143 145
13.18 12.55 -1.31 144 144 146
13.18 12.44 -1.31 146 146 148
13.18 12.33 -1.31 147 149 146
13.18 12.22 -1.31 142 150 137
13.18 12.10 -1.31 142 150 137
13.18 11.99 -1.31 143 150 142
13.18 11.88 -1.31 144 149 143
13.18 11.77 -1.31 145 149 148
13.18 11.65 -1.31 144 148 147
13.18 11.54 -1.31 144 148 149
13.18 11.43 -1.31 144 150 150
13.18 11.32 -1.31 144 150 150
13.18 11.21 -1.31 141 150 147
13.18 11.09 -1.31 142 151 148
13.18 10.98 -1.31 142 153 147
13.46 10.97 -1.51 143 154 148
13.46 10.85 -1.51 141 154 144
13.46 10.74 -1.51 141 153 143
13.46 10.63 -1.51 142 152 144
13.46 10.52 -1.51 146 153 146
13.46 10.40 -1.51 147 154 147
13.46 10.29 -1.51 148 155 148
13.46 10.18 -1.51 146 155 150
13.46 10.06 -1.51 145 154 149
13.75 10.04 -1.72 145 154 149
13.75 9.93 -1.72 145 154 149
13.75 9.82 -1.72 146 155 150
13.75 9.70 -1.72 145 154 149
13.75 9.59 -1.72 145 154 149
13.75 9.48 -1.72 145 156 152
13.75 9.36 -1.72 146 157 153
13.75 9.25 -1.72 147 158 154
13.75 9.14 -1.72 147 158 154
13.75 9.02 -1.72 145 157 153
13.75 8.91 -1.72 145 157 153
13.75 8.80 -1.72 143 158 155
13.75 8.68 -1.72 144 159 156
14.03 8.65 -1.92 144 159 156
14.03 8.54 -1.92 144 159 156
14.03 8.43 -1.92 144 158 158
14.35 8.40 -2.15 144 158 158
14.35 8.29 -2.15 145 159 159
14.03 8.08 -1.92 145 159 159
14.03 7.97 -1.92 147 159 157
14.35 7.95 -2.15 146 158 156
14.35 7.83 -2.15 146 157 153
14.35 7.72 -2.15 146 157 153
14.35 7.60 -2.15 148 157 154
14.35 7.49 -2.15 149 158 155
14.64 7.45 -2.35 149 160 156
14.64 7.33 -2.35 149 160 156
14.64 7.22 -2.35 148 159 155
14.95 7.19 -2.58 149 160 156
14.95 7.07 -2.58 150 161 157
14.95 6.96 -2.58 151 162 158
14.95 6.84 -2.58 152 163 159
15.24 6.80 -2.78 152 163 159
15.24 6.68 -2.78 150 161 157
15.24 6.56 -2.78 149 160 156
15.24 6.45 -2.78 149 160 156
15.24 6.33 -2.78 150 161 157
15.24 6.21 -2.78 151 162 158
15.24 6.10 -2.78 150 161 157
15.24 5.98 -2.78 150 161 157
15.24 5.86 -2.78 148 157 152
15.24 5.75 -2.78 149 158 153
15.24 5.63 -2.78 152 161 156
14.95 5.45 -2.58 155 164 159
14.95 5.33 -2.58 158 169 163
14.95 5.21 -2.58 161 172 166
14.95 5.10 -2.58 164 175 169
14.95 4.98 -2.58 166 177 171
14.95 4.87 -2.58 165 178 171
14.95 4.75 -2.58 162 174 170
14.95 4.63 -2.58 153 168 163
14.95 4.52 -2.58 140 155 152
14.64 4.33 -2.35 100 114 114
14.64 4.22 -2.35 81 95 95
14.64 4.10 -2.35 72 84 82
14.64 3.99 -2.35 50 62 58
14.64 3.87 -2.35 48 60 58
14.64 3.76 -2.35 47 63 63
14.64 3.64 -2.35 49 69 78
14.64 3.53 -2.35 47 75 89
14.64 3.41 -2.35 44 78 103
14.35 3.24 -2.15 43 84 114
14.35 3.13 -2.15 45 90 129
14.35 3.01 -2.15 37 90 134
14.35 2.90 -2.15 35 91 140
14.35 2.78 -2.15 35 95 147
14.35 2.67 -2.15 36 97 151
14.35 2.55 -2.15 31 96 150
14.03 2.38 -1.92 28 93 147
14.35 2.32 -2.15 28 93 147
14.03 2.15 -1.92 31 93 152
14.03 2.04 -1.92 33 90 157
14.03 1.92 -1.92 34 88 158
14.03 1.81 -1.92 33 88 155
14.03 1.70 -1.92 34 89 153
14.03 1.58 -1.92 36 92 149
13.75 1.42 -1.72 38 94 143
13.75 1.31 -1.72 37 93 140
13.75 1.19 -1.72 41 95 141
13.75 1.08 -1.72 41 95 142
13.75 0.97 -1.72 41 94 144
13.75 0.85 -1.72 40 93 147
13.75 0.74 -1.72 42 93 150
13.75 0.63 -1.72 44 94 155
13.46 0.47 -1.51 42 92 153
13.46 0.36 -1.51 38 89 152
13.46 0.24 -1.51 40 96 157
13.46 0.13 -1.51 39 98 158
13.18 -0.02 -1.31 40 99 155
13.18 -0.13 -1.31 40 99 155
13.18 -0.25 -1.31 39 100 154
13.18 -0.36 -1.31 38 101 154
12.89 -0.51 -1.10 36 102 154
12.89 -0.62 -1.10 35 102 154
12.89 -0.73 -1.10 33 104 156
12.89 -0.84 -1.10 33 104 156
12.89 -0.95 -1.10 34 105 157
12.89 -1.07 -1.10 34 104 156
12.89 -1.18 -1.10 35 103 152
12.89 -1.29 -1.10 38 101 152
12.89 -1.40 -1.10 42 104 151
12.63 -1.54 -0.92 32 100 147
12.63 -1.65 -0.92 31 102 148
12.63 -1.76 -0.92 31 101 150
12.63 -1.87 -0.92 30 100 149
12.35 -2.02 -0.72 27 101 148
12.35 -2.13 -0.72 30 100 149
12.35 -2.24 -0.72 36 102 152
12.35 -2.35 -0.72 39 103 151
12.06 -2.48 -0.51 31 104 147
12.06 -2.59 -0.51 42 116 153
12.06 -2.70 -0.51 50 119 148
11.80 -2.84 -0.33 72 128 151
11.80 -2.95 -0.33 73 105 126
12.83 22.27 -1.20 67 68 63
12.83 22.16 -1.20 94 95 90
12.83 22.05 -1.20 123 122 118
12.83 21.94 -1.20 137 136 132
12.83 21.82 -1.20 135 131 128
12.83 21.71 -1.20 128 124 121
12.83 21.60 -1.20 135 131 128
13.12 21.65 -1.41 134 130 127
13.12 21.53 -1.41 133 129 126
13.12 21.42 -1.41 134 130 127
12.83 21.15 -1.20 134 133 129
12.83 21.04 -1.20 135 134 130
12.83 20.93 -1.20 133 132 128
12.83 20.82 -1.20 132 131 126
13.12 20.86 -1.41 133 134 126
13.12 20.75 -1.41 133 135 124
12.83 20.48 -1.20 134 136 125
12.83 20.37 -1.20 134 136 125
12.83 20.26 -1.20 134 136 125
12.83 20.15 -1.20 136 136 128
12.83 20.04 -1.20 136 136 128
12.83 19.93 -1.20 136 136 128
12.83 19.81 -1.20 136 136 128
13.12 19.85 -1.41 135 135 127
13.12 19.74 -1.41 136 136 128
12.83 19.48 -1.20 136 135 130
12.83 19.37 -1.20 137 136 131
12.83 19.26 -1.20 138 137 132
12.83 19.14 -1.20 139 138 133
12.83 19.03 -1.20 138 137 132
12.83 18.92 -1.20 137 136 131
12.83 18.81 -1.20 137 137 129
12.83 18.70 -1.20 136 136 128
12.83 18.59 -1.20 137 137 125
12.83 18.47 -1.20 138 138 126
12.83 18.36 -1.20 141 139 124
12.83 18.25 -1.20 141 139 124
12.83 18.14 -1.20 142 140 127
12.83 18.03 -1.20 142 140 128
12.83 17.92 -1.20 141 139 127
12.83 17.80 -1.20 141 138 131
12.83 17.69 -1.20 141 138 131
12.83 17.58 -1.20 142 139 134
12.83 17.47 -1.20 141 140 138
12.83 17.36 -1.20 141 141 141
12.83 17.25 -1.20 140 141 143
12.83 17.13 -1.20 139 141 140
12.83 17.02 -1.20 138 140 139
12.83 16.91 -1.20 139 141 136
12.83 16.80 -1.20 140 142 137
12.83 16.69 -1.20 141 142 136
12.83 16.58 -1.20 138 139 133
12.83 16.46 -1.20 140 141 133
12.83 16.35 -1.20 139 140 132
12.83 16.24 -1.20 138 139 131
12.83 16.13 -1.20 139 140 132
12.83 16.02 -1.20 142 142 134
12.83 15.91 -1.20 142 142 134
12.83 15.79 -1.20 141 141 133
12.83 15.68 -1.20 139 138 133
12.83 15.57 -1.20 140 142 137
12.83 15.46 -1.20 141 143 140
12.83 15.35 -1.20 141 143 138
12.83 15.24 -1.20 142 144 139
12.83 15.12 -1.20 142 145 138
12.83 15.01 -1.20 143 146 139
12.83 14.90 -1.20 144 147 138
12.83 14.79 -1.20 143 146 137
12.83 14.68 -1.20 143 146 137
12.83 14.57 -1.20 144 147 140
12.83 14.45 -1.20 144 146 141
12.83 14.34 -1.20 144 146 141
12.83 14.23 -1.20 144 146 143
12.83 14.12 -1.20 143 145 144
12.83 14.01 -1.20 142 144 143
12.83 13.90 -1.20 145 146 141
12.83 13.78 -1.20 143 144 139
12.83 13.67 -1.20 142 143 138
13.12 13.68 -1.41 144 145 140
13.12 13.56 -1.41 145 146 141
13.12 13.45 -1.41 145 146 141
12.83 13.23 -1.20 147 148 143
12.83 13.11 -1.20 149 150 145
12.83 13.00 -1.20 146 147 142
12.83 12.89 -1.20 146 147 142
12.83 12.78 -1.20 145 145 143
12.83 12.67 -1.20 145 145 143
12.83 12.56 -1.20 145 145 143
12.83 12.44 -1.20 146 146 144
12.83 12.33 -1.20 147 147 147
12.83 12.22 -1.20 148 148 146
12.83 12.11 -1.20 147 153 141
12.83 12.00 -1.20 148 151 142
12.83 11.89 -1.20 147 150 141
12.83 11.77 -1.20 145 148 141
12.83 11.66 -1.20 145 148 141
13.12 11.65 -1.41 144 146 141
13.12 11.54 -1.41 144 146 141
13.12 11.43 -1.41 145 147 142
13.12 11.32 -1.41 144 146 141
13.12 11.21 -1.41 142 147 141
13.12 11.09 -1.41 144 149 143
13.12 10.98 -1.41 145 152 144
13.12 10.87 -1.41 147 154 146
13.41 10.85 -1.61 146 156 147
13.41 10.74 -1.61 146 156 148
13.41 10.63 -1.61 142 152 144
13.12 10.42 -1.41 143 152 147
13.12 10.31 -1.41 145 154 149
13.12 10.19 -1.41 146 155 150
13.12 10.08 -1.41 146 155 150
13.12 9.97 -1.41 146 155 150
13.41 9.95 -1.61 146 155 150
13.41 9.84 -1.61 146 155 150
13.41 9.73 -1.61 146 155 150
13.41 9.61 -1.61 143 154 150
13.41 9.50 -1.61 143 154 150
13.41 9.39 -1.61 144 155 151
13.41 9.27 -1.61 145 156 152
13.41 9.16 -1.61 145 156 152
13.41 9.05 -1.61 145 156 152
13.41 8.94 -1.61 145 157 153
13.41 8.82 -1.61 145 157 153
13.41 8.71 -1.61 146 158 154
13.41 8.60 -1.61 146 158 154
13.41 8.48 -1.61 147 159 157
13.69 8.46 -1.81 147 159 157
13.69 8.34 -1.81 147 159 159
13.69 8.23 -1.81 147 159 159
13.98 8.20 -2.02 146 158 156
13.98 8.08 -2.02 147 159 157
13.69 7.89 -1.81 148 158 157
13.69 7.77 -1.81 148 158 157
13.98 7.74 -2.02 147 158 154
13.98 7.63 -2.02 147 158 154
13.98 7.51 -2.02 149 158 155
13.98 7.40 -2.02 149 158 155
13.98 7.29 -2.02 148 159 155
14.29 7.26 -2.25 148 159 155
14.58 7.22 -2.45 148 159 155
14.58 7.10 -2.45 148 159 155
14.58 6.99 -2.45 150 161 157
14.89 6.96 -2.68 151 162 158
14.89 6.84 -2.68 151 162 158
14.89 6.72 -2.68 151 162 158
15.18 6.68 -2.88 150 161 157
15.18 6.56 -2.88 149 160 156
15.18 6.45 -2.88 149 160 156
15.18 6.33 -2.88 150 161 157
15.18 6.21 -2.88 151 162 158
15.18 6.10 -2.88 150 161 157
15.18 5.98 -2.88 150 161 157
15.18 5.86 -2.88 152 161 156
15.18 5.75 -2.88 151 160 155
14.89 5.56 -2.68 151 160 155
14.89 5.45 -2.68 151 160 155
14.89 5.33 -2.68 150 161 155
14.89 5.21 -2.68 151 162 156
14.89 5.10 -2.68 151 162 156
14.89 4.98 -2.68 151 162 156
14.89 4.87 -2.68 152 165 158
14.89 4.75 -2.68 153 166 159
14.89 4.63 -2.68 155 167 163
14.58 4.45 -2.45 158 170 168
14.58 4.33 -2.45 165 179 179
14.58 4.22 -2.45 169 183 183
14.58 4.10 -2.45 172 186 189
14.58 3.99 -2.45 176 193 201
14.58 3.87 -2.45 161 179 193
14.58 3.76 -2.45 139 157 177
14.58 3.64 -2.45 112 134 158
14.58 3.53 -2.45 79 106 135
14.29 3.36 -2.25 47 77 113
14.29 3.24 -2.25 20 57 99
14.29 3.13 -2.25 9 49 98
14.29 3.01 -2.25 18 64 114
14.29 2.90 -2.25 14 63 119
14.29 2.78 -2.25 13 63 122
14.29 2.67 -2.25 17 69 129
14.29 2.55 -2.25 20 76 137
14.29 2.44 -2.25 26 82 143
13.98 2.27 -2.02 31 90 150
13.98 2.15 -2.02 39 95 152
13.98 2.04 -2.02 36 93 138
13.98 1.92 -2.02 38 92 136
13.98 1.81 -2.02 36 93 136
13.98 1.70 -2.02 35 91 138
13.98 1.58 -2.02 34 92 140
13.69 1.42 -1.81 35 95 147
13.69 1.31 -1.81 36 96 150
13.69 1.19 -1.81 28 91 145
13.69 1.08 -1.81 30 93 147
13.69 0.97 -1.81 29 94 150
13.69 0.85 -1.81 29 94 150
13.69 0.74 -1.81 28 95 148
13.69 0.63 -1.81 29 96 149
13.41 0.47 -1.61 30 97 150
13.41 0.36 -1.61 29 96 148
13.41 0.24 -1.61 36 103 148
13.41 0.13 -1.61 35 99 143
13.41 0.02 -1.61 32 97 137
13.12 -0.13 -1.41 35 97 138
13.12 -0.25 -1.41 38 100 139
13.12 -0.36 -1.41 43 102 142
13.12 -0.47 -1.41 44 101 144
12.83 -0.62 -1.20 43 100 145
12.83 -0.73 -1.20 42 100 146
12.83 -0.84 -1.20 41 99 149
12.83 -0.95 -1.20 39 96 151
12.83 -1.07 -1.20 38 94 153
12.83 -1.18 -1.20 37 93 152
12.83 -1.29 -1.20 38 94 155
12.83 -1.40 -1.20 40 96 157
12.58 -1.54 -1.02 35 101 153
12.58 -1.65 -1.02 35 103 152
12.58 -1.76 -1.02 34 102 151
12.58 -1.87 -1.02 33 101 150
12.29 -2.02 -0.81 28 100 150
12.29 -2.13 -0.81 28 98 149
12.29 -2.24 -0.81 34 97 150
12.29 -2.35 -0.81 35 98 149
12.01 -2.48 -0.61 24 97 140
12.01 -2.59 -0.61 41 115 152
12.01 -2.70 -0.61 55 124 155
11.75 -2.84 -0.42 75 131 156
11.75 -2.95 -0.42 69 104 126
12.52 22.13 -1.11 98 99 93
12.78 22.16 -1.30 127 128 122
12.78 22.05 -1.30 139 138 133
12.78 21.94 -1.30 136 135 130
12.78 21.82 -1.30 133 130 125
12.78 21.71 -1.30 133 130 125
12.78 21.60 -1.30 137 134 129
12.78 21.49 -1.30 135 132 127
12.78 21.38 -1.30 134 131 126
12.78 21.27 -1.30 135 132 127
12.78 21.15 -1.30 134 133 128
12.78 21.04 -1.30 134 133 128
12.78 20.93 -1.30 134 133 128
12.78 20.82 -1.30 133 132 127
13.06 20.86 -1.50 134 134 124
13.06 20.75 -1.50 134 134 124
12.78 20.48 -1.30 135 135 125
12.78 20.37 -1.30 135 135 125
12.78 20.26 -1.30 135 135 127
12.78 20.15 -1.30 136 136 128
12.78 20.04 -1.30 136 136 128
12.78 19.93 -1.30 135 135 127
12.78 19.37 -1.30 140 137 132
12.78 19.26 -1.30 141 138 133
12.78 19.14 -1.30 141 138 133
12.78 19.03 -1.30 141 138 133
12.52 18.79 -1.11 140 137 132
12.52 18.68 -1.11 139 136 129
12.52 18.57 -1.11 138 135 128
12.52 18.46 -1.11 138 136 124
12.52 18.35 -1.11 139 137 125
12.52 18.24 -1.11 139 140 126
12.52 18.13 -1.11 140 141 127
12.52 18.01 -1.11 142 143 129
12.52 17.90 -1.11 141 141 129
12.52 17.79 -1.11 140 140 128
12.52 17.68 -1.11 139 139 131
12.52 17.57 -1.11 138 138 130
12.52 17.46 -1.11 139 138 133
12.52 17.35 -1.11 140 139 137
12.52 17.24 -1.11 140 142 141
12.52 17.13 -1.11 141 142 144
12.52 17.01 -1.11 140 142 141
12.52 16.90 -1.11 139 141 140
12.78 16.91 -1.30 141 141 139
12.78 16.80 -1.30 142 142 140
12.78 16.69 -1.30 141 142 137
12.78 16.58 -1.30 139 140 135
12.78 16.46 -1.30 143 144 138
12.78 16.35 -1.30 141 142 136
12.78 16.24 -1.30 139 140 134
12.78 16.13 -1.30 139 140 134
12.78 16.02 -1.30 140 141 135
12.78 15.91 -1.30 141 142 136
12.78 15.79 -1.30 140 141 135
12.78 15.68 -1.30 140 141 136
12.78 15.57 -1.30 141 142 137
12.78 15.46 -1.30 141 141 139
12.78 15.35 -1.30 141 142 137
12.78 15.24 -1.30 142 143 138
12.78 15.12 -1.30 143 144 138
12.78 15.01 -1.30 144 145 139
12.78 14.90 -1.30 145 146 138
12.78 14.79 -1.30 140 143 134
12.78 14.68 -1.30 141 144 135
12.78 14.57 -1.30 143 146 139
12.78 14.45 -1.30 144 146 141
12.78 14.34 -1.30 145 147 142
12.78 14.23 -1.30 144 146 143
12.78 14.12 -1.30 143 145 144
12.78 14.01 -1.30 143 145 142
12.78 13.90 -1.30 146 147 142
12.78 13.78 -1.30 146 147 141
12.78 13.67 -1.30 147 148 142
12.78 13.56 -1.30 148 149 143
12.78 13.45 -1.30 146 147 139
12.78 13.34 -1.30 144 145 137
12.78 13.23 -1.30 143 144 136
12.78 13.11 -1.30 143 144 136
12.78 13.00 -1.30 149 150 142
12.78 12.89 -1.30 147 148 140
12.78 12.78 -1.30 145 146 140
12.78 12.67 -1.30 145 146 140
12.78 12.56 -1.30 147 148 143
12.78 12.44 -1.30 147 148 143
12.78 12.33 -1.30 146 146 144
12.78 12.22 -1.30 144 144 142
12.78 12.11 -1.30 144 147 140
12.78 12.00 -1.30 145 146 138
12.78 11.89 -1.30 145 146 138
12.78 11.77 -1.30 146 147 139
12.78 11.66 -1.30 148 149 141
12.78 11.55 -1.30 150 150 140
12.78 11.44 -1.30 151 151 141
12.78 11.33 -1.30 153 155 144
12.78 11.22 -1.30 152 154 143
12.78 11.10 -1.30 150 151 143
12.78 10.99 -1.30 149 150 142
12.78 10.88 -1.30 147 150 143
12.78 10.77 -1.30 147 150 143
13.06 10.76 -1.50 147 149 144
13.06 10.64 -1.50 145 150 144
13.06 10.53 -1.50 145 151 147
13.06 10.42 -1.50 144 153 148
12.78 10.21 -1.30 145 154 149
12.78 10.10 -1.30 145 154 149
12.78 9.99 -1.30 146 155 150
12.78 9.88 -1.30 146 155 150
13.06 9.86 -1.50 145 154 149
13.06 9.75 -1.50 145 154 149
13.06 9.63 -1.50 145 156 152
12.78 9.43 -1.30 144 155 151
12.78 9.32 -1.30 144 155 151
12.78 9.21 -1.30 145 156 152
12.78 9.10 -1.30 145 156 152
12.78 8.98 -1.30 145 156 152
12.78 8.87 -1.30 145 156 152
12.78 8.76 -1.30 147 156 151
12.78 8.65 -1.30 147 156 151
12.78 8.54 -1.30 147 158 154
12.78 8.43 -1.30 147 158 154
12.78 8.31 -1.30 147 157 156
12.78 8.20 -1.30 147 157 156
13.06 8.17 -1.50 146 158 156
13.06 8.06 -1.50 146 158 156
13.06 7.95 -1.50 146 156 155
13.35 7.92 -1.71 147 157 156
13.63 7.89 -1.91 148 158 157
13.35 7.69 -1.71 148 158 157
13.63 7.66 -1.91 149 158 155
13.63 7.55 -1.91 149 158 155
13.63 7.43 -1.91 151 157 155
13.63 7.32 -1.91 151 157 155
13.63 7.21 -1.91 148 159 155
13.92 7.17 -2.12 148 159 155
14.23 7.14 -2.34 147 158 154
14.23 7.03 -2.34 148 159 155
14.52 6.99 -2.55 149 160 156
14.52 6.87 -2.55 150 161 157
14.83 6.84 -2.78 151 162 158
14.83 6.72 -2.78 150 161 157
14.83 6.61 -2.78 150 161 157
14.83 6.49 -2.78 150 161 157
14.83 6.37 -2.78 150 161 157
15.12 6.33 -2.98 151 162 158
15.12 6.21 -2.98 151 162 158
15.12 6.10 -2.98 150 161 157
15.12 5.98 -2.98 149 160 156
14.83 5.79 -2.78 152 161 156
14.83 5.68 -2.78 152 161 156
14.83 5.56 -2.78 151 160 155
14.83 5.45 -2.78 150 159 154
14.83 5.33 -2.78 149 160 154
14.83 5.21 -2.78 148 159 153
14.83 5.10 -2.78 148 159 153
14.83 4.98 -2.78 148 159 153
14.52 4.80 -2.55 149 162 155
14.52 4.68 -2.55 148 161 154
14.52 4.57 -2.55 148 160 156
14.52 4.45 -2.55 147 159 155
14.52 4.33 -2.55 146 158 156
14.52 4.22 -2.55 144 158 158
14.52 4.10 -2.55 147 158 152
14.52 3.99 -2.55 151 160 143
14.52 3.87 -2.55 155 160 140
14.23 3.70 -2.34 158 166 145
14.23 3.58 -2.34 166 173 157
14.23 3.47 -2.34 171 179 164
14.23 3.36 -2.34 174 182 171
14.23 3.24 -2.34 175 186 178
14.23 3.13 -2.34 178 190 186
14.23 3.01 -2.34 152 166 166
14.23 2.90 -2.34 137 155 157
14.23 2.78 -2.34 118 137 141
14.23 2.67 -2.34 96 117 122
14.23 2.55 -2.34 70 95 100
14.23 2.44 -2.34 47 72 77
13.92 2.27 -2.12 27 54 61
13.92 2.15 -2.12 16 44 55
13.92 2.04 -2.12 25 57 72
13.92 1.92 -2.12 28 60 83
13.92 1.81 -2.12 33 67 94
13.92 1.70 -2.12 37 71 106
13.63 1.53 -1.91 41 75 120
13.63 1.42 -1.91 45 84 143
13.63 1.31 -1.91 46 87 151
13.63 1.19 -1.91 38 81 149
13.63 1.08 -1.91 38 85 153
13.63 0.97 -1.91 38 89 154
13.63 0.85 -1.91 36 90 152
13.63 0.74 -1.91 32 91 147
13.35 0.58 -1.71 34 94 146
13.35 0.47 -1.71 35 97 146
13.35 0.36 -1.71 35 98 149
13.35 0.24 -1.71 28 99 153
13.35 0.13 -1.71 27 97 156
13.35 0.02 -1.71 29 98 153
13.06 -0.13 -1.50 34 99 155
13.06 -0.25 -1.50 38 101 154
13.06 -0.36 -1.50 40 100 154
13.06 -0.47 -1.50 41 99 149
13.06 -0.58 -1.50 41 97 148
12.78 -0.73 -1.30 41 94 144
12.78 -0.84 -1.30 43 96 146
12.78 -1.18 -1.30 44 104 156
12.78 -1.29 -1.30 43 103 155
12.78 -1.40 -1.30 36 97 151
12.78 -1.51 -1.30 34 97 150
12.52 -1.65 -1.11 34 97 150
12.52 -1.76 -1.11 34 97 150
12.52 -1.87 -1.11 31 97 149
12.24 -2.02 -0.91 30 97 150
12.24 -2.13 -0.91 32 97 151
12.24 -2.24 -0.91 38 99 154
12.24 -2.35 -0.91 41 102 156
11.95 -2.48 -0.70 31 99 146
11.95 -2.59 -0.70 41 113 153
11.95 -2.70 -0.70 52 121 154
12.72 22.27 -1.39 129 131 120
12.47 22.01 -1.21 135 137 126
12.72 22.05 -1.39 129 129 119
12.72 21.94 -1.39 130 130 120
12.72 21.82 -1.39 136 133 126
12.72 21.71 -1.39 138 135 128
12.72 21.60 -1.39 138 135 128
12.72 21.49 -1.39 137 134 127
12.72 21.38 -1.39 134 133 128
12.72 21.27 -1.39 133 132 127
12.72 21.15 -1.39 134 133 128
12.72 21.04 -1.39 135 134 129
12.72 20.93 -1.39 134 135 129
12.72 20.82 -1.39 133 134 128
12.72 20.71 -1.39 134 134 124
12.72 20.60 -1.39 134 134 124
12.72 20.48 -1.39 135 135 127
12.72 20.37 -1.39 135 135 127
12.72 20.26 -1.39 135 135 127
12.72 20.15 -1.39 138 135 130
12.72 20.04 -1.39 138 135 130
12.72 19.93 -1.39 137 134 129
12.72 19.37 -1.39 139 136 131
12.47 19.13 -1.21 141 136 132
12.47 19.01 -1.21 141 136 132
12.47 18.90 -1.21 141 138 133
12.47 18.79 -1.21 140 137 132
12.47 18.68 -1.21 140 137 130
12.47 18.57 -1.21 139 136 129
12.47 18.46 -1.21 138 138 126
12.47 18.35 -1.21 138 138 126
12.47 18.24 -1.21 139 139 127
12.47 18.13 -1.21 140 140 128
12.47 18.01 -1.21 140 140 128
12.47 17.90 -1.21 140 140 128
12.47 17.79 -1.21 140 140 130
12.47 17.68 -1.21 140 140 132
12.47 17.57 -1.21 140 140 132
12.47 17.46 -1.21 140 139 134
12.47 17.35 -1.21 142 141 139
12.47 17.24 -1.21 140 140 138
12.47 17.13 -1.21 141 141 141
12.47 17.01 -1.21 141 141 139
12.47 16.90 -1.21 140 140 138
12.47 16.79 -1.21 140 140 138
12.47 16.68 -1.21 141 141 139
12.47 16.57 -1.21 140 141 136
12.47 16.46 -1.21 138 139 134
12.72 16.46 -1.39 143 144 138
12.72 16.35 -1.39 142 143 137
12.47 16.13 -1.21 141 142 136
12.47 16.01 -1.21 141 142 136
12.47 15.90 -1.21 142 143 138
12.47 15.79 -1.21 143 144 139
12.47 15.68 -1.21 143 144 139
12.47 15.57 -1.21 143 144 139
12.47 15.46 -1.21 142 142 140
12.47 15.35 -1.21 142 142 140
12.47 15.24 -1.21 142 143 138
12.47 15.13 -1.21 142 143 138
12.47 15.01 -1.21 143 144 138
12.47 14.90 -1.21 143 144 138
12.47 14.79 -1.21 144 145 137
12.47 14.68 -1.21 142 143 135
12.47 14.57 -1.21 143 144 136
12.47 14.46 -1.21 143 146 139
12.47 14.35 -1.21 145 147 142
12.47 14.24 -1.21 145 147 142
12.47 14.13 -1.21 145 147 144
12.47 14.01 -1.21 144 146 145
12.47 13.90 -1.21 144 146 145
12.47 13.79 -1.21 143 145 140
12.47 13.68 -1.21 142 144 139
12.47 13.57 -1.21 143 144 138
12.47 13.46 -1.21 144 145 139
12.72 13.45 -1.39 145 146 138
12.72 13.34 -1.39 145 146 138
12.72 13.23 -1.39 145 146 138
12.72 13.11 -1.39 145 146 138
12.72 13.00 -1.39 145 146 138
12.72 12.89 -1.39 144 145 137
12.72 12.78 -1.39 143 146 139
12.47 12.57 -1.21 144 147 140
12.47 12.46 -1.21 143 148 142
12.47 12.35 -1.21 142 147 141
12.47 12.24 -1.21 141 146 142
12.47 12.13 -1.21 140 145 141
12.47 12.01 -1.21 147 149 146
12.47 11.90 -1.21 147 149 144
12.47 11.79 -1.21 146 148 143
12.47 11.68 -1.21 147 148 140
12.72 11.66 -1.39 148 149 141
12.72 11.55 -1.39 149 151 138
12.72 11.44 -1.39 149 151 138
12.72 11.33 -1.39 148 150 137
12.72 11.22 -1.39 147 149 138
12.72 11.10 -1.39 147 149 138
12.72 10.99 -1.39 148 149 143
12.72 10.88 -1.39 147 150 143
12.72 10.77 -1.39 148 150 147
12.72 10.66 -1.39 148 150 147
13.01 10.64 -1.60 147 151 150
12.72 10.43 -1.39 146 152 148
12.72 10.32 -1.39 144 153 148
12.72 10.21 -1.39 144 153 148
12.72 10.10 -1.39 145 154 149
12.72 9.99 -1.39 146 155 150
12.72 9.88 -1.39 145 154 149
12.72 9.77 -1.39 145 154 149
12.72 9.65 -1.39 145 154 149
12.72 9.54 -1.39 144 155 151
12.72 9.43 -1.39 144 155 151
12.72 9.32 -1.39 144 155 151
12.72 9.21 -1.39 146 157 153
12.72 9.10 -1.39 146 157 153
12.47 8.90 -1.21 146 157 153
12.47 8.79 -1.21 146 155 152
12.47 8.68 -1.21 145 154 149
12.47 8.57 -1.21 148 154 150
12.47 8.46 -1.21 146 155 150
12.47 8.35 -1.21 146 155 150
12.47 8.24 -1.21 147 156 153
12.47 8.13 -1.21 147 156 153
12.47 8.01 -1.21 145 155 154
12.72 7.98 -1.39 145 155 154
12.72 7.87 -1.39 145 155 154
12.72 7.76 -1.39 146 156 155
12.72 7.64 -1.39 149 158 155
13.29 7.69 -1.81 150 159 156
13.29 7.58 -1.81 152 158 156
13.01 7.39 -1.60 151 157 155
13.01 7.28 -1.60 151 157 153
13.01 7.16 -1.60 151 157 153
13.29 7.13 -1.81 147 158 154
13.58 7.09 -2.01 147 158 154
13.58 6.98 -2.01 147 158 154
13.58 6.87 -2.01 148 159 155
13.86 6.83 -2.22 148 159 155
13.86 6.72 -2.22 149 160 156
14.18 6.68 -2.44 149 160 156
14.46 6.64 -2.65 149 160 156
14.78 6.61 -2.88 149 160 156
14.78 6.49 -2.88 150 161 157
14.78 6.37 -2.88 150 161 157
14.78 6.26 -2.88 151 162 158
14.78 6.14 -2.88 151 162 158
14.78 6.03 -2.88 150 161 157
14.78 5.91 -2.88 149 160 156
14.78 5.79 -2.88 151 160 157
14.78 5.68 -2.88 151 160 157
14.46 5.49 -2.65 151 160 155
14.46 5.37 -2.65 151 160 155
14.46 5.26 -2.65 151 162 156
14.46 5.14 -2.65 151 162 156
14.46 5.03 -2.65 152 163 157
14.46 4.91 -2.65 152 163 157
14.46 4.80 -2.65 146 157 151
14.46 4.68 -2.65 148 159 153
14.46 4.57 -2.65 149 161 157
14.18 4.39 -2.44 151 163 159
14.18 4.27 -2.44 150 162 160
14.18 4.16 -2.44 147 159 159
14.18 4.04 -2.44 146 158 158
14.18 3.93 -2.44 145 160 157
14.18 3.81 -2.44 144 159 156
14.18 3.70 -2.44 146 158 154
14.18 3.58 -2.44 148 160 156
14.18 3.47 -2.44 148 159 155
14.18 3.36 -2.44 146 157 153
14.18 3.24 -2.44 146 155 154
14.18 3.13 -2.44 146 155 154
14.18 3.01 -2.44 153 161 163
14.18 2.90 -2.44 154 162 165
14.18 2.78 -2.44 156 167 169
14.18 2.67 -2.44 159 172 178
14.18 2.55 -2.44 159 174 179
14.18 2.44 -2.44 153 170 178
13.86 2.27 -2.22 147 166 173
13.86 2.15 -2.22 142 164 175
13.86 2.04 -2.22 117 145 159
13.86 1.92 -2.22 103 134 154
13.86 1.81 -2.22 84 116 139
13.86 1.70 -2.22 60 93 124
13.58 1.53 -2.01 41 75 113
13.58 1.42 -2.01 21 58 111
13.58 1.31 -2.01 17 57 116
13.58 1.19 -2.01 23 64 126
13.58 1.08 -2.01 25 71 133
13.58 0.97 -2.01 28 78 139
13.58 0.85 -2.01 30 82 142
13.29 0.70 -1.81 31 88 143
13.29 0.58 -1.81 35 92 147
13.29 0.47 -1.81 34 96 145
13.29 0.36 -1.81 35 97 146
13.29 0.24 -1.81 37 97 147
13.29 0.13 -1.81 38 98 150
13.29 0.02 -1.81 37 98 152
13.01 -0.13 -1.60 34 95 152
13.01 -0.25 -1.60 29 91 150
13.01 -0.36 -1.60 28 90 151
13.01 -0.47 -1.60 30 92 153
13.01 -0.58 -1.60 33 95 156
13.01 -0.69 -1.60 38 100 159
13.01 -0.81 -1.60 37 99 156
12.72 -1.18 -1.39 30 96 146
12.72 -1.29 -1.39 31 97 147
12.72 -1.40 -1.39 34 100 150
12.72 -1.51 -1.39 36 98 149
12.47 -1.65 -1.21 35 95 149
12.47 -1.76 -1.21 33 92 148
12.47 -1.87 -1.21 31 92 147
12.47 -1.99 -1.21 28 90 147
12.18 -2.13 -1.00 29 91 148
12.18 -2.24 -1.00 36 92 151
12.18 -2.35 -1.00 38 97 153
12.18 -2.46 -1.00 37 103 153
11.90 -2.59 -0.80 44 113 155
11.90 -2.70 -0.80 51 120 153
12.41 22.35 -1.30 104 107 96
12.41 22.24 -1.30 126 128 115
12.41 22.13 -1.30 138 138 126
12.41 22.01 -1.30 129 129 117
12.41 21.90 -1.30 124 124 114
12.41 21.79 -1.30 131 131 121
12.41 21.68 -1.30 137 134 125
12.41 21.57 -1.30 131 128 119
12.41 21.46 -1.30 137 134 127
12.41 21.35 -1.30 137 134 127
12.67 21.38 -1.49 134 134 126
12.67 21.27 -1.49 133 133 125
12.67 21.15 -1.49 134 134 126
12.67 21.04 -1.49 134 134 126
12.67 20.93 -1.49 133 134 128
12.67 20.82 -1.49 133 134 128
12.67 20.71 -1.49 134 134 124
12.67 20.60 -1.49 134 134 124
12.67 20.48 -1.49 135 135 127
12.67 20.37 -1.49 135 135 127
12.67 20.26 -1.49 136 135 130
12.67 20.15 -1.49 138 134 131
12.41 19.90 -1.30 138 134 131
12.41 19.79 -1.30 138 134 131
12.67 19.81 -1.49 138 134 131
12.67 19.70 -1.49 138 134 131
12.41 19.24 -1.30 138 135 130
12.41 19.13 -1.30 140 135 129
12.41 19.01 -1.30 140 135 129
12.41 18.90 -1.30 140 137 132
12.41 18.79 -1.30 140 137 132
12.41 18.68 -1.30 140 137 130
12.41 18.57 -1.30 141 138 131
12.41 18.46 -1.30 139 139 129
12.41 18.35 -1.30 139 139 129
12.13 18.10 -1.10 138 138 126
12.13 17.99 -1.10 138 138 126
12.13 17.88 -1.10 138 138 128
12.13 17.77 -1.10 139 139 129
12.13 17.65 -1.10 139 140 132
12.41 17.68 -1.30 139 140 132
12.41 17.57 -1.30 140 141 135
12.41 17.46 -1.30 140 141 135
12.41 17.35 -1.30 140 141 136
12.41 17.24 -1.30 139 139 137
12.41 17.13 -1.30 141 141 139
12.41 17.01 -1.30 142 142 140
12.41 16.90 -1.30 141 141 139
12.41 16.79 -1.30 140 141 136
12.41 16.68 -1.30 141 142 137
12.41 16.57 -1.30 140 141 135
12.41 16.46 -1.30 139 140 134
12.41 16.35 -1.30 141 142 136
12.41 16.24 -1.30 141 142 136
12.41 16.13 -1.30 142 143 137
12.41 16.01 -1.30 142 143 137
12.41 15.90 -1.30 143 144 139
12.41 15.79 -1.30 144 145 140
12.41 15.68 -1.30 144 145 140
12.41 15.57 -1.30 144 145 140
12.41 15.46 -1.30 145 144 142
12.41 15.35 -1.30 144 143 141
12.41 15.24 -1.30 143 142 138
12.41 15.13 -1.30 143 142 138
12.41 15.01 -1.30 144 143 138
12.41 14.90 -1.30 144 143 138
12.41 14.79 -1.30 143 144 136
12.41 14.68 -1.30 144 145 137
12.41 14.57 -1.30 144 145 137
12.41 14.46 -1.30 143 146 139
12.41 14.35 -1.30 144 146 141
12.41 14.24 -1.30 144 146 141
12.41 14.13 -1.30 144 146 143
12.41 14.01 -1.30 144 146 145
12.41 13.90 -1.30 144 146 145
12.41 13.79 -1.30 148 152 151
12.41 13.68 -1.30 144 148 147
12.41 13.57 -1.30 140 145 141
12.41 13.46 -1.30 139 144 140
12.41 13.35 -1.30 142 145 138
12.41 13.24 -1.30 144 147 140
12.67 13.23 -1.49 145 147 136
12.41 13.01 -1.30 144 146 135
12.41 12.90 -1.30 142 144 133
12.41 12.79 -1.30 143 145 134
12.41 12.68 -1.30 145 148 139
12.41 12.57 -1.30 146 149 140
12.41 12.46 -1.30 143 148 141
12.41 12.35 -1.30 143 148 141
12.41 12.24 -1.30 142 149 142
12.41 12.13 -1.30 142 148 144
12.41 12.01 -1.30 144 148 147
12.41 11.90 -1.30 147 149 144
12.41 11.79 -1.30 147 149 144
12.41 11.68 -1.30 148 151 144
12.41 11.57 -1.30 148 151 144
12.41 11.46 -1.30 149 151 140
12.41 11.35 -1.30 150 152 141
12.41 11.24 -1.30 149 152 141
12.41 11.13 -1.30 150 153 144
12.41 11.01 -1.30 150 153 144
12.41 10.90 -1.30 151 153 148
12.41 10.79 -1.30 149 154 148
12.67 10.77 -1.49 149 153 152
12.67 10.66 -1.49 148 154 152
12.67 10.55 -1.49 148 154 152
12.67 10.43 -1.49 146 152 148
12.67 10.32 -1.49 145 152 145
12.41 10.13 -1.30 145 152 145
12.41 10.01 -1.30 146 153 146
12.67 9.99 -1.49 146 155 150
12.67 9.88 -1.49 146 155 150
12.67 9.77 -1.49 146 155 150
12.67 9.65 -1.49 146 155 150
12.41 9.46 -1.30 145 154 149
12.41 9.35 -1.30 145 154 149
12.41 9.24 -1.30 145 154 149
12.41 9.13 -1.30 145 156 152
12.41 9.01 -1.30 145 156 152
12.41 8.90 -1.30 145 156 152
12.41 8.79 -1.30 145 154 151
12.41 8.68 -1.30 145 155 147
12.41 8.57 -1.30 147 154 147
12.41 8.46 -1.30 148 155 148
12.41 8.35 -1.30 148 155 148
12.41 8.24 -1.30 146 155 150
12.41 8.13 -1.30 146 155 150
12.41 8.01 -1.30 146 155 152
12.41 7.90 -1.30 146 155 152
12.41 7.79 -1.30 144 155 151
12.41 7.68 -1.30 146 157 153
12.41 7.57 -1.30 149 158 155
12.67 7.53 -1.49 150 159 156
12.67 7.42 -1.49 150 159 156
12.67 7.31 -1.49 149 158 155
12.67 7.20 -1.49 151 157 153
12.67 7.09 -1.49 151 157 153
12.67 6.97 -1.49 147 158 154
12.67 6.86 -1.49 147 158 154
12.95 6.83 -1.70 147 158 154
12.95 6.71 -1.70 148 159 155
13.24 6.68 -1.90 148 159 155
13.24 6.57 -1.90 149 160 156
12.41 6.24 -1.30 149 160 156
12.67 6.19 -1.49 148 159 155
12.67 6.08 -1.49 149 160 156
12.95 6.04 -1.70 150 161 157
12.95 5.93 -1.70 150 161 157
12.67 5.75 -1.49 150 161 157
12.67 5.63 -1.49 150 161 157
12.95 5.59 -1.70 150 161 157
12.95 5.48 -1.70 150 161 157
12.95 5.37 -1.70 151 160 157
12.95 5.26 -1.70 151 160 157
12.67 5.08 -1.49 151 160 157
12.67 4.96 -1.49 151 160 157
14.12 5.19 -2.54 150 161 155
14.12 5.08 -2.54 150 161 155
14.12 4.96 -2.54 150 161 155
14.12 4.85 -2.54 150 161 155
13.81 4.66 -2.32 154 165 159
13.81 4.55 -2.32 153 164 158
13.81 4.43 -2.32 151 162 158
13.81 4.32 -2.32 150 161 157
13.81 4.21 -2.32 149 159 158
13.81 4.09 -2.32 149 159 158
14.12 4.04 -2.54 149 161 161
13.81 3.86 -2.32 147 163 162
14.12 3.81 -2.54 146 162 162
14.12 3.70 -2.54 146 162 161
14.12 3.58 -2.54 149 161 161
14.12 3.47 -2.54 150 161 157
14.12 3.36 -2.54 152 158 156
14.12 3.24 -2.54 152 158 154
14.12 3.13 -2.54 154 159 155
14.12 3.01 -2.54 149 154 150
14.12 2.90 -2.54 149 154 150
13.81 2.72 -2.32 149 155 153
14.12 2.67 -2.54 150 156 156
13.81 2.49 -2.32 147 157 156
13.81 2.38 -2.32 145 155 156
13.81 2.27 -2.32 142 156 157
13.81 2.15 -2.32 146 158 156
13.81 2.04 -2.32 153 163 154
13.81 1.92 -2.32 157 165 152
13.81 1.81 -2.32 158 168 157
13.52 1.65 -2.11 159 169 160
13.52 1.53 -2.11 155 166 158
13.52 1.42 -2.11 134 149 144
13.52 1.31 -2.11 127 141 141
13.52 1.19 -2.11 102 120 120
13.52 1.08 -2.11 94 112 116
13.52 0.97 -2.11 78 99 102
13.52 0.85 -2.11 62 83 88
13.24 0.70 -1.90 50 73 79
13.24 0.58 -1.90 44 67 73
13.24 0.47 -1.90 40 65 72
13.24 0.36 -1.90 38 61 67
13.24 0.24 -1.90 47 71 71
13.24 0.13 -1.90 49 75 76
13.24 0.02 -1.90 51 81 91
12.95 -0.13 -1.70 49 86 104
12.95 -0.25 -1.70 46 90 117
12.95 -0.36 -1.70 45 93 129
12.95 -0.47 -1.70 42 95 139
12.95 -0.58 -1.70 42 95 145
12.95 -0.69 -1.70 39 92 144
12.95 -0.81 -1.70 42 93 148
12.67 -0.95 -1.49 44 95 148
12.67 -1.07 -1.49 45 95 148
12.67 -1.18 -1.49 43 93 146
12.67 -1.29 -1.49 42 92 145
12.67 -1.40 -1.49 44 95 150
12.67 -1.51 -1.49 36 91 147
12.41 -1.65 -1.30 35 90 147
12.41 -1.76 -1.30 36 91 148
12.41 -1.87 -1.30 36 92 149
12.41 -1.99 -1.30 33 92 150
12.13 -2.13 -1.10 33 92 150
12.13 -2.24 -1.10 41 93 153
12.13 -2.35 -1.10 42 97 154
12.13 -2.46 -1.10 36 98 149
11.84 -2.59 -0.89 48 112 156
11.84 -2.70 -0.89 59 125 160
12.35 22.35 -1.40 132 133 125
12.35 22.24 -1.40 135 135 125
12.35 22.13 -1.40 133 133 123
12.35 22.01 -1.40 129 129 119
12.35 21.90 -1.40 131 128 119
12.35 21.79 -1.40 134 131 122
12.35 21.68 -1.40 135 132 123
12.35 21.57 -1.40 133 130 121
12.35 21.46 -1.40 135 132 123
12.35 21.35 -1.40 135 132 123
12.35 21.24 -1.40 133 133 125
12.35 21.13 -1.40 133 133 125
12.35 21.01 -1.40 132 133 125
12.35 20.90 -1.40 132 133 125
12.35 20.79 -1.40 132 133 125
12.35 20.68 -1.40 132 133 125
12.35 20.57 -1.40 134 134 124
12.35 20.46 -1.40 134 134 124
12.35 20.35 -1.40 135 135 127
12.35 20.24 -1.40 135 135 127
12.35 20.13 -1.40 136 135 130
12.35 20.01 -1.40 137 136 132
12.35 19.90 -1.40 137 136 132
12.35 19.79 -1.40 137 136 132
12.35 19.68 -1.40 136 135 131
12.35 19.57 -1.40 138 134 131
12.35 19.24 -1.40 138 135 130
12.35 19.13 -1.40 138 135 128
12.35 19.01 -1.40 139 136 129
12.35 18.90 -1.40 138 135 128
12.35 18.79 -1.40 139 136 129
12.35 18.68 -1.40 140 137 130
12.35 18.57 -1.40 140 137 130
12.35 18.46 -1.40 138 138 128
12.07 18.21 -1.19 138 138 128
12.07 18.10 -1.19 137 137 127
12.07 17.99 -1.19 136 136 126
12.07 17.88 -1.19 135 137 126
12.07 17.77 -1.19 136 138 127
12.07 17.65 -1.19 138 139 131
12.35 17.68 -1.40 139 140 132
12.35 17.57 -1.40 139 140 134
12.07 17.32 -1.19 139 140 134
12.07 17.21 -1.19 137 139 134
12.07 17.10 -1.19 140 141 136
12.07 16.99 -1.19 142 143 138
12.07 16.88 -1.19 142 143 137
12.07 16.77 -1.19 141 142 136
12.07 16.66 -1.19 141 142 136
12.35 16.68 -1.40 141 142 136
12.35 16.57 -1.40 142 143 135
12.35 16.46 -1.40 141 142 134
12.35 16.35 -1.40 140 141 133
12.35 16.24 -1.40 141 142 134
12.35 16.13 -1.40 142 143 137
12.35 16.01 -1.40 143 144 138
12.35 15.90 -1.40 142 144 139
12.35 15.79 -1.40 142 144 139
12.35 15.68 -1.40 141 143 138
12.35 15.57 -1.40 142 143 138
12.35 15.46 -1.40 144 143 141
12.07 15.22 -1.19 145 141 140
12.07 15.11 -1.19 143 142 138
12.07 15.00 -1.19 143 142 138
12.35 15.01 -1.40 145 144 139
12.35 14.90 -1.40 146 145 140
12.35 14.79 -1.40 145 145 137
12.35 14.68 -1.40 144 145 137
12.35 14.57 -1.40 144 145 137
12.35 14.46 -1.40 144 145 139
12.35 14.35 -1.40 144 145 140
12.35 14.24 -1.40 143 145 140
12.35 14.13 -1.40 143 145 142
12.35 14.01 -1.40 143 145 144
12.35 13.90 -1.40 144 146 145
12.35 13.79 -1.40 137 141 140
12.35 13.68 -1.40 139 143 142
12.35 13.57 -1.40 144 146 141
12.35 13.46 -1.40 148 149 144
12.35 13.35 -1.40 150 151 143
12.35 13.24 -1.40 150 150 140
12.35 13.13 -1.40 148 146 134
12.35 13.01 -1.40 143 141 128
12.35 12.90 -1.40 145 143 128
12.35 12.79 -1.40 147 145 130
12.35 12.68 -1.40 149 147 134
12.35 12.57 -1.40 149 147 134
12.35 12.46 -1.40 145 145 133
12.35 12.35 -1.40 143 143 131
12.35 12.24 -1.40 142 144 133
12.35 12.13 -1.40 143 145 134
12.35 12.01 -1.40 144 145 137
12.35 11.90 -1.40 145 146 138
12.35 11.79 -1.40 146 147 139
12.35 11.68 -1.40 148 148 138
12.35 11.57 -1.40 148 148 138
12.35 11.46 -1.40 147 149 138
12.35 11.35 -1.40 146 148 137
12.35 11.24 -1.40 147 148 140
12.35 11.13 -1.40 147 148 140
12.35 11.01 -1.40 147 150 143
12.35 10.90 -1.40 147 150 143
12.35 10.79 -1.40 145 150 144
12.35 10.68 -1.40 144 149 143
12.35 10.57 -1.40 144 150 146
12.35 10.46 -1.40 144 150 146
12.35 10.35 -1.40 146 151 144
12.35 10.24 -1.40 146 151 144
12.35 10.13 -1.40 145 150 143
12.35 10.01 -1.40 147 152 145
12.35 9.90 -1.40 148 155 148
12.35 9.79 -1.40 149 156 149
12.35 9.68 -1.40 149 156 149
12.35 9.57 -1.40 148 155 148
12.35 9.46 -1.40 150 157 150
12.35 9.35 -1.40 149 156 149
12.35 9.24 -1.40 149 156 149
12.35 9.13 -1.40 147 156 151
12.35 9.01 -1.40 147 156 151
12.07 8.81 -1.19 147 156 151
12.07 8.70 -1.19 146 155 150
12.07 8.59 -1.19 149 156 148
12.07 8.48 -1.19 149 156 148
12.07 8.37 -1.19 149 156 148
12.07 8.26 -1.19 149 156 148
12.07 8.15 -1.19 147 157 149
12.07 8.04 -1.19 147 157 149
12.07 7.93 -1.19 146 157 151
12.07 7.82 -1.19 146 157 151
12.35 7.79 -1.40 145 156 152
12.35 7.68 -1.40 146 157 153
12.35 7.57 -1.40 149 158 155
12.35 7.46 -1.40 150 159 156
12.35 7.35 -1.40 150 159 154
12.61 7.31 -1.59 149 158 153
12.35 7.13 -1.40 149 158 153
12.35 7.01 -1.40 149 158 153
12.35 6.90 -1.40 147 158 154
12.35 6.79 -1.40 147 158 154
12.35 6.68 -1.40 147 158 154
12.35 6.57 -1.40 148 159 155
12.35 6.46 -1.40 148 159 155
12.35 6.35 -1.40 148 159 155
12.35 6.24 -1.40 148 159 155
12.61 6.19 -1.59 148 159 155
12.61 6.08 -1.59 149 160 156
12.90 6.04 -1.79 150 161 157
12.90 5.93 -1.79 150 161 157
12.90 5.82 -1.79 150 161 157
12.61 5.63 -1.59 150 161 157
12.61 5.52 -1.59 150 161 157
12.90 5.48 -1.79 150 161 157
12.90 5.37 -1.79 151 160 159
12.90 5.26 -1.79 151 160 159
12.61 5.08 -1.59 150 159 156
12.61 4.96 -1.59 150 159 156
12.90 4.92 -1.79 150 159 154
13.46 4.94 -2.21 150 159 154
14.06 4.96 -2.64 149 160 154
13.75 4.78 -2.42 150 161 155
13.75 4.66 -2.42 150 161 155
13.46 4.48 -2.21 149 160 154
13.46 4.37 -2.21 149 160 156
13.75 4.32 -2.42 149 160 156
13.75 4.21 -2.42 150 161 157
13.75 4.09 -2.42 152 162 161
13.75 3.98 -2.42 154 162 164
13.75 3.86 -2.42 152 160 163
13.75 3.75 -2.42 153 158 164
13.75 3.63 -2.42 153 156 161
13.75 3.52 -2.42 154 155 160
13.75 3.41 -2.42 153 154 156
13.75 3.29 -2.42 153 153 155
13.75 3.18 -2.42 155 153 154
13.75 3.06 -2.42 155 153 154
13.75 2.95 -2.42 156 154 155
13.75 2.84 -2.42 155 153 154
13.75 2.72 -2.42 156 154 157
13.75 2.61 -2.42 156 154 157
13.75 2.49 -2.42 153 152 157
13.75 2.38 -2.42 151 150 155
13.75 2.27 -2.42 152 153 157
13.75 2.15 -2.42 153 158 162
13.75 2.04 -2.42 141 152 154
13.75 1.92 -2.42 136 151 154
13.46 1.76 -2.21 135 151 150
13.46 1.65 -2.21 136 152 151
13.46 1.53 -2.21 140 157 151
13.46 1.42 -2.21 142 162 151
13.46 1.31 -2.21 142 162 151
13.46 1.19 -2.21 141 161 152
13.46 1.08 -2.21 144 163 157
13.46 0.97 -2.21 145 166 161
13.46 0.85 -2.21 144 164 163
13.18 0.70 -2.00 139 158 162
13.18 0.58 -2.00 128 147 154
13.18 0.47 -2.00 114 133 140
13.18 0.36 -2.00 103 121 131
13.18 0.24 -2.00 89 112 118
13.18 0.13 -2.00 74 101 112
13.18 0.02 -2.00 51 87 103
13.18 -0.09 -2.00 37 79 104
12.90 -0.25 -1.79 28 81 115
12.90 -0.36 -1.79 26 83 126
12.90 -0.47 -1.79 23 87 133
12.90 -0.58 -1.79 20 86 136
12.90 -0.69 -1.79 24 90 142
12.90 -0.81 -1.79 27 93 145
12.90 -0.92 -1.79 32 95 148
12.61 -1.07 -1.59 32 95 149
12.61 -1.18 -1.59 28 95 148
12.61 -1.29 -1.59 26 92 150
12.61 -1.40 -1.59 25 91 149
12.35 -1.54 -1.40 28 87 143
12.35 -1.65 -1.40 30 85 141
12.35 -1.76 -1.40 34 86 144
12.35 -1.87 -1.40 35 90 147
12.35 -1.99 -1.40 33 89 148
12.07 -2.13 -1.19 31 85 145
12.07 -2.24 -1.19 35 85 146
12.07 -2.35 -1.19 38 88 147
12.07 -2.46 -1.19 34 94 146
11.79 -2.59 -0.99 45 108 152
11.79 -2.70 -0.99 57 121 156
11.73 22.68 -1.08 58 60 57
12.01 22.74 -1.29 65 69 68
12.01 22.63 -1.29 62 66 65
12.01 22.52 -1.29 76 80 79
11.73 22.24 -1.08 105 111 109
12.01 22.30 -1.29 141 146 142
12.01 22.19 -1.29 131 132 126
12.01 22.08 -1.29 129 129 121
12.01 21.96 -1.29 129 129 121
12.01 21.85 -1.29 132 132 124
12.01 21.74 -1.29 135 132 125
12.01 21.63 -1.29 133 130 123
12.01 21.52 -1.29 135 132 125
12.01 21.41 -1.29 139 136 129
12.01 21.30 -1.29 135 132 125
12.01 21.19 -1.29 135 132 125
12.30 21.24 -1.50 134 134 124
12.30 21.13 -1.50 134 134 124
12.30 21.01 -1.50 133 135 124
12.30 20.90 -1.50 133 135 124
12.30 20.79 -1.50 132 135 124
12.30 20.68 -1.50 132 135 124
12.30 20.57 -1.50 133 135 124
12.30 20.46 -1.50 133 135 124
12.30 20.35 -1.50 134 135 127
12.30 20.24 -1.50 134 135 127
12.30 20.13 -1.50 135 136 130
12.30 20.01 -1.50 137 136 132
12.30 19.90 -1.50 137 136 134
12.30 19.79 -1.50 138 137 135
12.30 19.68 -1.50 137 136 134
12.30 19.57 -1.50 137 136 132
12.30 19.46 -1.50 136 135 131
12.30 19.35 -1.50 136 135 130
12.30 19.24 -1.50 137 136 131
12.01 18.98 -1.29 138 138 130
12.01 18.87 -1.29 139 139 131
12.01 18.76 -1.29 139 136 129
12.01 18.65 -1.29 139 136 129
12.01 18.54 -1.29 139 136 129
12.01 18.43 -1.29 140 137 130
12.01 18.32 -1.29 138 138 130
12.01 18.21 -1.29 137 137 129
12.01 18.10 -1.29 137 137 129
12.01 17.99 -1.29 137 137 129
12.01 17.88 -1.29 136 137 129
12.01 17.77 -1.29 136 137 129
12.01 17.65 -1.29 137 138 130
12.01 17.54 -1.29 138 139 131
12.01 17.43 -1.29 138 141 134
12.01 17.32 -1.29 138 141 134
12.01 17.21 -1.29 138 139 134
12.01 17.10 -1.29 140 141 133
12.01 16.99 -1.29 143 143 135
12.01 16.88 -1.29 143 143 135
12.01 16.77 -1.29 141 141 133
12.01 16.66 -1.29 140 141 133
12.01 16.55 -1.29 141 142 134
12.01 16.44 -1.29 141 143 132
12.01 16.33 -1.29 141 143 132
12.30 16.13 -1.50 141 144 137
12.01 15.89 -1.29 142 145 138
12.01 15.78 -1.29 142 145 138
12.01 15.67 -1.29 141 144 137
12.01 15.56 -1.29 141 143 138
12.01 15.44 -1.29 142 143 138
12.01 15.33 -1.29 145 144 142
12.01 15.22 -1.29 145 141 140
12.01 15.11 -1.29 144 140 137
12.01 15.00 -1.29 145 141 138
12.01 14.89 -1.29 146 145 140
12.01 14.78 -1.29 147 146 141
12.01 14.67 -1.29 147 147 139
12.01 14.56 -1.29 144 145 137
12.01 14.45 -1.29 144 145 137
12.01 14.34 -1.29 144 145 139
12.01 14.23 -1.29 145 146 141
12.01 14.12 -1.29 144 146 141
12.01 14.01 -1.29 144 146 143
12.01 13.90 -1.29 144 146 145
12.01 13.79 -1.29 144 144 144
12.01 13.68 -1.29 146 147 142
12.01 13.57 -1.29 156 152 149
12.01 13.46 -1.29 164 161 154
12.01 13.35 -1.29 172 165 157
12.30 13.35 -1.50 174 168 156
12.30 13.24 -1.50 175 168 152
12.30 13.13 -1.50 174 165 148
12.30 13.01 -1.50 171 163 144
12.30 12.90 -1.50 169 158 138
12.30 12.79 -1.50 170 159 139
12.30 12.68 -1.50 172 161 141
12.30 12.57 -1.50 173 162 142
12.30 12.46 -1.50 171 163 142
12.30 12.35 -1.50 170 162 141
12.30 12.24 -1.50 169 162 143
12.30 12.13 -1.50 168 161 142
12.30 12.01 -1.50 162 157 137
12.30 11.90 -1.50 161 156 137
12.01 11.69 -1.29 160 154 138
12.01 11.58 -1.29 158 152 136
12.01 11.47 -1.29 157 151 139
12.01 11.36 -1.29 156 150 138
12.30 11.35 -1.50 156 149 139
12.30 11.24 -1.50 149 146 137
12.30 11.13 -1.50 149 146 137
12.30 11.01 -1.50 147 147 137
12.30 10.90 -1.50 147 147 137
12.30 10.79 -1.50 146 148 137
12.30 10.68 -1.50 147 149 138
12.30 10.57 -1.50 149 152 141
12.30 10.46 -1.50 151 154 143
12.30 10.35 -1.50 152 155 146
12.30 10.24 -1.50 150 153 144
12.30 10.13 -1.50 149 152 143
12.01 9.92 -1.29 149 152 143
12.01 9.81 -1.29 148 154 144
12.01 9.70 -1.29 149 155 145
12.01 9.59 -1.29 148 153 146
12.01 9.48 -1.29 146 151 144
12.01 9.37 -1.29 150 155 148
12.01 9.26 -1.29 148 153 146
12.01 9.15 -1.29 149 154 147
12.01 9.04 -1.29 149 156 148
12.01 8.92 -1.29 149 156 148
12.01 8.81 -1.29 150 157 150
12.01 8.70 -1.29 150 157 150
12.01 8.59 -1.29 149 157 146
12.01 8.48 -1.29 149 157 146
12.01 8.37 -1.29 149 156 148
12.01 8.26 -1.29 149 156 148
12.01 8.15 -1.29 147 157 149
12.01 8.04 -1.29 147 157 149
12.01 7.93 -1.29 146 157 151
12.01 7.82 -1.29 146 157 151
12.01 7.71 -1.29 145 156 150
12.01 7.60 -1.29 147 158 152
12.01 7.49 -1.29 148 159 155
12.01 7.38 -1.29 149 160 156
12.01 7.27 -1.29 148 159 153
12.30 7.24 -1.50 148 159 153
12.30 7.13 -1.50 149 158 153
12.01 6.94 -1.29 149 158 153
12.01 6.83 -1.29 147 158 154
12.01 6.71 -1.29 147 158 154
12.01 6.60 -1.29 148 159 155
12.01 6.49 -1.29 148 159 155
12.01 6.38 -1.29 148 159 155
12.01 6.27 -1.29 148 159 155
12.30 6.24 -1.50 148 159 155
12.30 6.13 -1.50 148 159 155
12.30 6.01 -1.50 149 160 156
12.30 5.90 -1.50 150 161 157
12.30 5.79 -1.50 150 161 157
12.30 5.68 -1.50 149 160 156
12.30 5.57 -1.50 149 160 156
12.30 5.46 -1.50 150 161 157
12.30 5.35 -1.50 151 162 158
12.30 5.24 -1.50 149 159 158
12.30 5.13 -1.50 149 159 158
12.01 4.95 -1.29 150 161 157
12.01 4.84 -1.29 150 161 157
12.01 4.73 -1.29 151 160 157
12.01 4.62 -1.29 152 161 158
12.30 4.57 -1.50 153 162 157
12.30 4.46 -1.50 153 162 157
12.30 4.35 -1.50 151 160 155
12.30 4.24 -1.50 152 161 156
12.30 4.13 -1.50 154 163 158
12.30 4.01 -1.50 155 164 159
12.30 3.90 -1.50 153 162 159
12.30 3.79 -1.50 152 161 160
12.30 3.68 -1.50 149 160 156
12.30 3.57 -1.50 146 161 154
13.41 3.69 -2.31 145 162 152
12.56 3.40 -1.68 145 162 152
13.69 3.52 -2.51 145 162 152
13.69 3.41 -2.51 146 163 153
13.69 3.29 -2.51 148 165 155
13.69 3.18 -2.51 147 167 156
13.69 3.06 -2.51 147 167 156
13.69 2.95 -2.51 142 162 151
13.69 2.84 -2.51 142 162 151
13.69 2.72 -2.51 142 162 153
13.69 2.61 -2.51 143 163 154
13.69 2.49 -2.51 142 162 153
13.69 2.38 -2.51 139 159 150
13.69 2.27 -2.51 138 158 149
13.41 2.10 -2.31 141 156 151
13.41 1.99 -2.31 144 154 155
13.41 1.87 -2.31 147 152 156
13.41 1.76 -2.31 146 152 152
13.41 1.65 -2.31 145 151 151
13.41 1.53 -2.31 144 150 148
13.41 1.42 -2.31 141 147 143
13.41 1.31 -2.31 140 146 142
13.41 1.19 -2.31 145 154 149
13.41 1.08 -2.31 144 153 150
13.41 0.97 -2.31 142 151 148
13.41 0.85 -2.31 140 148 150
13.12 0.70 -2.10 143 151 153
13.12 0.58 -2.10 149 157 160
13.12 0.47 -2.10 155 162 168
13.12 0.36 -2.10 160 163 168
13.12 0.24 -2.10 166 164 167
13.12 0.13 -2.10 164 159 163
13.12 0.02 -2.10 152 155 160
13.12 -0.09 -2.10 140 147 155
12.84 -0.25 -1.89 123 137 146
12.84 -0.36 -1.89 103 120 130
12.84 -0.47 -1.89 81 100 106
12.84 -0.58 -1.89 68 86 90
12.84 -0.69 -1.89 53 71 73
12.84 -0.81 -1.89 51 69 71
12.84 -0.92 -1.89 47 67 68
12.56 -1.07 -1.68 43 68 73
12.56 -1.18 -1.68 42 72 80
12.56 -1.29 -1.68 41 79 92
12.56 -1.40 -1.68 38 85 115
12.30 -1.54 -1.50 39 91 138
12.30 -1.65 -1.50 35 87 144
12.30 -1.76 -1.50 36 88 145
12.30 -1.87 -1.50 38 90 147
12.30 -1.99 -1.50 34 90 147
12.01 -2.13 -1.29 35 87 145
12.01 -2.24 -1.29 39 88 147
12.01 -2.35 -1.29 44 93 151
12.01 -2.46 -1.29 37 94 147
11.73 -2.59 -1.08 44 105 150
11.73 -2.70 -1.08 56 119 154
11.47 -2.84 -0.89 63 112 142
11.47 -2.95 -0.89 66 96 122
11.68 22.68 -1.18 49 51 48
11.68 22.57 -1.18 54 58 57
11.42 22.31 -0.99 58 62 61
11.68 22.35 -1.18 118 122 123
11.68 22.24 -1.18 128 134 134
11.68 22.13 -1.18 125 129 128
11.68 22.02 -1.18 129 130 125
11.96 22.08 -1.39 126 125 120
11.96 21.96 -1.39 125 124 119
11.68 21.69 -1.18 129 128 123
11.68 21.58 -1.18 134 131 126
11.68 21.47 -1.18 135 132 127
11.96 21.52 -1.39 134 131 124
11.96 21.41 -1.39 134 131 124
11.96 21.30 -1.39 135 132 125
11.96 21.19 -1.39 136 133 126
11.96 21.08 -1.39 136 136 126
11.96 20.97 -1.39 136 136 126
11.96 20.86 -1.39 135 137 126
11.96 20.75 -1.39 135 137 126
11.96 20.64 -1.39 134 137 126
11.96 20.53 -1.39 134 137 126
11.96 20.42 -1.39 133 135 124
11.96 20.31 -1.39 133 135 124
11.96 20.20 -1.39 134 135 127
11.96 20.09 -1.39 134 135 129
11.96 19.98 -1.39 135 136 130
11.96 19.86 -1.39 136 136 134
11.96 19.75 -1.39 136 136 134
11.96 19.64 -1.39 137 137 135
11.96 19.53 -1.39 137 137 135
11.96 19.42 -1.39 137 136 132
11.96 19.31 -1.39 137 136 132
11.96 19.20 -1.39 137 136 131
11.96 19.09 -1.39 138 137 132
11.96 18.98 -1.39 140 140 132
11.96 18.87 -1.39 140 140 132
11.96 18.76 -1.39 141 138 131
11.96 18.65 -1.39 140 137 130
11.96 18.54 -1.39 140 137 130
11.96 18.43 -1.39 140 137 130
11.96 18.32 -1.39 138 138 130
11.96 18.21 -1.39 138 138 130
11.96 18.10 -1.39 138 138 130
11.96 17.99 -1.39 138 138 130
11.96 17.88 -1.39 136 137 129
11.96 17.77 -1.39 137 138 130
11.96 17.65 -1.39 136 139 132
11.96 17.54 -1.39 137 140 133
11.96 17.43 -1.39 138 141 134
11.96 17.32 -1.39 139 142 135
11.96 17.21 -1.39 141 142 136
11.96 17.10 -1.39 139 140 132
11.96 16.99 -1.39 142 142 132
11.96 16.88 -1.39 142 142 132
11.96 16.77 -1.39 140 140 130
11.96 16.66 -1.39 138 140 129
11.96 16.55 -1.39 139 141 130
11.96 16.44 -1.39 140 142 131
11.96 16.33 -1.39 141 143 132
11.96 16.00 -1.39 141 144 135
11.96 15.89 -1.39 142 145 136
11.96 15.78 -1.39 142 145 138
11.96 15.67 -1.39 142 145 138
11.96 15.56 -1.39 143 145 140
11.96 15.44 -1.39 145 146 141
11.96 15.33 -1.39 146 145 143
11.96 15.22 -1.39 146 142 141
11.96 15.11 -1.39 145 141 138
11.96 15.00 -1.39 146 142 139
11.96 14.89 -1.39 148 145 140
11.96 14.78 -1.39 149 146 141
11.96 14.67 -1.39 146 146 138
11.96 14.56 -1.39 144 145 137
11.96 14.45 -1.39 145 146 138
11.96 14.34 -1.39 146 147 141
11.96 14.23 -1.39 147 148 143
11.96 14.12 -1.39 146 148 143
11.96 14.01 -1.39 146 148 145
11.96 13.90 -1.39 145 147 146
11.96 13.79 -1.39 145 145 143
11.96 13.68 -1.39 159 154 150
11.96 13.57 -1.39 162 153 146
11.96 13.46 -1.39 157 148 139
11.96 13.35 -1.39 150 138 126
11.96 13.23 -1.39 142 130 114
11.96 13.12 -1.39 144 129 110
12.24 13.13 -1.59 147 132 111
12.24 13.01 -1.59 151 135 112
12.24 12.90 -1.59 152 135 109
12.24 12.79 -1.59 153 136 110
12.24 12.68 -1.59 155 138 110
12.24 12.57 -1.59 160 143 115
12.24 12.46 -1.59 164 148 122
11.96 12.24 -1.39 167 151 125
12.24 12.24 -1.59 168 152 127
12.24 12.13 -1.59 168 152 127
11.96 11.91 -1.39 172 160 134
11.96 11.80 -1.39 174 162 136
11.96 11.69 -1.39 177 165 143
11.96 11.58 -1.39 181 170 150
11.96 11.47 -1.39 186 174 158
