ply
format ascii 1.0
element vertex 1647
property float x
property float y
property float z
property uchar red
property uchar green
property uchar blue
end_header
11.57 2.79 -1.37 154 163 158
11.57 2.68 -1.37 155 164 159
11.85 2.63 -1.58 154 163 158
11.85 2.52 -1.58 153 162 157
11.85 2.41 -1.58 153 162 159
11.85 2.29 -1.58 153 162 159
11.85 2.18 -1.58 154 163 160
12.13 2.13 -1.79 154 163 160
12.13 2.01 -1.79 153 162 159
12.13 1.90 -1.79 152 161 158
12.39 1.84 -1.97 151 160 157
12.67 1.78 -2.18 152 161 158
12.39 1.61 -1.97 152 161 158
12.39 1.50 -1.97 151 160 157
12.39 1.39 -1.97 151 160 157
12.39 1.28 -1.97 147 158 154
12.39 1.17 -1.97 146 157 153
12.39 1.06 -1.97 146 157 153
12.39 0.94 -1.97 146 157 153
12.67 0.88 -2.18 146 157 153
12.67 0.76 -2.18 146 157 153
12.67 0.65 -2.18 146 157 153
12.67 0.54 -2.18 146 157 153
12.67 0.43 -2.18 145 156 152
12.67 0.32 -2.18 144 155 151
12.67 0.20 -2.18 144 155 151
12.67 0.09 -2.18 144 155 151
12.67 -0.02 -2.18 145 156 152
12.67 -0.13 -2.18 145 156 152
12.39 -0.28 -1.97 144 156 152
12.39 -0.40 -1.97 145 157 153
12.39 -0.51 -1.97 145 157 153
12.39 -0.62 -1.97 145 157 153
12.39 -0.73 -1.97 146 158 154
12.39 -0.84 -1.97 147 159 155
12.39 -0.95 -1.97 145 160 155
12.39 -1.07 -1.97 144 159 154
12.39 -1.18 -1.97 145 160 155
12.39 -1.29 -1.97 147 162 157
12.13 -1.43 -1.79 149 164 159
12.13 -1.54 -1.79 155 167 165
12.13 -1.65 -1.79 159 171 169
12.13 -1.76 -1.79 163 178 175
11.85 -1.90 -1.58 171 185 185
11.85 -2.02 -1.58 175 194 192
11.85 -2.13 -1.58 180 198 198
11.85 -2.24 -1.58 182 202 203
11.85 -2.35 -1.58 183 202 206
11.85 -2.46 -1.58 156 177 180
11.57 -2.59 -1.37 147 168 173
11.57 -2.70 -1.37 131 150 156
11.57 -2.81 -1.37 104 123 129
11.31 -2.95 -1.18 78 95 102
11.00 22.60 -1.09 46 48 45
11.00 22.49 -1.09 67 68 62
11.26 22.53 -1.27 99 100 94
11.26 22.42 -1.27 130 130 122
11.26 22.31 -1.27 137 137 129
11.26 22.21 -1.27 130 127 118
11.26 22.10 -1.27 132 129 120
11.26 21.99 -1.27 133 130 123
11.26 21.88 -1.27 132 131 126
11.26 21.77 -1.27 131 130 126
11.26 21.66 -1.27 130 129 125
11.26 21.55 -1.27 130 129 125
11.26 21.44 -1.27 130 129 125
11.26 21.33 -1.27 132 131 127
11.26 21.22 -1.27 133 132 128
11.26 21.11 -1.27 134 133 129
11.26 21.00 -1.27 136 135 130
11.26 20.89 -1.27 135 134 129
11.26 20.78 -1.27 135 134 129
11.26 20.67 -1.27 134 133 128
11.51 20.70 -1.46 133 133 125
11.51 20.59 -1.46 134 134 126
11.51 20.48 -1.46 135 135 127
11.51 20.37 -1.46 137 137 129
11.51 20.26 -1.46 137 134 129
11.51 20.16 -1.46 138 135 130
11.51 20.05 -1.46 138 135 130
11.51 19.94 -1.46 138 135 130
11.51 19.83 -1.46 139 136 129
11.26 19.58 -1.27 138 135 128
11.26 19.47 -1.27 138 135 128
11.26 19.36 -1.27 139 136 129
11.26 19.25 -1.27 138 135 128
11.26 19.14 -1.27 138 135 128
11.26 19.03 -1.27 139 136 129
11.26 18.92 -1.27 140 137 132
11.26 18.82 -1.27 140 137 132
11.26 18.71 -1.27 140 137 132
11.51 18.73 -1.46 140 136 133
11.51 18.62 -1.46 141 137 134
11.26 18.38 -1.27 141 137 136
11.26 18.27 -1.27 141 137 134
11.26 18.16 -1.27 140 136 133
11.26 18.05 -1.27 138 137 132
11.26 17.94 -1.27 139 138 133
11.26 17.83 -1.27 141 141 133
11.26 17.72 -1.27 142 142 134
11.26 17.61 -1.27 139 140 132
11.26 17.50 -1.27 139 140 132
11.26 17.39 -1.27 139 140 134
11.26 17.28 -1.27 139 140 135
11.26 17.18 -1.27 138 140 135
11.26 17.07 -1.27 138 140 137
11.26 16.96 -1.27 139 141 140
11.26 16.85 -1.27 140 140 138
11.26 16.74 -1.27 141 141 139
11.26 16.63 -1.27 142 143 138
11.26 16.52 -1.27 142 143 138
11.26 16.41 -1.27 142 143 138
11.26 16.30 -1.27 142 143 138
11.26 16.19 -1.27 141 142 136
11.26 16.08 -1.27 140 141 135
11.26 15.97 -1.27 140 143 136
11.26 15.86 -1.27 140 143 136
11.26 15.75 -1.27 140 142 137
11.51 15.76 -1.46 140 142 137
11.51 15.65 -1.46 140 142 139
11.26 15.43 -1.27 141 143 140
11.26 15.32 -1.27 141 143 140
11.26 15.21 -1.27 142 143 138
11.26 15.10 -1.27 145 146 140
11.26 14.99 -1.27 145 144 139
11.26 14.88 -1.27 144 144 144
11.26 14.77 -1.27 144 144 146
11.26 14.66 -1.27 143 145 144
11.26 14.55 -1.27 143 145 142
11.26 14.44 -1.27 143 146 135
11.26 14.33 -1.27 144 148 134
11.26 14.22 -1.27 145 148 139
11.26 14.11 -1.27 147 148 143
11.51 14.11 -1.46 145 145 145
11.51 14.00 -1.46 144 142 145
11.51 13.89 -1.46 151 149 150
11.51 13.78 -1.46 160 157 152
11.51 13.67 -1.46 164 157 147
11.79 13.68 -1.67 153 142 124
11.79 13.57 -1.67 150 132 108
11.51 13.34 -1.46 149 128 97
11.51 13.23 -1.46 155 129 92
11.79 13.23 -1.67 162 131 87
-1.23 6.79 7.97 165 136 94
-1.23 6.71 7.97 164 135 93
-1.23 6.62 7.97 162 133 91
-1.37 6.49 8.08 161 132 90
-1.37 6.41 8.08 163 134 92
-1.51 6.28 8.18 161 132 90
11.79 10.69 -1.67 159 130 88
11.79 10.58 -1.67 160 131 89
11.79 10.47 -1.67 161 132 90
11.79 10.36 -1.67 161 132 92
11.79 10.25 -1.67 163 133 95
11.51 10.04 -1.46 163 133 97
11.26 9.85 -1.27 161 131 93
11.51 9.82 -1.46 160 130 92
11.51 9.71 -1.46 159 130 88
11.26 9.52 -1.27 158 129 87
11.26 9.41 -1.27 156 129 84
11.26 9.30 -1.27 156 129 84
11.51 9.06 -1.46 152 131 84
11.51 8.95 -1.46 151 133 87
11.51 8.84 -1.46 151 133 87
11.51 8.73 -1.46 149 132 88
11.51 8.62 -1.46 151 130 85
11.51 8.51 -1.46 152 128 80
11.51 8.40 -1.46 155 127 79
11.51 8.29 -1.46 157 129 81
11.51 8.18 -1.46 158 130 82
11.51 8.07 -1.46 162 131 85
11.51 7.96 -1.46 166 135 89
11.51 7.85 -1.46 169 138 94
11.51 7.74 -1.46 172 141 97
11.51 7.63 -1.46 174 143 99
11.51 7.52 -1.46 176 145 101
11.26 7.33 -1.27 180 149 105
11.26 7.22 -1.27 186 155 111
11.26 7.11 -1.27 190 162 115
11.26 7.01 -1.27 194 166 119
11.26 6.90 -1.27 197 169 122
11.26 6.79 -1.27 196 169 122
11.26 6.68 -1.27 194 171 119
11.26 6.57 -1.27 192 171 118
11.26 6.46 -1.27 188 171 119
11.26 6.35 -1.27 188 174 125
11.26 6.24 -1.27 187 173 128
11.26 6.13 -1.27 183 170 126
11.26 6.02 -1.27 180 166 127
11.26 5.91 -1.27 182 168 129
11.26 5.80 -1.27 181 167 132
11.26 5.69 -1.27 176 166 130
11.26 5.58 -1.27 180 171 138
11.26 5.47 -1.27 173 167 133
11.26 5.36 -1.27 167 164 131
11.26 5.26 -1.27 164 164 130
11.26 5.15 -1.27 156 159 130
11.26 5.04 -1.27 159 161 147
11.26 4.93 -1.27 158 161 152
11.26 4.82 -1.27 157 165 154
11.26 4.71 -1.27 157 165 154
11.26 4.60 -1.27 155 167 157
11.26 4.49 -1.27 152 163 155
11.26 4.38 -1.27 152 163 155
11.26 4.27 -1.27 151 162 156
11.26 4.16 -1.27 152 161 156
11.26 4.05 -1.27 153 162 157
11.26 3.94 -1.27 156 162 158
11.26 3.83 -1.27 156 162 158
11.26 3.72 -1.27 152 163 157
11.26 3.62 -1.27 150 165 158
11.26 3.51 -1.27 152 165 158
11.26 3.40 -1.27 151 162 154
11.26 3.29 -1.27 153 163 155
11.26 3.18 -1.27 153 162 157
11.26 3.07 -1.27 153 162 157
11.26 2.96 -1.27 153 162 157
11.26 2.85 -1.27 153 162 157
11.26 2.74 -1.27 153 162 157
11.26 2.63 -1.27 154 163 158
11.26 2.52 -1.27 152 161 156
11.26 2.41 -1.27 152 161 156
11.26 2.30 -1.27 152 161 158
11.26 2.19 -1.27 153 162 159
11.26 2.08 -1.27 154 163 160
11.51 2.02 -1.46 154 163 160
11.51 1.91 -1.46 153 162 159
11.79 1.85 -1.67 152 161 158
11.79 1.74 -1.67 151 160 157
12.08 1.68 -1.88 152 161 158
12.33 1.61 -2.07 153 162 159
12.08 1.46 -1.88 153 162 159
12.08 1.35 -1.88 152 163 159
12.08 1.24 -1.88 148 159 155
12.08 1.13 -1.88 146 157 153
12.08 1.01 -1.88 147 158 154
12.08 0.90 -1.88 147 158 154
12.33 0.83 -2.07 148 159 155
12.33 0.72 -2.07 148 159 155
12.33 0.61 -2.07 147 159 155
12.33 0.50 -2.07 147 159 155
12.33 0.39 -2.07 146 158 154
12.33 0.27 -2.07 146 158 154
12.33 0.16 -2.07 145 157 153
12.33 0.05 -2.07 145 157 153
12.33 -0.06 -2.07 145 157 153
12.33 -0.17 -2.07 146 158 154
12.33 -0.28 -2.07 146 158 154
12.33 -0.40 -2.07 147 159 155
12.33 -0.51 -2.07 147 159 155
12.33 -0.62 -2.07 147 159 155
12.33 -0.73 -2.07 151 163 159
12.33 -0.84 -2.07 151 163 159
12.33 -0.95 -2.07 150 162 158
12.33 -1.07 -2.07 148 160 156
12.33 -1.18 -2.07 147 162 157
12.08 -1.32 -1.88 148 163 158
12.08 -1.43 -1.88 146 158 154
12.08 -1.54 -1.88 150 162 160
12.08 -1.65 -1.88 152 162 161
11.79 -1.79 -1.67 153 165 165
11.79 -1.90 -1.67 155 167 167
11.79 -2.02 -1.67 156 170 171
11.79 -2.13 -1.67 159 173 174
11.79 -2.24 -1.67 161 176 179
11.79 -2.35 -1.67 163 178 181
11.51 -2.48 -1.46 167 182 185
11.51 -2.59 -1.46 170 185 188
11.51 -2.70 -1.46 177 192 195
11.26 -2.84 -1.27 184 198 201
11.26 -2.95 -1.27 186 200 203
11.26 -3.06 -1.27 189 200 204
11.00 -3.19 -1.09 183 194 198
10.95 22.60 -1.18 70 72 69
10.95 22.49 -1.18 111 112 107
10.95 22.38 -1.18 128 129 124
10.95 22.28 -1.18 138 138 130
10.95 22.17 -1.18 129 129 121
10.95 22.06 -1.18 128 125 116
10.95 21.95 -1.18 133 130 121
10.95 21.84 -1.18 131 128 121
10.95 21.73 -1.18 131 130 126
10.95 21.62 -1.18 130 129 127
11.20 21.66 -1.37 129 128 126
11.20 21.55 -1.37 129 128 126
11.20 21.44 -1.37 129 128 126
10.95 21.19 -1.18 131 130 128
10.95 21.08 -1.18 132 131 129
10.95 20.97 -1.18 133 132 130
10.95 20.86 -1.18 134 133 129
10.95 20.75 -1.18 134 133 129
11.20 20.78 -1.37 134 133 128
11.20 20.67 -1.37 133 132 127
11.20 20.57 -1.37 133 133 125
11.20 20.46 -1.37 133 133 125
11.20 20.35 -1.37 134 134 124
11.20 20.24 -1.37 135 135 125
11.20 20.13 -1.37 136 136 128
11.20 20.02 -1.37 136 136 128
11.20 19.91 -1.37 136 136 128
11.20 19.80 -1.37 136 136 128
11.20 19.69 -1.37 136 136 128
11.20 19.58 -1.37 135 135 127
11.20 19.47 -1.37 135 135 127
10.95 19.23 -1.18 138 135 128
10.95 19.12 -1.18 138 135 128
10.95 19.01 -1.18 138 135 128
10.95 18.90 -1.18 139 136 129
10.95 18.79 -1.18 139 136 131
10.95 18.68 -1.18 140 137 132
11.20 18.71 -1.37 140 137 132
11.20 18.60 -1.37 140 136 133
11.20 18.49 -1.37 140 136 135
11.20 18.38 -1.37 141 137 138
11.20 18.27 -1.37 142 138 137
11.20 18.16 -1.37 141 137 136
11.20 18.05 -1.37 139 136 131
11.20 17.94 -1.37 139 136 131
11.20 17.83 -1.37 138 138 130
11.20 17.72 -1.37 139 139 131
11.20 17.61 -1.37 139 139 131
11.20 17.50 -1.37 139 139 131
11.20 17.39 -1.37 139 140 134
11.20 17.28 -1.37 139 140 134
11.20 17.18 -1.37 139 140 135
11.20 17.07 -1.37 139 140 135
11.20 16.96 -1.37 140 140 138
11.20 16.85 -1.37 139 140 135
11.20 16.74 -1.37 140 141 136
11.20 16.63 -1.37 140 141 135
11.20 16.52 -1.37 140 141 135
11.20 16.41 -1.37 140 141 135
11.20 16.30 -1.37 141 142 136
11.20 16.19 -1.37 141 142 136
11.20 16.08 -1.37 141 142 136
11.20 15.97 -1.37 141 142 136
11.20 15.86 -1.37 141 142 136
11.20 15.75 -1.37 140 142 137
11.20 15.64 -1.37 140 142 137
11.20 15.53 -1.37 140 142 137
11.20 15.43 -1.37 140 142 137
10.95 15.20 -1.18 140 142 139
10.95 15.09 -1.18 140 142 139
10.95 14.99 -1.18 143 144 138
10.95 14.88 -1.18 143 144 139
10.95 14.77 -1.18 143 143 143
10.95 14.66 -1.18 143 143 145
10.95 14.55 -1.18 143 143 143
10.95 14.44 -1.18 144 144 142
10.95 14.33 -1.18 143 146 135
11.20 14.33 -1.37 146 149 138
11.20 14.22 -1.37 143 146 137
11.20 14.11 -1.37 145 145 143
11.46 14.11 -1.56 146 144 145
11.46 14.00 -1.56 147 143 142
11.46 13.89 -1.56 158 150 147
11.46 13.78 -1.56 162 153 144
11.46 13.67 -1.56 159 143 128
11.46 13.56 -1.56 152 130 106
11.46 13.45 -1.56 156 126 98
11.46 13.34 -1.56 156 127 93
11.46 13.23 -1.56 161 129 91
11.46 13.12 -1.56 160 129 83
-1.27 6.79 7.90 162 133 89
-1.27 6.71 7.90 162 133 89
-1.41 6.57 8.01 161 132 88
-1.41 6.49 8.01 161 132 88
-1.55 6.36 8.11 163 134 90
-1.55 6.28 8.11 161 132 88
11.46 10.59 -1.56 162 133 89
11.46 10.48 -1.56 164 135 91
11.46 10.37 -1.56 166 135 91
11.46 10.26 -1.56 166 134 93
11.46 10.15 -1.56 167 135 96
11.46 10.04 -1.56 167 135 97
11.46 9.93 -1.56 166 134 95
11.20 9.74 -1.37 166 134 95
11.20 9.63 -1.37 166 135 91
11.20 9.52 -1.37 166 135 91
11.20 9.41 -1.37 166 135 88
11.20 9.30 -1.37 166 135 88
11.46 9.06 -1.56 165 137 87
11.46 8.95 -1.56 165 137 87
11.46 8.84 -1.56 164 136 86
11.46 8.73 -1.56 162 134 84
11.46 8.62 -1.56 163 132 86
11.46 8.51 -1.56 163 131 93
11.46 8.40 -1.56 163 128 96
11.46 8.29 -1.56 163 126 97
11.46 8.18 -1.56 162 125 96
11.46 8.07 -1.56 161 124 95
11.46 7.96 -1.56 161 124 95
11.20 7.77 -1.37 163 126 99
11.20 7.66 -1.37 164 127 100
11.20 7.55 -1.37 165 128 101
11.20 7.44 -1.37 165 128 101
11.20 7.33 -1.37 165 128 101
11.20 7.22 -1.37 166 129 102
11.20 7.11 -1.37 166 129 100
10.95 6.93 -1.18 165 128 99
11.20 6.90 -1.37 161 126 96
11.20 6.79 -1.37 155 124 93
11.20 6.68 -1.37 155 131 93
11.20 6.57 -1.37 154 135 95
11.20 6.46 -1.37 154 139 100
10.95 6.28 -1.18 164 152 114
10.95 6.17 -1.18 169 156 122
10.95 6.06 -1.18 169 159 124
11.20 6.02 -1.37 170 159 129
11.20 5.91 -1.37 167 156 128
11.20 5.80 -1.37 175 163 139
11.20 5.69 -1.37 175 165 140
11.20 5.58 -1.37 179 171 148
11.20 5.47 -1.37 170 165 143
11.20 5.36 -1.37 168 168 144
11.20 5.26 -1.37 169 171 149
11.20 5.15 -1.37 161 164 145
11.20 5.04 -1.37 162 164 150
11.20 4.93 -1.37 161 163 152
11.20 4.82 -1.37 157 163 153
11.20 4.71 -1.37 158 166 155
11.20 4.60 -1.37 159 169 160
11.20 4.49 -1.37 152 164 154
11.20 4.38 -1.37 155 166 158
10.95 4.21 -1.18 153 164 156
10.95 4.10 -1.18 153 162 157
10.95 4.00 -1.18 153 162 157
11.20 3.94 -1.37 154 163 158
11.20 3.83 -1.37 154 163 158
10.95 3.67 -1.18 152 163 157
10.95 3.56 -1.18 149 164 157
10.95 3.45 -1.18 152 165 158
10.95 3.34 -1.18 153 164 156
10.95 3.23 -1.18 154 164 156
10.95 3.13 -1.18 154 163 158
10.95 3.02 -1.18 153 162 157
10.95 2.91 -1.18 152 161 156
10.95 2.80 -1.18 151 160 155
10.95 2.69 -1.18 151 160 155
11.20 2.63 -1.37 152 161 156
11.20 2.52 -1.37 154 163 158
10.95 2.36 -1.18 154 163 158
10.95 2.25 -1.18 153 162 159
11.20 2.19 -1.37 153 162 159
11.20 2.08 -1.37 153 162 159
11.20 1.97 -1.37 153 162 159
11.20 1.87 -1.37 152 161 158
11.20 1.76 -1.37 152 161 158
11.20 1.65 -1.37 151 162 158
11.20 1.54 -1.37 152 163 159
11.46 1.47 -1.56 152 163 159
12.02 1.46 -1.98 153 164 160
12.02 1.35 -1.98 152 163 159
11.46 1.14 -1.56 149 160 156
11.46 1.03 -1.56 148 159 155
11.46 0.92 -1.56 149 160 156
11.74 0.86 -1.77 149 160 156
11.74 0.75 -1.77 148 160 156
11.74 0.64 -1.77 147 159 155
12.02 0.57 -1.98 147 159 155
12.02 0.46 -1.98 146 158 154
12.02 0.35 -1.98 146 158 154
12.02 0.24 -1.98 146 158 154
12.02 0.13 -1.98 146 158 154
12.02 0.01 -1.98 146 158 154
12.28 -0.06 -2.17 146 158 154
12.28 -0.17 -2.17 147 159 155
12.02 -0.32 -1.98 147 159 155
12.02 -0.43 -1.98 148 160 156
12.02 -0.54 -1.98 148 160 156
12.02 -0.65 -1.98 148 160 156
12.02 -0.76 -1.98 148 160 156
12.02 -0.87 -1.98 148 160 156
12.02 -0.99 -1.98 148 160 156
12.28 -1.07 -2.17 148 160 156
12.02 -1.21 -1.98 150 162 158
12.02 -1.32 -1.98 153 165 161
12.02 -1.43 -1.98 152 164 160
11.74 -1.57 -1.77 156 166 165
11.74 -1.68 -1.77 156 166 165
11.74 -1.79 -1.77 155 167 165
11.74 -1.90 -1.77 155 167 165
11.46 -2.04 -1.56 157 169 169
11.46 -2.15 -1.56 159 171 171
11.46 -2.26 -1.56 159 173 174
11.46 -2.37 -1.56 160 174 175
11.46 -2.48 -1.56 166 177 179
11.20 -2.62 -1.37 165 176 178
11.20 -2.73 -1.37 167 177 178
11.20 -2.84 -1.37 165 175 176
10.95 -2.97 -1.18 164 173 172
10.95 -3.08 -1.18 169 178 177
10.95 -3.19 -1.18 175 184 183
10.61 22.65 -1.06 48 52 51
10.89 22.71 -1.27 78 80 77
10.89 22.60 -1.27 119 121 118
10.89 22.49 -1.27 131 132 126
10.89 22.38 -1.27 132 133 127
10.89 22.28 -1.27 131 131 123
10.89 22.17 -1.27 126 126 118
10.89 22.06 -1.27 133 130 121
10.89 21.95 -1.27 133 130 121
10.89 21.84 -1.27 128 125 118
10.89 21.73 -1.27 130 129 124
10.89 21.62 -1.27 130 129 125
10.89 21.51 -1.27 130 129 127
10.89 21.40 -1.27 130 129 127
10.89 21.30 -1.27 131 130 128
10.89 21.19 -1.27 132 131 129
10.89 21.08 -1.27 133 132 130
10.89 20.97 -1.27 133 132 130
10.89 20.86 -1.27 132 131 127
10.89 20.75 -1.27 133 132 128
10.89 20.64 -1.27 134 133 128
10.89 20.53 -1.27 134 133 128
11.15 20.57 -1.46 134 134 126
11.15 20.46 -1.46 133 133 125
11.15 20.35 -1.46 134 134 124
11.15 20.24 -1.46 134 134 124
11.15 20.13 -1.46 135 137 126
11.15 20.02 -1.46 135 137 126
11.15 19.91 -1.46 135 137 126
11.15 19.80 -1.46 135 137 126
11.15 19.69 -1.46 136 136 128
10.89 19.45 -1.27 135 135 127
10.89 19.34 -1.27 134 134 126
10.89 19.23 -1.27 136 136 128
10.89 19.12 -1.27 136 136 128
10.89 19.01 -1.27 139 136 131
10.89 18.90 -1.27 139 136 131
10.89 18.79 -1.27 139 136 131
10.89 18.68 -1.27 139 136 131
10.89 18.58 -1.27 140 137 132
11.15 18.60 -1.46 140 136 133
11.15 18.49 -1.46 139 135 134
10.89 18.25 -1.27 141 137 138
10.89 18.14 -1.27 142 138 137
10.89 18.03 -1.27 142 138 137
10.89 17.92 -1.27 141 137 134
10.89 17.81 -1.27 140 136 133
10.89 17.71 -1.27 138 138 130
10.89 17.60 -1.27 138 138 130
10.89 17.49 -1.27 139 139 131
10.89 17.38 -1.27 139 139 131
10.89 17.27 -1.27 138 139 131
10.89 17.16 -1.27 138 139 131
10.89 17.05 -1.27 139 140 134
10.89 16.94 -1.27 139 140 134
10.89 16.83 -1.27 139 140 135
10.89 16.73 -1.27 141 140 135
10.89 16.62 -1.27 140 139 134
10.89 16.51 -1.27 140 139 134
10.89 16.40 -1.27 140 139 134
10.89 16.29 -1.27 140 140 132
10.89 16.18 -1.27 141 141 133
10.89 16.07 -1.27 142 143 135
10.89 15.96 -1.27 143 144 136
10.89 15.86 -1.27 142 143 135
10.89 15.75 -1.27 142 143 135
10.89 15.64 -1.27 142 145 138
10.89 15.53 -1.27 143 146 139
11.15 15.53 -1.46 143 145 140
10.89 15.31 -1.27 143 145 140
10.89 15.20 -1.27 142 144 141
10.89 15.09 -1.27 141 143 140
10.89 14.99 -1.27 141 143 138
10.89 14.88 -1.27 141 143 140
10.89 14.77 -1.27 143 143 143
10.89 14.66 -1.27 143 143 145
10.89 14.55 -1.27 145 144 142
10.89 14.44 -1.27 145 144 140
10.89 14.33 -1.27 144 147 138
10.89 14.22 -1.27 145 151 141
11.15 14.22 -1.46 141 144 137
11.15 14.11 -1.46 143 145 144
11.15 14.00 -1.46 148 146 147
11.40 14.00 -1.65 154 146 143
-1.59 8.49 8.04 160 150 141
-1.59 8.41 8.04 160 144 128
11.40 13.67 -1.65 150 128 105
11.40 13.56 -1.65 157 128 96
-1.59 8.16 8.04 162 128 91
-1.59 8.08 8.04 163 129 91
-1.59 8.00 8.04 162 129 86
-1.59 7.92 8.04 160 127 82
-1.59 7.83 8.04 158 126 79
-1.59 7.75 8.04 155 127 77
-1.59 7.67 8.04 157 129 79
-1.59 7.59 8.04 158 130 82
-1.59 7.51 8.04 158 130 83
-1.59 7.42 8.04 158 130 83
-1.59 7.34 8.04 162 131 87
-1.59 7.26 8.04 163 131 90
-1.59 7.18 8.04 165 130 90
-1.59 7.10 8.04 165 130 90
-1.59 7.01 8.04 164 129 89
-1.59 6.93 8.04 163 132 88
-1.45 6.90 7.93 163 132 88
-1.45 6.82 7.93 163 132 88
-1.45 6.74 7.93 161 132 88
-1.45 6.66 7.93 161 132 88
-1.45 6.57 7.93 161 134 89
-1.45 6.49 7.93 161 134 89
-1.59 6.36 8.04 161 134 89
-1.59 6.28 8.04 159 132 87
-1.73 6.14 8.15 158 129 85
-1.73 6.06 8.15 158 129 85
-1.90 5.60 8.27 159 130 88
-1.90 5.51 8.27 159 130 88
-1.90 5.43 8.27 159 130 86
-1.90 5.35 8.27 159 130 86
-1.90 5.27 8.27 159 131 84
-1.73 5.24 8.15 159 131 84
-1.73 5.16 8.15 159 131 84
-1.73 5.08 8.15 159 131 84
-1.73 5.00 8.15 160 132 84
-1.90 4.86 8.27 163 132 85
-1.90 4.78 8.27 164 133 86
-1.90 4.70 8.27 164 133 86
-1.90 4.62 8.27 165 134 87
-1.90 4.54 8.27 166 135 89
11.40 8.18 -1.65 161 141 91
11.40 8.07 -1.65 160 140 90
11.40 7.96 -1.65 159 139 89
11.40 7.85 -1.65 158 140 92
11.15 7.44 -1.46 159 141 93
11.15 7.33 -1.46 162 142 92
10.89 7.15 -1.27 164 144 94
10.89 7.04 -1.27 165 145 94
10.89 6.93 -1.27 165 145 94
10.89 6.82 -1.27 162 142 91
11.15 6.79 -1.46 161 139 89
11.15 6.68 -1.46 167 139 91
11.15 6.57 -1.46 169 138 91
10.89 6.39 -1.27 166 138 90
10.89 6.28 -1.27 158 134 86
10.89 6.17 -1.27 157 133 85
11.15 5.91 -1.46 159 130 86
11.15 5.80 -1.46 169 137 96
11.15 5.47 -1.46 161 136 96
11.15 5.36 -1.46 170 147 106
11.15 5.26 -1.46 167 145 104
11.15 5.15 -1.46 157 142 109
11.15 5.04 -1.46 175 168 152
11.15 4.93 -1.46 165 165 157
11.15 4.82 -1.46 154 155 147
11.15 4.71 -1.46 158 163 156
11.15 4.60 -1.46 159 166 158
10.89 4.43 -1.27 153 163 155
10.89 4.32 -1.27 155 166 160
10.89 4.21 -1.27 153 164 158
10.89 4.10 -1.27 156 165 160
10.89 4.00 -1.27 156 165 160
10.89 3.89 -1.27 157 166 161
10.89 3.78 -1.27 156 165 160
10.89 3.67 -1.27 154 165 159
10.89 3.56 -1.27 151 166 159
10.89 3.45 -1.27 153 166 159
10.89 3.34 -1.27 155 166 158
10.89 3.23 -1.27 156 166 158
10.89 3.13 -1.27 156 165 160
10.89 3.02 -1.27 155 164 159
10.89 2.91 -1.27 154 163 158
10.89 2.80 -1.27 153 162 157
10.89 2.69 -1.27 153 162 157
10.89 2.58 -1.27 154 163 158
10.89 2.47 -1.27 157 166 161
10.89 2.36 -1.27 157 166 161
10.89 2.25 -1.27 157 166 163
10.89 2.15 -1.27 156 165 162
10.89 2.04 -1.27 155 164 161
10.89 1.93 -1.27 154 163 160
10.89 1.82 -1.27 154 163 160
10.89 1.71 -1.27 154 163 160
10.89 1.60 -1.27 154 165 161
10.89 1.49 -1.27 154 165 161
10.89 1.38 -1.27 154 165 161
10.89 1.28 -1.27 154 165 161
11.40 1.25 -1.65 153 164 160
11.40 1.14 -1.65 152 163 159
11.15 0.99 -1.46 152 163 159
11.15 0.88 -1.46 151 163 159
11.15 0.77 -1.46 151 163 159
11.15 0.66 -1.46 151 163 159
11.15 0.55 -1.46 150 162 158
11.40 0.48 -1.65 150 162 158
11.40 0.37 -1.65 149 161 157
11.40 0.26 -1.65 149 161 157
11.40 0.15 -1.65 149 161 157
11.40 0.04 -1.65 147 159 155
11.40 -0.07 -1.65 147 159 155
11.68 -0.14 -1.86 147 159 155
11.68 -0.25 -1.86 147 159 155
11.68 -0.36 -1.86 147 159 155
11.68 -0.47 -1.86 148 160 156
11.68 -0.58 -1.86 148 160 156
11.68 -0.69 -1.86 149 161 157
11.68 -0.80 -1.86 150 162 158
11.68 -0.91 -1.86 151 163 159
11.68 -1.02 -1.86 150 162 158
11.68 -1.13 -1.86 148 160 156
11.68 -1.24 -1.86 148 160 156
11.68 -1.35 -1.86 149 161 157
11.68 -1.46 -1.86 151 163 159
11.68 -1.57 -1.86 155 167 165
11.40 -1.71 -1.65 156 168 166
11.40 -1.82 -1.65 157 169 167
11.40 -1.93 -1.65 158 170 168
11.40 -2.04 -1.65 159 171 171
11.40 -2.15 -1.65 159 171 171
11.40 -2.26 -1.65 159 171 171
11.40 -2.37 -1.65 159 171 171
11.15 -2.51 -1.46 156 166 167
11.15 -2.62 -1.46 159 169 170
11.15 -2.73 -1.46 167 176 175
10.89 -2.86 -1.27 168 177 176
10.89 -2.97 -1.27 163 172 169
10.89 -3.08 -1.27 163 172 169
10.89 -3.19 -1.27 168 174 170
10.89 -3.29 -1.27 167 173 169
10.61 -3.43 -1.06 163 174 168
10.36 -3.55 -0.87 163 174 168
10.36 -3.66 -0.87 167 178 172
10.56 22.65 -1.16 80 81 76
10.56 22.54 -1.16 111 112 107
10.56 22.43 -1.16 134 135 130
10.84 22.49 -1.37 132 131 126
10.84 22.38 -1.37 128 127 122
10.84 22.28 -1.37 126 126 118
10.84 22.17 -1.37 127 127 119
10.84 22.06 -1.37 132 132 124
10.84 21.95 -1.37 132 129 120
10.84 21.84 -1.37 130 127 120
10.84 21.73 -1.37 131 131 123
10.84 21.62 -1.37 132 131 126
10.84 21.51 -1.37 132 131 127
10.84 21.40 -1.37 133 132 128
10.84 21.30 -1.37 134 133 131
10.84 21.19 -1.37 134 133 131
10.84 21.08 -1.37 134 133 131
10.84 20.97 -1.37 134 133 131
10.84 20.86 -1.37 133 132 128
10.84 20.75 -1.37 133 132 128
10.84 20.64 -1.37 135 134 129
10.84 20.53 -1.37 135 134 129
10.84 20.43 -1.37 135 135 127
10.84 20.32 -1.37 134 134 126
10.84 20.21 -1.37 134 134 124
10.84 20.10 -1.37 135 135 125
10.84 19.99 -1.37 133 135 124
10.84 19.88 -1.37 133 135 124
10.84 19.77 -1.37 134 136 125
10.84 19.66 -1.37 134 136 125
10.84 19.56 -1.37 135 136 128
10.84 19.45 -1.37 136 135 130
10.84 19.34 -1.37 136 135 130
10.84 19.23 -1.37 136 135 130
10.84 19.12 -1.37 137 136 131
10.84 19.01 -1.37 139 135 132
10.84 18.90 -1.37 140 136 133
10.84 18.79 -1.37 139 136 131
10.84 18.68 -1.37 140 137 132
10.84 18.58 -1.37 140 137 132
10.84 18.47 -1.37 141 137 134
10.84 18.36 -1.37 139 135 136
10.84 18.25 -1.37 140 135 139
10.84 18.14 -1.37 142 138 139
10.84 18.03 -1.37 143 139 140
10.84 17.92 -1.37 141 140 136
10.84 17.81 -1.37 140 139 135
10.84 17.71 -1.37 140 140 132
10.84 17.60 -1.37 139 139 131
10.84 17.49 -1.37 138 139 131
10.84 17.38 -1.37 138 139 131
10.84 17.27 -1.37 138 139 131
10.84 17.16 -1.37 138 139 131
10.84 17.05 -1.37 137 140 133
10.84 16.94 -1.37 137 140 133
10.84 16.83 -1.37 138 139 133
10.84 16.73 -1.37 142 142 134
10.84 16.62 -1.37 142 139 132
10.84 16.51 -1.37 140 140 132
10.84 16.40 -1.37 140 140 132
10.84 16.29 -1.37 141 141 131
10.84 16.18 -1.37 142 142 132
10.84 16.07 -1.37 144 144 134
10.84 15.96 -1.37 146 146 136
10.84 15.86 -1.37 141 142 134
10.84 15.75 -1.37 142 143 135
10.84 15.64 -1.37 144 145 139
10.84 15.53 -1.37 144 145 139
10.84 15.42 -1.37 143 145 140
10.84 15.31 -1.37 143 145 140
10.84 15.20 -1.37 141 143 140
10.56 14.97 -1.16 140 142 139
10.56 14.86 -1.16 139 145 141
10.56 14.75 -1.16 140 144 143
10.56 14.64 -1.16 142 144 143
10.56 14.54 -1.16 144 144 146
10.84 14.55 -1.37 146 145 143
10.84 14.44 -1.37 147 146 142
10.84 14.33 -1.37 146 149 138
10.84 14.22 -1.37 142 150 137
10.84 14.11 -1.37 140 145 138
11.09 14.11 -1.56 141 146 142
11.09 14.00 -1.56 150 149 145
11.35 14.00 -1.75 159 150 143
-1.63 8.49 7.97 162 146 131
-1.63 8.41 7.97 154 137 111
11.35 13.67 -1.75 147 123 89
11.35 13.56 -1.75 160 128 89
-1.63 8.16 7.97 164 129 87
-1.63 8.08 7.97 164 131 88
-1.78 7.94 8.07 162 129 86
-1.78 7.86 8.07 160 129 83
-1.78 7.78 8.07 160 129 83
-1.63 7.75 7.97 160 129 82
-1.63 7.67 7.97 160 129 82
-1.63 7.59 7.97 163 132 85
-1.63 7.51 7.97 163 132 85
-1.63 7.42 7.97 164 132 85
-1.63 7.34 7.97 164 131 86
-1.78 7.21 8.07 165 132 87
-1.78 7.12 8.07 165 132 89
-1.63 7.10 7.97 165 132 91
-1.63 7.01 7.97 164 131 90
-1.63 6.93 7.97 163 130 89
-1.63 6.85 7.97 164 132 91
-1.63 6.77 7.97 165 133 92
-1.63 6.69 7.97 164 135 93
-1.63 6.60 7.97 164 135 93
-1.63 6.52 7.97 162 135 92
-1.63 6.44 7.97 161 134 91
-1.63 6.36 7.97 162 135 92
-1.78 6.23 8.07 161 134 91
-1.78 6.14 8.07 161 132 90
-1.78 6.06 8.07 160 131 89
-1.95 5.60 8.20 160 131 87
-1.95 5.51 8.20 161 132 88
-1.95 5.43 8.20 160 133 88
-1.95 5.35 8.20 161 134 89
-1.95 5.27 8.20 161 134 89
-1.78 5.24 8.07 161 134 89
-1.78 5.16 8.07 161 134 89
-1.95 5.03 8.20 161 134 89
-1.95 4.94 8.20 164 137 92
-1.95 4.86 8.20 165 136 92
-1.95 4.78 8.20 163 134 90
-1.95 4.70 8.20 162 133 91
-1.95 4.62 8.20 161 132 90
-1.95 4.54 8.20 163 131 90
11.35 8.18 -1.75 166 132 94
11.35 8.07 -1.75 165 133 94
11.35 7.96 -1.75 165 133 94
11.09 7.77 -1.56 165 133 94
11.09 7.44 -1.56 167 135 96
11.09 7.33 -1.56 168 136 95
11.09 7.22 -1.56 169 137 96
10.84 7.04 -1.37 171 138 97
10.84 6.93 -1.37 171 138 97
10.84 6.82 -1.37 170 137 94
11.09 6.79 -1.56 166 137 93
11.09 6.68 -1.56 158 137 92
10.84 6.50 -1.37 157 140 94
10.84 6.39 -1.37 155 143 95
10.84 6.28 -1.37 153 141 93
10.84 6.17 -1.37 154 142 94
11.09 5.91 -1.56 163 146 100
11.09 5.80 -1.56 166 148 102
11.09 5.47 -1.56 160 145 102
11.09 5.36 -1.56 168 153 110
11.09 5.26 -1.56 147 136 91
11.09 5.15 -1.56 147 139 103
11.09 5.04 -1.56 188 182 168
11.09 4.93 -1.56 174 173 168
11.09 4.82 -1.56 151 152 147
10.84 4.65 -1.37 159 164 158
10.84 4.54 -1.37 158 164 160
10.84 4.43 -1.37 155 164 159
10.56 4.26 -1.16 156 167 163
10.56 4.15 -1.16 154 165 161
10.56 4.04 -1.16 156 165 162
10.56 3.93 -1.16 156 165 162
10.56 3.82 -1.16 157 166 163
10.84 3.78 -1.37 156 165 162
10.84 3.67 -1.37 154 163 158
10.56 3.50 -1.16 152 165 158
10.56 3.39 -1.16 153 164 158
10.56 3.28 -1.16 153 164 156
10.56 3.17 -1.16 154 164 156
10.56 3.07 -1.16 155 164 159
10.56 2.96 -1.16 155 164 159
10.56 2.85 -1.16 155 164 159
10.56 2.74 -1.16 155 164 159
10.84 2.69 -1.37 155 164 159
10.84 2.58 -1.37 156 165 160
10.84 2.47 -1.37 156 165 160
10.84 2.36 -1.37 156 165 160
10.56 2.20 -1.16 156 165 162
10.56 2.09 -1.16 155 164 161
10.56 1.98 -1.16 155 164 161
10.84 1.93 -1.37 154 163 160
10.84 1.82 -1.37 155 164 161
10.56 1.66 -1.16 156 165 162
10.56 1.55 -1.16 155 166 162
10.56 1.44 -1.16 155 166 162
10.56 1.34 -1.16 154 165 161
10.84 1.28 -1.37 153 164 160
10.84 1.17 -1.37 153 164 160
11.09 1.10 -1.56 152 164 160
10.84 0.95 -1.37 153 165 161
10.84 0.84 -1.37 152 164 160
10.84 0.73 -1.37 152 164 160
10.84 0.62 -1.37 151 163 159
10.84 0.51 -1.37 151 163 159
10.84 0.40 -1.37 151 163 159
11.09 0.33 -1.56 151 163 159
11.09 0.23 -1.56 152 164 160
10.84 0.08 -1.37 152 164 160
10.84 -0.03 -1.37 147 162 155
10.84 -0.14 -1.37 147 162 155
10.84 -0.25 -1.37 146 161 154
10.84 -0.36 -1.37 146 161 154
11.09 -0.43 -1.56 148 161 154
11.09 -0.54 -1.56 148 161 154
11.09 -0.65 -1.56 149 162 155
11.09 -0.76 -1.56 149 162 155
11.09 -0.87 -1.56 152 165 158
11.09 -0.98 -1.56 154 167 160
11.09 -1.09 -1.56 154 167 160
11.09 -1.20 -1.56 152 165 158
11.09 -1.31 -1.56 151 164 157
11.35 -1.39 -1.75 153 166 159
11.35 -1.50 -1.75 156 168 164
11.35 -1.60 -1.75 158 170 166
11.09 -1.74 -1.56 159 171 169
11.09 -1.85 -1.56 160 172 170
11.09 -1.96 -1.56 162 174 172
11.09 -2.07 -1.56 162 174 172
11.09 -2.18 -1.56 162 174 172
11.09 -2.29 -1.56 161 173 173
11.09 -2.40 -1.56 161 173 173
11.09 -2.51 -1.56 167 177 176
11.09 -2.62 -1.56 165 175 174
10.84 -2.75 -1.37 165 176 172
10.84 -2.86 -1.37 165 176 172
10.84 -2.97 -1.37 162 171 168
10.84 -3.08 -1.37 164 173 170
10.84 -3.19 -1.37 167 176 171
10.84 -3.29 -1.37 166 175 170
10.56 -3.43 -1.16 167 178 172
10.56 -3.53 -1.16 164 175 169
10.30 -3.66 -0.97 166 177 171
10.50 22.87 -1.25 59 58 53
10.50 22.76 -1.25 89 88 83
10.50 22.65 -1.25 126 125 120
10.50 22.54 -1.25 138 137 132
10.50 22.43 -1.25 131 130 125
10.50 22.33 -1.25 132 132 124
10.50 22.22 -1.25 129 129 121
10.50 22.11 -1.25 128 128 120
10.50 22.00 -1.25 129 129 121
10.78 22.06 -1.46 129 129 121
10.78 21.95 -1.46 131 131 123
10.78 21.84 -1.46 133 133 125
10.78 21.73 -1.46 132 132 122
10.78 21.62 -1.46 133 133 123
10.78 21.51 -1.46 133 133 125
10.78 21.40 -1.46 134 134 126
10.78 21.30 -1.46 134 133 128
10.78 21.19 -1.46 135 134 129
10.78 21.08 -1.46 135 134 130
10.50 20.81 -1.25 135 134 130
10.50 20.70 -1.25 134 133 129
10.50 20.60 -1.25 135 134 130
10.50 20.49 -1.25 135 134 129
10.78 20.53 -1.46 134 133 128
10.78 20.43 -1.46 134 134 126
10.78 20.32 -1.46 133 133 125
10.78 20.21 -1.46 134 134 124
10.78 20.10 -1.46 135 135 125
10.78 19.99 -1.46 132 135 124
10.78 19.88 -1.46 133 136 125
10.78 19.77 -1.46 134 135 127
10.78 19.66 -1.46 135 136 128
10.78 19.56 -1.46 135 136 130
10.50 19.30 -1.25 136 135 131
10.50 19.19 -1.25 136 135 131
10.50 19.08 -1.25 136 135 131
10.50 18.97 -1.25 137 136 132
10.50 18.86 -1.25 140 136 133
10.50 18.76 -1.25 140 136 133
10.50 18.65 -1.25 140 136 133
10.50 18.54 -1.25 140 136 133
10.50 18.43 -1.25 141 137 134
10.50 18.32 -1.25 142 138 137
10.50 18.21 -1.25 139 137 140
10.78 18.25 -1.46 139 137 142
10.50 18.00 -1.25 139 137 138
10.78 18.03 -1.46 140 138 139
10.78 17.92 -1.46 141 140 136
10.78 17.81 -1.46 141 140 136
10.78 17.71 -1.46 139 140 132
10.78 17.60 -1.46 138 139 131
10.78 17.49 -1.46 140 141 133
10.78 17.38 -1.46 140 141 133
10.78 17.27 -1.46 138 141 132
10.78 17.16 -1.46 138 141 132
10.78 17.05 -1.46 138 141 132
10.78 16.94 -1.46 138 141 132
10.78 16.83 -1.46 138 139 133
10.50 16.59 -1.25 142 142 132
10.50 16.48 -1.25 142 139 130
10.50 16.38 -1.25 142 139 130
10.50 16.27 -1.25 144 141 132
10.50 16.16 -1.25 142 142 132
10.50 16.05 -1.25 142 142 132
10.50 15.94 -1.25 143 143 133
10.50 15.83 -1.25 145 145 135
10.50 15.73 -1.25 141 142 134
10.50 15.62 -1.25 142 143 135
10.50 15.51 -1.25 143 144 138
10.50 15.40 -1.25 143 144 138
10.50 15.29 -1.25 142 144 139
10.50 15.19 -1.25 141 143 138
10.50 15.08 -1.25 141 143 138
10.50 14.97 -1.25 140 142 139
10.50 14.86 -1.25 140 146 142
10.50 14.75 -1.25 141 145 144
10.50 14.64 -1.25 143 144 146
10.50 14.54 -1.25 145 143 144
10.50 14.43 -1.25 146 145 143
10.50 14.32 -1.25 147 146 141
10.50 14.21 -1.25 146 148 137
10.50 14.10 -1.25 140 148 135
-1.82 8.59 8.00 151 151 143
-1.82 8.51 8.00 158 149 134
-1.82 8.43 8.00 154 138 115
-1.82 8.35 8.00 150 127 93
-1.82 8.27 8.00 153 125 85
-1.68 8.24 7.90 159 128 82
-1.82 8.10 8.00 162 130 83
-1.82 8.02 8.00 161 130 84
-1.82 7.94 8.00 159 128 82
-1.82 7.86 8.00 160 129 83
-1.82 7.78 8.00 162 131 85
-1.82 7.70 8.00 164 131 86
-1.82 7.61 8.00 162 129 84
-1.82 7.53 8.00 164 130 82
-1.82 7.45 8.00 164 130 82
-1.82 7.37 8.00 163 129 81
-1.82 7.29 8.00 164 130 82
-1.82 7.21 8.00 163 131 84
-1.82 7.12 8.00 163 130 85
-1.82 7.04 8.00 159 131 84
-1.82 6.96 8.00 161 130 86
-1.82 6.88 8.00 163 130 89
-1.82 6.80 8.00 163 131 90
-1.82 6.72 8.00 165 133 92
-1.82 6.63 8.00 164 135 93
-1.82 6.55 8.00 164 135 93
-1.82 6.47 8.00 159 135 91
-1.82 6.39 8.00 157 133 89
-1.82 6.31 8.00 154 130 86
-1.82 6.23 8.00 157 130 87
-1.82 6.14 8.00 158 131 88
-1.99 6.00 8.13 158 129 87
-1.99 5.92 8.13 160 128 87
-1.99 5.84 8.13 159 127 86
-1.99 5.60 8.13 161 129 88
-1.99 5.51 8.13 162 130 89
-1.99 5.43 8.13 161 132 90
-1.99 5.35 8.13 162 133 91
-1.99 5.27 8.13 163 134 92
-1.99 5.19 8.13 164 135 93
-1.99 5.11 8.13 163 136 93
-1.99 5.03 8.13 163 136 93
-1.99 4.94 8.13 159 132 87
-1.99 4.86 8.13 160 133 88
-1.99 4.78 8.13 160 133 88
-1.99 4.70 8.13 160 131 87
-1.99 4.62 8.13 160 131 87
-1.99 4.54 8.13 162 133 89
-1.99 4.46 8.13 163 134 92
-1.99 4.38 8.13 163 134 92
-1.99 4.29 8.13 164 135 95
-1.99 4.21 8.13 165 136 96
-1.99 4.13 8.13 166 137 97
-1.99 4.05 8.13 164 136 97
-1.99 3.97 8.13 164 136 97
-1.99 3.89 8.13 162 137 97
-1.99 3.81 8.13 162 137 97
-1.99 3.72 8.13 163 138 98
-2.13 3.44 8.24 165 137 97
-2.13 3.36 8.24 166 137 95
-1.99 3.32 8.13 165 136 94
-1.99 3.24 8.13 165 136 92
-1.99 3.15 8.13 168 137 93
-1.99 3.07 8.13 172 139 98
-1.99 2.99 8.13 173 138 98
-1.99 2.91 8.13 171 139 98
-1.99 2.83 8.13 166 137 95
-2.13 2.71 8.24 166 137 95
-2.13 2.63 8.24 167 138 98
-2.13 2.55 8.24 170 138 99
-2.13 2.47 8.24 167 135 97
-2.13 2.39 8.24 167 133 96
11.04 5.26 -1.65 147 122 91
11.04 5.15 -1.65 171 153 129
11.04 5.04 -1.65 206 197 188
11.04 4.93 -1.65 186 185 183
10.78 4.76 -1.46 148 148 148
10.78 4.65 -1.46 161 165 164
10.78 4.54 -1.46 153 162 159
10.50 4.36 -1.25 158 169 165
10.50 4.26 -1.25 155 167 165
10.25 4.09 -1.06 154 164 163
10.25 3.98 -1.06 153 164 160
10.50 3.93 -1.25 155 164 161
10.50 3.82 -1.25 157 163 161
10.50 3.72 -1.25 157 163 161
10.50 3.61 -1.25 154 163 158
10.50 3.50 -1.25 153 164 156
10.50 3.39 -1.25 153 164 156
10.50 3.28 -1.25 153 163 155
10.50 3.17 -1.25 154 164 156
10.50 3.07 -1.25 154 163 158
10.50 2.96 -1.25 155 164 159
10.50 2.85 -1.25 155 164 159
10.50 2.74 -1.25 155 164 159
10.50 2.63 -1.25 156 165 160
10.50 2.53 -1.25 156 165 160
10.50 2.42 -1.25 155 164 159
10.50 2.31 -1.25 155 164 159
10.50 2.20 -1.25 156 165 162
10.50 2.09 -1.25 155 164 161
10.50 1.98 -1.25 154 163 160
10.50 1.88 -1.25 154 163 160
10.50 1.77 -1.25 155 164 161
10.50 1.66 -1.25 157 166 163
10.25 1.51 -1.06 155 166 162
10.25 1.40 -1.06 154 165 161
10.50 1.34 -1.25 154 165 161
10.50 1.23 -1.25 153 164 160
10.50 1.12 -1.25 152 164 160
10.78 1.06 -1.46 152 164 160
10.78 0.95 -1.46 153 165 161
10.50 0.79 -1.25 153 165 161
10.50 0.69 -1.25 152 164 160
10.50 0.58 -1.25 152 164 160
10.50 0.47 -1.25 151 163 159
10.78 0.40 -1.46 151 163 159
10.78 0.30 -1.46 151 163 159
10.78 0.19 -1.46 149 164 159
10.78 0.08 -1.46 149 164 159
10.50 -0.07 -1.25 150 165 158
10.50 -0.18 -1.25 150 165 158
10.78 -0.25 -1.46 149 164 157
10.78 -0.36 -1.46 148 163 156
10.78 -0.47 -1.46 148 163 156
10.78 -0.57 -1.46 148 163 156
10.78 -0.68 -1.46 150 163 156
10.78 -0.79 -1.46 151 164 157
10.78 -0.90 -1.46 148 161 154
10.78 -1.01 -1.46 149 162 155
10.78 -1.12 -1.46 150 163 156
10.78 -1.23 -1.46 150 163 156
10.78 -1.34 -1.46 153 164 158
10.78 -1.44 -1.46 156 167 161
11.04 -1.52 -1.65 156 167 161
11.04 -1.63 -1.65 153 168 163
10.78 -1.77 -1.46 153 168 163
10.78 -1.88 -1.46 155 170 167
10.78 -1.99 -1.46 156 171 168
10.78 -2.10 -1.46 159 171 169
11.04 -2.18 -1.65 160 172 170
11.04 -2.29 -1.65 160 172 172
11.04 -2.40 -1.65 160 172 172
10.78 -2.53 -1.46 160 172 170
10.78 -2.64 -1.46 158 170 168
10.78 -2.75 -1.46 160 172 170
10.78 -2.86 -1.46 164 176 174
10.78 -2.97 -1.46 164 176 172
10.78 -3.08 -1.46 166 178 174
10.50 -3.21 -1.25 167 180 173
10.50 -3.32 -1.25 164 177 170
10.50 -3.43 -1.25 166 177 173
10.25 -3.55 -1.06 163 174 170
10.25 -3.66 -1.06 166 177 173
10.25 -3.77 -1.06 168 179 175
9.99 -3.89 -0.87 167 178 174
9.99 -4.00 -0.87 167 178 174
9.99 -4.11 -0.87 164 176 172
9.99 -4.22 -0.87 164 176 172
9.99 -4.32 -0.87 166 178 174
10.45 22.87 -1.34 94 91 84
10.45 22.76 -1.34 125 122 115
10.45 22.65 -1.34 137 134 127
10.45 22.54 -1.34 133 130 123
10.45 22.43 -1.34 127 124 117
10.45 22.33 -1.34 131 128 121
10.45 22.22 -1.34 132 129 122
10.45 22.11 -1.34 131 131 123
10.45 22.00 -1.34 133 133 125
10.45 21.89 -1.34 131 131 123
10.45 21.79 -1.34 132 132 124
10.45 21.68 -1.34 134 134 126
10.45 21.57 -1.34 132 132 120
10.45 21.46 -1.34 132 132 120
10.73 21.51 -1.56 132 132 122
10.73 21.40 -1.56 133 133 125
10.73 21.30 -1.56 133 133 125
10.45 21.03 -1.34 134 133 128
10.45 20.92 -1.34 135 134 130
10.45 20.81 -1.34 135 134 130
10.45 20.70 -1.34 135 134 130
10.45 20.60 -1.34 135 134 130
10.45 20.49 -1.34 134 133 128
10.45 20.38 -1.34 133 132 127
10.45 20.27 -1.34 132 132 124
10.45 20.16 -1.34 132 132 124
10.45 20.05 -1.34 133 133 123
10.45 19.95 -1.34 134 134 124
10.45 19.84 -1.34 134 137 126
10.45 19.73 -1.34 134 137 126
10.45 19.62 -1.34 134 137 128
10.45 19.51 -1.34 134 137 128
10.45 19.40 -1.34 135 136 130
10.45 19.30 -1.34 135 136 131
10.19 19.05 -1.15 135 135 133
10.19 18.95 -1.15 137 136 134
10.19 18.84 -1.15 138 137 135
10.19 18.73 -1.15 141 137 136
10.19 18.62 -1.15 141 137 136
10.19 18.52 -1.15 140 136 135
10.19 18.41 -1.15 140 136 135
10.19 18.30 -1.15 141 137 134
10.19 18.19 -1.15 142 138 137
10.19 18.09 -1.15 140 138 141
10.19 17.98 -1.15 139 137 142
10.45 18.00 -1.34 138 136 139
10.45 17.89 -1.34 139 137 138
10.45 17.78 -1.34 139 139 137
10.45 17.67 -1.34 139 140 135
10.45 17.57 -1.34 137 138 132
10.45 17.46 -1.34 136 137 131
10.45 17.35 -1.34 140 143 132
10.45 17.24 -1.34 140 143 132
10.45 17.13 -1.34 139 142 133
10.45 17.02 -1.34 139 142 133
10.45 16.92 -1.34 136 142 132
10.45 16.81 -1.34 136 142 132
10.45 16.70 -1.34 137 140 133
10.45 16.59 -1.34 140 140 130
10.19 16.36 -1.15 141 138 129
10.19 16.26 -1.15 142 139 130
10.19 16.15 -1.15 144 141 132
10.19 16.04 -1.15 145 142 133
10.19 15.93 -1.15 143 140 131
10.19 15.82 -1.15 140 140 130
10.19 15.72 -1.15 142 142 132
10.19 15.61 -1.15 144 146 135
10.19 15.50 -1.15 144 145 137
10.19 15.39 -1.15 144 145 137
10.19 15.29 -1.15 144 145 139
10.19 15.18 -1.15 142 144 139
10.19 15.07 -1.15 143 145 140
10.45 15.08 -1.34 143 145 140
10.45 14.97 -1.34 141 146 142
10.45 14.86 -1.34 139 145 141
10.19 14.64 -1.15 139 145 143
10.19 14.53 -1.15 142 143 145
10.19 14.43 -1.15 144 142 143
10.19 14.32 -1.15 145 144 142
10.19 14.21 -1.15 145 144 139
10.19 14.10 -1.15 145 147 136
10.45 14.10 -1.34 138 146 133
-1.86 8.59 7.93 152 149 140
-1.86 8.51 7.93 153 144 127
-1.86 8.43 7.93 145 128 102
-1.86 8.35 7.93 145 120 80
-1.86 8.27 7.93 157 129 82
-1.86 8.19 7.93 157 126 79
-1.86 8.10 7.93 159 129 79
-1.86 8.02 7.93 157 129 81
-1.86 7.94 7.93 156 128 81
-1.86 7.86 7.93 160 129 83
-1.86 7.78 7.93 163 132 88
-1.86 7.70 7.93 164 131 86
-1.86 7.61 7.93 162 128 83
-1.86 7.53 7.93 161 127 79
-1.86 7.45 7.93 163 127 79
-1.86 7.37 7.93 163 127 77
-1.86 7.29 7.93 162 129 78
-1.86 7.21 7.93 162 130 81
-1.86 7.12 7.93 159 131 83
-1.86 7.04 7.93 157 131 82
-1.86 6.96 7.93 156 129 84
-1.86 6.88 7.93 162 128 90
-1.86 6.80 7.93 161 129 90
-1.86 6.72 7.93 161 129 90
-1.86 6.63 7.93 159 131 91
-1.86 6.55 7.93 159 131 91
-2.03 6.41 8.06 156 131 90
-2.03 6.33 8.06 155 130 89
-2.03 6.25 8.06 153 128 87
-2.03 6.16 8.06 154 129 88
-2.03 6.08 8.06 158 130 90
-2.03 6.00 8.06 158 129 89
-2.03 5.92 8.06 156 127 87
-2.03 5.84 8.06 157 125 86
-2.03 5.60 8.06 163 128 90
-2.03 5.51 8.06 163 128 90
-2.03 5.43 8.06 163 129 91
-2.03 5.35 8.06 163 129 91
-2.03 5.27 8.06 162 130 91
-2.03 5.19 8.06 162 130 91
-2.03 5.11 8.06 158 131 88
-2.03 5.03 8.06 158 131 88
-2.03 4.94 8.06 160 133 88
-2.03 4.86 8.06 162 136 87
-2.03 4.78 8.06 161 135 86
-2.03 4.70 8.06 161 133 83
-2.03 4.62 8.06 160 132 82
-2.03 4.54 8.06 160 132 82
-2.03 4.46 8.06 161 133 83
-2.03 4.38 8.06 165 134 87
-2.03 4.29 8.06 166 135 88
-2.03 4.21 8.06 165 137 89
-2.03 4.13 8.06 165 137 89
-2.03 4.05 8.06 163 137 88
-2.03 3.97 8.06 163 137 88
-2.03 3.89 8.06 163 137 88
-2.03 3.81 8.06 163 137 88
-2.03 3.72 8.06 163 137 88
-2.03 3.48 8.06 164 138 87
-2.17 3.36 8.17 164 137 84
-2.03 3.32 8.06 164 137 84
-2.03 3.24 8.06 168 138 86
-2.17 3.12 8.17 170 138 87
-2.17 3.03 8.17 171 138 85
-2.17 2.95 8.17 173 137 85
-2.17 2.87 8.17 170 139 85
-2.17 2.79 8.17 167 140 87
-2.17 2.71 8.17 167 139 89
-2.17 2.63 8.17 166 140 89
-2.17 2.55 8.17 166 139 92
-2.17 2.47 8.17 173 145 98
-2.17 2.39 8.17 167 138 96
10.98 5.26 -1.75 144 128 94
10.98 5.15 -1.75 201 189 163
10.98 5.04 -1.75 213 208 202
10.73 4.87 -1.56 192 192 194
10.73 4.76 -1.56 145 146 148
10.73 4.65 -1.56 160 166 166
10.45 4.47 -1.34 150 159 158
10.45 4.36 -1.34 157 167 166
10.19 4.20 -1.15 152 164 162
10.19 4.09 -1.15 151 161 160
10.19 3.98 -1.15 153 163 162
10.19 3.88 -1.15 155 164 163
10.19 3.77 -1.15 158 164 162
10.19 3.66 -1.15 158 164 162
10.19 3.55 -1.15 157 163 159
10.19 3.44 -1.15 156 166 158
10.19 3.34 -1.15 156 166 158
10.19 3.23 -1.15 156 166 158
10.19 3.12 -1.15 156 166 158
10.19 3.01 -1.15 157 166 161
10.19 2.91 -1.15 157 166 161
10.19 2.80 -1.15 156 165 160
10.19 2.69 -1.15 156 165 160
10.19 2.58 -1.15 157 166 161
10.19 2.48 -1.15 157 166 161
10.19 2.37 -1.15 157 166 161
10.19 2.26 -1.15 157 166 161
10.19 2.15 -1.15 158 167 164
10.19 2.04 -1.15 157 166 163
10.19 1.94 -1.15 155 164 161
10.19 1.83 -1.15 155 164 161
10.19 1.72 -1.15 157 166 163
10.19 1.61 -1.15 158 167 164
10.19 1.51 -1.15 157 168 164
10.19 1.40 -1.15 156 167 163
10.19 1.29 -1.15 156 167 163
10.19 1.18 -1.15 156 167 163
10.19 1.08 -1.15 155 167 163
10.19 0.97 -1.15 155 167 163
10.45 0.90 -1.34 155 167 163
10.45 0.79 -1.34 156 168 164
10.19 0.65 -1.15 155 167 163
10.19 0.54 -1.15 154 166 162
10.45 0.47 -1.34 152 164 160
10.45 0.36 -1.34 149 164 159
10.45 0.25 -1.34 149 164 159
10.45 0.15 -1.34 149 164 159
10.45 0.04 -1.34 149 164 159
10.45 -0.07 -1.34 153 168 161
10.45 -0.18 -1.34 152 167 160
10.45 -0.29 -1.34 151 166 159
10.45 -0.40 -1.34 150 165 158
10.45 -0.50 -1.34 149 164 157
10.45 -0.61 -1.34 149 164 157
10.45 -0.72 -1.34 152 165 158
10.45 -0.83 -1.34 152 165 158
10.45 -0.94 -1.34 155 168 161
10.45 -1.05 -1.34 154 167 160
10.45 -1.15 -1.34 153 166 159
10.45 -1.26 -1.34 153 166 159
10.73 -1.34 -1.56 156 167 161
10.73 -1.44 -1.56 158 169 163
10.73 -1.55 -1.56 151 162 156
10.73 -1.66 -1.56 158 173 168
10.73 -1.77 -1.56 157 172 167
10.73 -1.88 -1.56 157 172 169
10.73 -1.99 -1.56 157 172 169
10.73 -2.10 -1.56 158 173 170
10.73 -2.21 -1.56 159 174 171
10.73 -2.32 -1.56 160 174 174
10.73 -2.42 -1.56 160 174 174
10.73 -2.53 -1.56 162 176 176
10.73 -2.64 -1.56 159 173 173
10.73 -2.75 -1.56 162 177 174
10.45 -2.88 -1.34 162 177 174
10.45 -2.99 -1.34 158 173 168
10.45 -3.10 -1.34 157 172 167
10.45 -3.21 -1.34 159 176 170
10.45 -3.32 -1.34 159 174 169
10.19 -3.45 -1.15 164 176 172
10.19 -3.55 -1.15 164 175 171
9.94 -3.68 -0.96 166 177 173
9.94 -3.79 -0.96 167 178 174
9.94 -3.89 -0.96 162 174 170
9.94 -4.00 -0.96 163 175 171
9.94 -4.11 -0.96 167 180 173
9.94 -4.22 -0.96 166 179 172
9.94 -4.32 -0.96 167 180 173
9.89 22.78 -1.05 64 65 60
10.14 22.82 -1.25 93 92 90
10.14 22.71 -1.25 121 120 118
10.14 22.61 -1.25 132 131 129
10.14 22.50 -1.25 127 126 124
10.14 22.39 -1.25 128 124 123
10.14 22.28 -1.25 133 129 128
10.14 22.18 -1.25 130 126 123
10.14 22.07 -1.25 131 127 124
10.14 21.96 -1.25 133 128 124
10.14 21.85 -1.25 133 128 124
10.39 21.89 -1.44 135 128 122
10.39 21.79 -1.44 136 129 121
10.39 21.68 -1.44 137 130 122
10.39 21.57 -1.44 136 133 126
10.39 21.46 -1.44 135 132 125
10.39 21.35 -1.44 135 132 123
10.39 21.24 -1.44 135 132 123
10.39 21.14 -1.44 137 133 124
10.39 21.03 -1.44 138 134 125
10.39 20.92 -1.44 138 134 123
10.39 20.81 -1.44 138 134 123
10.39 20.70 -1.44 135 131 120
10.14 20.45 -1.25 135 131 120
10.14 20.35 -1.25 135 131 122
10.14 20.24 -1.25 136 132 123
10.14 20.13 -1.25 139 135 126
10.14 20.02 -1.25 139 135 126
10.14 19.92 -1.25 138 133 127
10.14 19.81 -1.25 136 133 128
10.39 19.84 -1.44 135 134 130
10.39 19.73 -1.44 134 134 132
10.14 19.49 -1.25 134 134 132
10.14 19.38 -1.25 134 134 132
10.14 19.27 -1.25 134 134 132
10.14 19.16 -1.25 135 135 133
10.14 19.05 -1.25 135 135 133
10.14 18.95 -1.25 137 136 134
9.89 18.71 -1.05 138 137 135
9.89 18.60 -1.05 139 138 134
9.89 18.49 -1.05 138 137 133
9.89 18.38 -1.05 139 135 132
9.89 18.28 -1.05 138 134 131
9.89 18.17 -1.05 140 136 133
9.89 18.06 -1.05 141 137 134
9.89 17.96 -1.05 141 140 135
9.89 17.85 -1.05 140 139 134
10.14 17.87 -1.25 138 139 134
10.14 17.76 -1.25 137 138 133
10.14 17.66 -1.25 134 139 135
10.14 17.55 -1.25 135 140 136
10.14 17.44 -1.25 135 141 137
10.14 17.33 -1.25 136 142 138
10.14 17.22 -1.25 134 140 138
10.14 17.12 -1.25 134 140 138
10.14 17.01 -1.25 136 140 139
10.14 16.90 -1.25 138 140 139
10.14 16.79 -1.25 138 140 137
10.14 16.69 -1.25 139 139 137
10.14 16.58 -1.25 139 138 134
10.14 16.47 -1.25 142 139 132
10.14 16.36 -1.25 142 139 130
10.14 16.26 -1.25 142 139 130
10.14 16.15 -1.25 143 140 131
10.14 16.04 -1.25 140 141 133
10.14 15.93 -1.25 141 142 134
10.14 15.82 -1.25 141 144 137
10.14 15.72 -1.25 142 145 138
10.14 15.61 -1.25 143 145 140
10.14 15.50 -1.25 143 145 140
10.14 15.39 -1.25 143 145 142
10.14 15.29 -1.25 143 145 142
10.14 15.18 -1.25 142 144 143
10.14 15.07 -1.25 143 145 144
10.14 14.96 -1.25 144 144 144
10.14 14.86 -1.25 144 144 144
10.14 14.75 -1.25 143 142 140
10.14 14.64 -1.25 146 145 141
10.14 14.53 -1.25 147 148 142
10.14 14.43 -1.25 145 146 138
10.14 14.32 -1.25 143 145 132
10.14 14.21 -1.25 143 145 132
10.14 14.10 -1.25 143 147 133
10.14 13.99 -1.25 144 146 133
-2.07 8.69 7.99 152 148 136
-1.76 8.74 7.76 163 156 140
-1.90 8.59 7.86 156 141 122
-1.90 8.51 7.86 149 125 99
-1.90 8.43 7.86 158 127 96
-1.90 8.35 7.86 162 126 90
-1.90 8.27 7.86 162 124 85
-1.90 8.19 7.86 161 126 84
-1.90 8.10 7.86 161 128 85
-1.90 8.02 7.86 161 128 85
-1.90 7.94 7.86 160 127 84
-1.90 7.86 7.86 161 128 85
-1.90 7.78 7.86 163 130 87
-1.90 7.70 7.86 163 130 85
-1.90 7.61 7.86 162 129 84
-1.90 7.53 7.86 164 131 86
-1.90 7.45 7.86 163 130 85
-1.90 7.37 7.86 160 129 83
-1.90 7.29 7.86 159 128 82
-1.90 7.21 7.86 159 128 82
-1.90 7.12 7.86 160 129 83
-1.90 7.04 7.86 162 131 85
-1.90 6.96 7.86 163 132 86
-1.90 6.88 7.86 156 127 83
-1.90 6.80 7.86 157 128 84
-1.90 6.72 7.86 160 131 87
-2.07 6.57 7.99 161 133 86
-2.07 6.49 7.99 160 132 85
-2.21 6.36 8.10 158 130 83
-2.21 6.28 8.10 157 129 82
-2.21 6.20 8.10 158 129 85
-2.21 6.11 8.10 161 132 88
-2.21 6.03 8.10 159 130 88
-2.21 5.95 8.10 157 128 86
-2.21 5.87 8.10 160 131 91
-2.21 5.79 8.10 160 131 91
-2.07 5.76 7.99 157 127 89
-2.21 5.63 8.10 157 127 89
-2.21 5.55 8.10 152 122 86
-2.21 5.47 8.10 154 124 88
-2.21 5.38 8.10 155 125 89
-2.21 5.30 8.10 157 127 91
-2.21 5.22 8.10 161 131 95
-2.21 5.14 8.10 165 135 99
-2.07 5.11 7.99 161 131 95
-2.07 5.03 7.99 154 124 88
-2.21 4.90 8.10 159 129 91
-2.21 4.82 8.10 156 127 87
-2.21 4.74 8.10 161 132 92
-2.21 4.66 8.10 164 135 91
-2.21 4.57 8.10 163 134 90
-2.21 4.49 8.10 163 135 88
-2.21 4.41 8.10 165 137 90
-2.21 4.33 8.10 162 135 88
-2.21 4.25 8.10 162 135 88
-2.21 4.17 8.10 162 135 88
-2.07 4.13 7.99 162 135 88
-2.07 4.05 7.99 162 135 88
-2.07 3.97 7.99 164 137 90
-2.07 3.89 7.99 167 141 92
-2.07 3.81 7.99 169 143 94
-2.07 3.72 7.99 166 140 91
-2.07 3.48 7.99 165 140 86
-2.21 3.36 8.10 165 140 84
-2.07 3.32 7.99 165 140 84
-2.07 3.24 7.99 164 139 82
-2.21 3.12 8.10 163 138 82
-2.21 3.03 8.10 164 143 90
-2.21 2.95 8.10 165 141 93
-2.21 2.87 8.10 170 139 93
-2.21 2.79 8.10 171 138 97
-2.21 2.71 8.10 171 139 98
-2.21 2.63 8.10 169 142 95
-2.21 2.55 8.10 167 144 94
-2.35 2.43 8.20 164 141 89
-2.35 2.35 8.20 166 140 89
-2.35 2.27 8.20 170 140 90
-2.35 2.19 8.20 168 137 93
10.67 4.76 -1.65 142 148 138
10.39 4.58 -1.44 157 162 156
10.14 4.41 -1.25 155 162 155
10.14 4.31 -1.25 158 164 160
10.14 4.20 -1.25 159 165 163
9.89 4.03 -1.05 158 164 162
9.89 3.93 -1.05 156 165 164
9.89 3.82 -1.05 156 165 164
9.89 3.71 -1.05 155 164 161
9.89 3.60 -1.05 155 164 161
10.14 3.55 -1.25 155 166 160
10.14 3.44 -1.25 155 166 158
10.14 3.34 -1.25 156 167 159
10.14 3.23 -1.25 156 167 159
10.14 3.12 -1.25 154 165 157
10.14 3.01 -1.25 152 163 155
10.14 2.91 -1.25 153 164 156
10.14 2.80 -1.25 155 166 160
10.14 2.69 -1.25 157 168 162
10.14 2.58 -1.25 157 168 162
10.14 2.48 -1.25 156 167 161
10.14 2.37 -1.25 156 167 161
10.14 2.26 -1.25 156 167 161
10.14 2.15 -1.25 156 167 161
10.14 2.04 -1.25 156 167 161
10.14 1.94 -1.25 156 167 161
9.89 1.78 -1.05 156 167 161
9.89 1.68 -1.05 156 167 161
9.89 1.57 -1.05 156 167 161
9.89 1.46 -1.05 154 169 164
9.89 1.35 -1.05 154 169 164
9.89 1.25 -1.05 154 169 164
9.89 1.14 -1.05 155 170 165
9.89 1.03 -1.05 157 169 167
9.89 0.93 -1.05 157 169 167
9.89 0.82 -1.05 157 169 167
10.14 0.75 -1.25 156 166 165
10.14 0.65 -1.25 156 166 165
10.14 0.54 -1.25 157 166 163
10.14 0.43 -1.25 157 166 163
10.14 0.32 -1.25 157 166 161
10.14 0.21 -1.25 157 166 161
10.14 0.11 -1.25 157 166 161
10.14 -0.00 -1.25 158 167 162
10.14 -0.11 -1.25 157 166 163
10.14 -0.22 -1.25 156 165 162
10.14 -0.32 -1.25 153 164 160
10.39 -0.40 -1.44 153 164 160
