ply
format ascii 1.0
element vertex 1613
property float x
property float y
property float z
property uchar red
property uchar green
property uchar blue
end_header
-2.02 16.52 -1.16 133 132 130
-2.17 16.34 -1.01 133 131 132
-2.17 16.25 -1.01 132 131 129
-2.17 16.16 -1.01 132 131 129
-2.17 16.07 -1.01 132 131 127
-2.17 15.98 -1.01 133 132 128
-2.17 15.89 -1.01 136 133 128
-2.17 15.80 -1.01 137 134 129
-2.17 15.71 -1.01 137 132 126
-2.17 15.62 -1.01 137 132 126
-2.17 15.54 -1.01 138 133 127
-2.17 15.45 -1.01 137 132 126
-2.17 15.36 -1.01 139 132 126
-2.17 15.27 -1.01 139 132 126
-2.02 15.27 -1.16 140 133 127
-2.02 15.18 -1.16 141 133 130
-1.86 15.18 -1.32 135 130 126
-1.86 15.09 -1.32 136 131 128
-1.86 15.01 -1.32 137 132 129
-1.86 14.92 -1.32 137 132 129
-2.02 14.74 -1.16 136 131 128
-2.02 14.65 -1.16 137 132 129
-2.02 14.56 -1.16 138 133 130
-2.02 14.47 -1.16 142 134 132
-2.17 14.29 -1.01 142 134 132
-2.17 14.20 -1.01 140 132 129
-2.17 14.11 -1.01 139 131 128
-2.17 14.02 -1.01 139 131 128
-2.17 13.93 -1.01 139 131 128
-2.17 13.84 -1.01 139 131 128
-2.17 13.76 -1.01 139 131 128
-2.17 13.67 -1.01 136 133 128
-2.17 13.58 -1.01 136 133 128
-2.17 13.49 -1.01 135 132 127
-2.02 13.48 -1.16 136 133 128
-2.02 13.40 -1.16 137 134 129
-2.02 13.31 -1.16 137 134 129
-2.02 13.22 -1.16 136 133 128
-2.02 13.13 -1.16 135 132 127
-2.02 13.04 -1.16 134 131 126
-2.02 12.95 -1.16 135 132 127
-2.02 12.86 -1.16 134 133 129
-2.02 12.77 -1.16 134 133 129
-2.02 12.68 -1.16 133 132 128
-2.02 12.59 -1.16 132 131 127
-2.02 12.50 -1.16 136 135 131
-2.02 12.41 -1.16 135 131 130
-2.02 12.32 -1.16 136 132 131
-2.02 12.23 -1.16 136 132 131
-2.02 12.14 -1.16 137 133 132
-2.02 12.06 -1.16 136 132 133
-2.02 11.97 -1.16 135 131 132
-2.02 11.88 -1.16 134 130 131
-2.02 11.79 -1.16 134 130 131
-2.02 11.70 -1.16 132 128 127
-2.02 11.61 -1.16 132 128 127
-2.17 11.44 -1.01 131 130 126
-2.17 11.35 -1.01 131 130 126
-2.17 11.26 -1.01 131 130 125
-2.17 11.18 -1.01 130 129 124
-2.17 11.09 -1.01 129 128 123
-2.17 11.00 -1.01 128 127 122
-2.17 10.91 -1.01 128 127 122
-2.17 10.82 -1.01 128 127 122
-2.17 10.73 -1.01 127 127 119
-2.17 10.64 -1.01 127 127 119
-5.25 8.76 2.06 127 123 120
-5.25 8.68 2.06 116 115 111
-5.25 8.59 2.06 129 128 126
-5.25 8.51 2.06 149 149 149
-5.40 8.36 2.21 141 141 141
-5.40 8.28 2.21 158 158 160
-5.40 8.20 2.21 160 160 162
-5.40 8.12 2.21 161 163 162
-5.40 8.04 2.21 143 145 144
-5.40 7.95 2.21 105 105 107
-5.40 7.87 2.21 65 63 68
-5.40 7.79 2.21 51 49 54
-5.40 7.71 2.21 63 57 67
-5.40 7.63 2.21 71 63 74
-5.40 7.55 2.21 67 59 72
-5.40 7.47 2.21 80 72 85
-5.40 7.38 2.21 90 82 95
-5.40 7.30 2.21 91 85 97
-5.53 7.17 2.34 90 84 96
-5.53 7.09 2.34 86 85 93
-5.53 7.01 2.34 67 66 74
-5.53 6.92 2.34 73 74 79
-5.53 6.84 2.34 72 73 77
-5.53 6.76 2.34 173 175 172
-5.53 6.68 2.34 166 168 167
-5.53 6.60 2.34 147 149 148
-5.53 6.52 2.34 148 150 149
-5.53 6.44 2.34 158 160 159
-5.53 6.36 2.34 147 148 150
-5.53 6.28 2.34 146 147 149
-5.53 6.20 2.34 141 145 148
-5.53 6.11 2.34 142 146 149
-5.53 6.03 2.34 143 148 152
-5.66 5.90 2.47 144 149 153
-5.66 5.82 2.47 141 150 155
-5.66 5.74 2.47 140 149 154
-5.66 5.66 2.47 139 150 154
-5.66 5.58 2.47 139 150 156
-5.66 5.50 2.47 139 149 158
-5.66 5.42 2.47 138 148 158
-5.66 5.34 2.47 135 148 157
-5.66 5.26 2.47 135 148 157
-5.66 5.18 2.47 135 149 158
-5.66 5.09 2.47 136 150 159
-5.66 5.01 2.47 133 150 160
-5.66 4.93 2.47 132 149 159
-5.66 4.85 2.47 133 150 160
-5.79 4.73 2.60 134 151 161
-5.79 4.65 2.60 134 151 161
-5.79 4.57 2.60 133 150 160
-5.79 4.48 2.60 133 150 160
-5.79 4.40 2.60 137 151 162
-5.79 4.32 2.60 138 152 163
-5.79 4.24 2.60 134 152 164
-5.79 4.16 2.60 134 152 164
-5.79 4.08 2.60 134 152 164
-5.79 4.00 2.60 134 152 164
-5.79 3.92 2.60 134 152 164
-5.79 3.84 2.60 134 152 164
-5.66 3.80 2.47 134 152 164
-5.66 3.72 2.47 134 152 164
-5.79 3.60 2.60 135 153 165
-5.79 3.52 2.60 136 154 166
-5.79 3.44 2.60 136 154 168
-5.79 3.36 2.60 136 154 168
-5.79 3.28 2.60 136 154 168
-5.79 3.20 2.60 136 154 168
-5.79 3.12 2.60 136 154 168
-5.92 3.00 2.72 136 154 168
-5.92 2.92 2.72 137 155 167
-5.92 2.84 2.72 137 155 167
-5.92 2.76 2.72 139 157 169
-5.92 2.68 2.72 141 158 168
-5.79 2.63 2.60 140 154 163
-5.79 2.55 2.60 161 174 180
-5.66 2.51 2.47 164 174 176
-5.53 2.47 2.34 159 165 163
-5.40 2.42 2.21 182 184 179
-5.25 2.38 2.06 203 206 199
-5.12 2.34 1.93 197 198 190
-5.12 2.26 1.93 199 200 192
-4.86 2.25 1.68 198 199 193
-4.71 2.21 1.52 199 204 197
-4.58 2.16 1.39 198 200 195
-4.30 2.15 1.11 198 201 194
-4.15 2.11 0.96 198 199 193
-3.86 2.10 0.68 199 200 194
-3.71 2.05 0.52 199 200 194
-3.43 2.04 0.24 197 200 193
-2.97 2.07 -0.22 196 199 192
-2.97 1.99 -0.22 199 202 195
-2.81 1.94 -0.37 202 205 198
-2.66 1.89 -0.52 179 184 177
-2.35 1.88 -0.83 162 167 160
-2.35 1.79 -0.83 169 174 168
-2.17 1.74 -1.01 163 168 162
-2.02 1.69 -1.16 160 166 162
-2.02 1.60 -1.16 156 162 160
-2.02 1.51 -1.16 161 165 164
-2.02 1.42 -1.16 167 169 164
-2.02 1.33 -1.16 168 169 164
-2.02 1.24 -1.16 168 169 164
-2.02 1.15 -1.16 168 169 164
-1.86 1.10 -1.32 168 168 166
-1.86 1.01 -1.32 168 168 166
-2.02 0.89 -1.16 168 168 166
-2.02 0.80 -1.16 168 168 166
-2.02 0.71 -1.16 168 168 166
-2.02 0.62 -1.16 166 166 164
-2.02 0.53 -1.16 166 166 164
-2.02 0.44 -1.16 167 167 165
-2.02 0.35 -1.16 168 169 164
-2.02 0.26 -1.16 169 170 165
-2.02 0.17 -1.16 168 169 163
-2.02 0.08 -1.16 166 167 162
-2.02 -0.01 -1.16 166 168 163
-2.02 -0.10 -1.16 166 168 165
-2.02 -0.19 -1.16 165 167 164
-2.02 -0.28 -1.16 166 168 165
-2.02 -0.36 -1.16 166 168 167
-2.02 -0.45 -1.16 164 168 167
-2.02 -0.54 -1.16 163 167 166
-2.02 -0.63 -1.16 163 167 166
-2.02 -0.72 -1.16 163 167 166
-2.02 -0.81 -1.16 164 169 165
-2.02 -0.90 -1.16 164 169 165
-2.02 -0.99 -1.16 164 169 163
-2.02 -1.08 -1.16 164 169 163
-1.86 -1.14 -1.32 164 169 162
-1.86 -1.23 -1.32 165 170 163
-2.02 -1.35 -1.16 165 170 164
-2.02 -1.44 -1.16 164 169 163
-1.86 -1.50 -1.32 163 168 162
-1.86 -1.59 -1.32 162 167 161
-1.86 -1.68 -1.32 162 167 161
-2.02 -1.79 -1.16 162 167 161
-2.02 -1.88 -1.16 163 169 165
-2.02 -1.97 -1.16 164 170 166
-2.02 -2.06 -1.16 162 171 166
-2.02 -2.15 -1.16 162 171 166
-2.02 -2.24 -1.16 162 171 166
-2.02 -2.33 -1.16 162 171 166
-2.02 -2.42 -1.16 161 172 166
-2.02 -2.51 -1.16 160 171 165
-2.02 -2.60 -1.16 159 170 164
-2.02 -2.69 -1.16 160 171 165
-2.02 -2.78 -1.16 160 171 165
-2.02 -2.87 -1.16 161 172 166
-2.02 -2.96 -1.16 161 172 166
-2.02 -3.04 -1.16 161 170 165
-2.02 -3.13 -1.16 161 170 165
-2.02 -3.22 -1.16 161 170 165
-2.02 -3.49 -1.16 160 169 164
-2.02 -3.58 -1.16 160 169 164
-2.02 -3.67 -1.16 160 169 164
-2.02 -3.76 -1.16 163 169 165
-2.02 -3.85 -1.16 163 169 165
-2.02 -3.94 -1.16 163 169 165
-2.02 -4.03 -1.16 164 170 166
-2.02 -4.12 -1.16 162 171 168
-2.02 -4.21 -1.16 162 171 168
-2.02 -4.30 -1.16 161 170 167
-2.02 -4.39 -1.16 161 170 167
-2.02 -4.47 -1.16 161 170 167
-2.02 -4.56 -1.16 161 170 167
-2.02 -4.65 -1.16 162 171 168
-2.02 -4.74 -1.16 162 171 168
-2.02 -4.83 -1.16 162 171 168
-2.02 -4.92 -1.16 160 171 167
-2.02 -5.01 -1.16 160 171 167
-2.02 -5.10 -1.16 159 170 166
-2.02 -5.19 -1.16 159 170 166
-2.02 -5.28 -1.16 159 170 166
-2.02 -5.37 -1.16 158 169 165
-2.02 -5.64 -1.16 163 172 169
-2.02 -5.73 -1.16 163 172 169
-2.02 -5.81 -1.16 164 173 170
-2.17 -5.91 -1.01 164 173 170
-2.17 -6.00 -1.01 165 174 171
-2.17 -6.09 -1.01 165 174 171
-2.02 -6.17 -1.16 166 175 172
-2.02 -6.26 -1.16 166 175 172
-2.02 -6.35 -1.16 166 175 172
-2.02 -6.44 -1.16 165 174 171
-2.02 -6.53 -1.16 165 174 171
-2.02 -6.62 -1.16 165 174 171
-2.02 -6.71 -1.16 165 174 171
-2.02 -6.80 -1.16 165 174 171
-2.17 -6.89 -1.01 165 174 171
-2.17 -6.98 -1.01 165 174 171
-2.17 -7.07 -1.01 164 173 170
-2.17 -7.16 -1.01 165 174 171
-2.17 -7.24 -1.01 165 174 171
-2.17 -7.33 -1.01 165 176 172
-2.17 -7.42 -1.01 166 177 173
-2.17 -7.51 -1.01 165 176 170
-2.02 -7.60 -1.16 165 176 170
-2.02 -7.69 -1.16 166 175 170
-2.02 -7.78 -1.16 167 176 171
-2.02 -7.87 -1.16 167 176 171
-2.02 -7.96 -1.16 168 177 172
-2.02 -8.05 -1.16 168 177 172
-2.02 -8.14 -1.16 168 177 172
-2.02 -8.23 -1.16 168 178 170
-2.02 -8.32 -1.16 168 178 170
-2.02 -8.41 -1.16 169 179 171
-2.02 -8.50 -1.16 169 179 171
-2.02 -8.58 -1.16 169 178 173
-2.02 -8.67 -1.16 169 178 173
-2.02 -8.76 -1.16 169 178 173
-2.02 -8.85 -1.16 169 178 173
-2.02 -8.94 -1.16 170 179 174
-2.02 -9.03 -1.16 170 179 174
-2.02 -9.12 -1.16 169 178 173
-2.02 -9.21 -1.16 168 177 174
-2.02 -9.30 -1.16 167 176 173
-2.02 -9.39 -1.16 167 176 173
-2.02 -9.48 -1.16 168 177 174
-2.02 -9.57 -1.16 169 178 175
-1.86 -9.67 -1.32 171 180 177
-2.02 -9.75 -1.16 171 180 177
-2.02 -9.84 -1.16 169 178 175
-2.02 -9.92 -1.16 170 179 176
-2.02 -10.01 -1.16 172 181 178
-2.02 -10.10 -1.16 173 182 179
-2.17 -10.18 -1.01 172 181 178
-2.17 -10.27 -1.01 173 182 179
-2.17 -10.36 -1.01 173 182 179
-2.17 -10.45 -1.01 174 183 180
-2.17 -10.54 -1.01 174 183 180
-2.17 -10.63 -1.01 175 184 181
-2.17 -10.72 -1.01 175 184 181
-2.17 -10.80 -1.01 175 184 181
-2.02 -10.91 -1.16 175 184 181
-2.02 -11.00 -1.16 174 185 179
-2.02 -11.09 -1.16 174 185 181
-2.02 -11.18 -1.16 174 184 183
-2.02 -11.27 -1.16 174 184 185
-2.02 -11.35 -1.16 174 184 183
-2.02 -11.44 -1.16 174 185 181
-2.02 -11.53 -1.16 174 185 179
-2.02 -11.62 -1.16 164 176 166
-2.17 -11.69 -1.01 176 187 179
-2.02 -11.80 -1.16 174 185 181
-2.02 -11.89 -1.16 176 185 190
-2.02 -11.98 -1.16 217 224 240
-2.17 -12.05 -1.01 184 189 218
-2.17 -12.14 -1.01 83 87 124
-2.17 -12.23 -1.01 0 1 49
-2.17 -12.32 -1.01 0 0 53
-2.17 -12.41 -1.01 3 5 66
-2.17 -12.50 -1.01 13 22 77
-2.17 -12.58 -1.01 24 34 87
-2.17 -12.67 -1.01 30 36 88
-2.17 -12.76 -1.01 27 31 78
-2.17 -12.85 -1.01 0 1 40
-2.17 -12.94 -1.01 123 122 136
-2.17 -13.03 -1.01 255 241 211
-2.17 -13.12 -1.01 229 196 142
-2.35 -13.18 -0.83 223 184 117
-2.97 -13.17 -0.22 204 155 88
-2.50 -13.33 -0.68 164 120 57
-3.27 -13.30 0.09 141 115 58
-2.81 -13.46 -0.37 153 132 89
-2.81 -13.55 -0.37 143 122 95
-2.81 -13.63 -0.37 147 124 106
-2.97 -13.69 -0.22 201 183 161
-2.97 -13.78 -0.22 236 219 193
-2.97 -13.87 -0.22 230 215 182
-2.97 -13.96 -0.22 202 188 149
-2.97 -14.04 -0.22 187 173 128
-2.81 -14.16 -0.37 172 159 107
-2.81 -14.25 -0.37 180 165 106
-2.97 -14.30 -0.22 169 155 92
-2.81 -14.42 -0.37 174 163 97
-2.97 -14.48 -0.22 156 147 78
-2.97 -14.57 -0.22 152 145 77
-2.97 -14.65 -0.22 123 120 51
-2.97 -14.74 -0.22 87 86 19
-2.97 -14.83 -0.22 80 80 18
-2.97 -14.91 -0.22 87 85 36
-2.97 -15.00 -0.22 145 140 98
-2.97 -15.09 -0.22 171 164 120
-2.97 -15.17 -0.22 197 185 143
-2.97 -15.26 -0.22 189 174 131
-2.97 -15.35 -0.22 144 127 83
-2.97 -15.44 -0.22 88 71 28
-2.97 -15.52 -0.22 75 60 17
-2.97 -15.61 -0.22 146 131 92
-2.97 -15.70 -0.22 164 149 116
-2.97 -15.78 -0.22 183 168 139
-3.12 -15.84 -0.06 196 179 153
-3.12 -15.92 -0.06 149 131 107
-3.12 -16.01 -0.06 144 124 100
-3.12 -16.10 -0.06 171 153 133
-2.97 -16.22 -0.22 109 92 76
-2.81 -16.34 -0.37 148 134 123
-2.81 -16.43 -0.37 154 145 138
-2.81 -16.52 -0.37 6 1 0
-3.12 -16.53 -0.06 8 8 8
-2.17 -16.86 -1.01 7 11 14
-2.17 -16.94 -1.01 2 10 12
-2.17 -17.03 -1.01 1 11 13
-2.17 -17.12 -1.01 15 24 23
-2.17 -17.21 -1.01 30 36 36
-2.02 -17.34 -1.16 38 44 42
-2.02 -17.43 -1.16 39 43 42
-2.02 -17.52 -1.16 46 47 49
-2.02 -17.61 -1.16 35 36 40
-2.02 -17.70 -1.16 13 14 19
-2.02 -17.79 -1.16 8 8 10
-2.02 -17.88 -1.16 32 32 34
-2.02 -17.97 -1.16 78 78 80
-2.02 -18.06 -1.16 142 142 144
-2.02 -18.14 -1.16 206 206 208
-2.02 -18.23 -1.16 246 246 248
-2.17 -18.28 -1.01 250 250 250
-2.17 -18.37 -1.01 238 238 238
-2.17 -18.46 -1.01 207 207 207
-2.17 -18.55 -1.01 200 200 200
-2.17 -18.64 -1.01 199 199 197
-2.17 -18.72 -1.01 194 194 192
-2.17 -18.81 -1.01 194 194 192
-2.17 -18.90 -1.01 197 197 195
-2.17 -18.99 -1.01 193 193 191
-2.17 -19.08 -1.01 195 196 191
-2.17 -19.17 -1.01 196 197 191
-2.17 -19.26 -1.01 196 197 189
-2.17 -19.35 -1.01 196 197 191
-2.17 -19.44 -1.01 197 198 192
-2.17 -19.52 -1.01 198 199 194
-2.17 -19.61 -1.01 198 199 194
-2.17 -19.70 -1.01 199 200 195
-2.17 -19.79 -1.01 202 202 200
-2.17 -19.88 -1.01 204 204 202
-2.02 -20.02 -1.16 206 206 206
-2.17 -20.06 -1.01 207 207 207
-2.17 -20.15 -1.01 207 207 207
-2.17 -20.24 -1.01 208 208 208
-2.02 -20.38 -1.16 210 210 212
-2.02 -20.47 -1.16 211 211 213
-2.02 -20.56 -1.16 209 208 213
-2.02 -20.65 -1.16 209 208 213
-2.02 -20.74 -1.16 209 209 211
-2.17 -20.77 -1.01 210 210 212
-2.17 -20.86 -1.01 210 210 210
-2.17 -20.95 -1.01 210 210 210
-2.17 -21.04 -1.01 210 210 208
-2.17 -21.13 -1.01 210 210 208
-2.17 -21.22 -1.01 209 209 207
-2.17 -21.30 -1.01 210 210 208
-2.35 -21.33 -0.83 210 210 208
-2.35 -21.42 -0.83 211 211 209
-2.35 -21.50 -0.83 211 211 209
-2.35 -21.59 -0.83 211 211 209
-2.35 -21.68 -0.83 211 211 211
-2.17 -21.84 -1.01 213 213 213
-2.17 -21.93 -1.01 212 212 212
-2.17 -22.02 -1.01 211 211 213
-2.17 -22.11 -1.01 211 211 213
-2.17 -22.19 -1.01 212 212 214
-2.17 -22.28 -1.01 213 213 215
-2.17 -22.37 -1.01 212 211 216
-2.17 -22.46 -1.01 211 210 215
-2.17 -22.55 -1.01 211 211 213
-2.17 -22.64 -1.01 212 212 214
-2.17 -22.73 -1.01 212 212 212
-2.17 -22.82 -1.01 213 213 213
-2.17 -22.91 -1.01 213 213 211
-2.35 -22.92 -0.83 212 212 210
-2.35 -23.01 -0.83 212 212 210
-2.35 -23.10 -0.83 211 211 209
-2.35 -23.19 -0.83 209 209 209
-2.35 -23.28 -0.83 210 210 210
-2.35 -23.36 -0.83 210 210 210
-2.17 -23.53 -1.01 211 211 211
-2.17 -23.62 -1.01 211 211 211
-2.17 -23.71 -1.01 211 211 211
-2.17 -23.80 -1.01 211 211 211
-2.17 -23.89 -1.01 211 211 211
-2.17 -23.97 -1.01 211 211 211
-2.17 -24.06 -1.01 211 211 211
-2.17 -24.15 -1.01 212 212 212
-2.17 -24.24 -1.01 213 213 213
-2.17 -24.33 -1.01 213 213 213
-2.02 -24.49 -1.16 213 213 213
-2.02 -24.58 -1.16 212 212 212
-2.02 -24.67 -1.16 212 214 213
-2.02 -24.76 -1.16 212 214 213
-2.02 -24.85 -1.16 212 214 213
-2.02 -24.94 -1.16 211 213 212
-2.02 -25.02 -1.16 211 213 212
-2.17 -25.04 -1.01 211 213 212
-2.17 -25.13 -1.01 211 213 212
-2.17 -25.22 -1.01 212 214 213
-2.17 -25.31 -1.01 210 212 211
-2.17 -25.40 -1.01 210 212 211
-2.17 -25.49 -1.01 212 212 212
-2.17 -25.58 -1.01 211 211 211
-2.17 -25.67 -1.01 212 210 211
-2.17 -25.75 -1.01 212 210 211
-2.17 -25.84 -1.01 214 210 211
-2.17 -25.93 -1.01 213 209 210
-2.17 -26.02 -1.01 211 211 211
-2.17 -26.11 -1.01 210 210 210
-2.17 -26.20 -1.01 210 210 210
-2.17 -26.29 -1.01 211 211 211
-2.17 -26.38 -1.01 211 211 211
-2.17 -26.47 -1.01 212 210 211
-2.17 -26.55 -1.01 211 209 210
-2.17 -26.64 -1.01 211 209 210
-2.17 -26.73 -1.01 212 210 211
-2.17 -26.82 -1.01 214 212 213
-2.17 -26.91 -1.01 213 211 212
-2.17 -27.00 -1.01 215 211 212
-2.17 -27.09 -1.01 214 210 211
-2.17 -27.18 -1.01 215 211 212
-2.17 -27.27 -1.01 216 212 213
-2.17 -27.36 -1.01 218 214 215
-2.17 -27.44 -1.01 217 213 214
-2.17 -27.71 -1.01 218 214 215
-2.17 -27.80 -1.01 216 212 213
-2.17 -27.89 -1.01 216 212 213
-2.17 -27.98 -1.01 218 214 215
-2.17 -28.07 -1.01 219 215 216
-2.17 -28.16 -1.01 219 215 216
-2.17 -28.25 -1.01 219 215 216
-2.17 -28.33 -1.01 219 215 216
-2.17 -28.42 -1.01 220 216 217
-2.17 -28.51 -1.01 221 217 218
-2.17 -28.60 -1.01 221 217 218
-2.17 -28.69 -1.01 220 216 217
-2.17 -28.78 -1.01 220 216 217
-2.17 -28.87 -1.01 221 217 218
-2.17 -28.96 -1.01 222 218 219
-2.17 -29.05 -1.01 222 218 219
-2.17 -29.14 -1.01 223 219 220
-2.17 -29.22 -1.01 223 219 220
-2.17 -29.31 -1.01 223 219 220
-2.17 -29.40 -1.01 224 220 221
-2.17 -29.49 -1.01 227 223 224
-2.17 -29.58 -1.01 228 224 225
-2.17 -29.67 -1.01 226 222 223
-2.17 -29.76 -1.01 226 222 223
-2.17 -29.85 -1.01 226 222 223
-2.17 -29.94 -1.01 226 222 223
-2.17 -30.03 -1.01 224 220 221
-2.17 -30.11 -1.01 226 220 220
-2.17 -30.20 -1.01 224 218 218
-2.17 -30.29 -1.01 227 221 221
-2.17 -30.38 -1.01 222 216 216
-2.17 -30.47 -1.01 238 232 232
-2.35 -30.45 -0.83 212 206 208
-2.35 -30.54 -0.83 141 135 137
-2.35 -30.63 -0.83 107 101 105
-2.35 -30.71 -0.83 119 113 117
-2.35 -30.80 -0.83 113 107 111
-2.35 -30.89 -0.83 117 111 115
-2.22 21.41 -1.09 0 0 0
-2.22 21.32 -1.09 0 0 0
-2.22 21.23 -1.09 0 0 0
-2.22 21.14 -1.09 0 0 0
-2.22 21.05 -1.09 0 0 0
-2.22 20.96 -1.09 0 0 0
-2.22 20.87 -1.09 0 0 0
-2.22 20.79 -1.09 0 0 0
-2.22 20.70 -1.09 0 0 0
-2.22 20.61 -1.09 125 121 110
-2.22 20.52 -1.09 125 121 110
-2.22 20.43 -1.09 126 122 111
-2.22 20.34 -1.09 130 123 113
-2.22 20.25 -1.09 131 124 114
-2.22 20.16 -1.09 131 124 114
-2.22 20.07 -1.09 130 123 113
-2.22 19.98 -1.09 130 121 112
-2.06 20.01 -1.24 129 120 111
-2.06 19.92 -1.24 131 122 115
-2.06 19.83 -1.24 131 122 115
-2.22 19.63 -1.09 131 124 118
-2.22 19.54 -1.09 131 124 118
-2.22 19.45 -1.09 131 123 120
-2.22 19.36 -1.09 132 124 121
-2.22 19.27 -1.09 130 125 122
-2.22 19.18 -1.09 130 125 122
-2.22 19.09 -1.09 128 120 118
-2.22 19.01 -1.09 129 121 119
-2.22 18.92 -1.09 131 124 118
-2.22 18.83 -1.09 132 128 119
-2.06 18.85 -1.24 131 127 118
-2.06 18.76 -1.24 132 127 121
-2.06 18.67 -1.24 134 129 125
-2.06 18.58 -1.24 129 126 121
-2.06 18.49 -1.24 131 127 124
-2.06 18.40 -1.24 133 129 128
-2.06 18.31 -1.24 133 129 128
-2.06 18.22 -1.24 129 128 124
-2.06 18.13 -1.24 128 127 123
-2.06 18.04 -1.24 128 127 122
-2.06 17.95 -1.24 130 129 124
-2.06 17.86 -1.24 131 132 126
-2.06 17.77 -1.24 130 131 125
-2.06 17.68 -1.24 131 131 123
-2.06 17.24 -1.24 135 131 122
-2.06 17.15 -1.24 135 130 124
-2.06 17.06 -1.24 135 130 124
-2.06 16.97 -1.24 135 130 126
-2.06 16.88 -1.24 135 130 126
-2.06 16.79 -1.24 135 131 128
-2.22 16.60 -1.09 134 133 131
-2.22 16.51 -1.09 134 133 131
-2.22 16.43 -1.09 134 132 133
-2.22 16.34 -1.09 134 132 133
-2.22 16.25 -1.09 133 132 130
-2.22 16.16 -1.09 133 132 130
-2.22 16.07 -1.09 133 132 128
-2.40 15.87 -0.91 134 133 129
-2.40 15.78 -0.91 137 134 129
-2.40 15.69 -0.91 137 134 129
-2.40 15.60 -0.91 135 130 124
-2.40 15.51 -0.91 137 132 126
-2.22 15.54 -1.09 139 134 128
-2.22 15.45 -1.09 140 135 129
-2.22 15.36 -1.09 141 134 128
-2.22 15.27 -1.09 140 133 127
-2.22 15.18 -1.09 140 133 127
-2.22 15.09 -1.09 140 132 129
-2.22 15.00 -1.09 137 131 131
-2.06 15.00 -1.24 138 132 134
-2.06 14.91 -1.24 139 133 133
-2.06 14.83 -1.24 139 133 133
-2.06 14.74 -1.24 138 132 132
-2.22 14.56 -1.09 141 133 131
-2.22 14.47 -1.09 142 134 132
-2.22 14.38 -1.09 142 134 132
-2.22 14.29 -1.09 141 133 131
-2.22 14.20 -1.09 140 132 129
-2.22 14.11 -1.09 139 131 128
-2.22 14.02 -1.09 138 130 127
-2.22 13.93 -1.09 138 130 127
-2.22 13.84 -1.09 138 130 127
-2.22 13.76 -1.09 139 131 128
-2.22 13.67 -1.09 138 135 128
-2.22 13.58 -1.09 137 134 127
-2.22 13.49 -1.09 136 133 126
-2.22 13.40 -1.09 136 133 126
-2.22 13.31 -1.09 137 134 129
-2.22 13.22 -1.09 137 134 129
-2.22 13.13 -1.09 137 134 129
-2.22 13.04 -1.09 136 133 128
-2.22 12.95 -1.09 136 133 128
-2.22 12.87 -1.09 138 135 130
-2.22 12.78 -1.09 137 136 131
-2.22 12.69 -1.09 135 134 129
-2.22 12.60 -1.09 133 132 127
-2.22 12.51 -1.09 131 130 125
-2.06 12.50 -1.24 135 134 130
-2.06 12.41 -1.24 137 133 130
-2.22 12.24 -1.09 137 133 132
-2.22 12.15 -1.09 137 133 132
-2.06 12.14 -1.24 136 132 131
-2.06 12.06 -1.24 136 132 131
-2.22 11.89 -1.09 135 131 130
-2.22 11.80 -1.09 134 130 129
-2.22 11.71 -1.09 134 130 129
-2.22 11.62 -1.09 134 130 129
-2.22 11.53 -1.09 132 128 127
-2.22 11.44 -1.09 129 128 124
-2.22 11.35 -1.09 128 127 123
-2.22 11.26 -1.09 129 128 123
-2.22 11.18 -1.09 130 129 124
-2.22 11.09 -1.09 131 131 123
-2.22 11.00 -1.09 131 131 123
-2.22 10.91 -1.09 128 127 122
-2.22 10.82 -1.09 128 127 122
-2.22 10.73 -1.09 127 126 121
-2.22 10.64 -1.09 127 126 121
-5.29 8.76 1.99 120 117 112
-5.29 8.68 1.99 118 117 113
-5.29 8.59 1.99 120 119 115
-5.29 8.51 1.99 158 158 156
-5.29 8.43 1.99 153 153 151
-5.29 8.35 1.99 149 149 149
-5.29 8.27 1.99 151 151 151
-5.29 8.19 1.99 154 155 157
-5.29 8.10 1.99 157 158 160
-5.29 8.02 1.99 165 164 169
-5.29 7.94 1.99 157 156 162
-5.44 7.79 2.14 119 116 123
-5.44 7.71 2.14 75 72 83
-5.44 7.63 2.14 64 58 70
-5.44 7.55 2.14 75 69 83
-5.44 7.47 2.14 77 70 86
-5.44 7.38 2.14 97 90 106
-5.44 7.30 2.14 93 89 103
-5.44 7.22 2.14 80 76 90
-5.44 7.14 2.14 69 69 79
-5.44 7.06 2.14 62 62 72
-5.44 6.98 2.14 118 121 128
-5.44 6.90 2.14 162 165 170
-5.44 6.82 2.14 153 158 154
-5.57 6.68 2.27 150 155 151
-5.57 6.60 2.27 153 158 154
-5.57 6.52 2.27 146 150 149
-5.57 6.44 2.27 150 154 153
-5.57 6.36 2.27 143 147 148
-5.57 6.28 2.27 141 145 146
-5.57 6.20 2.27 140 145 148
-5.57 6.11 2.27 144 149 152
-5.57 6.03 2.27 144 152 155
-5.57 5.95 2.27 142 150 153
-5.57 5.87 2.27 139 150 154
-5.70 5.74 2.40 139 150 154
-5.70 5.66 2.40 136 150 153
-5.70 5.58 2.40 134 147 153
-5.57 5.55 2.27 136 149 158
-5.57 5.47 2.27 136 148 160
-5.57 5.38 2.27 136 148 160
-5.57 5.30 2.27 136 148 160
-5.70 5.18 2.40 136 150 161
-5.70 5.09 2.40 136 150 161
-5.70 5.01 2.40 132 149 159
-5.70 4.93 2.40 130 147 157
-5.70 4.85 2.40 134 151 161
-5.70 4.77 2.40 134 151 161
-5.70 4.69 2.40 133 150 160
-5.83 4.57 2.53 132 149 159
-5.83 4.48 2.53 133 150 160
-5.83 4.40 2.53 136 150 161
-5.83 4.32 2.53 136 153 163
-5.83 4.24 2.53 135 153 165
-5.83 4.16 2.53 133 153 164
-5.70 4.13 2.40 133 153 164
-5.70 4.05 2.40 133 153 164
-5.70 3.96 2.40 133 153 164
-5.70 3.88 2.40 134 154 165
-5.70 3.80 2.40 135 155 166
-5.70 3.72 2.40 135 155 166
-5.70 3.64 2.40 134 154 165
-5.70 3.56 2.40 134 154 165
-5.70 3.48 2.40 134 153 167
-5.83 3.36 2.53 135 154 168
-5.83 3.28 2.53 135 154 168
-5.83 3.20 2.53 135 154 168
-5.83 3.12 2.53 135 154 168
-5.83 3.04 2.53 135 154 168
-5.83 2.96 2.53 139 157 167
-5.96 2.84 2.66 139 157 167
-5.96 2.76 2.66 140 158 168
-5.83 2.72 2.53 141 158 166
-5.83 2.63 2.53 138 153 160
-5.83 2.55 2.53 158 172 175
-5.70 2.51 2.40 161 171 172
-5.57 2.47 2.27 159 165 163
-5.44 2.42 2.14 180 182 177
-5.29 2.38 1.99 204 207 200
-5.29 2.30 1.99 198 199 191
-5.03 2.29 1.73 200 201 193
-4.91 2.25 1.60 199 200 192
-4.75 2.21 1.45 198 203 196
-4.62 2.16 1.32 196 199 192
-4.34 2.15 1.04 200 203 196
-4.19 2.11 0.89 200 201 195
-3.91 2.10 0.60 201 202 194
-3.60 2.09 0.30 201 202 194
-3.47 2.04 0.17 199 202 193
-3.01 2.07 -0.29 196 199 190
-3.01 1.99 -0.29 198 201 192
-2.86 1.94 -0.45 201 204 195
-2.86 1.85 -0.45 164 169 162
-2.55 1.84 -0.75 163 168 161
-2.40 1.79 -0.91 168 173 167
-2.40 1.70 -0.91 161 166 160
-2.22 1.65 -1.09 159 165 161
-2.22 1.56 -1.09 161 167 163
-2.22 1.48 -1.09 156 161 157
-2.22 1.39 -1.09 166 169 162
-2.06 1.33 -1.24 166 167 161
-2.06 1.24 -1.24 166 167 161
-2.06 1.15 -1.24 167 168 162
-2.06 1.07 -1.24 168 169 164
-2.06 0.98 -1.24 169 170 165
-2.06 0.89 -1.24 168 168 166
-2.22 0.76 -1.09 166 166 164
-2.22 0.67 -1.09 167 167 165
-2.22 0.59 -1.09 166 166 164
-2.22 0.50 -1.09 166 166 164
-2.22 0.41 -1.09 167 167 165
-2.22 0.32 -1.09 169 169 167
-2.22 0.23 -1.09 169 169 167
-2.22 0.14 -1.09 168 169 164
-2.22 0.05 -1.09 166 166 164
-2.22 -0.04 -1.09 169 171 168
-2.22 -0.13 -1.09 167 169 168
-2.22 -0.22 -1.09 165 167 166
-2.22 -0.30 -1.09 165 167 166
-2.22 -0.39 -1.09 165 167 166
-2.22 -0.48 -1.09 163 167 168
-2.22 -0.57 -1.09 162 166 167
-2.22 -0.66 -1.09 161 165 164
-2.22 -0.75 -1.09 164 168 167
-2.22 -0.84 -1.09 166 171 167
-2.22 -0.93 -1.09 166 171 167
-2.22 -1.02 -1.09 164 169 163
-2.22 -1.10 -1.09 163 168 162
-2.06 -1.17 -1.24 165 170 164
-2.06 -1.26 -1.24 167 172 166
-2.06 -1.35 -1.24 163 168 161
-2.06 -1.44 -1.24 164 169 162
-2.06 -1.53 -1.24 165 170 164
-2.06 -1.62 -1.24 165 170 164
-2.06 -1.70 -1.24 165 170 164
-2.06 -1.79 -1.24 164 169 163
-2.06 -1.88 -1.24 163 170 163
-2.06 -1.97 -1.24 163 170 163
-2.06 -2.06 -1.24 163 169 165
-2.06 -2.15 -1.24 163 169 165
-2.06 -2.24 -1.24 161 170 167
-2.06 -2.33 -1.24 161 170 167
-2.06 -2.42 -1.24 160 171 167
-2.06 -2.51 -1.24 159 170 166
-2.22 -2.62 -1.09 158 169 165
-2.22 -2.71 -1.09 161 172 168
-2.22 -2.80 -1.09 160 171 167
-2.22 -2.88 -1.09 159 170 164
-2.22 -2.97 -1.09 160 171 165
-2.06 -3.04 -1.24 161 172 166
-2.06 -3.13 -1.24 162 173 167
-2.22 -3.24 -1.09 161 170 165
-2.06 -3.49 -1.24 160 169 164
-2.06 -3.58 -1.24 160 169 164
-2.06 -3.67 -1.24 161 170 165
-2.06 -3.76 -1.24 161 170 165
-2.06 -3.85 -1.24 161 170 165
-2.22 -3.95 -1.09 164 170 166
-2.22 -4.04 -1.09 164 170 166
-2.06 -4.12 -1.24 162 171 166
-2.06 -4.21 -1.24 162 171 166
-2.06 -4.30 -1.24 161 170 165
-2.06 -4.39 -1.24 160 169 164
-2.06 -4.47 -1.24 160 169 164
-2.06 -4.56 -1.24 161 170 165
-2.06 -4.65 -1.24 161 170 165
-2.06 -4.74 -1.24 163 172 167
-2.06 -4.83 -1.24 162 171 166
-2.06 -4.92 -1.24 161 172 166
-2.06 -5.01 -1.24 161 172 166
-2.06 -5.10 -1.24 160 171 165
-2.06 -5.19 -1.24 161 172 166
-2.06 -5.28 -1.24 161 172 166
-2.06 -5.37 -1.24 161 172 166
-2.06 -5.64 -1.24 163 172 169
-2.06 -5.73 -1.24 163 172 169
-2.22 -5.82 -1.09 164 173 170
-2.22 -5.91 -1.09 164 173 170
-2.22 -6.00 -1.09 164 173 170
-2.22 -6.09 -1.09 164 173 170
-2.22 -6.18 -1.09 166 175 172
-2.22 -6.27 -1.09 166 175 172
-2.22 -6.36 -1.09 165 174 171
-2.22 -6.44 -1.09 165 174 171
-2.22 -6.53 -1.09 164 173 170
-2.22 -6.62 -1.09 164 173 170
-2.22 -6.71 -1.09 165 174 171
-2.22 -6.80 -1.09 165 174 171
-2.22 -6.89 -1.09 164 173 170
-2.22 -6.98 -1.09 164 173 170
-2.22 -7.07 -1.09 164 173 170
-2.22 -7.16 -1.09 163 174 170
-2.22 -7.24 -1.09 164 175 171
-2.22 -7.33 -1.09 165 176 172
-2.22 -7.42 -1.09 166 177 173
-2.22 -7.51 -1.09 165 176 170
-2.22 -7.60 -1.09 166 177 171
-2.06 -7.69 -1.24 167 178 172
-2.06 -7.78 -1.24 167 178 172
-2.22 -7.87 -1.09 168 177 172
-2.06 -7.96 -1.24 168 177 172
-2.06 -8.05 -1.24 167 176 171
-2.06 -8.14 -1.24 166 175 170
-2.06 -8.23 -1.24 168 178 170
-2.22 -8.31 -1.09 169 179 171
-2.22 -8.40 -1.09 169 179 171
-2.22 -8.49 -1.09 170 180 172
-2.22 -8.58 -1.09 170 180 172
-2.22 -8.67 -1.09 170 180 172
-2.22 -8.76 -1.09 170 179 174
-2.22 -8.85 -1.09 170 179 174
-2.22 -8.94 -1.09 170 179 174
-2.22 -9.02 -1.09 170 179 174
-2.22 -9.11 -1.09 169 178 173
-2.06 -9.21 -1.24 168 177 174
-2.06 -9.30 -1.24 168 177 174
-2.06 -9.39 -1.24 168 177 174
-2.06 -9.48 -1.24 169 178 175
-2.06 -9.57 -1.24 168 177 174
-2.06 -9.66 -1.24 171 180 177
-2.06 -9.75 -1.24 172 181 178
-2.06 -9.84 -1.24 172 181 178
-2.22 -9.91 -1.09 171 180 177
-2.22 -10.00 -1.09 172 181 178
-2.22 -10.09 -1.09 170 179 176
-2.22 -10.18 -1.09 167 176 173
-2.22 -10.27 -1.09 173 182 179
-2.22 -10.36 -1.09 173 182 179
-2.22 -10.45 -1.09 174 183 180
-2.22 -10.54 -1.09 174 183 180
-2.22 -10.63 -1.09 174 183 180
-2.22 -10.72 -1.09 174 183 180
-2.22 -10.80 -1.09 173 182 179
-2.22 -10.89 -1.09 173 182 179
-2.22 -10.98 -1.09 173 184 180
-2.22 -11.07 -1.09 173 184 180
-2.22 -11.16 -1.09 174 184 183
-2.22 -11.25 -1.09 174 184 183
-2.22 -11.34 -1.09 174 185 181
-2.22 -11.43 -1.09 173 184 178
-2.22 -11.52 -1.09 172 183 175
-2.22 -11.61 -1.09 176 188 176
-2.22 -11.69 -1.09 163 174 166
-2.22 -11.78 -1.09 172 183 179
-2.22 -11.87 -1.09 204 213 222
-2.22 -11.96 -1.09 153 159 181
-2.22 -12.05 -1.09 6 10 47
-2.22 -12.14 -1.09 3 5 54
-2.22 -12.23 -1.09 2 2 62
-2.22 -12.32 -1.09 21 20 88
-2.22 -12.41 -1.09 28 28 98
-2.22 -12.50 -1.09 24 34 96
-2.22 -12.58 -1.09 27 37 96
-2.22 -12.67 -1.09 27 32 87
-2.22 -12.76 -1.09 12 18 66
-2.22 -12.85 -1.09 0 4 44
-2.22 -12.94 -1.09 200 202 215
-2.40 -13.00 -0.91 250 231 198
-2.40 -13.09 -0.91 223 189 128
-2.55 -13.16 -0.75 231 192 123
-2.86 -13.20 -0.45 184 135 69
-3.01 -13.26 -0.29 158 113 56
-3.16 -13.32 -0.14 149 123 72
-3.32 -13.38 0.01 155 137 99
-3.32 -13.47 0.01 140 123 103
-3.32 -13.55 0.01 90 74 58
-3.32 -13.64 0.01 81 69 43
-3.32 -13.73 0.01 101 91 56
-3.32 -13.81 0.01 155 147 101
-3.16 -13.93 -0.14 219 212 160
-3.01 -14.04 -0.29 255 252 199
-3.01 -14.13 -0.29 255 246 194
-3.01 -14.22 -0.29 225 213 163
-3.01 -14.30 -0.29 196 182 135
-3.01 -14.39 -0.29 177 164 119
-3.01 -14.48 -0.29 163 150 105
-3.01 -14.57 -0.29 151 144 92
-3.01 -14.65 -0.29 157 152 97
-3.01 -14.74 -0.29 165 163 104
-3.01 -14.83 -0.29 153 153 93
-3.01 -14.91 -0.29 139 136 83
-3.01 -15.00 -0.29 123 117 69
-3.01 -15.09 -0.29 80 73 27
-3.16 -15.14 -0.14 53 41 0
-3.16 -15.23 -0.14 190 175 136
-3.16 -15.32 -0.14 228 210 172
-3.16 -15.40 -0.14 252 234 198
-3.16 -15.49 -0.14 228 214 179
-3.16 -15.58 -0.14 185 170 139
-3.16 -15.66 -0.14 143 127 102
-3.16 -15.75 -0.14 93 76 56
-3.32 -15.80 0.01 86 69 51
-3.32 -15.89 0.01 111 94 78
-3.32 -15.97 0.01 149 130 113
-3.32 -16.06 0.01 166 147 133
-3.32 -16.15 0.01 163 146 136
-3.01 -16.31 -0.29 190 175 170
-3.01 -16.39 -0.29 94 84 83
-3.16 -16.44 -0.14 4 0 0
-3.16 -16.53 -0.14 12 13 18
-2.86 -16.69 -0.45 0 5 11
-2.55 -16.86 -0.75 1 8 14
-2.40 -16.99 -0.91 0 10 12
-2.22 -17.12 -1.09 9 19 18
-2.22 -17.21 -1.09 13 22 17
-2.22 -17.30 -1.09 22 29 22
-2.22 -17.39 -1.09 30 35 28
-2.22 -17.48 -1.09 36 38 33
-2.06 -17.61 -1.24 37 39 36
-2.06 -17.70 -1.24 39 40 42
-2.22 -17.75 -1.09 39 39 41
-2.06 -17.88 -1.24 25 24 29
-2.06 -17.97 -1.24 13 13 15
-2.06 -18.06 -1.24 8 8 10
-2.22 -18.10 -1.09 12 12 14
-2.22 -18.19 -1.09 42 42 44
-2.22 -18.28 -1.09 111 111 113
-2.22 -18.37 -1.09 175 175 177
-2.22 -18.46 -1.09 216 216 216
-2.22 -18.55 -1.09 208 208 208
-2.22 -18.64 -1.09 204 204 204
-2.22 -18.72 -1.09 196 196 196
-2.22 -18.81 -1.09 194 194 194
-2.40 -18.85 -0.91 197 197 197
-2.22 -18.99 -1.09 193 193 191
-2.22 -19.08 -1.09 195 195 193
-2.22 -19.17 -1.09 196 197 191
-2.22 -19.26 -1.09 196 197 191
-2.22 -19.35 -1.09 197 198 192
-2.22 -19.44 -1.09 197 198 192
-2.22 -19.52 -1.09 198 199 194
-2.22 -19.61 -1.09 199 200 195
-2.22 -19.70 -1.09 200 200 198
-2.22 -19.79 -1.09 201 201 201
-2.22 -19.88 -1.09 203 203 203
-2.22 -19.97 -1.09 205 205 205
-2.22 -20.06 -1.09 206 206 206
-2.22 -20.15 -1.09 206 206 208
-2.22 -20.24 -1.09 206 206 208
-2.22 -20.33 -1.09 208 208 210
-2.22 -20.41 -1.09 209 209 211
-2.22 -20.50 -1.09 210 210 212
-2.22 -20.59 -1.09 210 210 212
-2.22 -20.68 -1.09 210 210 210
-2.22 -20.77 -1.09 209 209 209
-2.22 -20.86 -1.09 209 209 207
-2.22 -20.95 -1.09 210 210 208
-2.22 -21.04 -1.09 210 211 206
-2.40 -21.06 -0.91 210 211 206
-2.40 -21.15 -0.91 210 211 206
-2.40 -21.24 -0.91 211 212 207
-2.40 -21.33 -0.91 211 212 207
-2.40 -21.42 -0.91 211 212 207
-2.40 -21.50 -0.91 211 211 209
-2.40 -21.59 -0.91 210 210 208
-2.40 -21.68 -0.91 209 209 207
-2.40 -21.77 -0.91 211 211 211
-2.40 -21.86 -0.91 210 210 210
-2.22 -22.02 -1.09 209 209 211
-2.40 -22.04 -0.91 210 210 212
-2.40 -22.12 -0.91 211 210 215
-2.40 -22.21 -0.91 211 210 215
-2.40 -22.30 -0.91 211 210 215
-2.40 -22.39 -0.91 210 209 214
-2.40 -22.48 -0.91 210 210 212
-2.40 -22.57 -0.91 210 210 212
-2.40 -22.66 -0.91 211 211 213
-2.40 -22.74 -0.91 212 212 214
-2.40 -22.83 -0.91 212 212 210
-2.40 -22.92 -0.91 211 211 209
-2.40 -23.01 -0.91 210 211 206
-2.40 -23.10 -0.91 210 210 208
-2.40 -23.19 -0.91 210 210 208
-2.40 -23.28 -0.91 211 211 211
-2.40 -23.36 -0.91 211 211 211
-2.40 -23.45 -0.91 212 212 212
-2.40 -23.54 -0.91 212 212 212
-2.22 -23.71 -1.09 211 211 211
-2.22 -23.80 -1.09 212 212 212
-2.22 -23.89 -1.09 212 212 212
-2.22 -23.97 -1.09 210 210 210
-2.22 -24.06 -1.09 209 209 209
-2.22 -24.15 -1.09 211 211 211
-2.22 -24.24 -1.09 213 213 213
-2.22 -24.33 -1.09 214 214 214
-2.22 -24.42 -1.09 214 214 214
-2.22 -24.51 -1.09 213 213 213
-2.22 -24.60 -1.09 211 213 212
-2.22 -24.69 -1.09 212 214 213
-2.22 -24.78 -1.09 212 214 213
-2.22 -24.86 -1.09 212 214 213
-2.22 -24.95 -1.09 211 213 212
-2.22 -25.04 -1.09 210 212 211
-2.22 -25.13 -1.09 210 212 211
-2.22 -25.22 -1.09 210 212 211
-2.22 -25.31 -1.09 212 214 213
-2.22 -25.40 -1.09 211 213 212
-2.22 -25.49 -1.09 212 212 212
-2.22 -25.58 -1.09 212 212 212
-2.22 -25.67 -1.09 212 210 211
-2.22 -25.75 -1.09 211 209 210
-2.22 -25.84 -1.09 212 208 209
-2.22 -25.93 -1.09 212 208 209
-2.22 -26.02 -1.09 211 211 211
-2.40 -26.02 -0.91 210 210 210
-2.40 -26.11 -0.91 212 212 212
-2.40 -26.20 -0.91 213 213 213
-2.40 -26.29 -0.91 213 213 213
-2.40 -26.37 -0.91 211 211 211
-2.40 -26.46 -0.91 209 209 209
-2.40 -26.55 -0.91 211 209 210
-2.40 -26.64 -0.91 214 212 213
-2.40 -26.73 -0.91 217 215 216
-2.40 -26.82 -0.91 216 214 215
-2.40 -26.91 -0.91 215 211 212
-2.40 -26.99 -0.91 214 210 211
-2.40 -27.08 -0.91 216 212 213
-2.40 -27.17 -0.91 219 215 216
-2.40 -27.26 -0.91 216 212 213
-2.40 -27.35 -0.91 216 212 213
-2.40 -27.61 -0.91 217 213 214
-2.40 -27.70 -0.91 215 211 212
-2.22 -27.89 -1.09 217 213 214
-2.22 -27.98 -1.09 220 216 217
-2.22 -28.07 -1.09 220 216 217
-2.22 -28.16 -1.09 220 216 217
-2.22 -28.25 -1.09 219 215 216
-2.22 -28.33 -1.09 220 216 217
-2.22 -28.42 -1.09 221 217 218
-2.22 -28.51 -1.09 222 218 219
-2.22 -28.60 -1.09 222 218 219
-2.22 -28.69 -1.09 221 217 218
-2.22 -28.78 -1.09 221 217 218
-2.40 -28.77 -0.91 222 218 219
-2.40 -28.85 -0.91 222 218 219
-2.40 -28.94 -0.91 222 218 219
-2.40 -29.03 -0.91 221 217 218
-2.40 -29.12 -0.91 219 215 216
-2.40 -29.21 -0.91 218 214 215
-2.22 -29.40 -1.09 220 216 217
-2.22 -29.49 -1.09 223 219 220
-2.22 -29.58 -1.09 224 220 221
-2.40 -29.56 -0.91 224 220 221
-2.40 -29.65 -0.91 224 220 221
-2.40 -29.74 -0.91 225 221 222
-2.40 -29.83 -0.91 225 221 222
-2.40 -29.92 -0.91 224 220 221
-2.22 -30.11 -1.09 226 220 220
-2.22 -30.20 -1.09 226 220 220
-2.22 -30.29 -1.09 229 223 223
-2.40 -30.27 -0.91 220 214 214
-2.40 -30.36 -0.91 238 232 232
-2.40 -30.45 -0.91 219 213 215
-2.40 -30.54 -0.91 152 146 148
-2.40 -30.63 -0.91 103 97 101
-2.40 -30.71 -0.91 115 109 113
-2.40 -30.80 -0.91 113 107 111
-2.40 -30.89 -0.91 123 117 121
-2.26 21.41 -1.16 0 0 0
-2.26 21.32 -1.16 0 0 0
-2.26 21.23 -1.16 0 0 0
-2.26 21.14 -1.16 0 0 0
-2.26 21.05 -1.16 0 0 0
-2.26 20.96 -1.16 0 0 0
-2.26 20.87 -1.16 0 0 0
-2.26 20.79 -1.16 0 0 0
-2.26 20.70 -1.16 0 0 0
-2.26 20.61 -1.16 125 123 108
-2.26 20.52 -1.16 125 123 108
-2.26 20.43 -1.16 124 122 107
-2.26 20.34 -1.16 125 121 109
-2.26 20.25 -1.16 128 122 110
-2.26 20.16 -1.16 130 123 113
-2.26 20.07 -1.16 131 122 113
-2.26 19.98 -1.16 130 121 114
-2.26 19.90 -1.16 129 120 113
-2.26 19.81 -1.16 132 123 118
-2.26 19.72 -1.16 131 122 117
-2.26 19.63 -1.16 129 124 120
-2.26 19.54 -1.16 130 125 121
-2.26 19.45 -1.16 126 125 121
-2.26 19.36 -1.16 124 123 119
-2.26 19.27 -1.16 124 124 122
-2.26 19.18 -1.16 128 126 127
-2.26 19.09 -1.16 127 121 123
-2.26 19.01 -1.16 131 122 127
-2.26 18.92 -1.16 133 124 127
-2.26 18.83 -1.16 130 125 122
-2.26 18.74 -1.16 128 123 120
-2.26 18.65 -1.16 128 123 119
-2.26 18.56 -1.16 128 123 119
-2.26 18.47 -1.16 128 123 119
-2.26 18.38 -1.16 129 124 120
-2.11 18.40 -1.32 131 126 123
-2.11 18.31 -1.32 132 127 124
-2.11 18.22 -1.32 130 126 125
-2.26 18.03 -1.16 131 127 126
-2.26 17.94 -1.16 132 128 129
-2.26 17.85 -1.16 133 129 130
-2.26 17.76 -1.16 130 126 125
-2.11 17.77 -1.32 129 125 124
-2.11 17.68 -1.32 130 125 122
-2.26 17.49 -1.16 132 127 124
-2.26 17.40 -1.16 134 127 121
-2.11 17.24 -1.32 132 125 117
-2.11 17.15 -1.32 138 132 120
-2.11 17.06 -1.32 138 132 120
-2.11 16.97 -1.32 136 132 120
-2.11 16.88 -1.32 136 132 120
-2.11 16.79 -1.32 135 133 120
-2.26 16.60 -1.16 131 132 118
-2.26 16.51 -1.16 130 130 118
-2.26 16.43 -1.16 127 127 115
-2.26 16.34 -1.16 127 127 119
-2.26 16.25 -1.16 131 128 123
-2.26 16.16 -1.16 134 130 129
-2.44 15.96 -0.99 137 131 133
-2.44 15.87 -0.99 135 129 133
-2.44 15.78 -0.99 137 128 129
-2.44 15.69 -0.99 138 130 128
-2.44 15.60 -0.99 137 128 123
-2.44 15.51 -0.99 138 129 122
-2.44 15.43 -0.99 139 131 120
-2.44 15.34 -0.99 140 131 122
-2.44 15.25 -0.99 139 132 124
-2.44 15.16 -0.99 139 131 128
-2.44 15.07 -0.99 139 131 129
-2.44 14.98 -0.99 140 131 132
-2.26 15.00 -1.16 139 133 135
-2.26 14.91 -1.16 136 130 132
-2.11 14.91 -1.32 136 130 130
-2.11 14.83 -1.32 138 132 132
-2.26 14.65 -1.16 139 134 131
-2.26 14.56 -1.16 139 134 130
-2.26 14.47 -1.16 140 135 131
-2.26 14.38 -1.16 137 132 126
-2.44 14.19 -0.99 137 132 126
-2.44 14.10 -0.99 138 133 127
-2.44 14.01 -0.99 139 134 128
-2.44 13.92 -0.99 139 134 130
-2.44 13.83 -0.99 139 134 130
-2.26 13.84 -1.16 138 133 129
-2.26 13.76 -1.16 138 133 130
-2.26 13.67 -1.16 137 136 134
-2.26 13.58 -1.16 138 136 137
-2.26 13.49 -1.16 138 136 137
-2.26 13.40 -1.16 136 134 135
-2.26 13.31 -1.16 135 133 134
-2.26 13.22 -1.16 136 134 135
-2.26 13.13 -1.16 137 133 132
-2.26 13.04 -1.16 135 131 130
-2.26 12.95 -1.16 136 132 131
-2.26 12.87 -1.16 135 131 130
-2.26 12.78 -1.16 135 131 128
-2.26 12.69 -1.16 136 132 129
-2.26 12.60 -1.16 138 133 130
-2.26 12.51 -1.16 137 132 129
-2.26 12.42 -1.16 138 132 132
-2.26 12.33 -1.16 135 131 130
-2.26 12.24 -1.16 135 131 132
-2.26 12.15 -1.16 136 132 133
-2.26 12.07 -1.16 136 132 133
-2.26 11.98 -1.16 136 132 133
-2.26 11.89 -1.16 136 132 133
-2.26 11.80 -1.16 136 132 133
-2.26 11.71 -1.16 136 132 133
-2.26 11.62 -1.16 134 130 131
-2.26 11.53 -1.16 135 131 132
-2.26 11.44 -1.16 135 131 132
-2.26 11.35 -1.16 135 131 132
-2.26 11.26 -1.16 134 130 131
-2.26 11.18 -1.16 132 128 129
-2.26 11.09 -1.16 131 127 128
-2.26 11.00 -1.16 130 126 125
-2.26 10.91 -1.16 128 125 118
-2.26 10.82 -1.16 129 126 117
-2.26 10.73 -1.16 129 126 117
-2.26 10.64 -1.16 128 125 116
-5.20 8.82 1.79 123 123 115
-5.20 8.74 1.79 126 126 118
-5.33 8.59 1.92 122 121 117
-5.33 8.51 1.92 144 143 139
-5.33 8.43 1.92 161 160 158
-5.33 8.35 1.92 148 148 148
-5.33 8.27 1.92 147 147 147
-5.33 8.19 1.92 151 153 152
-5.33 8.10 1.92 149 151 150
-5.33 8.02 1.92 151 153 152
-5.33 7.94 1.92 159 161 160
-5.33 7.86 1.92 168 170 169
-5.33 7.78 1.92 161 163 162
-5.33 7.70 1.92 133 135 134
-5.33 7.61 1.92 105 107 106
-5.33 7.53 1.92 81 85 86
-5.33 7.45 1.92 78 82 83
-5.33 7.37 1.92 70 74 77
-5.48 7.22 2.07 69 73 76
-5.48 7.14 2.07 98 101 106
-5.48 7.06 2.07 145 148 153
-5.48 6.98 2.07 166 169 176
-5.48 6.90 2.07 158 158 166
-5.48 6.82 2.07 153 152 158
-5.48 6.73 2.07 150 154 155
-5.48 6.65 2.07 150 154 153
-5.48 6.57 2.07 150 160 152
-5.48 6.49 2.07 141 150 145
-5.48 6.41 2.07 132 141 136
-5.61 6.28 2.20 143 148 151
-5.61 6.20 2.20 141 146 152
-5.61 6.11 2.20 139 141 154
-5.61 6.03 2.20 157 159 174
-5.61 5.95 2.20 153 154 172
-5.61 5.87 2.20 150 156 170
-5.61 5.79 2.20 142 148 162
-5.61 5.71 2.20 139 149 158
-5.61 5.63 2.20 136 146 155
-5.61 5.55 2.20 136 151 156
-5.61 5.47 2.20 133 148 153
-5.61 5.38 2.20 133 148 155
-5.61 5.30 2.20 136 151 158
-5.61 5.22 2.20 135 150 157
-5.61 5.14 2.20 132 147 154
-5.61 5.06 2.20 131 145 154
-5.74 4.93 2.33 134 148 157
-5.74 4.85 2.33 133 150 160
-5.74 4.77 2.33 134 150 163
-5.74 4.69 2.33 134 150 163
-5.74 4.61 2.33 134 150 163
-5.74 4.53 2.33 134 150 163
-5.74 4.45 2.33 133 149 164
-5.74 4.37 2.33 132 148 163
-5.74 4.29 2.33 134 150 165
-5.74 4.21 2.33 135 151 166
-5.74 4.13 2.33 136 152 167
-5.74 4.05 2.33 136 152 167
-5.74 3.96 2.33 136 152 165
-5.74 3.88 2.33 136 152 165
-5.74 3.80 2.33 135 153 165
-5.74 3.72 2.33 136 154 166
-5.74 3.64 2.33 134 154 165
-5.74 3.56 2.33 134 154 165
-5.74 3.48 2.33 134 154 165
-5.74 3.40 2.33 136 156 167
-5.74 3.32 2.33 135 158 166
-5.87 3.20 2.46 135 158 166
-5.87 3.12 2.46 134 157 165
-5.87 3.04 2.46 132 155 163
-5.87 2.96 2.46 138 158 167
-5.87 2.88 2.46 133 153 162
-5.87 2.80 2.46 138 158 165
-5.87 2.72 2.46 136 155 161
-5.87 2.63 2.46 140 157 164
-5.87 2.55 2.46 155 168 174
-5.74 2.51 2.33 163 172 177
-5.61 2.47 2.20 163 168 172
-5.48 2.42 2.07 171 172 174
-5.33 2.38 1.92 206 206 206
-5.33 2.30 1.92 200 199 197
-5.07 2.29 1.66 197 198 192
-4.95 2.25 1.53 200 201 195
-4.79 2.21 1.38 198 201 192
-4.67 2.16 1.25 198 199 193
-4.23 2.19 0.81 202 203 197
-4.23 2.11 0.81 198 197 193
-3.95 2.10 0.53 197 198 193
-3.64 2.09 0.22 202 203 198
-3.51 2.04 0.09 189 194 188
-3.05 2.07 -0.37 198 203 197
-3.05 1.99 -0.37 194 201 194
-2.90 1.94 -0.52 187 194 187
-2.90 1.85 -0.52 162 169 162
-2.75 1.80 -0.68 164 171 164
-2.59 1.75 -0.83 166 173 166
-2.44 1.70 -0.99 164 171 164
-2.44 1.61 -0.99 158 165 158
-2.26 1.56 -1.16 159 164 158
-2.26 1.48 -1.16 160 165 159
-2.26 1.39 -1.16 159 165 155
-2.26 1.30 -1.16 162 168 158
-2.26 1.21 -1.16 165 171 161
-2.26 1.12 -1.16 167 173 163
-2.26 1.03 -1.16 167 172 165
-2.26 0.94 -1.16 166 171 164
-2.26 0.85 -1.16 166 171 165
-2.26 0.76 -1.16 166 171 165
-2.26 0.67 -1.16 166 171 165
-2.26 0.59 -1.16 164 169 163
-2.26 0.50 -1.16 161 167 163
-2.26 0.41 -1.16 161 167 163
-2.26 0.32 -1.16 162 168 166
-2.26 0.23 -1.16 163 169 167
-2.26 0.14 -1.16 162 168 166
-2.26 0.05 -1.16 160 166 164
-2.26 -0.04 -1.16 163 169 167
-2.26 -0.13 -1.16 163 169 167
-2.26 -0.22 -1.16 162 168 166
-2.26 -0.30 -1.16 163 169 167
-2.26 -0.39 -1.16 161 170 167
-2.26 -0.48 -1.16 160 169 166
-2.26 -0.57 -1.16 159 168 165
-2.26 -0.66 -1.16 158 169 165
-2.26 -0.75 -1.16 158 169 165
-2.26 -0.84 -1.16 160 171 167
-2.26 -0.93 -1.16 161 172 168
-2.26 -1.02 -1.16 161 172 168
-2.26 -1.10 -1.16 161 172 168
-2.26 -1.19 -1.16 161 172 168
-2.26 -1.28 -1.16 160 171 167
-2.26 -1.37 -1.16 161 170 167
-2.26 -1.46 -1.16 160 169 166
-2.26 -1.55 -1.16 160 169 166
-2.26 -1.64 -1.16 160 169 166
-2.11 -1.70 -1.32 161 170 167
-2.11 -1.79 -1.32 161 170 167
-2.11 -1.88 -1.32 160 169 166
-2.11 -1.97 -1.32 160 169 166
-2.11 -2.06 -1.32 160 169 164
-2.11 -2.15 -1.32 160 169 164
-2.11 -2.24 -1.32 160 169 164
-2.26 -2.35 -1.16 159 168 163
-2.26 -2.44 -1.16 159 168 163
-2.26 -2.53 -1.16 159 168 163
-2.26 -2.62 -1.16 159 168 163
-2.26 -2.71 -1.16 159 170 166
-2.26 -2.80 -1.16 159 170 166
-2.26 -2.88 -1.16 161 170 167
-2.26 -2.97 -1.16 161 170 167
-2.26 -3.06 -1.16 161 170 167
-2.26 -3.15 -1.16 161 170 167
-2.26 -3.24 -1.16 160 169 166
-2.26 -3.33 -1.16 160 169 166
-2.26 -3.42 -1.16 161 170 167
-2.11 -3.49 -1.32 160 169 166
-2.26 -3.60 -1.16 160 169 166
-2.26 -3.69 -1.16 160 169 166
-2.26 -3.77 -1.16 161 170 167
-2.26 -3.86 -1.16 161 170 167
-2.26 -3.95 -1.16 161 170 167
-2.26 -4.04 -1.16 161 170 167
-2.26 -4.13 -1.16 162 173 169
-2.11 -4.21 -1.32 162 173 169
-2.11 -4.30 -1.32 162 173 169
-2.26 -4.40 -1.16 162 173 169
-2.26 -4.49 -1.16 162 173 169
-2.26 -4.58 -1.16 162 173 169
-2.26 -4.66 -1.16 163 172 169
-2.26 -4.75 -1.16 165 174 171
-2.11 -4.83 -1.32 163 172 169
-2.11 -4.92 -1.32 162 171 168
-2.11 -5.01 -1.32 161 170 167
-2.26 -5.11 -1.16 164 170 168
-2.26 -5.20 -1.16 166 172 170
-2.26 -5.29 -1.16 167 173 171
-2.26 -5.38 -1.16 167 173 171
-2.26 -5.82 -1.16 161 170 167
-2.26 -5.91 -1.16 162 171 168
-2.26 -6.00 -1.16 166 172 170
-2.26 -6.09 -1.16 167 173 171
-2.26 -6.18 -1.16 166 172 170
-2.26 -6.27 -1.16 166 172 170
-2.26 -6.36 -1.16 167 171 170
-2.26 -6.44 -1.16 166 170 169
-2.26 -6.53 -1.16 168 170 169
-2.26 -6.62 -1.16 171 173 172
-2.26 -6.71 -1.16 172 174 173
-2.26 -6.80 -1.16 172 174 173
-2.26 -6.89 -1.16 166 170 169
-2.26 -6.98 -1.16 167 171 170
-2.26 -7.07 -1.16 167 171 170
-2.26 -7.16 -1.16 167 173 171
-2.26 -7.24 -1.16 167 173 171
-2.26 -7.33 -1.16 167 173 171
-2.26 -7.42 -1.16 167 173 171
-2.26 -7.51 -1.16 167 176 173
-2.26 -7.78 -1.16 167 176 173
-2.26 -7.87 -1.16 166 177 173
-2.26 -7.96 -1.16 165 176 172
-2.26 -8.05 -1.16 165 176 172
-2.26 -8.13 -1.16 165 176 172
-2.26 -8.22 -1.16 167 177 176
-2.26 -8.31 -1.16 168 178 177
-2.26 -8.40 -1.16 168 178 177
-2.26 -8.49 -1.16 169 179 178
-2.26 -8.58 -1.16 169 180 176
-2.26 -8.67 -1.16 169 180 176
-2.26 -8.76 -1.16 168 179 175
-2.26 -8.85 -1.16 168 179 175
-2.26 -8.94 -1.16 168 177 172
-2.26 -9.02 -1.16 166 175 170
-2.26 -9.11 -1.16 168 177 172
-2.26 -9.20 -1.16 168 178 170
-2.26 -9.29 -1.16 168 178 170
-2.26 -9.38 -1.16 169 179 171
-2.26 -9.47 -1.16 171 180 175
-2.26 -9.56 -1.16 169 182 175
-2.26 -9.65 -1.16 169 181 177
-2.26 -9.74 -1.16 171 182 178
-2.26 -9.83 -1.16 169 180 176
-2.26 -9.91 -1.16 168 179 175
-2.26 -10.00 -1.16 168 179 175
-2.26 -10.09 -1.16 171 180 177
-2.26 -10.18 -1.16 173 182 179
-2.44 -10.26 -0.99 172 181 178
-2.44 -10.35 -0.99 171 180 177
-2.44 -10.43 -0.99 170 181 177
-2.44 -10.52 -0.99 172 183 179
-2.44 -10.61 -0.99 172 183 179
-2.44 -10.70 -0.99 171 182 178
-2.44 -10.79 -0.99 171 183 179
-2.26 -10.89 -1.16 174 184 183
-2.26 -10.98 -1.16 180 183 188
-2.26 -11.07 -1.16 169 173 174
-2.26 -11.16 -1.16 175 186 172
-2.26 -11.25 -1.16 167 178 172
-2.26 -11.34 -1.16 171 180 179
-2.26 -11.43 -1.16 166 176 167
-2.26 -11.52 -1.16 186 191 184
-2.26 -11.61 -1.16 175 178 171
-2.26 -11.69 -1.16 183 183 183
-2.26 -11.78 -1.16 217 216 222
-2.26 -11.87 -1.16 132 130 154
-2.26 -11.96 -1.16 18 18 68
-2.26 -12.05 -1.16 7 8 72
-2.26 -12.14 -1.16 11 19 82
-2.26 -12.23 -1.16 21 33 93
-2.26 -12.32 -1.16 27 42 97
-2.26 -12.41 -1.16 26 41 96
-2.44 -12.47 -0.99 22 33 95
-2.44 -12.56 -0.99 33 43 104
-2.44 -12.65 -0.99 41 50 105
-2.44 -12.74 -0.99 17 29 81
-2.44 -12.83 -0.99 41 58 110
-2.44 -12.91 -0.99 203 207 234
-2.59 -12.98 -0.83 244 221 189
-2.75 -13.04 -0.68 246 206 145
-2.90 -13.11 -0.52 228 187 123
-3.05 -13.17 -0.37 168 131 61
-3.36 -13.21 -0.06 161 131 71
-3.51 -13.27 0.09 144 121 79
-3.51 -13.36 0.09 138 121 91
-3.51 -13.44 0.09 126 112 85
-3.51 -13.53 0.09 105 93 67
-3.36 -13.64 -0.06 90 78 52
-3.36 -13.73 -0.06 81 69 43
-3.36 -13.81 -0.06 71 57 31
-3.21 -13.93 -0.21 69 55 29
-3.21 -14.01 -0.21 95 81 54
-3.05 -14.13 -0.37 129 115 86
-3.05 -14.22 -0.37 181 168 136
-3.05 -14.30 -0.37 219 206 171
-3.05 -14.39 -0.37 249 237 199
-3.05 -14.48 -0.37 235 223 181
-3.05 -14.57 -0.37 199 188 143
-3.05 -14.65 -0.37 176 165 119
-3.21 -14.71 -0.21 168 158 109
-3.21 -14.80 -0.21 157 149 102
-3.21 -14.88 -0.21 150 148 99
-3.21 -14.97 -0.21 171 170 126
-3.21 -15.06 -0.21 129 131 94
-3.36 -15.11 -0.06 19 19 0
-3.36 -15.20 -0.06 0 1 0
-3.36 -15.28 -0.06 0 3 6
-3.36 -15.37 -0.06 37 40 49
-3.36 -15.46 -0.06 86 89 98
-3.36 -15.54 -0.06 157 157 169
-3.36 -15.63 -0.06 220 219 227
-3.36 -15.71 -0.06 209 203 213
-3.51 -15.77 0.09 168 161 168
-3.51 -15.85 0.09 123 112 120
-3.51 -15.94 0.09 138 127 133
-3.51 -16.02 0.09 124 114 122
-3.51 -16.11 0.09 126 127 131
-3.36 -16.23 -0.06 157 162 166
-3.21 -16.36 -0.21 17 27 29
-3.21 -16.44 -0.21 22 32 34
-3.51 -16.45 0.09 17 29 29
-3.36 -16.58 -0.06 3 15 15
-3.05 -16.74 -0.37 3 13 12
-2.90 -16.87 -0.52 2 11 10
-2.75 -17.00 -0.68 1 7 7
-2.44 -17.16 -0.99 12 13 15
-2.44 -17.25 -0.99 19 21 20
-2.26 -17.39 -1.16 22 22 22
-2.26 -17.48 -1.16 22 22 20
-2.26 -17.57 -1.16 30 32 29
-2.26 -17.66 -1.16 35 37 34
-2.26 -17.92 -1.16 35 37 32
-2.26 -18.01 -1.16 42 44 43
-2.26 -18.10 -1.16 28 32 31
-2.26 -18.19 -1.16 23 27 28
-2.26 -18.28 -1.16 21 27 25
-2.26 -18.37 -1.16 24 30 28
-2.26 -18.46 -1.16 46 53 46
-2.26 -18.55 -1.16 88 95 88
-2.26 -18.64 -1.16 206 211 205
-2.44 -18.67 -0.99 190 195 189
-2.44 -18.76 -0.99 192 194 191
-2.44 -18.85 -0.99 191 193 190
-2.44 -18.94 -0.99 195 195 195
-2.44 -19.02 -0.99 192 192 192
-2.44 -19.11 -0.99 195 195 193
-2.44 -19.20 -0.99 195 195 193
-2.44 -19.29 -0.99 196 196 194
-2.44 -19.38 -0.99 197 197 195
-2.44 -19.47 -0.99 198 198 196
-2.26 -19.61 -1.16 200 200 198
-2.26 -19.70 -1.16 202 202 202
-2.26 -19.79 -1.16 200 200 200
-2.26 -19.88 -1.16 201 201 201
-2.26 -19.97 -1.16 203 203 203
-2.26 -20.06 -1.16 205 205 205
-2.26 -20.15 -1.16 207 207 209
-2.26 -20.24 -1.16 207 207 209
-2.26 -20.33 -1.16 207 207 209
-2.26 -20.41 -1.16 207 207 209
-2.26 -20.50 -1.16 207 207 207
-2.26 -20.59 -1.16 207 207 207
-2.26 -20.68 -1.16 208 208 208
-2.26 -20.77 -1.16 208 208 208
-2.26 -20.86 -1.16 208 208 206
-2.44 -20.88 -0.99 209 209 207
-2.44 -20.97 -0.99 210 211 206
-2.44 -21.06 -0.99 210 211 206
-2.44 -21.15 -0.99 212 213 208
-2.44 -21.24 -0.99 212 213 208
-2.44 -21.33 -0.99 211 211 209
-2.44 -21.42 -0.99 212 212 210
-2.44 -21.50 -0.99 212 212 212
-2.44 -21.59 -0.99 212 212 212
-2.44 -21.68 -0.99 212 212 212
-2.44 -21.77 -0.99 213 213 211
-2.44 -21.86 -0.99 212 212 210
-2.44 -21.95 -0.99 212 212 210
-2.44 -22.04 -0.99 211 211 209
-2.44 -22.12 -0.99 210 210 208
-2.44 -22.21 -0.99 210 210 208
-2.44 -22.30 -0.99 211 211 209
-2.44 -22.39 -0.99 212 212 210
-2.44 -22.48 -0.99 208 208 208
-2.44 -22.57 -0.99 209 209 209
-2.44 -22.66 -0.99 211 211 211
-2.44 -22.74 -0.99 211 211 211
-2.44 -22.83 -0.99 211 211 211
-2.44 -22.92 -0.99 211 211 211
-2.44 -23.01 -0.99 212 212 212
-2.44 -23.10 -0.99 212 212 212
-2.44 -23.19 -0.99 212 212 212
-2.44 -23.28 -0.99 211 211 211
-2.44 -23.36 -0.99 210 210 208
-2.44 -23.45 -0.99 210 210 208
-2.44 -23.54 -0.99 210 210 208
-2.44 -23.63 -0.99 211 211 209
-2.26 -23.80 -1.16 212 212 210
-2.26 -23.89 -1.16 212 212 210
-2.44 -23.90 -0.99 209 211 208
-2.26 -24.06 -1.16 209 211 210
-2.26 -24.15 -1.16 209 211 210
-2.26 -24.24 -1.16 211 212 214
-2.26 -24.33 -1.16 211 212 214
-2.26 -24.42 -1.16 211 212 216
-2.26 -24.51 -1.16 210 211 215
-2.26 -24.60 -1.16 208 209 213
-2.26 -24.69 -1.16 209 210 214
-2.26 -24.78 -1.16 209 210 212
-2.26 -24.86 -1.16 209 210 212
-2.26 -24.95 -1.16 208 210 209
-2.26 -25.04 -1.16 209 211 210
-2.44 -25.05 -0.99 210 210 208
-2.44 -25.14 -0.99 211 211 209
-2.44 -25.22 -0.99 214 213 209
-2.44 -25.31 -0.99 212 211 207
