ply
format ascii 1.0
element vertex 1674
property float x
property float y
property float z
property uchar red
property uchar green
property uchar blue
end_header
10.56 2.20 -1.16 154 163 160
10.56 2.09 -1.16 155 164 161
10.56 1.98 -1.16 155 164 161
10.56 1.88 -1.16 156 165 162
10.56 1.77 -1.16 156 165 162
10.56 1.66 -1.16 156 165 162
10.56 1.55 -1.16 153 164 158
10.56 1.44 -1.16 153 164 158
10.56 1.34 -1.16 153 164 158
10.84 1.28 -1.37 153 164 158
10.84 1.17 -1.37 153 164 158
10.84 1.06 -1.37 152 164 160
10.84 0.95 -1.37 152 164 160
10.84 0.84 -1.37 150 162 160
10.84 0.73 -1.37 150 162 160
10.84 0.62 -1.37 150 162 160
10.84 0.51 -1.37 150 162 160
11.09 0.44 -1.56 151 163 161
11.09 0.33 -1.56 151 163 161
11.09 0.23 -1.56 152 164 164
10.84 0.08 -1.37 152 164 164
10.84 -0.03 -1.37 149 163 163
10.84 -0.14 -1.37 148 162 162
10.84 -0.25 -1.37 147 162 159
10.84 -0.36 -1.37 146 161 158
10.84 -0.47 -1.37 146 161 156
10.84 -0.57 -1.37 146 161 156
10.84 -0.68 -1.37 149 162 155
10.84 -0.79 -1.37 150 163 156
11.09 -0.87 -1.56 153 166 159
11.09 -0.98 -1.56 153 166 159
11.09 -1.09 -1.56 152 165 158
11.09 -1.20 -1.56 152 165 158
11.09 -1.31 -1.56 152 165 158
11.35 -1.39 -1.75 153 166 159
11.35 -1.50 -1.75 156 167 163
11.35 -1.60 -1.75 158 171 164
11.09 -1.74 -1.56 160 173 166
11.09 -1.85 -1.56 162 175 168
11.09 -1.96 -1.56 162 175 168
11.09 -2.07 -1.56 162 174 170
11.09 -2.18 -1.56 161 173 169
11.09 -2.29 -1.56 161 173 171
11.09 -2.40 -1.56 162 174 172
11.09 -2.51 -1.56 164 176 174
11.09 -2.62 -1.56 165 177 175
10.84 -2.75 -1.37 163 175 173
10.84 -2.86 -1.37 161 173 171
10.84 -2.97 -1.37 164 175 171
10.84 -3.08 -1.37 164 175 171
10.84 -3.19 -1.37 164 175 169
10.56 -3.32 -1.16 167 178 172
10.56 -3.43 -1.16 164 177 170
10.56 -3.53 -1.16 163 176 169
10.30 -3.66 -0.97 163 176 169
10.30 -3.77 -0.97 162 175 168
10.30 -3.88 -0.97 163 176 169
10.25 22.93 -1.06 67 58 59
10.25 22.82 -1.06 60 54 54
10.25 22.71 -1.06 62 58 59
10.25 22.61 -1.06 85 85 87
10.25 22.50 -1.06 120 120 122
10.25 22.39 -1.06 133 133 131
10.50 22.43 -1.25 127 127 125
10.50 22.33 -1.25 126 125 120
10.50 22.22 -1.25 131 130 125
10.50 22.11 -1.25 133 130 121
10.50 22.00 -1.25 127 124 115
10.50 21.89 -1.25 133 130 125
10.50 21.79 -1.25 131 132 126
10.78 21.84 -1.46 127 128 123
10.78 21.73 -1.46 132 131 129
10.78 21.62 -1.46 132 131 129
10.78 21.51 -1.46 133 132 128
10.78 21.40 -1.46 134 133 129
10.78 21.30 -1.46 133 132 127
10.78 21.19 -1.46 133 132 127
10.78 21.08 -1.46 134 134 126
10.78 20.97 -1.46 134 134 126
10.50 20.70 -1.25 134 134 124
10.50 20.60 -1.25 134 134 124
10.50 20.49 -1.25 133 133 123
10.78 20.53 -1.46 134 134 124
10.78 20.43 -1.46 135 135 125
10.78 20.32 -1.46 135 135 125
10.78 20.21 -1.46 135 135 127
10.78 20.10 -1.46 135 135 127
10.78 19.99 -1.46 139 136 127
10.78 19.88 -1.46 138 135 126
10.78 19.77 -1.46 138 135 126
10.78 19.66 -1.46 137 134 125
10.78 19.56 -1.46 137 134 127
10.50 19.30 -1.25 139 136 131
10.50 19.19 -1.25 139 136 131
10.50 19.08 -1.25 138 135 130
10.50 18.97 -1.25 138 135 130
10.50 18.86 -1.25 138 134 131
10.50 18.76 -1.25 139 135 132
10.50 18.65 -1.25 139 135 134
10.50 18.54 -1.25 140 136 135
10.50 18.43 -1.25 140 136 135
10.50 18.32 -1.25 141 137 134
10.78 18.36 -1.46 138 137 132
10.78 18.25 -1.46 138 138 130
10.78 18.14 -1.46 138 139 131
10.78 18.03 -1.46 138 139 131
10.78 17.92 -1.46 138 139 133
10.78 17.81 -1.46 138 139 133
10.78 17.71 -1.46 138 139 133
10.78 17.60 -1.46 138 139 133
10.78 17.49 -1.46 139 140 135
10.78 17.38 -1.46 138 139 134
10.78 17.27 -1.46 136 138 133
10.78 17.16 -1.46 137 139 134
10.78 17.05 -1.46 138 140 137
10.78 16.94 -1.46 139 141 138
10.50 16.70 -1.25 138 140 137
10.50 16.59 -1.25 139 140 134
10.50 16.48 -1.25 140 141 135
10.50 16.38 -1.25 140 141 135
10.50 16.27 -1.25 140 141 135
10.50 16.16 -1.25 140 141 135
10.50 16.05 -1.25 140 141 135
10.50 15.94 -1.25 142 143 135
10.50 15.83 -1.25 143 144 136
10.50 15.73 -1.25 141 142 134
10.50 15.62 -1.25 142 143 135
10.50 15.51 -1.25 142 143 135
10.50 15.40 -1.25 143 144 136
10.50 15.29 -1.25 143 145 134
10.50 15.19 -1.25 144 146 135
10.50 15.08 -1.25 144 146 135
10.50 14.97 -1.25 144 145 137
10.25 14.75 -1.06 140 145 139
10.25 14.64 -1.06 142 144 139
10.25 14.53 -1.06 144 145 137
10.50 14.54 -1.25 147 144 135
10.50 14.43 -1.25 148 146 133
10.50 14.32 -1.25 148 146 134
10.50 14.21 -1.25 146 146 134
10.50 14.10 -1.25 140 145 138
-1.82 8.76 8.00 143 148 142
-1.82 8.68 8.00 145 151 141
-1.82 8.59 8.00 151 151 139
-1.82 8.51 8.00 159 150 133
-1.82 8.43 8.00 156 140 117
-1.82 8.35 8.00 151 127 99
-1.82 8.27 8.00 153 124 92
-1.68 8.24 7.90 163 129 92
-1.68 8.16 7.90 160 125 87
-1.68 8.08 7.90 159 125 88
-1.82 7.94 8.00 163 129 92
-1.82 7.86 8.00 163 131 93
-1.82 7.78 8.00 161 129 91
-1.82 7.70 8.00 161 129 90
-1.82 7.61 8.00 164 132 93
-1.82 7.53 8.00 166 133 92
-1.82 7.45 8.00 165 132 91
-1.68 7.42 7.90 164 131 86
-1.68 7.34 7.90 164 131 86
-1.82 7.21 8.00 163 132 88
-1.82 7.12 8.00 163 132 88
-1.82 7.04 8.00 161 132 90
-1.82 6.96 8.00 161 129 88
-1.82 6.88 8.00 162 129 86
-1.82 6.80 8.00 162 129 86
-1.82 6.72 8.00 163 130 87
-1.82 6.63 8.00 164 133 89
-1.82 6.55 8.00 164 133 89
-1.82 6.47 8.00 162 133 89
-1.82 6.39 8.00 161 132 88
-1.82 6.31 8.00 156 127 83
-1.82 6.23 8.00 156 127 83
-1.82 6.14 8.00 157 128 84
-1.82 6.06 8.00 157 128 84
-1.82 5.98 8.00 158 129 85
-1.99 5.84 8.13 158 129 85
-1.99 5.76 8.13 158 129 85
-1.99 5.68 8.13 157 128 84
-1.99 5.60 8.13 159 130 88
-1.99 5.51 8.13 160 131 89
-1.82 5.33 8.00 161 134 91
-1.82 5.24 8.00 161 134 91
-1.82 5.16 8.00 162 135 92
-1.82 5.08 8.00 163 136 93
-1.82 5.00 8.00 158 131 88
-1.82 4.92 8.00 161 132 90
-1.82 4.84 8.00 161 132 90
-1.82 4.75 8.00 161 132 90
-1.99 4.62 8.13 161 132 90
-1.99 4.54 8.13 162 133 91
-1.99 4.46 8.13 162 135 90
-1.99 4.38 8.13 159 136 86
-1.99 4.29 8.13 157 136 83
-1.99 4.21 8.13 157 137 84
-1.99 4.13 8.13 160 140 87
-1.99 4.05 8.13 161 144 92
-1.99 3.97 8.13 161 144 92
-1.99 3.89 8.13 161 143 93
-1.99 3.81 8.13 163 145 95
-2.13 3.68 8.24 154 136 86
-2.13 3.44 8.24 157 140 88
-2.13 3.36 8.24 161 141 90
-1.99 3.32 8.13 162 142 91
-1.99 3.24 8.13 162 141 88
-2.13 3.12 8.24 162 141 88
-2.13 3.03 8.24 166 144 94
-2.13 2.95 8.24 165 143 93
-2.13 2.87 8.24 165 142 92
-2.13 2.79 8.24 168 142 91
-2.13 2.71 8.24 166 140 89
-2.13 2.63 8.24 166 140 89
-2.13 2.55 8.24 167 141 90
-2.13 2.47 8.24 163 137 86
-2.13 2.39 8.24 165 139 90
11.04 5.26 -1.65 146 130 81
11.04 5.15 -1.65 166 154 116
11.04 5.04 -1.65 207 204 189
10.78 4.87 -1.46 188 189 184
10.78 4.76 -1.46 148 150 145
10.78 4.65 -1.46 161 163 158
10.78 4.54 -1.46 151 157 153
10.50 4.36 -1.25 157 163 159
10.50 4.26 -1.25 154 165 161
10.25 4.09 -1.06 153 164 160
10.25 3.98 -1.06 153 165 161
10.50 3.93 -1.25 153 165 161
10.50 3.82 -1.25 153 164 160
10.50 3.72 -1.25 153 164 160
10.50 3.61 -1.25 155 164 161
10.50 3.50 -1.25 156 165 162
10.50 3.39 -1.25 157 166 163
10.50 3.28 -1.25 154 163 160
10.50 3.17 -1.25 154 163 160
10.50 3.07 -1.25 154 163 160
10.50 2.96 -1.25 154 163 160
10.50 2.85 -1.25 155 164 161
10.50 2.74 -1.25 155 164 161
10.50 2.63 -1.25 155 164 161
10.50 2.53 -1.25 155 164 161
10.50 2.42 -1.25 156 165 162
10.50 2.31 -1.25 155 164 161
10.50 2.20 -1.25 153 162 159
10.50 2.09 -1.25 153 162 159
10.50 1.98 -1.25 154 163 160
10.50 1.88 -1.25 156 165 162
10.50 1.77 -1.25 156 165 162
10.50 1.66 -1.25 156 165 162
10.50 1.55 -1.25 153 164 158
10.50 1.44 -1.25 153 164 158
10.50 1.34 -1.25 153 164 158
10.50 1.23 -1.25 154 165 159
10.50 1.12 -1.25 152 165 158
10.78 1.06 -1.46 152 164 160
10.78 0.95 -1.46 152 164 160
10.78 0.84 -1.46 151 163 161
10.50 0.69 -1.25 151 163 161
10.50 0.58 -1.25 151 163 161
10.50 0.47 -1.25 151 163 161
10.78 0.40 -1.46 151 163 161
10.78 0.30 -1.46 151 163 161
10.78 0.19 -1.46 149 163 163
10.50 0.04 -1.25 150 164 164
10.50 -0.07 -1.25 150 164 165
10.50 -0.18 -1.25 149 163 164
10.50 -0.29 -1.25 149 163 163
10.50 -0.40 -1.25 148 162 162
10.78 -0.47 -1.46 148 163 160
10.78 -0.57 -1.46 148 163 160
10.78 -0.68 -1.46 150 162 158
10.78 -0.79 -1.46 150 162 158
10.78 -0.90 -1.46 150 162 158
10.78 -1.01 -1.46 150 162 158
10.78 -1.12 -1.46 150 162 158
10.78 -1.23 -1.46 150 162 158
11.04 -1.31 -1.65 151 163 159
11.04 -1.41 -1.65 152 164 160
11.04 -1.52 -1.65 155 166 162
11.04 -1.63 -1.65 155 168 161
11.04 -1.74 -1.65 156 169 162
11.04 -1.85 -1.65 157 169 165
11.04 -1.96 -1.65 158 170 166
11.04 -2.07 -1.65 158 170 166
11.04 -2.18 -1.65 159 171 167
11.04 -2.29 -1.65 159 171 169
11.04 -2.40 -1.65 160 172 170
11.04 -2.51 -1.65 162 174 174
10.78 -2.64 -1.46 162 174 174
10.78 -2.75 -1.46 163 175 175
10.78 -2.86 -1.46 165 177 177
10.78 -2.97 -1.46 166 178 176
10.78 -3.08 -1.46 165 177 175
10.50 -3.21 -1.25 162 174 172
10.50 -3.32 -1.25 160 172 170
10.25 -3.45 -1.06 163 178 173
10.25 -3.55 -1.06 163 178 173
10.25 -3.66 -1.06 162 177 172
10.25 -3.77 -1.06 163 178 173
10.25 -3.88 -1.06 163 178 171
9.99 -4.00 -0.87 162 177 170
9.99 -4.11 -0.87 162 175 166
9.99 -4.22 -0.87 168 181 172
9.99 -4.32 -0.87 168 181 172
10.19 22.93 -1.15 64 52 52
10.19 22.82 -1.15 65 57 55
10.19 22.71 -1.15 91 85 85
10.19 22.61 -1.15 122 118 119
10.19 22.50 -1.15 135 133 134
10.19 22.39 -1.15 133 133 131
10.45 22.43 -1.34 130 129 127
10.45 22.33 -1.34 128 127 122
10.45 22.22 -1.34 131 128 123
10.45 22.11 -1.34 133 130 123
10.45 22.00 -1.34 134 131 124
10.45 21.89 -1.34 131 127 124
10.45 21.79 -1.34 128 129 124
10.45 21.68 -1.34 130 130 128
10.45 21.57 -1.34 131 130 128
10.45 21.46 -1.34 132 131 129
10.73 21.51 -1.56 133 132 128
10.73 21.40 -1.56 133 132 128
10.73 21.30 -1.56 133 132 127
10.73 21.19 -1.56 133 132 127
10.45 20.92 -1.34 133 133 125
10.45 20.81 -1.34 133 133 125
10.45 20.70 -1.34 134 134 124
10.45 20.60 -1.34 134 134 124
10.45 20.49 -1.34 134 134 124
10.45 20.38 -1.34 134 134 124
10.45 20.27 -1.34 135 135 125
10.45 20.16 -1.34 135 135 125
10.45 20.05 -1.34 135 135 125
10.45 19.95 -1.34 134 134 124
10.45 19.84 -1.34 139 137 125
10.45 19.73 -1.34 138 136 124
10.45 19.62 -1.34 138 135 126
10.45 19.51 -1.34 137 134 125
10.45 19.40 -1.34 137 134 127
10.45 19.30 -1.34 139 136 131
10.45 19.19 -1.34 140 137 132
10.19 18.95 -1.15 138 134 131
10.19 18.84 -1.15 138 134 131
10.19 18.73 -1.15 138 134 133
10.19 18.62 -1.15 138 134 133
10.19 18.52 -1.15 139 135 136
10.19 18.41 -1.15 140 136 137
10.45 18.43 -1.34 140 136 137
10.45 18.32 -1.34 141 137 136
10.45 18.21 -1.34 139 138 133
10.73 18.25 -1.56 139 139 131
10.73 18.14 -1.56 139 140 132
10.45 17.89 -1.34 139 140 132
10.45 17.78 -1.34 139 140 134
10.45 17.67 -1.34 138 139 133
10.45 17.57 -1.34 138 139 133
10.45 17.46 -1.34 137 138 132
10.45 17.35 -1.34 138 139 134
10.45 17.24 -1.34 137 138 133
10.45 17.13 -1.34 136 138 133
10.45 17.02 -1.34 136 138 133
10.45 16.92 -1.34 138 140 137
10.45 16.81 -1.34 138 140 137
10.45 16.70 -1.34 137 139 136
10.19 16.47 -1.15 138 139 133
10.19 16.36 -1.15 139 140 134
10.19 16.26 -1.15 140 141 135
10.19 16.15 -1.15 141 142 136
10.19 16.04 -1.15 141 142 134
10.19 15.93 -1.15 141 142 134
10.19 15.82 -1.15 141 142 134
10.19 15.72 -1.15 142 143 135
10.19 15.61 -1.15 143 145 134
10.19 15.50 -1.15 143 145 134
10.19 15.39 -1.15 143 145 132
10.19 15.29 -1.15 143 145 132
10.19 15.18 -1.15 143 145 132
10.19 15.07 -1.15 143 145 132
10.19 14.96 -1.15 143 145 132
10.19 14.86 -1.15 143 145 134
10.19 14.75 -1.15 141 146 140
10.19 14.64 -1.15 143 145 140
10.19 14.53 -1.15 144 145 137
10.19 14.43 -1.15 148 146 134
10.19 14.32 -1.15 149 147 134
10.19 14.21 -1.15 149 147 134
10.45 14.21 -1.34 147 147 135
10.45 14.10 -1.34 141 146 139
-1.86 8.76 7.93 143 148 142
-1.86 8.68 7.93 147 153 143
-1.86 8.59 7.93 156 154 142
-1.86 8.51 7.93 154 146 127
-1.86 8.43 7.93 144 126 102
-1.86 8.35 7.93 145 118 89
-1.86 8.27 7.93 161 128 95
-1.86 8.19 7.93 159 125 87
-1.86 8.10 7.93 163 128 90
-1.86 8.02 7.93 161 129 90
-1.86 7.94 7.93 158 126 88
-1.86 7.86 7.93 161 128 93
-1.86 7.78 7.93 166 133 98
-1.86 7.70 7.93 167 133 96
-1.86 7.61 7.93 162 126 90
-1.86 7.53 7.93 165 130 90
-1.86 7.45 7.93 165 127 88
-1.86 7.37 7.93 164 127 83
-1.86 7.29 7.93 164 127 83
-1.86 7.21 7.93 162 129 86
-1.86 7.12 7.93 161 130 86
-1.86 7.04 7.93 158 129 87
-1.86 6.96 7.93 157 128 86
-1.86 6.88 7.93 164 131 88
-1.86 6.80 7.93 162 131 87
-1.86 6.72 7.93 162 131 87
-1.86 6.63 7.93 161 132 88
-1.86 6.55 7.93 161 132 88
-1.86 6.47 7.93 159 130 88
-1.86 6.39 7.93 158 129 87
-1.86 6.31 7.93 157 130 87
-1.86 6.23 7.93 156 129 86
-2.03 6.08 8.06 156 129 86
-2.03 6.00 8.06 156 129 86
-2.03 5.92 8.06 158 129 87
-2.03 5.84 8.06 158 129 87
-2.03 5.76 8.06 158 129 87
-2.03 5.68 8.06 157 128 86
-2.03 5.60 8.06 160 129 83
-2.03 5.51 8.06 160 129 83
-1.86 5.33 7.93 159 130 86
-1.86 5.24 7.93 159 130 86
-1.86 5.16 7.93 159 130 88
-2.03 5.03 8.06 159 130 88
-2.03 4.94 8.06 159 130 88
-2.03 4.86 8.06 162 133 93
-2.03 4.78 8.06 162 133 93
-2.03 4.70 8.06 161 132 92
-2.03 4.62 8.06 161 132 92
-2.03 4.54 8.06 161 132 92
-2.03 4.46 8.06 164 132 93
-2.03 4.38 8.06 170 135 93
-2.03 4.29 8.06 169 132 90
-2.03 4.21 8.06 166 131 89
-2.03 4.13 8.06 167 132 90
-2.03 4.05 8.06 166 133 92
-2.03 3.97 8.06 164 131 90
-2.03 3.89 8.06 164 131 90
-2.03 3.81 8.06 166 133 92
-2.17 3.68 8.17 169 136 95
-2.17 3.44 8.17 168 135 92
-2.17 3.36 8.17 170 136 91
-2.17 3.28 8.17 170 136 91
-2.17 3.20 8.17 172 135 91
-2.17 3.12 8.17 170 136 91
-2.17 3.03 8.17 169 136 93
-2.17 2.95 8.17 167 136 92
-2.17 2.87 8.17 169 136 91
-2.17 2.79 8.17 172 139 94
-2.17 2.71 8.17 169 136 91
-2.17 2.63 8.17 167 136 92
-2.17 2.55 8.17 168 137 93
-2.17 2.47 8.17 170 141 99
-2.17 2.39 8.17 161 134 91
10.98 5.26 -1.75 139 125 86
10.98 5.15 -1.75 199 190 159
10.98 5.04 -1.75 210 208 196
10.73 4.87 -1.56 190 192 189
10.73 4.76 -1.56 143 148 144
10.45 4.58 -1.34 161 166 162
10.45 4.47 -1.34 149 158 155
10.19 4.31 -1.15 158 167 164
10.19 4.20 -1.15 152 164 162
10.19 4.09 -1.15 151 163 161
10.19 3.98 -1.15 153 165 163
10.19 3.88 -1.15 152 164 162
10.19 3.77 -1.15 153 164 160
10.19 3.66 -1.15 152 163 159
10.45 3.61 -1.34 155 164 161
10.45 3.50 -1.34 158 164 160
10.19 3.34 -1.15 159 165 161
10.19 3.23 -1.15 156 165 162
10.45 3.17 -1.34 156 165 162
10.45 3.07 -1.34 157 166 163
10.45 2.96 -1.34 157 166 163
10.45 2.85 -1.34 158 167 164
10.45 2.74 -1.34 158 167 164
10.45 2.63 -1.34 159 168 165
10.19 2.48 -1.15 159 168 165
10.19 2.37 -1.15 160 169 166
10.19 2.26 -1.15 158 167 164
10.19 2.15 -1.15 155 164 161
10.19 2.04 -1.15 155 164 161
10.19 1.94 -1.15 156 165 162
10.19 1.83 -1.15 157 166 163
10.19 1.72 -1.15 157 166 163
10.19 1.61 -1.15 157 166 163
10.19 1.51 -1.15 157 168 162
10.19 1.40 -1.15 157 168 162
10.19 1.29 -1.15 157 168 162
10.19 1.18 -1.15 157 168 162
10.19 1.08 -1.15 156 169 162
10.19 0.97 -1.15 155 167 163
10.45 0.90 -1.34 154 166 162
10.45 0.79 -1.34 156 168 166
10.45 0.69 -1.34 155 167 165
10.45 0.58 -1.34 154 166 164
10.45 0.47 -1.34 153 165 163
10.45 0.36 -1.34 151 166 163
10.45 0.25 -1.34 150 165 162
10.45 0.15 -1.34 150 164 164
10.45 0.04 -1.34 150 164 165
10.45 -0.07 -1.34 150 164 165
10.45 -0.18 -1.34 150 164 167
10.45 -0.29 -1.34 150 164 165
10.45 -0.40 -1.34 150 164 165
10.45 -0.50 -1.34 150 164 164
10.45 -0.61 -1.34 149 163 163
10.45 -0.72 -1.34 151 163 161
10.45 -0.83 -1.34 150 162 160
10.45 -0.94 -1.34 152 164 160
10.45 -1.05 -1.34 152 164 160
10.45 -1.15 -1.34 152 164 160
10.45 -1.26 -1.34 153 165 161
10.73 -1.34 -1.56 153 165 161
10.73 -1.44 -1.56 154 166 162
10.73 -1.55 -1.56 156 166 165
10.98 -1.63 -1.75 158 169 163
10.98 -1.74 -1.75 158 169 163
10.73 -1.88 -1.56 157 169 165
10.73 -1.99 -1.56 158 170 166
10.73 -2.10 -1.56 159 171 169
10.73 -2.21 -1.56 161 173 171
10.73 -2.32 -1.56 161 173 173
10.73 -2.42 -1.56 161 173 173
10.73 -2.53 -1.56 159 171 171
10.73 -2.64 -1.56 159 171 171
10.73 -2.75 -1.56 160 174 174
10.45 -2.88 -1.34 161 175 175
10.45 -2.99 -1.34 158 172 172
10.45 -3.10 -1.34 158 172 172
10.45 -3.21 -1.34 160 174 174
10.19 -3.34 -1.15 159 173 173
10.19 -3.45 -1.15 162 178 175
10.19 -3.55 -1.15 162 178 175
10.19 -3.66 -1.15 162 179 173
10.19 -3.77 -1.15 161 178 172
9.94 -3.89 -0.96 162 177 170
9.94 -4.00 -0.96 162 177 170
9.94 -4.11 -0.96 166 179 170
9.94 -4.22 -0.96 162 175 166
9.94 -4.32 -0.96 167 180 171
9.89 23.20 -1.05 60 54 54
9.89 23.10 -1.05 61 57 56
9.89 22.99 -1.05 65 61 60
10.14 23.04 -1.25 55 49 49
10.14 22.93 -1.25 67 61 61
10.14 22.82 -1.25 96 90 90
10.14 22.71 -1.25 126 120 120
10.14 22.61 -1.25 138 133 130
10.14 22.50 -1.25 132 127 124
10.14 22.39 -1.25 129 124 120
10.14 22.28 -1.25 134 129 125
10.14 22.18 -1.25 132 127 123
10.39 22.22 -1.44 133 128 124
10.39 22.11 -1.44 132 129 122
10.39 22.00 -1.44 131 128 121
10.39 21.89 -1.44 132 132 122
10.39 21.79 -1.44 131 133 122
10.39 21.68 -1.44 131 132 124
10.39 21.57 -1.44 131 131 123
10.39 21.46 -1.44 131 130 125
10.39 21.35 -1.44 131 130 125
10.39 21.24 -1.44 132 131 126
10.67 21.30 -1.65 135 132 125
10.39 21.03 -1.44 135 132 125
10.39 20.92 -1.44 136 133 124
10.39 20.81 -1.44 136 133 124
10.39 20.70 -1.44 137 134 125
10.39 20.60 -1.44 135 132 123
10.39 20.49 -1.44 135 132 125
10.39 20.38 -1.44 136 133 126
10.39 20.27 -1.44 137 134 127
10.14 20.02 -1.25 135 132 125
10.14 19.92 -1.25 136 133 128
10.14 19.81 -1.25 138 135 130
10.14 19.70 -1.25 137 134 125
10.14 19.59 -1.25 137 134 125
10.14 19.49 -1.25 137 134 125
10.14 19.38 -1.25 137 134 125
10.14 19.27 -1.25 137 134 125
10.14 19.16 -1.25 140 137 130
10.14 19.05 -1.25 142 139 132
10.14 18.95 -1.25 141 138 133
10.14 18.84 -1.25 140 136 133
10.14 18.73 -1.25 139 135 132
10.14 18.62 -1.25 139 135 136
10.14 18.52 -1.25 140 136 137
10.14 18.41 -1.25 141 136 140
10.14 18.30 -1.25 140 135 141
10.14 18.19 -1.25 138 133 139
10.14 18.09 -1.25 140 134 136
10.39 18.11 -1.44 141 135 137
10.39 18.00 -1.44 141 137 136
10.39 17.89 -1.44 142 138 137
10.14 17.66 -1.25 140 139 135
10.14 17.55 -1.25 139 138 134
10.14 17.44 -1.25 137 138 132
10.39 17.46 -1.44 137 138 132
10.39 17.35 -1.44 138 141 132
10.39 17.24 -1.44 138 141 132
10.39 17.13 -1.44 138 141 132
10.39 17.02 -1.44 138 141 132
10.14 16.79 -1.25 137 140 131
10.14 16.69 -1.25 137 140 131
10.14 16.58 -1.25 137 139 134
10.14 16.47 -1.25 139 140 135
10.14 16.36 -1.25 139 139 137
10.14 16.26 -1.25 140 141 136
10.14 16.15 -1.25 140 141 136
10.14 16.04 -1.25 141 142 136
10.14 15.93 -1.25 141 142 136
10.14 15.82 -1.25 141 142 134
10.14 15.72 -1.25 142 143 135
10.14 15.61 -1.25 142 145 134
10.14 15.50 -1.25 141 144 133
10.14 15.39 -1.25 141 144 133
10.14 15.29 -1.25 141 144 133
10.14 15.18 -1.25 141 144 133
9.89 14.96 -1.05 140 143 132
10.14 14.96 -1.25 141 144 135
10.14 14.86 -1.25 143 144 138
10.14 14.75 -1.25 144 145 139
10.14 14.64 -1.25 145 144 140
9.89 14.42 -1.05 146 147 142
10.14 14.43 -1.25 147 148 143
10.14 14.32 -1.25 142 147 143
10.14 14.21 -1.25 139 144 140
-2.07 8.85 7.99 137 146 143
-2.07 8.77 7.99 142 149 142
-1.90 8.76 7.86 147 148 140
-2.07 8.61 7.99 158 154 142
-2.07 8.52 7.99 158 145 128
-1.90 8.51 7.86 146 126 101
-1.90 8.43 7.86 151 122 92
-1.90 8.35 7.86 163 129 94
-1.90 8.27 7.86 162 124 87
-1.90 8.19 7.86 159 126 85
-1.90 8.10 7.86 160 127 86
-1.90 8.02 7.86 161 128 87
-1.90 7.94 7.86 160 127 86
-1.90 7.86 7.86 160 127 84
-1.90 7.78 7.86 162 129 86
-1.90 7.70 7.86 164 131 88
-1.90 7.61 7.86 167 134 91
-1.90 7.53 7.86 158 125 82
-1.90 7.45 7.86 159 126 83
-1.90 7.37 7.86 160 127 82
-1.90 7.29 7.86 159 126 81
-1.90 7.21 7.86 159 126 81
-1.90 7.12 7.86 159 126 81
-1.90 7.04 7.86 161 128 83
-1.90 6.96 7.86 163 130 85
-1.90 6.88 7.86 161 128 83
-1.90 6.80 7.86 162 129 84
-1.90 6.72 7.86 163 130 85
-2.07 6.57 7.99 163 130 85
-2.07 6.49 7.99 162 129 84
-2.21 6.36 8.10 160 129 85
-2.21 6.28 8.10 161 130 86
-2.21 6.20 8.10 159 130 88
-2.21 6.11 8.10 157 128 88
-2.21 6.03 8.10 155 126 86
-2.21 5.95 8.10 163 133 95
-2.21 5.87 8.10 155 127 90
-2.21 5.79 8.10 156 128 91
-2.07 5.76 7.99 150 122 85
-2.07 5.68 7.99 150 122 85
-2.07 5.60 7.99 152 122 84
-2.07 5.51 7.99 154 124 86
-2.07 5.27 7.99 158 128 90
-2.07 5.19 7.99 161 131 93
-2.07 5.11 7.99 162 133 93
-2.07 5.03 7.99 162 133 93
-2.07 4.94 7.99 162 135 92
-2.07 4.86 7.99 158 131 88
-2.07 4.78 7.99 159 132 89
-2.07 4.70 7.99 161 134 91
-2.07 4.62 7.99 162 135 92
-2.07 4.54 7.99 161 134 89
-2.07 4.46 7.99 159 132 87
-2.07 4.38 7.99 161 133 85
-2.07 4.29 7.99 162 134 86
-2.07 4.21 7.99 163 135 85
-2.07 4.13 7.99 164 136 86
-2.07 4.05 7.99 165 137 87
-2.07 3.97 7.99 166 138 88
-2.21 3.84 8.10 168 140 90
-2.21 3.76 8.10 168 140 90
-2.21 3.68 8.10 165 137 87
-2.21 3.44 8.10 165 137 89
-2.21 3.36 8.10 166 138 91
-2.21 3.28 8.10 167 139 92
-2.21 3.20 8.10 168 139 95
-2.21 3.12 8.10 168 139 95
-2.21 3.03 8.10 169 141 93
-2.35 2.91 8.20 168 140 93
-2.35 2.83 8.20 165 138 91
-2.35 2.75 8.20 166 139 96
-2.35 2.67 8.20 168 141 98
-2.21 2.63 8.10 169 141 94
-2.21 2.55 8.10 168 140 93
-2.21 2.47 8.10 170 140 90
-2.35 2.35 8.20 179 148 101
-2.35 2.27 8.20 162 135 88
-2.35 2.19 8.20 168 143 102
10.39 4.69 -1.44 140 147 139
10.14 4.52 -1.25 157 164 157
10.14 4.41 -1.25 153 163 155
10.14 4.31 -1.25 157 166 161
9.89 4.14 -1.05 157 168 164
9.89 4.03 -1.05 150 161 157
9.89 3.93 -1.05 155 165 164
9.89 3.82 -1.05 155 165 164
10.14 3.77 -1.25 155 165 164
10.14 3.66 -1.25 155 165 164
10.14 3.55 -1.25 157 166 165
10.14 3.44 -1.25 158 167 166
10.14 3.34 -1.25 158 167 166
10.14 3.23 -1.25 155 164 161
10.14 3.12 -1.25 155 164 161
10.14 3.01 -1.25 156 165 160
10.14 2.91 -1.25 156 165 160
10.14 2.80 -1.25 157 166 161
10.14 2.69 -1.25 157 166 161
10.14 2.58 -1.25 157 166 161
10.14 2.48 -1.25 158 167 162
10.14 2.37 -1.25 156 165 160
10.14 2.26 -1.25 157 166 161
10.14 2.15 -1.25 158 167 162
10.14 2.04 -1.25 158 167 162
10.14 1.94 -1.25 158 167 162
10.14 1.83 -1.25 158 167 162
10.14 1.72 -1.25 157 166 161
9.89 1.57 -1.05 157 166 161
9.89 1.46 -1.05 157 167 159
9.89 1.35 -1.05 157 167 159
9.89 1.25 -1.05 156 167 161
9.89 1.14 -1.05 157 168 162
9.89 1.03 -1.05 158 170 166
9.89 0.93 -1.05 156 171 168
10.14 0.86 -1.25 155 170 167
10.14 0.75 -1.25 152 166 166
10.14 0.65 -1.25 153 167 167
10.14 0.54 -1.25 153 167 167
10.14 0.43 -1.25 153 167 167
10.14 0.32 -1.25 153 168 165
10.14 0.21 -1.25 153 168 165
10.14 0.11 -1.25 154 166 164
10.14 -0.00 -1.25 154 166 164
10.14 -0.11 -1.25 160 170 169
10.14 -0.22 -1.25 157 167 166
10.14 -0.32 -1.25 153 165 163
10.14 -0.43 -1.25 152 164 162
10.14 -0.54 -1.25 150 165 160
10.14 -0.65 -1.25 151 166 161
10.14 -0.75 -1.25 150 167 159
10.14 -0.86 -1.25 150 167 159
10.14 -0.97 -1.25 150 167 157
10.14 -1.08 -1.25 150 167 157
10.14 -1.18 -1.25 151 167 157
10.39 -1.26 -1.44 151 167 157
10.39 -1.37 -1.44 154 167 158
10.39 -1.48 -1.44 155 168 159
10.39 -1.59 -1.44 158 169 163
10.39 -1.69 -1.44 157 168 164
10.67 -1.77 -1.65 158 169 165
10.67 -1.88 -1.65 159 171 167
10.39 -2.02 -1.44 160 172 168
10.39 -2.13 -1.44 160 172 170
10.39 -2.24 -1.44 161 173 171
10.67 -2.32 -1.65 162 174 172
10.67 -2.42 -1.65 162 174 172
10.39 -2.56 -1.44 162 174 172
10.39 -2.67 -1.44 162 174 172
10.39 -2.78 -1.44 160 175 172
10.39 -2.88 -1.44 161 176 173
10.39 -2.99 -1.44 161 176 171
10.14 -3.12 -1.25 160 175 170
10.14 -3.23 -1.25 160 175 170
10.14 -3.34 -1.25 160 175 170
10.14 -3.45 -1.25 164 176 172
10.14 -3.55 -1.25 166 178 174
10.14 -3.66 -1.25 167 179 175
9.89 -3.79 -1.05 166 178 174
9.89 -3.89 -1.05 166 178 174
9.89 -4.00 -1.05 166 178 174
9.89 -4.11 -1.05 166 178 174
9.89 -4.22 -1.05 166 178 174
9.89 -4.32 -1.05 166 178 174
9.89 -4.43 -1.05 166 178 174
9.89 -4.54 -1.05 167 179 175
9.63 -4.87 -0.86 165 177 173
9.63 -4.98 -0.86 165 177 173
9.63 -5.08 -0.86 165 177 173
9.63 -5.19 -0.86 165 177 173
9.63 -5.30 -0.86 164 176 172
9.63 -5.40 -0.86 164 176 172
9.63 -5.51 -0.86 163 175 171
9.63 -5.62 -0.86 164 176 172
9.83 23.20 -1.15 59 55 56
9.83 23.10 -1.15 61 59 60
9.83 22.99 -1.15 44 40 41
9.83 22.88 -1.15 60 56 53
9.83 22.78 -1.15 100 95 92
9.83 22.67 -1.15 130 125 122
9.83 22.56 -1.15 130 125 122
9.83 22.46 -1.15 126 121 117
9.83 22.35 -1.15 133 128 124
9.83 22.24 -1.15 136 131 127
10.09 22.28 -1.34 129 124 120
10.09 22.18 -1.34 132 127 121
10.09 22.07 -1.34 133 128 122
10.09 21.96 -1.34 132 129 122
10.09 21.85 -1.34 131 128 121
10.09 21.75 -1.34 130 130 122
10.34 21.79 -1.53 130 132 121
10.34 21.68 -1.53 130 130 122
10.34 21.57 -1.53 130 129 124
10.34 21.46 -1.53 133 129 126
10.34 21.35 -1.53 133 130 125
10.34 21.24 -1.53 135 132 127
10.34 21.14 -1.53 136 133 126
10.34 21.03 -1.53 137 134 127
10.34 20.92 -1.53 137 134 127
10.34 20.81 -1.53 138 135 128
10.09 20.56 -1.34 136 133 124
10.09 20.45 -1.34 135 132 123
10.09 20.35 -1.34 134 131 124
10.09 20.24 -1.34 136 133 126
10.09 20.13 -1.34 136 133 126
9.83 19.88 -1.15 135 132 125
9.83 19.78 -1.15 136 133 128
9.83 19.67 -1.15 137 134 129
9.83 19.56 -1.15 136 133 124
9.83 19.46 -1.15 136 133 124
9.83 19.35 -1.15 137 134 125
9.83 19.24 -1.15 138 135 126
9.83 19.13 -1.15 138 135 126
9.83 19.03 -1.15 140 137 130
9.83 18.92 -1.15 140 137 130
9.83 18.81 -1.15 139 136 131
9.83 18.71 -1.15 139 135 132
9.83 18.60 -1.15 140 136 133
9.83 18.49 -1.15 140 136 135
9.83 18.38 -1.15 140 136 137
9.83 18.28 -1.15 140 136 137
9.83 18.17 -1.15 141 136 140
9.83 18.06 -1.15 141 136 140
9.83 17.96 -1.15 140 134 134
9.83 17.85 -1.15 141 135 135
10.09 17.87 -1.34 141 137 134
10.09 17.76 -1.34 142 138 135
10.09 17.66 -1.34 140 139 134
10.09 17.55 -1.34 140 139 134
10.09 17.44 -1.34 138 139 131
10.09 17.33 -1.34 138 139 131
10.09 17.22 -1.34 138 141 132
10.09 17.12 -1.34 138 141 132
10.09 17.01 -1.34 138 141 132
10.09 16.90 -1.34 138 141 132
10.09 16.79 -1.34 138 141 132
10.09 16.69 -1.34 138 141 132
10.09 16.58 -1.34 139 140 134
9.83 16.35 -1.15 137 138 133
9.83 16.24 -1.15 138 138 136
9.83 16.14 -1.15 138 139 134
9.83 16.03 -1.15 139 140 135
9.83 15.92 -1.15 140 141 135
9.83 15.81 -1.15 141 142 136
9.83 15.71 -1.15 142 143 135
9.83 15.60 -1.15 142 143 135
9.83 15.49 -1.15 143 145 134
9.83 15.39 -1.15 142 144 133
9.83 15.28 -1.15 141 144 135
9.83 15.17 -1.15 141 144 135
9.83 15.06 -1.15 141 144 135
9.83 14.96 -1.15 141 144 135
9.83 14.85 -1.15 141 144 135
9.83 14.74 -1.15 143 144 136
10.09 14.75 -1.34 144 145 139
9.83 14.53 -1.15 144 143 138
9.83 14.42 -1.15 144 145 140
9.83 14.31 -1.15 146 146 144
10.09 14.32 -1.34 143 148 144
10.09 14.21 -1.34 142 146 145
-2.11 8.85 7.92 141 147 147
-2.11 8.77 7.92 147 149 146
-2.25 8.63 8.03 156 153 146
-2.25 8.55 8.03 154 148 134
-2.25 8.46 8.03 146 133 114
-2.11 8.44 7.92 147 126 99
-2.11 8.36 7.92 154 125 93
-2.11 8.28 7.92 158 126 88
-2.11 8.20 7.92 160 125 85
-2.11 8.12 7.92 161 128 85
-2.11 8.04 7.92 161 128 85
-1.94 8.02 7.79 161 128 85
-1.94 7.94 7.79 161 128 85
-2.11 7.79 7.92 160 127 84
-2.11 7.71 7.92 161 128 85
-2.11 7.63 7.92 163 130 87
-2.11 7.55 7.92 165 132 89
-2.11 7.47 7.92 161 128 83
-1.94 7.45 7.79 162 129 84
-1.94 7.37 7.79 162 129 84
-1.94 7.29 7.79 162 129 84
-2.11 7.14 7.92 162 129 84
-2.11 7.06 7.92 161 128 83
-2.11 6.98 7.92 162 129 84
-2.11 6.90 7.92 162 129 84
-2.11 6.82 7.92 160 128 81
-2.11 6.73 7.92 160 128 81
-2.25 6.60 8.03 161 129 82
-2.25 6.52 8.03 159 128 82
-2.39 6.39 8.13 158 127 81
-2.39 6.31 8.13 157 126 82
-2.39 6.23 8.13 158 127 83
-2.39 6.14 8.13 155 126 84
-2.39 6.06 8.13 156 127 85
-2.39 5.98 8.13 148 119 79
-2.39 5.90 8.13 142 113 73
-2.39 5.82 8.13 137 109 70
-2.39 5.74 8.13 143 115 76
-2.25 5.71 8.03 142 114 77
-2.25 5.63 8.03 140 112 75
-2.25 5.55 8.03 151 121 83
-2.25 5.47 8.03 154 124 86
-2.11 5.27 7.92 158 128 90
-2.11 5.19 7.92 159 129 91
-2.25 5.06 8.03 160 131 91
-2.25 4.98 8.03 160 131 91
-2.25 4.90 8.03 162 135 92
-2.11 4.86 7.92 160 133 90
-2.11 4.78 7.92 159 132 89
-2.11 4.70 7.92 158 131 88
-2.11 4.62 7.92 159 132 89
-2.11 4.54 7.92 160 133 88
-2.11 4.46 7.92 162 135 90
-2.11 4.38 7.92 161 133 86
-2.25 4.25 8.03 161 133 86
-2.25 4.17 8.03 162 134 86
-2.25 4.09 8.03 163 135 87
-2.25 4.01 8.03 163 135 87
-2.25 3.93 8.03 164 136 88
-2.25 3.84 8.03 164 136 88
-2.25 3.76 8.03 164 136 88
-2.25 3.68 8.03 163 135 87
-2.25 3.44 8.03 165 137 90
-2.25 3.36 8.03 166 137 93
-2.25 3.28 8.03 167 138 94
-2.25 3.20 8.03 169 140 96
-2.25 3.12 8.03 169 140 96
-2.39 3.00 8.13 169 141 93
-2.39 2.91 8.13 168 140 93
-2.39 2.83 8.13 166 139 92
-2.39 2.75 8.13 166 139 96
-2.39 2.67 8.13 167 140 97
-2.25 2.63 8.03 169 141 94
-2.25 2.55 8.03 169 141 94
-2.25 2.47 8.03 172 142 92
-2.39 2.35 8.13 164 136 88
-2.39 2.27 8.13 167 140 93
-2.39 2.19 8.13 164 141 99
10.34 4.69 -1.53 141 148 140
10.09 4.52 -1.34 158 165 157
9.83 4.35 -1.15 154 164 156
9.83 4.25 -1.15 156 165 160
9.83 4.14 -1.15 157 168 162
9.83 4.03 -1.15 154 165 161
9.83 3.93 -1.15 155 165 164
9.83 3.82 -1.15 155 165 164
9.83 3.71 -1.15 155 165 164
9.83 3.60 -1.15 156 166 165
9.83 3.50 -1.15 157 166 165
9.83 3.39 -1.15 158 167 166
10.09 3.34 -1.34 158 167 166
9.83 3.18 -1.15 156 165 160
9.83 3.07 -1.15 156 165 160
9.83 2.96 -1.15 156 165 160
9.83 2.85 -1.15 156 165 160
10.09 2.80 -1.34 157 166 161
10.09 2.69 -1.34 157 166 161
9.83 2.53 -1.15 157 166 163
9.83 2.43 -1.15 157 166 163
9.83 2.32 -1.15 155 164 161
9.83 2.21 -1.15 156 165 162
9.83 2.10 -1.15 156 165 162
9.83 2.00 -1.15 157 166 163
9.83 1.89 -1.15 157 166 163
9.83 1.78 -1.15 157 166 163
9.83 1.68 -1.15 156 165 162
9.83 1.57 -1.15 156 165 162
9.83 1.46 -1.15 158 168 160
9.83 1.35 -1.15 158 168 160
9.83 1.25 -1.15 157 168 162
9.83 1.14 -1.15 158 169 163
9.83 1.03 -1.15 158 170 166
9.83 0.93 -1.15 155 170 167
9.83 0.82 -1.15 154 169 166
9.83 0.71 -1.15 154 168 168
10.09 0.65 -1.34 154 168 168
9.83 0.50 -1.15 155 169 169
9.83 0.39 -1.15 155 169 169
10.09 0.32 -1.34 156 168 166
10.09 0.21 -1.34 156 168 166
10.09 0.11 -1.34 156 168 166
10.09 -0.00 -1.34 155 167 165
10.09 -0.11 -1.34 158 168 167
10.09 -0.22 -1.34 157 167 166
10.09 -0.32 -1.34 155 167 165
10.09 -0.43 -1.34 154 166 164
10.09 -0.54 -1.34 155 167 163
10.09 -0.65 -1.34 155 167 163
10.09 -0.75 -1.34 153 168 161
10.09 -0.86 -1.34 153 168 161
10.09 -0.97 -1.34 153 169 159
9.83 -1.11 -1.15 153 169 159
9.83 -1.22 -1.15 155 168 159
9.83 -1.32 -1.15 155 168 159
10.09 -1.40 -1.34 155 168 159
10.09 -1.51 -1.34 155 168 159
10.09 -1.62 -1.34 157 168 162
10.09 -1.72 -1.34 158 169 165
10.34 -1.80 -1.53 159 170 166
10.34 -1.91 -1.53 159 171 167
10.34 -2.02 -1.53 160 172 168
10.09 -2.15 -1.34 160 172 170
10.09 -2.26 -1.34 161 173 171
10.09 -2.37 -1.34 161 173 171
10.09 -2.48 -1.34 162 174 172
10.09 -2.58 -1.34 162 174 172
10.09 -2.69 -1.34 162 174 172
10.09 -2.80 -1.34 160 175 172
10.09 -2.91 -1.34 161 176 173
10.09 -3.01 -1.34 161 176 171
10.09 -3.12 -1.34 160 175 170
9.83 -3.25 -1.15 160 175 170
9.83 -3.36 -1.15 160 175 170
9.83 -3.47 -1.15 163 175 171
9.83 -3.57 -1.15 165 177 173
9.83 -3.68 -1.15 166 178 174
9.83 -3.79 -1.15 166 178 174
9.83 -3.89 -1.15 165 177 173
9.83 -4.00 -1.15 166 178 174
9.83 -4.11 -1.15 166 178 174
9.83 -4.22 -1.15 165 177 173
9.83 -4.32 -1.15 165 177 173
9.83 -4.43 -1.15 165 177 173
9.58 -4.55 -0.96 165 177 173
9.58 -4.87 -0.96 167 179 175
9.58 -4.98 -0.96 167 179 175
9.58 -5.08 -0.96 166 178 174
9.58 -5.19 -0.96 166 178 174
9.58 -5.30 -0.96 166 178 174
9.58 -5.40 -0.96 166 178 174
9.58 -5.51 -0.96 166 178 174
9.58 -5.62 -0.96 166 178 174
9.02 23.58 -0.66 57 57 55
9.02 23.48 -0.66 57 57 55
9.02 23.37 -0.66 58 58 56
9.02 23.26 -0.66 57 56 54
9.02 23.16 -0.66 56 55 53
9.02 23.05 -0.66 57 55 56
9.53 23.26 -1.05 62 60 61
9.53 23.16 -1.05 62 62 62
9.53 23.05 -1.05 52 52 52
9.53 22.94 -1.05 50 50 52
9.53 22.84 -1.05 64 62 63
9.53 22.73 -1.05 108 105 100
9.78 22.78 -1.24 128 123 117
9.78 22.67 -1.24 139 134 128
9.78 22.56 -1.24 132 127 121
9.78 22.46 -1.24 128 123 117
9.78 22.35 -1.24 133 128 122
9.78 22.24 -1.24 135 130 124
9.78 22.13 -1.24 130 125 119
9.78 22.03 -1.24 132 127 121
10.03 22.07 -1.43 133 128 122
10.03 21.96 -1.43 132 129 122
10.03 21.85 -1.43 131 128 121
10.03 21.75 -1.43 131 131 123
10.03 21.64 -1.43 130 131 123
10.03 21.53 -1.43 130 129 124
10.03 21.42 -1.43 133 130 125
10.03 21.32 -1.43 134 129 126
10.29 21.35 -1.63 135 130 126
10.29 21.24 -1.63 135 130 126
10.29 21.14 -1.63 135 132 127
10.29 21.03 -1.63 136 133 128
10.29 20.92 -1.63 137 134 127
10.03 20.67 -1.43 137 134 127
10.03 20.56 -1.43 136 133 126
10.03 20.45 -1.43 135 132 125
9.78 20.21 -1.24 133 133 125
9.78 20.10 -1.24 134 134 126
9.78 19.99 -1.24 134 134 126
9.78 19.88 -1.24 133 133 125
9.78 19.78 -1.24 134 134 126
9.78 19.67 -1.24 135 135 127
9.78 19.56 -1.24 137 134 127
9.78 19.46 -1.24 138 135 128
9.78 19.35 -1.24 139 136 129
9.78 19.24 -1.24 139 136 129
9.78 19.13 -1.24 139 136 129
9.78 19.03 -1.24 138 135 130
9.78 18.92 -1.24 139 136 131
9.78 18.81 -1.24 137 134 129
9.78 18.71 -1.24 139 135 132
9.78 18.60 -1.24 140 136 133
9.78 18.49 -1.24 140 136 135
9.78 18.38 -1.24 139 135 136
9.78 18.28 -1.24 139 135 136
9.78 18.17 -1.24 140 135 139
9.78 18.06 -1.24 142 138 139
9.78 17.96 -1.24 140 134 134
9.78 17.85 -1.24 141 136 133
9.78 17.74 -1.24 141 138 133
9.78 17.64 -1.24 142 139 134
9.78 17.53 -1.24 140 139 134
9.78 17.42 -1.24 141 140 135
9.78 17.31 -1.24 139 140 132
9.78 17.21 -1.24 139 140 132
9.78 17.10 -1.24 139 141 130
10.03 17.12 -1.43 139 141 130
10.03 17.01 -1.43 139 141 130
9.78 16.78 -1.24 139 141 130
9.78 16.67 -1.24 139 141 130
9.78 16.56 -1.24 139 141 130
9.78 16.46 -1.24 139 140 134
9.78 16.35 -1.24 139 138 134
9.78 16.24 -1.24 140 139 137
9.78 16.14 -1.24 139 139 137
9.78 16.03 -1.24 140 140 138
9.78 15.92 -1.24 141 142 137
9.53 15.70 -1.05 142 143 138
9.53 15.59 -1.05 142 143 137
9.53 15.48 -1.05 143 144 138
9.78 15.49 -1.24 142 143 135
9.78 15.39 -1.24 143 144 136
9.78 15.28 -1.24 142 145 136
9.78 15.17 -1.24 142 145 136
9.78 15.06 -1.24 142 145 136
9.78 14.96 -1.24 142 145 136
9.78 14.85 -1.24 142 145 138
9.78 14.74 -1.24 143 144 138
9.78 14.64 -1.24 144 145 137
9.78 14.53 -1.24 144 143 138
-2.43 8.73 8.06 145 146 150
-2.43 8.65 8.06 152 148 145
-2.43 8.57 8.06 161 152 145
-2.43 8.49 8.06 149 137 123
-2.43 8.41 8.06 140 122 102
-2.29 8.38 7.96 150 127 96
-2.29 8.30 7.96 157 128 94
-2.29 8.22 7.96 157 124 83
-2.29 8.14 7.96 161 126 84
-2.29 8.06 7.96 162 129 84
-2.29 7.98 7.96 162 129 84
-2.29 7.90 7.96 162 129 84
-2.15 7.87 7.85 161 128 83
-2.15 7.79 7.85 161 128 83
-2.29 7.65 7.96 161 128 83
-2.29 7.57 7.96 162 129 84
-2.29 7.49 7.96 164 131 86
-2.29 7.41 7.96 162 129 84
-2.15 7.38 7.85 162 129 84
-2.15 7.30 7.85 162 129 84
-2.15 7.22 7.85 163 130 85
-2.29 7.09 7.96 164 132 85
-2.29 7.01 7.96 164 132 85
-2.29 6.92 7.96 163 131 84
-2.29 6.84 7.96 162 130 83
-2.29 6.76 7.96 160 128 79
-2.43 6.63 8.06 160 128 81
-2.43 6.55 8.06 160 128 81
-2.57 6.42 8.17 157 126 80
-2.57 6.33 8.17 155 124 78
-2.57 6.25 8.17 155 124 80
-2.57 6.17 8.17 156 125 81
-2.57 6.09 8.17 158 129 87
-2.57 6.01 8.17 158 129 87
-2.57 5.93 8.17 140 111 71
-2.57 5.85 8.17 113 84 44
-2.57 5.77 8.17 114 84 46
-2.43 5.74 8.06 121 91 53
-2.43 5.66 8.06 125 97 58
-2.29 5.63 7.96 125 97 58
-2.29 5.55 7.96 131 101 63
-2.43 5.42 8.06 135 105 67
-2.57 5.29 8.17 137 107 69
-2.57 5.21 8.17 137 107 69
-2.43 5.18 8.06 137 107 69
-2.43 5.09 8.06 140 110 72
-2.43 5.01 8.06 143 114 74
-2.43 4.93 8.06 145 116 76
-2.29 4.90 7.96 157 130 87
-2.29 4.82 7.96 161 134 91
-2.29 4.74 7.96 159 132 89
-2.29 4.66 7.96 156 129 86
-2.29 4.57 7.96 156 129 86
-2.29 4.49 7.96 159 132 87
-2.29 4.41 7.96 163 136 91
-2.29 4.33 7.96 161 132 88
-2.29 4.25 7.96 161 132 88
-2.29 4.17 7.96 162 134 87
-2.29 4.09 7.96 162 134 87
-2.29 4.01 7.96 163 135 88
-2.29 3.93 7.96 163 135 88
-2.29 3.84 7.96 163 135 88
-2.43 3.72 8.06 163 135 88
-2.43 3.64 8.06 162 134 87
-2.43 3.56 8.06 163 135 88
-2.43 3.48 8.06 163 135 88
-2.43 3.40 8.06 164 136 89
-2.29 3.36 7.96 165 136 92
-2.29 3.28 7.96 167 138 94
-2.29 3.20 7.96 168 139 97
-2.43 3.08 8.06 169 140 98
-2.43 3.00 8.06 168 140 93
-2.43 2.91 8.06 168 139 95
-2.43 2.83 8.06 167 140 95
-2.43 2.75 8.06 166 139 96
-2.43 2.67 8.06 167 140 97
-2.43 2.59 8.06 169 141 94
-2.43 2.51 8.06 170 142 95
-2.43 2.43 8.06 173 145 95
-2.43 2.35 8.06 161 133 85
-2.43 2.27 8.06 167 143 95
-2.43 2.19 8.06 168 145 103
9.53 4.29 -1.05 155 165 157
9.53 4.19 -1.05 154 163 158
9.53 4.08 -1.05 155 166 160
9.53 3.97 -1.05 155 166 162
9.53 3.87 -1.05 154 165 161
9.53 3.76 -1.05 154 165 161
9.53 3.65 -1.05 155 165 164
9.53 3.55 -1.05 156 166 165
9.53 3.44 -1.05 157 166 165
9.78 3.39 -1.24 157 166 163
9.78 3.28 -1.24 157 166 163
9.78 3.18 -1.24 157 166 161
9.78 3.07 -1.24 157 166 161
9.78 2.96 -1.24 157 166 161
9.78 2.85 -1.24 157 166 161
9.78 2.75 -1.24 157 166 163
9.78 2.64 -1.24 157 166 163
9.78 2.53 -1.24 157 166 163
9.78 2.43 -1.24 157 166 163
9.78 2.32 -1.24 157 166 163
9.78 2.21 -1.24 157 166 163
9.78 2.10 -1.24 157 166 165
9.78 2.00 -1.24 157 166 165
9.78 1.89 -1.24 158 167 166
9.78 1.78 -1.24 158 167 166
9.78 1.68 -1.24 158 167 166
9.78 1.57 -1.24 158 167 166
9.78 1.46 -1.24 159 168 163
9.78 1.35 -1.24 159 168 163
9.78 1.25 -1.24 159 170 164
9.78 1.14 -1.24 159 170 164
9.53 0.99 -1.05 157 169 165
9.53 0.88 -1.05 156 168 166
9.53 0.78 -1.05 156 168 166
9.78 0.71 -1.24 156 170 170
9.78 0.60 -1.24 156 170 170
9.78 0.50 -1.24 158 170 170
9.78 0.39 -1.24 158 170 170
9.78 0.28 -1.24 157 169 169
9.78 0.18 -1.24 157 169 169
9.78 0.07 -1.24 157 167 166
9.78 -0.04 -1.24 157 167 166
9.78 -0.15 -1.24 158 166 168
9.78 -0.25 -1.24 159 167 169
9.78 -0.36 -1.24 158 168 167
9.78 -0.47 -1.24 158 168 167
9.78 -0.57 -1.24 158 169 165
9.78 -0.68 -1.24 158 169 165
9.78 -0.79 -1.24 157 170 163
9.78 -0.89 -1.24 158 171 164
9.78 -1.00 -1.24 157 170 161
9.78 -1.11 -1.24 157 170 161
9.78 -1.22 -1.24 157 168 160
9.78 -1.32 -1.24 157 168 160
9.78 -1.43 -1.24 157 168 162
9.78 -1.54 -1.24 157 168 162
9.78 -1.64 -1.24 159 168 163
9.78 -1.75 -1.24 159 170 164
10.03 -1.83 -1.43 160 171 165
10.03 -1.94 -1.43 160 172 168
10.03 -2.05 -1.43 160 172 168
9.78 -2.18 -1.24 160 172 170
9.78 -2.29 -1.24 160 172 170
9.78 -2.39 -1.24 161 173 171
9.78 -2.50 -1.24 161 173 171
9.78 -2.61 -1.24 162 174 172
9.78 -2.72 -1.24 162 174 172
9.78 -2.82 -1.24 161 176 173
9.78 -2.93 -1.24 161 176 173
9.78 -3.04 -1.24 161 176 171
9.78 -3.14 -1.24 161 176 171
9.78 -3.25 -1.24 160 175 168
9.78 -3.36 -1.24 160 175 168
9.78 -3.47 -1.24 162 174 170
9.78 -3.57 -1.24 164 176 172
9.78 -3.68 -1.24 165 177 173
9.78 -3.79 -1.24 165 177 173
9.78 -3.89 -1.24 165 177 173
9.78 -4.00 -1.24 166 178 174
9.78 -4.11 -1.24 166 178 174
9.78 -4.22 -1.24 166 178 174
9.78 -4.32 -1.24 165 177 173
9.53 -4.44 -1.05 165 177 173
9.53 -4.55 -1.05 164 176 172
9.53 -4.66 -1.05 165 177 173
9.53 -4.76 -1.05 166 178 174
9.53 -4.87 -1.05 167 179 175
9.53 -4.98 -1.05 168 180 176
9.53 -5.08 -1.05 166 178 174
9.53 -5.19 -1.05 166 178 174
9.53 -5.30 -1.05 166 178 174
9.53 -5.40 -1.05 167 179 175
9.53 -5.51 -1.05 167 179 175
9.53 -5.62 -1.05 167 179 175
9.53 -5.72 -1.05 168 180 176
9.53 -5.83 -1.05 168 180 176
9.53 -5.94 -1.05 166 178 174
9.53 -6.04 -1.05 166 178 174
9.53 -6.15 -1.05 167 179 175
9.27 -6.26 -0.86 168 180 176
9.27 -6.37 -0.86 168 180 176
9.27 -6.47 -0.86 167 179 175
9.27 -7.64 -0.86 166 178 174
9.27 -7.75 -0.86 163 175 171
9.27 -7.85 -0.86 165 177 173
9.27 -7.96 -0.86 170 182 178
8.97 23.58 -0.75 56 58 57
8.97 23.48 -0.75 57 57 57
8.97 23.37 -0.75 56 56 56
8.97 23.26 -0.75 56 56 56
8.97 23.16 -0.75 60 60 60
8.97 23.05 -0.75 55 55 55
9.22 23.11 -0.95 57 57 57
9.47 23.16 -1.14 60 60 62
9.47 23.05 -1.14 46 46 48
9.47 22.94 -1.14 59 60 62
9.47 22.84 -1.14 110 110 110
9.47 22.73 -1.14 140 137 130
9.47 22.62 -1.14 131 127 118
9.47 22.52 -1.14 127 123 114
9.73 22.56 -1.33 132 128 119
9.73 22.46 -1.33 135 131 122
9.73 22.35 -1.33 133 129 120
9.73 22.24 -1.33 131 126 120
9.73 22.13 -1.33 133 128 122
9.73 22.03 -1.33 132 127 121
9.73 21.92 -1.33 133 128 122
9.73 21.81 -1.33 133 130 123
9.73 21.71 -1.33 133 130 123
9.73 21.60 -1.33 133 132 127
9.73 21.49 -1.33 133 134 128
9.73 21.38 -1.33 133 132 128
9.73 21.28 -1.33 134 129 126
9.73 21.17 -1.33 136 127 128
9.73 21.06 -1.33 134 129 126
9.73 20.96 -1.33 134 129 126
9.98 20.99 -1.53 135 130 126
9.98 20.88 -1.53 135 130 126
9.98 20.78 -1.53 134 131 124
9.73 20.53 -1.33 134 131 124
9.73 20.42 -1.33 134 134 126
9.73 20.31 -1.33 133 133 125
9.73 20.21 -1.33 133 133 125
9.73 20.10 -1.33 134 134 126
9.73 19.99 -1.33 133 134 126
9.47 19.75 -1.14 133 134 126
9.47 19.64 -1.14 134 135 127
9.47 19.53 -1.14 135 135 127
9.47 19.43 -1.14 137 137 129
9.47 19.32 -1.14 140 137 130
9.47 19.21 -1.14 140 137 130
9.47 19.11 -1.14 140 137 130
9.47 19.00 -1.14 139 136 131
9.47 18.89 -1.14 138 135 130
9.47 18.79 -1.14 138 135 130
9.47 18.68 -1.14 138 134 131
9.47 18.57 -1.14 138 134 131
9.47 18.47 -1.14 139 135 134
9.47 18.36 -1.14 139 135 134
9.47 18.25 -1.14 138 134 133
9.47 18.15 -1.14 138 134 133
9.47 18.04 -1.14 138 134 135
9.47 17.93 -1.14 139 135 134
9.47 17.83 -1.14 141 136 133
9.47 17.72 -1.14 142 137 133
9.47 17.61 -1.14 141 138 133
9.73 17.64 -1.33 142 139 134
9.73 17.53 -1.33 140 140 132
9.73 17.42 -1.33 141 141 133
9.73 17.31 -1.33 140 141 133
9.73 17.21 -1.33 139 140 132
9.73 17.10 -1.33 139 141 130
9.73 16.99 -1.33 139 141 130
9.73 16.89 -1.33 139 141 130
9.73 16.78 -1.33 139 141 130
9.73 16.67 -1.33 139 141 130
9.73 16.56 -1.33 139 141 130
9.73 16.46 -1.33 140 140 132
9.73 16.35 -1.33 142 141 137
9.47 16.12 -1.14 142 141 139
9.47 16.02 -1.14 142 141 137
9.47 15.91 -1.14 142 141 137
9.47 15.80 -1.14 142 141 137
9.47 15.70 -1.14 143 142 138
9.47 15.59 -1.14 142 143 137
9.47 15.48 -1.14 142 143 137
9.47 15.38 -1.14 141 142 136
9.47 15.27 -1.14 143 144 138
9.47 15.16 -1.14 144 145 139
9.47 15.06 -1.14 143 144 138
9.47 14.95 -1.14 144 145 139
9.47 14.84 -1.14 144 145 139
9.73 14.85 -1.33 143 146 139
9.73 14.74 -1.33 143 144 138
9.73 14.64 -1.33 143 145 134
9.73 14.53 -1.33 144 144 136
-2.47 8.73 7.99 146 145 150
-2.47 8.65 7.99 155 145 143
-2.47 8.57 7.99 155 140 133
-2.47 8.49 7.99 146 127 110
-2.47 8.41 7.99 145 121 97
-2.47 8.32 7.99 155 126 94
-2.33 8.30 7.89 161 129 91
-2.33 8.22 7.89 158 127 83
-2.33 8.14 7.89 162 129 84
-2.33 8.06 7.89 162 129 84
-2.33 7.98 7.89 162 129 84
-2.47 7.84 7.99 162 130 83
-2.33 7.82 7.89 161 129 82
-2.33 7.74 7.89 161 129 82
-2.33 7.65 7.89 161 129 82
-2.47 7.52 7.99 162 130 83
-2.47 7.44 7.99 163 131 84
-2.47 7.36 7.99 160 128 81
-2.47 7.27 7.99 160 128 81
-2.47 7.19 7.99 160 128 81
-2.47 7.11 7.99 162 130 83
-2.47 7.03 7.99 164 132 85
-2.47 6.95 7.99 165 133 86
-2.47 6.87 7.99 164 132 85
-2.47 6.79 7.99 163 131 84
-2.47 6.71 7.99 162 130 81
-2.61 6.58 8.10 160 130 80
-2.61 6.50 8.10 159 128 81
-2.61 6.42 8.10 157 126 79
-2.75 6.28 8.21 154 123 77
-2.75 6.20 8.21 154 123 79
-2.75 6.12 8.21 156 125 81
-2.75 6.04 8.21 152 123 81
-2.75 5.96 8.21 155 126 84
-2.61 5.93 8.10 139 110 70
-2.61 5.85 8.10 109 80 40
-2.61 5.77 8.10 115 86 46
-2.61 5.69 8.10 115 86 46
-2.61 5.61 8.10 118 89 49
-2.61 5.53 8.10 118 89 49
-2.61 5.45 8.10 114 84 46
-2.61 5.37 8.10 115 85 47
-2.61 5.29 8.10 114 84 46
-2.61 5.21 8.10 111 81 43
-2.61 5.13 8.10 110 80 42
-2.61 5.05 8.10 114 84 46
-2.47 5.01 7.99 119 90 50
-2.47 4.93 7.99 123 94 54
-2.47 4.85 7.99 149 122 79
-2.47 4.77 7.99 160 133 90
-2.47 4.69 7.99 160 133 90
-2.33 4.66 7.89 157 130 87
-2.33 4.57 7.89 156 129 86
-2.33 4.49 7.89 158 131 86
-2.33 4.41 7.89 160 133 88
-2.33 4.33 7.89 160 131 89
-2.33 4.25 7.89 161 132 90
-2.33 4.17 7.89 162 133 89
-2.33 4.09 7.89 163 134 90
-2.33 4.01 7.89 164 135 91
-2.47 3.88 7.99 164 135 91
-2.47 3.80 7.99 164 136 89
-2.47 3.72 7.99 164 136 89
-2.47 3.64 7.99 164 136 89
-2.47 3.56 7.99 164 136 89
-2.47 3.48 7.99 164 135 91
-2.47 3.40 7.99 164 135 91
-2.47 3.32 7.99 164 135 93
-2.47 3.24 7.99 165 136 94
-2.47 3.16 7.99 165 136 94
-2.47 3.08 7.99 166 137 95
-2.47 3.00 7.99 167 140 93
-2.47 2.91 7.99 168 141 96
-2.47 2.83 7.99 168 141 96
-2.47 2.75 7.99 167 139 99
-2.47 2.67 7.99 166 139 96
-2.47 2.59 7.99 169 140 96
-2.47 2.51 7.99 170 142 95
-2.47 2.43 7.99 173 145 97
-2.47 2.35 7.99 170 143 96
-2.47 2.27 7.99 162 140 93
-2.47 2.19 7.99 166 147 105
9.47 4.29 -1.14 157 167 159
9.47 4.19 -1.14 154 164 156
9.47 4.08 -1.14 154 165 159
9.47 3.97 -1.14 154 165 159
9.47 3.87 -1.14 154 165 161
9.47 3.76 -1.14 154 165 161
9.47 3.65 -1.14 155 166 162
9.47 3.55 -1.14 156 167 163
9.47 3.44 -1.14 157 166 163
9.47 3.33 -1.14 157 166 163
9.47 3.23 -1.14 157 166 163
9.73 3.18 -1.33 158 167 162
9.47 3.01 -1.14 158 167 162
9.47 2.91 -1.14 157 166 161
9.47 2.80 -1.14 157 166 161
9.73 2.75 -1.33 157 166 163
9.73 2.64 -1.33 157 166 163
9.73 2.53 -1.33 157 166 163
9.73 2.43 -1.33 156 165 162
9.73 2.32 -1.33 157 166 165
9.73 2.21 -1.33 157 166 165
9.73 2.10 -1.33 157 165 167
9.73 2.00 -1.33 157 165 167
9.73 1.89 -1.33 157 165 167
9.73 1.78 -1.33 158 166 168
9.73 1.68 -1.33 158 166 169
9.47 1.52 -1.14 159 167 169
9.47 1.42 -1.14 159 168 165
9.47 1.31 -1.14 160 169 164
9.47 1.20 -1.14 160 171 165
9.47 1.10 -1.14 159 170 164
9.47 0.99 -1.14 157 169 165
9.47 0.88 -1.14 157 169 167
9.47 0.78 -1.14 158 170 168
9.47 0.67 -1.14 158 170 168
9.73 0.60 -1.33 158 170 168
9.73 0.50 -1.33 158 170 170
9.47 0.35 -1.14 158 170 170
9.73 0.28 -1.33 158 168 169
9.73 0.18 -1.33 158 168 169
9.73 0.07 -1.33 157 167 168
9.73 -0.04 -1.33 157 167 168
9.73 -0.15 -1.33 158 166 168
9.73 -0.25 -1.33 160 168 170
9.73 -0.36 -1.33 161 170 169
9.73 -0.47 -1.33 160 169 168
9.73 -0.57 -1.33 160 169 166
9.73 -0.68 -1.33 159 168 165
9.73 -0.79 -1.33 159 170 164
9.47 -0.93 -1.14 161 172 166
9.47 -1.03 -1.14 158 169 163
9.47 -1.14 -1.14 158 169 163
9.47 -1.25 -1.14 159 168 163
9.47 -1.35 -1.14 159 168 163
9.73 -1.43 -1.33 160 169 164
9.73 -1.54 -1.33 160 169 164
9.73 -1.64 -1.33 162 171 166
9.73 -1.75 -1.33 160 171 165
9.73 -1.86 -1.33 161 172 166
9.73 -1.97 -1.33 161 173 169
9.73 -2.07 -1.33 161 173 169
9.73 -2.18 -1.33 160 172 168
9.73 -2.29 -1.33 160 172 168
9.73 -2.39 -1.33 160 172 170
9.73 -2.50 -1.33 161 173 171
9.73 -2.61 -1.33 162 174 172
9.73 -2.72 -1.33 162 174 172
9.73 -2.82 -1.33 161 176 171
9.73 -2.93 -1.33 161 176 171
9.47 -3.06 -1.14 161 176 171
9.47 -3.17 -1.14 161 176 171
9.47 -3.27 -1.14 160 175 168
9.73 -3.36 -1.33 160 175 168
9.73 -3.47 -1.33 162 174 170
9.73 -3.57 -1.33 165 177 173
9.73 -3.68 -1.33 166 178 174
9.73 -3.79 -1.33 165 177 173
9.73 -3.89 -1.33 164 176 172
9.73 -4.00 -1.33 165 177 173
9.47 -4.13 -1.14 166 178 174
9.47 -4.23 -1.14 167 179 175
9.47 -4.34 -1.14 166 178 174
9.47 -4.44 -1.14 165 177 173
9.47 -4.55 -1.14 165 177 173
9.47 -4.66 -1.14 164 176 172
9.47 -4.76 -1.14 165 177 173
9.47 -4.87 -1.14 165 177 173
9.47 -4.98 -1.14 166 178 174
9.47 -5.08 -1.14 164 176 172
9.47 -5.19 -1.14 165 177 173
9.47 -5.30 -1.14 165 177 173
9.47 -5.40 -1.14 166 178 174
9.47 -5.51 -1.14 166 178 174
9.47 -5.62 -1.14 167 179 175
9.47 -5.72 -1.14 167 179 175
9.47 -5.83 -1.14 167 179 175
9.47 -5.94 -1.14 166 178 174
9.22 -6.05 -0.95 167 179 175
9.22 -6.16 -0.95 168 180 176
9.22 -6.26 -0.95 168 180 176
9.22 -6.37 -0.95 169 181 177
9.22 -6.47 -0.95 168 180 176
9.22 -7.64 -0.95 166 178 174
9.22 -7.75 -0.95 166 178 174
9.22 -7.85 -0.95 167 179 175
9.22 -7.96 -0.95 168 180 176
8.92 23.58 -0.85 57 59 58
8.92 23.48 -0.85 57 59 58
8.92 23.37 -0.85 55 57 56
8.92 23.26 -0.85 48 50 49
8.92 23.16 -0.85 53 55 54
8.92 23.05 -0.85 56 56 56
9.17 23.11 -1.04 48 48 48
9.42 23.16 -1.23 42 42 42
9.42 23.05 -1.23 65 65 65
9.42 22.94 -1.23 103 103 103
9.42 22.84 -1.23 127 126 124
9.42 22.73 -1.23 127 124 117
9.42 22.62 -1.23 128 124 115
9.42 22.52 -1.23 129 125 116
9.42 22.41 -1.23 131 127 118
9.67 22.46 -1.43 134 130 121
9.67 22.35 -1.43 134 130 121
9.67 22.24 -1.43 133 128 122
9.67 22.13 -1.43 131 126 120
9.67 22.03 -1.43 132 127 121
9.67 21.92 -1.43 134 129 123
9.67 21.81 -1.43 134 131 126
9.67 21.71 -1.43 133 130 125
9.67 21.60 -1.43 134 133 128
9.67 21.49 -1.43 133 134 129
9.67 21.38 -1.43 133 132 128
9.67 21.28 -1.43 134 128 128
9.67 21.17 -1.43 136 127 128
9.67 21.06 -1.43 135 129 129
9.67 20.96 -1.43 135 129 129
9.67 20.85 -1.43 135 130 127
9.67 20.74 -1.43 135 130 127
9.67 20.63 -1.43 134 131 126
9.67 20.53 -1.43 134 131 126
9.67 20.42 -1.43 134 134 126
9.67 20.31 -1.43 134 134 126
9.42 20.07 -1.23 134 134 126
9.42 19.96 -1.23 134 134 126
9.42 19.85 -1.23 133 134 126
9.42 19.75 -1.23 134 135 127
9.42 19.64 -1.23 134 135 127
9.42 19.53 -1.23 135 135 127
9.42 19.43 -1.23 137 136 131
9.42 19.32 -1.23 139 136 131
9.42 19.21 -1.23 139 136 131
9.42 19.11 -1.23 138 135 130
9.42 19.00 -1.23 137 133 130
9.42 18.89 -1.23 138 134 131
9.42 18.79 -1.23 139 135 132
9.42 18.68 -1.23 139 135 134
9.42 18.57 -1.23 138 134 133
9.42 18.47 -1.23 138 134 133
9.42 18.36 -1.23 138 134 133
