ply
format ascii 1.0
element vertex 1650
property float x
property float y
property float z
property uchar red
property uchar green
property uchar blue
end_header
1.46 20.57 -1.15 125 123 111
1.46 20.47 -1.15 127 125 113
1.46 20.38 -1.15 128 126 114
1.65 20.41 -1.32 130 126 117
1.65 20.31 -1.32 130 126 117
1.46 20.09 -1.15 129 125 114
1.46 20.00 -1.15 130 126 115
1.46 19.90 -1.15 131 127 116
1.46 19.81 -1.15 131 127 116
1.46 19.71 -1.15 131 127 115
1.46 19.62 -1.15 131 127 115
1.46 19.53 -1.15 132 129 114
1.46 19.43 -1.15 132 128 116
1.46 19.34 -1.15 129 125 114
1.46 19.24 -1.15 130 126 117
1.46 19.15 -1.15 130 127 118
1.46 19.05 -1.15 130 127 118
1.46 18.96 -1.15 130 127 120
1.46 18.86 -1.15 129 126 119
1.46 18.77 -1.15 128 125 118
1.46 18.67 -1.15 128 125 118
1.65 18.70 -1.32 132 129 124
1.65 18.60 -1.32 132 129 124
1.65 18.51 -1.32 132 129 124
1.65 18.41 -1.32 132 129 124
1.46 18.20 -1.15 133 128 125
1.46 18.11 -1.15 134 126 124
1.46 18.01 -1.15 132 127 124
1.46 17.92 -1.15 133 129 128
1.46 17.82 -1.15 131 130 128
1.46 17.73 -1.15 130 129 127
1.46 17.63 -1.15 130 129 127
1.65 17.65 -1.32 134 130 129
1.65 17.56 -1.32 135 131 130
1.46 17.35 -1.15 135 131 130
1.46 17.26 -1.15 135 131 130
1.46 17.16 -1.15 135 131 128
1.46 17.07 -1.15 135 131 128
1.46 16.97 -1.15 135 131 128
1.46 16.88 -1.15 135 131 128
1.46 16.78 -1.15 133 132 127
1.46 16.69 -1.15 132 131 126
1.46 16.59 -1.15 132 132 124
1.65 16.61 -1.32 131 131 123
1.65 16.51 -1.32 132 131 126
1.65 16.42 -1.32 132 131 126
1.65 16.32 -1.32 132 131 126
1.46 16.12 -1.15 132 131 126
1.46 16.03 -1.15 132 131 126
1.46 15.93 -1.15 133 132 128
1.65 15.94 -1.32 133 132 128
1.65 15.85 -1.32 133 132 128
1.65 15.75 -1.32 133 132 128
1.46 15.55 -1.15 134 133 131
1.46 15.46 -1.15 134 133 131
1.46 15.36 -1.15 135 134 132
1.46 15.27 -1.15 135 134 132
1.46 15.18 -1.15 135 134 132
1.46 15.08 -1.15 136 132 131
1.46 14.99 -1.15 137 133 134
1.46 14.89 -1.15 138 132 134
1.46 14.80 -1.15 137 133 134
1.46 14.70 -1.15 136 132 133
1.46 14.61 -1.15 136 132 133
1.46 14.51 -1.15 136 132 133
1.46 14.42 -1.15 136 132 133
1.46 14.32 -1.15 136 132 133
1.46 14.23 -1.15 134 132 133
1.46 14.14 -1.15 134 132 133
1.46 14.04 -1.15 133 131 132
1.46 13.95 -1.15 133 131 132
1.46 13.85 -1.15 132 132 132
1.46 13.76 -1.15 132 132 132
1.46 13.66 -1.15 134 132 133
1.46 13.57 -1.15 135 134 130
1.46 13.47 -1.15 136 132 129
1.46 13.38 -1.15 135 131 128
1.46 13.28 -1.15 135 131 128
1.46 13.19 -1.15 135 132 127
1.46 13.10 -1.15 135 132 127
1.46 13.00 -1.15 134 131 126
1.46 12.91 -1.15 134 131 126
1.46 12.81 -1.15 137 134 129
1.46 12.72 -1.15 135 132 127
1.46 12.62 -1.15 135 132 125
1.46 12.53 -1.15 134 131 124
1.46 12.43 -1.15 135 132 125
1.46 12.34 -1.15 134 131 124
-4.97 9.19 4.72 132 129 122
-4.97 9.11 4.72 130 127 120
-4.97 9.03 4.72 131 130 125
-4.97 8.95 4.72 133 132 127
-4.97 8.87 4.72 131 131 123
-5.10 8.72 4.84 132 132 124
-5.10 8.65 4.84 129 129 121
-5.10 8.57 4.84 134 134 126
-5.10 8.49 4.84 152 152 144
-5.10 8.41 4.84 156 153 148
-5.10 8.33 4.84 151 148 143
-5.10 8.25 4.84 153 148 145
-5.23 8.11 4.96 150 145 142
-5.23 8.03 4.96 158 149 150
-5.23 7.95 4.96 159 150 151
-5.23 7.87 4.96 175 165 166
-5.23 7.79 4.96 114 105 106
-5.23 7.71 4.96 4 2 3
-5.23 7.63 4.96 18 18 20
-5.23 7.55 4.96 31 32 34
-5.23 7.47 4.96 37 38 43
-5.23 7.40 4.96 18 19 24
-5.23 7.32 4.96 0 0 7
-5.23 7.24 4.96 82 81 89
-5.23 7.16 4.96 166 160 170
-5.23 7.08 4.96 171 164 171
-5.36 6.94 5.08 162 151 159
-5.36 6.87 5.08 149 138 144
-5.36 6.79 5.08 144 131 140
-5.36 6.71 5.08 146 135 143
-5.36 6.63 5.08 148 136 148
-5.36 6.55 5.08 141 133 144
-5.36 6.47 5.08 133 127 139
-5.36 6.39 5.08 137 135 148
-5.36 6.31 5.08 136 134 147
-5.36 6.23 5.08 137 135 148
-5.36 6.16 5.08 135 137 149
-5.36 6.08 5.08 138 140 152
-5.49 5.95 5.20 141 145 156
-5.49 5.87 5.20 144 148 159
-5.49 5.79 5.20 142 148 160
-5.49 5.71 5.20 104 110 122
-5.49 5.63 5.20 40 46 60
-5.49 5.55 5.20 13 19 33
-5.49 5.47 5.20 41 48 64
-5.49 5.40 5.20 45 52 68
-5.49 5.32 5.20 30 37 55
-5.63 5.19 5.32 49 56 74
-5.63 5.11 5.32 23 28 48
-5.63 5.03 5.32 45 50 70
-5.63 4.95 5.32 89 94 113
-5.63 4.88 5.32 117 122 141
-5.63 4.80 5.32 135 141 157
-5.63 4.72 5.32 132 138 154
-5.63 4.64 5.32 142 148 164
-5.63 4.56 5.32 52 58 74
-5.63 4.48 5.32 19 25 39
-5.63 4.41 5.32 14 21 31
-5.76 4.28 5.44 65 72 80
-5.76 4.20 5.44 153 158 161
-5.76 4.13 5.44 153 159 157
-5.76 4.05 5.44 153 160 153
-5.76 3.97 5.44 149 155 151
-5.76 3.89 5.44 149 157 160
-5.76 3.81 5.44 141 150 159
-5.76 3.74 5.44 131 141 150
-5.76 3.66 5.44 129 141 153
-5.76 3.58 5.44 123 140 150
-5.76 3.50 5.44 126 142 155
-5.76 3.42 5.44 125 143 155
-5.76 3.35 5.44 130 148 160
-5.76 3.27 5.44 138 155 163
-5.76 3.19 5.44 140 157 165
-5.76 3.11 5.44 140 157 164
-5.76 3.03 5.44 141 158 165
-5.76 2.96 5.44 143 162 169
-5.76 2.88 5.44 141 160 167
-5.76 2.80 5.44 136 159 167
-5.76 2.72 5.44 139 162 170
-5.76 2.64 5.44 140 162 173
-5.63 2.61 5.32 139 159 168
-5.63 2.53 5.32 150 169 175
-5.63 2.45 5.32 164 178 178
-5.49 2.41 5.20 163 173 172
-5.36 2.37 5.08 196 205 200
-5.23 2.33 4.96 199 204 200
-5.10 2.28 4.84 198 203 199
-4.70 2.31 4.48 198 200 197
-4.44 2.31 4.24 199 203 202
-4.15 2.30 3.97 194 198 197
-4.01 2.26 3.85 186 195 192
-3.75 2.25 3.61 194 203 200
-3.75 2.16 3.61 193 204 198
-3.59 2.12 3.46 179 188 183
-3.46 2.07 3.34 200 209 204
-3.30 2.03 3.20 196 202 198
-3.17 1.98 3.08 197 203 199
-3.01 1.94 2.93 198 204 200
-3.01 1.85 2.93 197 203 199
-2.88 1.80 2.81 193 199 195
1.65 2.64 -1.32 154 160 156
1.65 2.55 -1.32 148 154 150
1.65 2.45 -1.32 156 162 158
1.46 2.32 -1.15 155 161 157
1.46 2.22 -1.15 157 163 159
1.65 2.17 -1.32 155 161 157
1.65 2.07 -1.32 158 164 160
1.65 1.98 -1.32 154 164 156
1.65 1.88 -1.32 155 165 157
1.65 1.79 -1.32 155 164 159
1.65 1.69 -1.32 155 164 159
1.65 1.60 -1.32 154 163 158
1.65 1.50 -1.32 154 163 158
1.65 1.41 -1.32 156 165 160
1.65 1.31 -1.32 158 167 162
1.65 1.22 -1.32 158 167 162
1.65 1.12 -1.32 157 166 161
1.65 1.03 -1.32 157 166 163
1.65 0.93 -1.32 157 166 163
1.65 0.84 -1.32 157 166 163
1.65 0.74 -1.32 158 167 164
1.65 0.65 -1.32 157 166 163
1.65 0.55 -1.32 157 166 163
1.65 0.46 -1.32 157 166 161
1.46 -0.05 -1.15 159 168 163
1.46 -0.14 -1.15 159 168 163
1.46 -0.24 -1.15 157 166 161
1.46 -0.33 -1.15 158 167 162
1.46 -0.43 -1.15 157 168 162
1.46 -0.52 -1.15 157 168 162
1.46 -0.62 -1.15 158 169 163
1.46 -0.71 -1.15 158 169 163
1.46 -0.81 -1.15 157 168 162
1.46 -0.90 -1.15 157 168 162
1.46 -0.99 -1.15 160 169 164
1.46 -1.09 -1.15 160 169 164
1.46 -1.18 -1.15 160 169 164
1.46 -1.28 -1.15 160 169 164
1.46 -1.37 -1.15 160 169 166
1.46 -1.47 -1.15 161 170 167
1.46 -1.56 -1.15 161 170 167
1.46 -1.66 -1.15 162 171 168
1.46 -1.75 -1.15 160 169 166
1.46 -1.85 -1.15 161 170 167
1.46 -1.94 -1.15 161 170 167
1.46 -2.03 -1.15 162 171 168
1.46 -2.13 -1.15 162 171 170
1.46 -2.22 -1.15 162 171 170
1.46 -2.32 -1.15 161 170 169
1.46 -2.41 -1.15 160 169 164
1.46 -2.51 -1.15 161 170 165
1.46 -2.60 -1.15 161 170 165
1.46 -2.70 -1.15 161 170 165
1.46 -2.79 -1.15 161 170 167
1.46 -2.89 -1.15 161 170 167
1.46 -2.98 -1.15 161 170 167
1.46 -3.07 -1.15 162 171 168
1.46 -3.17 -1.15 160 169 168
1.46 -3.26 -1.15 162 171 170
1.46 -3.36 -1.15 164 173 172
1.46 -3.45 -1.15 165 174 173
1.46 -3.55 -1.15 165 173 175
1.46 -3.64 -1.15 165 173 175
1.46 -3.74 -1.15 166 174 176
1.46 -3.83 -1.15 166 175 174
1.46 -3.93 -1.15 164 173 170
1.46 -4.02 -1.15 164 173 168
1.46 -4.11 -1.15 165 174 169
1.46 -4.21 -1.15 165 174 169
1.46 -4.30 -1.15 165 174 169
1.65 -4.39 -1.32 165 174 169
1.65 -4.48 -1.32 165 174 169
1.65 -4.58 -1.32 164 173 168
1.46 -4.68 -1.15 164 173 168
1.46 -4.78 -1.15 164 173 168
1.46 -4.87 -1.15 164 173 168
1.46 -4.97 -1.15 164 173 168
1.46 -5.06 -1.15 165 174 169
1.46 -5.16 -1.15 165 174 169
1.46 -5.25 -1.15 165 174 169
1.46 -5.34 -1.15 165 174 171
1.46 -5.44 -1.15 167 176 173
1.46 -5.53 -1.15 167 176 173
1.46 -5.63 -1.15 165 174 171
1.46 -5.72 -1.15 164 175 171
1.46 -5.82 -1.15 166 177 173
1.46 -5.91 -1.15 167 178 174
1.46 -6.01 -1.15 167 178 174
1.46 -6.10 -1.15 164 175 171
1.46 -6.20 -1.15 164 175 171
1.46 -6.29 -1.15 165 175 174
1.46 -6.38 -1.15 167 177 176
1.46 -6.48 -1.15 166 178 176
1.46 -6.57 -1.15 167 179 177
1.46 -6.67 -1.15 168 180 178
1.46 -6.76 -1.15 168 180 178
1.46 -6.86 -1.15 168 179 175
1.46 -6.95 -1.15 168 179 175
1.46 -7.05 -1.15 168 179 175
1.46 -7.14 -1.15 167 178 174
1.46 -7.24 -1.15 167 178 174
1.65 -7.33 -1.32 168 179 175
1.65 -7.42 -1.32 169 180 176
1.65 -7.52 -1.32 168 179 175
1.65 -7.61 -1.32 169 180 176
1.65 -7.71 -1.32 169 180 176
1.46 -7.80 -1.15 171 182 178
1.46 -7.90 -1.15 172 183 179
1.46 -7.99 -1.15 171 182 178
1.46 -8.09 -1.15 170 181 177
1.46 -8.18 -1.15 169 180 176
1.46 -8.28 -1.15 172 181 176
1.46 -8.37 -1.15 172 181 176
1.46 -8.46 -1.15 172 181 178
1.46 -8.56 -1.15 172 181 178
1.46 -8.65 -1.15 172 181 178
1.46 -8.75 -1.15 172 181 178
1.46 -8.84 -1.15 172 181 178
1.46 -8.94 -1.15 172 181 178
1.46 -9.03 -1.15 175 184 181
1.65 -9.13 -1.32 175 184 181
1.65 -9.23 -1.32 175 184 181
1.28 -9.31 -0.98 175 184 181
1.28 -9.40 -0.98 175 184 181
1.46 -9.51 -1.15 176 185 182
1.46 -9.60 -1.15 176 185 182
1.46 -9.69 -1.15 176 185 182
1.46 -9.79 -1.15 177 186 183
1.46 -9.88 -1.15 178 187 184
1.46 -9.98 -1.15 179 188 185
1.46 -10.07 -1.15 179 188 185
1.46 -10.17 -1.15 179 188 185
1.46 -10.26 -1.15 181 190 187
1.46 -10.36 -1.15 183 192 189
1.46 -10.45 -1.15 180 189 186
1.46 -10.55 -1.15 181 190 187
1.46 -10.64 -1.15 183 192 189
1.65 -10.75 -1.32 183 192 189
1.65 -10.84 -1.32 182 191 188
1.65 -10.94 -1.32 183 192 189
1.65 -11.03 -1.32 185 194 191
1.65 -11.13 -1.32 186 195 192
1.65 -11.22 -1.32 184 193 188
1.65 -11.32 -1.32 185 194 189
1.65 -11.41 -1.32 188 197 192
1.65 -11.51 -1.32 189 198 195
1.65 -11.60 -1.32 188 197 194
1.65 -11.70 -1.32 188 197 194
1.65 -11.79 -1.32 188 197 194
1.46 -11.87 -1.15 188 197 194
1.46 -11.96 -1.15 189 198 195
1.46 -12.06 -1.15 190 199 196
1.46 -12.15 -1.15 191 200 197
1.46 -12.25 -1.15 192 201 196
1.46 -12.34 -1.15 193 202 197
1.46 -12.44 -1.15 194 203 198
1.46 -12.53 -1.15 194 203 198
1.46 -12.63 -1.15 191 200 197
1.28 -12.70 -0.98 193 202 199
1.28 -12.79 -0.98 196 205 202
1.28 -12.88 -0.98 196 205 202
1.28 -12.98 -0.98 196 205 202
1.28 -13.07 -0.98 197 206 203
1.28 -13.17 -0.98 199 208 205
1.28 -13.26 -0.98 201 210 207
1.28 -13.36 -0.98 202 211 208
1.46 -13.48 -1.15 203 212 209
1.46 -13.57 -1.15 203 212 209
1.46 -13.67 -1.15 202 211 208
1.28 -13.73 -0.98 202 211 208
1.28 -13.83 -0.98 203 212 209
1.46 -13.95 -1.15 204 213 210
1.46 -14.04 -1.15 205 211 209
1.46 -14.14 -1.15 204 210 208
1.46 -14.23 -1.15 205 211 209
1.46 -14.33 -1.15 207 213 211
1.46 -14.42 -1.15 205 214 211
1.46 -14.52 -1.15 204 213 210
1.46 -14.61 -1.15 205 214 209
1.46 -14.71 -1.15 207 216 211
1.46 -14.80 -1.15 209 218 215
1.46 -14.90 -1.15 209 218 215
1.46 -14.99 -1.15 209 218 215
1.46 -15.08 -1.15 209 218 215
1.46 -15.18 -1.15 210 219 218
1.46 -15.27 -1.15 210 219 218
1.28 -15.33 -0.98 211 219 221
1.28 -15.43 -0.98 211 219 221
1.28 -15.52 -0.98 210 218 220
1.46 -15.65 -1.15 209 217 219
1.46 -15.75 -1.15 209 217 219
1.28 -15.80 -0.98 210 218 220
1.28 -15.90 -0.98 213 221 223
1.28 -15.99 -0.98 216 222 222
1.09 -16.05 -0.82 216 222 222
1.09 -16.14 -0.82 217 223 223
1.09 -16.23 -0.82 217 223 223
1.28 -16.37 -0.98 218 222 221
1.28 -16.46 -0.98 218 222 221
1.28 -16.56 -0.98 217 221 220
1.28 -16.65 -0.98 216 220 219
1.28 -16.74 -0.98 215 219 218
1.28 -16.84 -0.98 215 219 218
1.28 -16.93 -0.98 215 220 216
1.28 -17.03 -0.98 215 220 216
1.46 -17.16 -1.15 215 220 216
1.46 -17.26 -1.15 216 221 217
1.46 -17.35 -1.15 216 221 217
1.46 -17.45 -1.15 217 222 218
1.46 -17.54 -1.15 218 223 219
1.46 -17.64 -1.15 219 224 220
1.46 -17.73 -1.15 218 222 221
1.46 -17.83 -1.15 219 223 222
1.46 -17.92 -1.15 220 224 223
1.46 -18.02 -1.15 220 224 223
1.46 -18.11 -1.15 220 224 223
1.46 -18.20 -1.15 220 224 223
1.46 -18.30 -1.15 223 225 224
1.46 -18.39 -1.15 225 227 224
1.46 -18.49 -1.15 226 226 224
1.46 -18.58 -1.15 227 227 225
1.46 -18.68 -1.15 228 228 226
1.46 -18.77 -1.15 229 229 227
1.46 -18.87 -1.15 229 229 227
1.46 -18.96 -1.15 227 227 225
1.46 -19.06 -1.15 226 226 224
1.46 -19.15 -1.15 225 225 223
1.46 -19.25 -1.15 226 226 224
1.46 -19.34 -1.15 226 228 225
1.46 -19.43 -1.15 226 228 225
1.46 -19.53 -1.15 226 228 225
1.46 -19.62 -1.15 226 228 225
1.28 -19.66 -0.98 226 228 225
1.28 -19.76 -0.98 227 229 226
1.46 -19.91 -1.15 218 220 219
1.46 -20.00 -1.15 220 222 221
1.28 -20.04 -0.98 223 225 224
1.28 -20.13 -0.98 226 228 227
1.28 -20.23 -0.98 228 230 229
1.28 -20.32 -0.98 229 231 230
1.28 -20.42 -0.98 230 230 230
1.28 -20.51 -0.98 228 228 228
1.28 -20.60 -0.98 228 228 228
1.28 -20.70 -0.98 227 227 227
1.28 -20.79 -0.98 227 227 227
1.28 -20.89 -0.98 227 227 227
1.28 -20.98 -0.98 227 227 227
1.28 -21.07 -0.98 227 227 227
1.28 -21.17 -0.98 227 227 227
1.28 -21.26 -0.98 224 224 226
1.28 -21.36 -0.98 225 225 227
1.28 -21.45 -0.98 226 226 228
1.28 -21.55 -0.98 227 227 229
1.28 -21.64 -0.98 226 226 228
1.28 -21.73 -0.98 226 226 228
1.28 -21.83 -0.98 226 226 228
1.28 -22.11 -0.98 226 226 228
1.28 -22.20 -0.98 227 227 227
1.28 -22.30 -0.98 227 227 227
1.28 -22.39 -0.98 227 227 227
1.28 -22.49 -0.98 226 226 226
1.28 -22.58 -0.98 226 226 226
1.28 -22.67 -0.98 226 226 228
1.28 -22.77 -0.98 226 226 228
1.28 -22.86 -0.98 226 226 228
1.28 -22.96 -0.98 224 224 226
1.28 -23.05 -0.98 222 222 224
1.28 -23.15 -0.98 221 221 223
1.28 -23.24 -0.98 223 223 225
1.09 -23.26 -0.82 225 225 227
1.09 -23.36 -0.82 224 224 226
1.09 -23.45 -0.82 223 223 225
1.09 -23.54 -0.82 223 223 225
1.09 -23.64 -0.82 223 223 225
1.09 -23.73 -0.82 224 224 226
1.09 -23.82 -0.82 225 225 227
1.28 -23.99 -0.98 225 225 225
1.28 -24.09 -0.98 224 224 226
1.28 -24.18 -0.98 223 223 225
1.28 -24.28 -0.98 225 224 229
1.28 -24.37 -0.98 226 225 230
1.28 -24.46 -0.98 226 225 230
1.28 -24.56 -0.98 225 225 227
1.28 -24.65 -0.98 223 223 225
1.28 -24.75 -0.98 222 222 224
1.28 -24.84 -0.98 223 223 225
1.28 -24.93 -0.98 222 222 222
1.28 -25.03 -0.98 224 224 224
1.28 -25.12 -0.98 225 225 225
1.28 -25.22 -0.98 224 224 222
1.28 -25.31 -0.98 223 223 221
1.28 -25.40 -0.98 223 223 221
1.28 -25.50 -0.98 223 223 221
1.28 -25.59 -0.98 226 226 224
1.28 -25.69 -0.98 225 225 223
1.28 -25.78 -0.98 224 224 222
1.28 -25.88 -0.98 223 223 221
1.46 -26.05 -1.15 223 223 223
1.46 -26.15 -1.15 222 222 222
1.46 -26.24 -1.15 220 220 220
1.28 -26.25 -0.98 219 219 219
1.28 -26.35 -0.98 219 219 221
1.28 -26.44 -0.98 221 221 223
1.28 -26.53 -0.98 222 222 224
1.28 -26.63 -0.98 222 222 224
1.28 -26.72 -0.98 220 220 222
1.28 -26.82 -0.98 218 218 220
1.28 -26.91 -0.98 219 218 223
1.28 -27.01 -0.98 220 219 224
1.28 -27.10 -0.98 219 219 221
1.28 -27.19 -0.98 218 218 220
1.28 -27.29 -0.98 218 218 220
1.28 -27.38 -0.98 218 218 220
1.28 -27.48 -0.98 219 219 221
1.28 -27.57 -0.98 221 221 221
1.28 -27.66 -0.98 222 222 222
1.28 -27.76 -0.98 219 219 219
1.28 -27.85 -0.98 219 219 219
1.28 -27.95 -0.98 220 220 220
1.46 -28.13 -1.15 220 220 220
1.46 -28.23 -1.15 221 221 221
1.28 -28.23 -0.98 222 222 222
1.28 -28.32 -0.98 223 223 223
1.28 -28.42 -0.98 224 222 223
1.28 -28.51 -0.98 222 221 219
1.28 -28.61 -0.98 226 222 221
1.28 -28.70 -0.98 228 224 223
1.28 -28.79 -0.98 228 224 223
1.28 -28.89 -0.98 225 223 224
1.09 -28.88 -0.82 224 222 223
1.09 -28.98 -0.82 226 224 225
1.09 -29.07 -0.82 227 225 226
1.09 -29.17 -0.82 225 225 225
1.28 -29.36 -0.98 226 226 226
1.28 -29.45 -0.98 227 227 227
1.28 -29.55 -0.98 227 227 227
1.28 -29.64 -0.98 228 228 228
1.28 -29.74 -0.98 228 230 229
1.28 -29.83 -0.98 229 229 229
1.28 -29.92 -0.98 228 228 228
1.28 -30.02 -0.98 228 226 227
1.28 -30.11 -0.98 226 224 225
1.28 -30.21 -0.98 226 224 225
1.28 -30.30 -0.98 226 224 225
1.28 -30.39 -0.98 227 225 226
1.09 -30.38 -0.82 226 224 225
1.09 -30.48 -0.82 226 224 225
1.09 -30.57 -0.82 225 223 224
1.09 -30.67 -0.82 225 223 224
1.09 -30.76 -0.82 225 223 224
1.09 -30.85 -0.82 226 224 225
1.09 -30.95 -0.82 226 224 225
1.09 -31.04 -0.82 227 225 226
1.09 -31.13 -0.82 227 225 226
1.09 -31.23 -0.82 228 226 227
1.09 -31.32 -0.82 249 247 248
1.09 -31.42 -0.82 198 194 195
1.09 -31.51 -0.82 102 96 100
1.09 -31.60 -0.82 116 105 113
1.09 -31.70 -0.82 122 109 118
1.09 -31.79 -0.82 115 103 113
1.09 -31.88 -0.82 112 100 110
1.09 -31.98 -0.82 103 95 106
1.09 -32.07 -0.82 102 94 105
1.60 23.35 -1.40 0 0 0
1.60 23.26 -1.40 0 0 0
1.60 23.16 -1.40 0 0 0
1.42 22.93 -1.24 0 0 0
1.42 22.84 -1.24 0 0 0
1.42 22.74 -1.24 0 0 0
1.42 22.65 -1.24 0 0 0
1.42 22.55 -1.24 0 0 0
1.42 22.46 -1.24 0 0 0
1.42 22.36 -1.24 127 120 127
1.42 22.27 -1.24 127 120 127
1.42 22.17 -1.24 125 118 125
1.42 22.08 -1.24 124 118 122
1.42 21.98 -1.24 126 120 124
1.42 21.89 -1.24 130 121 124
1.42 21.80 -1.24 130 121 124
1.42 21.70 -1.24 130 122 120
1.42 21.61 -1.24 131 123 121
1.42 21.51 -1.24 129 121 118
1.42 21.42 -1.24 129 121 118
1.42 21.32 -1.24 127 123 114
1.42 21.23 -1.24 127 123 114
1.42 21.13 -1.24 126 124 112
1.42 21.04 -1.24 126 124 112
1.42 20.94 -1.24 124 124 112
1.42 20.85 -1.24 124 124 112
1.42 20.76 -1.24 128 126 114
1.42 20.66 -1.24 125 123 111
1.42 20.57 -1.24 124 122 110
1.42 20.47 -1.24 127 124 115
1.42 20.38 -1.24 128 125 116
1.42 20.28 -1.24 129 125 116
1.42 20.00 -1.24 127 123 114
1.42 19.90 -1.24 129 125 116
1.42 19.81 -1.24 130 126 117
1.42 19.71 -1.24 129 127 115
1.23 19.50 -1.07 129 127 115
1.23 19.40 -1.07 129 127 115
1.23 19.31 -1.07 129 126 117
1.23 19.22 -1.07 128 125 116
1.23 19.12 -1.07 128 125 118
1.23 19.03 -1.07 129 126 119
1.23 18.93 -1.07 130 127 120
1.23 18.84 -1.07 130 127 120
1.23 18.75 -1.07 129 126 119
1.23 18.65 -1.07 127 127 119
1.23 18.56 -1.07 127 127 119
1.23 18.46 -1.07 132 129 124
1.42 18.49 -1.24 131 128 123
1.42 18.39 -1.24 132 127 123
1.42 18.30 -1.24 132 127 123
1.42 18.20 -1.24 134 126 123
1.23 17.99 -1.07 135 127 124
1.23 17.90 -1.07 135 127 124
1.23 17.80 -1.07 131 127 124
1.23 17.71 -1.07 131 127 124
1.23 17.62 -1.07 132 128 125
1.23 17.52 -1.07 132 128 125
1.23 17.43 -1.07 133 129 126
1.42 17.45 -1.24 134 130 127
1.42 17.35 -1.24 134 130 127
1.23 17.15 -1.07 134 130 127
1.23 17.05 -1.07 135 131 128
1.23 16.96 -1.07 134 130 127
1.23 16.86 -1.07 134 131 126
1.23 16.77 -1.07 134 131 126
1.42 16.78 -1.24 134 131 126
1.42 16.69 -1.24 133 130 125
1.42 16.59 -1.24 132 129 124
1.42 16.50 -1.24 132 129 124
1.42 16.41 -1.24 132 132 124
1.42 16.31 -1.24 132 132 124
1.42 16.22 -1.24 132 131 126
1.42 16.12 -1.24 133 132 127
1.42 16.03 -1.24 133 132 127
1.42 15.93 -1.24 133 132 127
1.42 15.84 -1.24 133 132 127
1.42 15.74 -1.24 133 132 128
1.42 15.65 -1.24 133 132 128
1.42 15.55 -1.24 133 132 130
1.42 15.46 -1.24 133 132 130
1.23 15.26 -1.07 133 132 130
1.23 15.17 -1.07 134 133 131
1.23 15.07 -1.07 134 133 131
1.23 14.98 -1.07 135 134 132
1.23 14.89 -1.07 136 132 133
1.42 14.89 -1.24 136 132 133
1.42 14.80 -1.24 136 132 133
1.23 14.60 -1.07 136 132 133
1.23 14.51 -1.07 133 131 132
1.23 14.42 -1.07 133 131 132
1.23 14.32 -1.07 133 131 132
1.23 14.23 -1.07 133 131 132
1.23 14.13 -1.07 132 130 131
1.42 14.14 -1.24 133 131 132
1.42 14.04 -1.24 133 133 133
1.42 13.95 -1.24 133 133 133
1.42 13.85 -1.24 133 133 133
1.42 13.76 -1.24 133 133 133
1.42 13.66 -1.24 134 132 133
1.42 13.57 -1.24 136 135 133
1.42 13.47 -1.24 136 132 131
1.42 13.38 -1.24 135 131 128
1.23 13.19 -1.07 135 131 128
1.23 13.10 -1.07 135 131 128
1.23 13.00 -1.07 135 131 128
1.23 12.91 -1.07 134 130 127
1.23 12.82 -1.07 134 130 127
1.23 12.72 -1.07 135 132 127
1.23 12.63 -1.07 133 130 125
1.23 12.53 -1.07 132 129 124
1.42 12.53 -1.24 133 130 125
1.42 12.43 -1.24 135 132 125
1.42 12.34 -1.24 135 132 125
-5.01 9.19 4.65 134 131 124
-5.01 9.11 4.65 132 129 124
-5.01 9.03 4.65 130 129 124
-5.01 8.95 4.65 132 131 127
-5.01 8.87 4.65 130 129 124
-5.01 8.79 4.65 132 131 126
-5.14 8.65 4.77 129 128 123
-5.14 8.57 4.77 131 130 125
-5.14 8.49 4.77 147 146 141
-5.14 8.41 4.77 159 156 151
-5.14 8.33 4.77 145 142 137
-5.14 8.25 4.77 150 146 143
-5.14 8.17 4.77 158 154 151
-5.27 8.03 4.89 149 143 143
-5.27 7.95 4.89 179 173 173
-5.27 7.87 4.89 127 121 121
-5.27 7.79 4.89 28 24 23
-5.27 7.71 4.89 32 32 32
-5.27 7.63 4.89 33 35 34
-5.27 7.55 4.89 37 38 40
-5.27 7.47 4.89 17 17 19
-5.27 7.40 4.89 4 3 8
-5.27 7.32 4.89 113 111 116
-5.27 7.24 4.89 168 163 169
-5.27 7.16 4.89 162 155 162
-5.27 7.08 4.89 155 145 153
-5.27 7.00 4.89 149 138 146
-5.27 6.92 4.89 148 137 145
-5.27 6.84 4.89 154 143 151
-5.40 6.71 5.01 153 141 151
-5.40 6.63 5.01 145 133 143
-5.40 6.55 5.01 139 129 140
-5.40 6.47 5.01 140 132 145
-5.40 6.39 5.01 137 135 148
-5.40 6.31 5.01 139 137 148
-5.40 6.23 5.01 140 138 149
-5.40 6.16 5.01 138 138 148
-5.40 6.08 5.01 137 137 147
-5.40 6.00 5.01 136 139 148
-5.40 5.92 5.01 138 141 150
-5.53 5.79 5.13 150 154 165
-5.53 5.71 5.13 154 158 169
-5.53 5.63 5.13 105 111 123
-5.53 5.55 5.13 40 46 58
-5.53 5.47 5.13 24 30 44
-5.53 5.40 5.13 36 42 56
-5.53 5.32 5.13 37 44 60
-5.53 5.24 5.13 39 44 63
-5.67 5.11 5.26 38 41 60
-5.53 5.08 5.13 31 32 53
-5.53 5.00 5.13 44 45 65
-5.53 4.92 5.13 109 110 130
-5.67 4.80 5.26 151 152 170
-5.67 4.72 5.26 157 158 176
-5.67 4.64 5.26 159 160 180
-5.67 4.56 5.26 105 106 126
-5.67 4.48 5.26 30 31 51
-5.67 4.41 5.26 16 18 33
-5.67 4.33 5.26 2 4 17
-5.67 4.25 5.26 150 155 161
-5.67 4.17 5.26 166 171 174
-5.80 4.05 5.38 147 153 151
-5.80 3.97 5.38 150 156 154
-5.80 3.89 5.38 146 154 157
-5.80 3.81 5.38 142 149 157
-5.80 3.74 5.38 134 144 153
-5.80 3.66 5.38 131 143 155
-5.67 3.62 5.26 128 142 153
-5.67 3.54 5.26 126 142 155
-5.67 3.47 5.26 125 141 156
-5.67 3.39 5.26 128 144 159
-5.67 3.31 5.26 137 151 162
-5.67 3.23 5.26 142 156 167
-5.67 3.15 5.26 143 157 166
-5.80 3.03 5.38 144 158 167
-5.80 2.96 5.38 143 162 169
-5.67 2.92 5.26 142 161 168
-5.67 2.84 5.26 138 161 169
-5.67 2.76 5.26 140 163 171
-5.67 2.68 5.26 141 163 174
-5.67 2.61 5.26 140 160 169
-5.67 2.53 5.26 148 169 174
-5.53 2.49 5.13 164 178 178
-5.53 2.41 5.13 159 169 168
-5.40 2.37 5.01 192 201 196
-5.27 2.33 4.89 202 208 204
-5.14 2.28 4.77 197 202 198
-4.74 2.31 4.41 196 201 197
-4.48 2.31 4.17 197 203 201
-4.19 2.30 3.90 190 196 194
-4.05 2.26 3.78 184 195 191
-3.92 2.21 3.66 194 205 201
-3.92 2.13 3.66 189 202 195
-3.63 2.12 3.39 178 189 183
-3.63 2.04 3.39 200 206 202
-3.50 1.99 3.27 197 202 198
-3.21 1.98 3.00 199 204 200
-3.05 1.94 2.86 198 203 199
-3.05 1.85 2.86 196 201 197
-3.05 1.77 2.86 192 197 193
1.42 2.60 -1.24 165 170 166
1.60 2.55 -1.40 144 149 145
1.42 2.41 -1.24 155 161 157
1.42 2.32 -1.24 154 160 156
1.42 2.22 -1.24 157 163 161
1.42 2.13 -1.24 154 160 158
1.42 2.03 -1.24 158 164 162
1.42 1.94 -1.24 154 164 156
1.42 1.84 -1.24 155 165 157
1.42 1.75 -1.24 155 164 159
1.42 1.65 -1.24 155 164 159
1.42 1.56 -1.24 154 163 158
1.42 1.46 -1.24 154 163 158
1.42 1.37 -1.24 156 165 160
1.42 1.28 -1.24 157 166 161
1.42 1.18 -1.24 158 167 162
1.42 1.09 -1.24 157 166 161
1.42 0.99 -1.24 157 166 163
1.42 0.90 -1.24 156 165 162
1.42 0.80 -1.24 157 166 163
1.42 0.71 -1.24 157 166 163
1.42 0.61 -1.24 156 165 162
1.42 0.52 -1.24 156 165 162
1.42 0.42 -1.24 157 166 161
1.42 0.33 -1.24 157 166 161
1.42 0.23 -1.24 157 166 161
1.42 -0.05 -1.24 159 168 163
1.42 -0.14 -1.24 159 168 163
1.42 -0.24 -1.24 159 168 163
1.42 -0.33 -1.24 159 168 163
1.42 -0.43 -1.24 158 169 163
1.42 -0.52 -1.24 158 169 163
1.42 -0.62 -1.24 158 169 163
1.42 -0.71 -1.24 158 169 163
1.42 -0.81 -1.24 158 169 163
1.42 -0.90 -1.24 158 169 163
1.42 -0.99 -1.24 160 169 164
1.42 -1.09 -1.24 160 169 164
1.42 -1.18 -1.24 160 169 164
1.42 -1.28 -1.24 160 169 164
1.42 -1.37 -1.24 160 169 164
1.42 -1.47 -1.24 161 170 165
1.42 -1.56 -1.24 162 171 168
1.42 -1.66 -1.24 162 171 168
1.23 -1.78 -1.07 160 169 166
1.23 -1.87 -1.07 161 170 167
1.23 -1.96 -1.07 161 170 167
1.23 -2.06 -1.07 161 170 167
1.42 -2.32 -1.24 161 170 167
1.42 -2.41 -1.24 160 169 164
1.42 -2.51 -1.24 160 169 164
1.42 -2.60 -1.24 161 170 165
1.42 -2.70 -1.24 161 170 165
1.42 -2.79 -1.24 160 169 166
1.42 -2.89 -1.24 160 169 166
1.42 -2.98 -1.24 161 170 167
1.42 -3.07 -1.24 162 171 168
1.42 -3.17 -1.24 160 169 168
1.42 -3.26 -1.24 161 170 169
1.23 -3.38 -1.07 163 172 171
1.23 -3.47 -1.07 163 172 171
1.23 -3.56 -1.07 164 172 174
1.23 -3.66 -1.07 163 171 173
1.23 -3.75 -1.07 164 172 174
1.23 -3.85 -1.07 164 172 174
1.23 -3.94 -1.07 164 173 170
1.23 -4.04 -1.07 164 173 170
1.23 -4.13 -1.07 164 173 170
1.42 -4.21 -1.24 164 173 170
1.42 -4.30 -1.24 164 173 170
1.42 -4.40 -1.24 164 173 170
1.42 -4.49 -1.24 164 173 170
1.42 -4.59 -1.24 165 174 171
1.42 -4.68 -1.24 165 174 171
1.42 -4.78 -1.24 165 174 171
1.42 -4.87 -1.24 165 174 171
1.23 -4.98 -1.07 165 174 171
1.23 -5.07 -1.07 166 175 172
1.23 -5.17 -1.07 166 175 172
1.23 -5.26 -1.07 166 175 172
1.23 -5.35 -1.07 165 174 169
1.23 -5.45 -1.07 166 175 170
1.23 -5.54 -1.07 167 176 171
1.23 -5.64 -1.07 165 174 169
1.23 -5.73 -1.07 164 175 169
1.23 -5.82 -1.07 166 177 171
1.23 -5.92 -1.07 166 177 173
1.23 -6.01 -1.07 166 177 173
1.23 -6.11 -1.07 165 176 172
1.23 -6.20 -1.07 165 176 172
1.23 -6.29 -1.07 166 177 173
1.23 -6.39 -1.07 166 177 173
1.23 -6.48 -1.07 166 178 174
1.23 -6.58 -1.07 166 178 174
1.23 -6.67 -1.07 167 179 177
1.23 -6.77 -1.07 167 179 177
1.42 -6.86 -1.24 168 179 175
1.42 -6.95 -1.24 168 179 175
1.42 -7.05 -1.24 168 179 175
1.42 -7.14 -1.24 168 179 175
1.42 -7.24 -1.24 168 179 175
1.42 -7.33 -1.24 168 179 175
1.42 -7.42 -1.24 168 179 175
1.42 -7.52 -1.24 168 179 175
1.42 -7.61 -1.24 168 179 175
1.23 -7.71 -1.07 169 180 176
1.23 -7.80 -1.07 170 181 177
1.23 -7.90 -1.07 171 182 178
1.23 -7.99 -1.07 170 181 177
1.23 -8.08 -1.07 170 181 177
1.23 -8.18 -1.07 169 180 176
1.23 -8.27 -1.07 172 181 176
1.23 -8.37 -1.07 172 181 176
1.23 -8.46 -1.07 171 180 175
1.23 -8.55 -1.07 171 180 175
1.23 -8.65 -1.07 172 181 176
1.23 -8.74 -1.07 172 181 176
1.23 -8.84 -1.07 172 181 178
1.05 -8.92 -0.90 172 181 178
1.05 -9.02 -0.90 173 182 179
1.23 -9.12 -1.07 173 182 181
1.23 -9.21 -1.07 174 183 182
1.23 -9.31 -1.07 175 184 183
1.05 -9.39 -0.90 176 185 184
1.23 -9.50 -1.07 177 186 185
1.23 -9.59 -1.07 177 186 185
1.23 -9.68 -1.07 177 186 183
1.23 -9.78 -1.07 178 187 184
1.23 -9.87 -1.07 178 187 184
1.23 -9.97 -1.07 178 187 184
1.23 -10.06 -1.07 178 187 184
1.23 -10.15 -1.07 178 187 184
1.23 -10.25 -1.07 179 188 185
1.42 -10.36 -1.24 180 189 186
1.42 -10.45 -1.24 180 189 186
1.23 -10.53 -1.07 181 190 187
1.23 -10.63 -1.07 182 191 188
1.42 -10.73 -1.24 182 191 188
1.42 -10.83 -1.24 182 191 188
1.42 -10.92 -1.24 183 192 189
1.42 -11.02 -1.24 184 193 190
1.42 -11.11 -1.24 185 194 191
1.42 -11.21 -1.24 182 191 186
1.60 -11.32 -1.40 183 192 187
1.42 -11.40 -1.24 187 196 193
1.42 -11.49 -1.24 188 197 194
1.42 -11.59 -1.24 188 197 194
1.42 -11.68 -1.24 188 197 194
1.42 -11.77 -1.24 188 197 194
1.23 -11.85 -1.07 190 199 196
1.23 -11.94 -1.07 190 199 196
1.23 -12.04 -1.07 191 200 197
1.23 -12.13 -1.07 192 201 198
1.23 -12.23 -1.07 193 202 199
1.23 -12.32 -1.07 194 203 200
1.23 -12.41 -1.07 195 204 199
1.23 -12.51 -1.07 195 204 199
1.23 -12.60 -1.07 193 202 199
1.23 -12.70 -1.07 194 203 200
1.23 -12.79 -1.07 196 205 202
1.23 -12.88 -1.07 197 206 203
1.23 -12.98 -1.07 197 206 203
1.23 -13.07 -1.07 198 207 204
1.23 -13.17 -1.07 199 208 205
1.23 -13.26 -1.07 201 210 207
1.23 -13.36 -1.07 201 210 207
1.23 -13.45 -1.07 201 210 207
1.23 -13.54 -1.07 202 211 208
1.23 -13.64 -1.07 203 212 209
1.23 -13.73 -1.07 203 212 209
1.23 -13.83 -1.07 203 212 209
1.23 -13.92 -1.07 203 212 209
1.23 -14.01 -1.07 204 213 212
1.23 -14.11 -1.07 204 213 212
1.23 -14.20 -1.07 205 214 211
1.23 -14.30 -1.07 206 215 212
1.23 -14.39 -1.07 205 214 211
1.23 -14.48 -1.07 204 213 210
1.23 -14.58 -1.07 205 214 211
1.23 -14.67 -1.07 207 216 213
1.23 -14.77 -1.07 208 217 214
1.23 -14.86 -1.07 208 217 214
1.23 -14.96 -1.07 208 217 216
1.23 -15.05 -1.07 207 216 215
1.23 -15.14 -1.07 207 216 215
1.23 -15.24 -1.07 207 216 215
1.05 -15.30 -0.90 208 216 218
1.05 -15.39 -0.90 208 216 218
1.05 -15.48 -0.90 209 217 219
1.23 -15.61 -1.07 209 217 219
1.23 -15.71 -1.07 209 217 219
1.23 -15.80 -1.07 209 217 219
1.05 -15.86 -0.90 210 218 220
1.05 -15.95 -0.90 209 218 217
1.05 -16.05 -0.90 209 218 217
1.05 -16.14 -0.90 215 221 221
1.05 -16.23 -0.90 216 222 222
1.05 -16.33 -0.90 216 222 222
1.05 -16.42 -0.90 216 222 222
1.05 -16.51 -0.90 215 221 221
1.05 -16.61 -0.90 214 220 220
1.05 -16.70 -0.90 215 219 218
1.23 -16.84 -1.07 215 219 218
1.23 -16.93 -1.07 216 220 219
1.23 -17.03 -1.07 216 220 219
1.23 -17.12 -1.07 216 220 219
1.23 -17.21 -1.07 217 221 220
1.23 -17.31 -1.07 217 221 220
1.23 -17.40 -1.07 218 222 221
1.23 -17.50 -1.07 218 222 221
1.23 -17.59 -1.07 218 222 221
1.42 -17.73 -1.24 220 224 223
1.23 -17.78 -1.07 221 225 224
1.23 -17.87 -1.07 222 226 225
1.23 -17.97 -1.07 222 226 225
1.23 -18.06 -1.07 222 226 225
1.23 -18.16 -1.07 223 227 226
1.23 -18.25 -1.07 225 227 226
1.23 -18.34 -1.07 223 225 224
1.23 -18.44 -1.07 224 224 224
1.23 -18.53 -1.07 225 225 225
1.23 -18.63 -1.07 226 226 226
1.23 -18.72 -1.07 226 226 226
1.23 -18.82 -1.07 224 224 224
1.23 -18.91 -1.07 220 222 221
1.23 -19.00 -1.07 218 220 219
1.23 -19.10 -1.07 220 222 221
1.23 -19.19 -1.07 222 224 223
1.23 -19.29 -1.07 224 226 225
1.23 -19.38 -1.07 225 227 226
1.23 -19.47 -1.07 225 227 226
1.23 -19.57 -1.07 225 227 226
1.23 -19.66 -1.07 226 228 227
1.23 -19.76 -1.07 227 229 228
1.23 -19.85 -1.07 224 226 225
1.23 -19.94 -1.07 225 227 226
1.23 -20.04 -1.07 226 228 227
1.05 -20.08 -0.90 226 228 227
1.05 -20.17 -0.90 226 228 227
1.05 -20.26 -0.90 225 227 226
1.05 -20.36 -0.90 222 224 223
1.05 -20.45 -0.90 225 227 226
1.05 -20.54 -0.90 225 227 226
1.23 -20.70 -1.07 227 227 227
1.23 -20.79 -1.07 228 228 228
1.23 -20.89 -1.07 228 228 228
1.23 -20.98 -1.07 228 228 228
1.23 -21.07 -1.07 228 228 228
1.23 -21.17 -1.07 228 228 228
1.23 -21.26 -1.07 229 229 231
1.23 -21.36 -1.07 228 228 230
1.05 -21.39 -0.90 226 226 228
1.05 -21.48 -0.90 224 224 226
1.05 -21.58 -0.90 222 222 224
1.05 -21.67 -0.90 220 220 222
1.05 -21.76 -0.90 219 219 221
1.05 -21.86 -0.90 218 218 220
1.05 -21.95 -0.90 223 223 225
1.05 -22.04 -0.90 224 224 226
1.05 -22.14 -0.90 224 224 226
1.05 -22.23 -0.90 225 225 227
1.05 -22.32 -0.90 225 225 227
1.05 -22.42 -0.90 225 225 227
1.05 -22.51 -0.90 225 225 227
1.05 -22.61 -0.90 225 225 227
1.05 -22.70 -0.90 226 226 228
1.05 -22.79 -0.90 227 227 229
1.05 -22.89 -0.90 227 227 229
1.05 -22.98 -0.90 226 226 228
1.05 -23.07 -0.90 225 225 227
1.05 -23.17 -0.90 224 224 226
1.05 -23.26 -0.90 225 225 227
1.05 -23.36 -0.90 222 222 224
1.05 -23.45 -0.90 221 221 223
1.05 -23.54 -0.90 220 220 220
1.05 -23.64 -0.90 221 221 221
1.05 -23.73 -0.90 223 223 223
1.05 -23.82 -0.90 225 225 225
1.05 -24.11 -0.90 221 221 223
1.23 -24.28 -1.07 223 222 227
1.05 -24.29 -0.90 225 224 229
1.05 -24.39 -0.90 224 223 228
1.05 -24.48 -0.90 223 223 225
1.05 -24.57 -0.90 222 222 224
1.05 -24.67 -0.90 222 222 224
1.05 -24.76 -0.90 223 223 225
1.05 -24.86 -0.90 221 221 221
1.05 -24.95 -0.90 223 223 223
1.05 -25.04 -0.90 224 224 224
1.05 -25.14 -0.90 223 223 221
1.05 -25.23 -0.90 222 222 220
1.05 -25.32 -0.90 221 221 219
1.05 -25.42 -0.90 221 221 219
1.05 -25.51 -0.90 222 222 220
1.05 -25.60 -0.90 221 221 219
1.05 -25.70 -0.90 221 221 219
1.05 -25.79 -0.90 220 220 218
1.23 -25.97 -1.07 219 219 217
1.23 -26.06 -1.07 218 218 216
1.23 -26.16 -1.07 217 217 217
1.23 -26.25 -1.07 217 217 217
1.23 -26.35 -1.07 215 215 215
1.23 -26.44 -1.07 216 216 216
1.23 -26.53 -1.07 218 218 220
1.23 -26.63 -1.07 218 218 220
1.23 -26.72 -1.07 217 217 219
1.05 -26.73 -0.90 217 217 219
1.05 -26.82 -0.90 217 217 219
1.05 -26.92 -0.90 218 218 220
1.05 -27.01 -0.90 217 217 217
1.05 -27.10 -0.90 216 216 216
1.05 -27.20 -0.90 216 216 216
1.05 -27.29 -0.90 217 217 217
1.05 -27.39 -0.90 218 218 218
1.05 -27.48 -0.90 219 219 219
1.05 -27.57 -0.90 219 219 219
1.05 -27.67 -0.90 218 218 218
1.05 -27.76 -0.90 218 218 218
1.05 -27.85 -0.90 219 219 219
1.23 -28.04 -1.07 220 220 220
1.23 -28.13 -1.07 221 221 221
1.23 -28.23 -1.07 222 222 222
1.05 -28.23 -0.90 223 223 223
1.05 -28.32 -0.90 224 222 223
1.05 -28.42 -0.90 223 221 222
1.05 -28.51 -0.90 226 222 223
1.05 -28.60 -0.90 225 223 224
1.05 -28.70 -0.90 226 224 225
1.05 -28.79 -0.90 225 223 224
1.05 -28.88 -0.90 225 223 224
1.05 -28.98 -0.90 226 224 225
1.05 -29.07 -0.90 227 225 226
1.05 -29.17 -0.90 224 224 224
1.05 -29.26 -0.90 224 224 224
1.05 -29.35 -0.90 225 225 225
1.05 -29.45 -0.90 225 225 225
1.05 -29.54 -0.90 225 225 225
1.05 -29.63 -0.90 226 226 226
1.05 -29.73 -0.90 226 226 226
1.05 -29.82 -0.90 227 225 226
1.23 -30.02 -1.07 227 225 226
1.23 -30.11 -1.07 227 225 226
1.23 -30.21 -1.07 227 225 226
1.05 -30.20 -0.90 227 225 226
1.05 -30.29 -0.90 227 225 226
1.05 -30.38 -0.90 228 226 227
1.05 -30.48 -0.90 227 225 226
1.05 -30.57 -0.90 226 224 225
1.05 -30.67 -0.90 226 224 225
1.05 -30.76 -0.90 226 224 225
1.05 -30.85 -0.90 226 224 225
1.05 -30.95 -0.90 226 224 225
1.05 -31.04 -0.90 225 223 224
1.05 -31.13 -0.90 225 223 224
1.05 -31.23 -0.90 224 222 223
1.05 -31.32 -0.90 246 244 247
1.05 -31.42 -0.90 209 204 208
1.05 -31.51 -0.90 114 109 113
1.05 -31.60 -0.90 110 99 107
1.05 -31.70 -0.90 104 91 100
1.05 -31.79 -0.90 103 91 101
1.05 -31.88 -0.90 110 98 108
1.05 -31.98 -0.90 100 90 101
1.05 -32.07 -0.90 99 88 102
1.37 23.21 -1.32 0 0 0
1.37 23.12 -1.32 0 0 0
1.37 23.02 -1.32 0 0 0
1.37 22.93 -1.32 0 0 0
1.37 22.84 -1.32 0 0 0
1.37 22.74 -1.32 0 0 0
1.18 22.51 -1.15 0 0 0
1.18 22.42 -1.15 0 0 0
1.18 22.32 -1.15 0 0 0
1.18 22.23 -1.15 131 122 125
1.18 22.13 -1.15 131 122 125
1.18 22.04 -1.15 129 120 123
1.18 21.95 -1.15 128 119 122
1.18 21.85 -1.15 129 120 123
1.18 21.76 -1.15 129 120 121
1.18 21.66 -1.15 128 119 120
1.37 21.70 -1.32 127 119 117
1.37 21.61 -1.32 128 120 118
1.37 21.51 -1.32 126 121 117
1.37 21.42 -1.32 126 121 117
1.37 21.32 -1.32 125 122 113
1.37 21.23 -1.32 126 123 114
1.37 21.13 -1.32 124 124 112
1.37 21.04 -1.32 124 124 112
1.37 20.94 -1.32 124 125 111
1.37 20.85 -1.32 124 124 112
1.37 20.76 -1.32 126 123 114
1.37 20.66 -1.32 125 122 115
1.37 20.57 -1.32 124 121 114
1.37 20.47 -1.32 128 123 119
1.37 20.38 -1.32 129 124 120
1.37 20.28 -1.32 129 121 119
1.37 20.00 -1.32 128 120 118
1.37 19.90 -1.32 128 123 119
1.18 19.69 -1.15 130 125 121
1.18 19.59 -1.15 129 126 121
1.00 19.38 -0.98 129 126 121
1.00 19.28 -0.98 126 126 118
1.00 19.19 -0.98 126 126 118
1.00 19.10 -0.98 129 126 119
1.00 19.00 -0.98 129 126 119
1.00 18.91 -0.98 129 126 119
1.00 18.82 -0.98 130 127 120
1.00 18.72 -0.98 131 128 121
1.00 18.63 -0.98 131 128 121
1.00 18.53 -0.98 129 129 121
1.00 18.44 -0.98 128 128 120
1.18 18.46 -1.15 131 128 123
1.18 18.37 -1.15 131 128 123
1.18 18.28 -1.15 132 127 123
1.18 18.18 -1.15 132 127 123
1.18 18.09 -1.15 134 126 123
1.18 17.99 -1.15 135 127 124
1.00 17.78 -0.98 135 127 124
1.00 17.69 -0.98 131 126 123
1.00 17.60 -0.98 132 127 124
1.00 17.50 -0.98 132 128 125
1.00 17.41 -0.98 133 129 126
1.00 17.32 -0.98 133 129 126
1.18 17.33 -1.15 132 128 125
1.18 17.24 -1.15 132 129 124
1.18 17.15 -1.15 131 128 123
1.18 17.05 -1.15 134 131 126
1.18 16.96 -1.15 134 131 126
1.18 16.86 -1.15 134 131 126
1.18 16.77 -1.15 134 131 126
1.18 16.67 -1.15 134 131 126
1.18 16.58 -1.15 133 130 125
1.18 16.49 -1.15 134 129 125
1.18 16.39 -1.15 133 128 124
1.18 16.30 -1.15 132 132 124
1.18 16.20 -1.15 132 132 124
1.18 16.11 -1.15 133 133 125
1.18 16.02 -1.15 133 133 125
1.18 15.92 -1.15 133 132 127
1.18 15.83 -1.15 133 132 127
1.37 15.84 -1.32 133 132 127
1.37 15.74 -1.32 133 132 128
1.37 15.65 -1.32 132 131 127
1.37 15.55 -1.32 131 130 126
1.18 15.36 -1.15 131 130 126
1.18 15.26 -1.15 131 130 128
1.18 15.17 -1.15 133 132 130
1.18 15.07 -1.15 134 133 131
1.18 14.98 -1.15 135 134 132
1.18 14.89 -1.15 133 131 132
1.18 14.79 -1.15 133 131 132
1.18 14.70 -1.15 133 131 132
1.18 14.60 -1.15 133 131 132
1.18 14.51 -1.15 132 130 131
1.18 14.42 -1.15 132 130 131
1.18 14.32 -1.15 132 130 131
1.18 14.23 -1.15 132 130 131
1.18 14.13 -1.15 131 129 130
1.18 14.04 -1.15 132 130 131
1.18 13.94 -1.15 134 132 133
1.18 13.85 -1.15 135 133 134
1.18 13.76 -1.15 135 133 134
1.18 13.66 -1.15 134 132 133
1.18 13.57 -1.15 135 133 134
1.18 13.47 -1.15 136 134 135
1.18 13.38 -1.15 137 133 134
1.18 13.29 -1.15 136 132 131
1.18 13.19 -1.15 135 131 130
1.18 13.10 -1.15 135 131 130
1.18 13.00 -1.15 135 131 130
1.18 12.91 -1.15 135 131 128
1.18 12.82 -1.15 134 130 127
1.18 12.72 -1.15 135 131 128
1.18 12.63 -1.15 133 129 126
1.18 12.53 -1.15 131 128 123
1.18 12.44 -1.15 132 129 124
1.18 12.34 -1.15 134 131 126
1.37 12.34 -1.32 136 133 128
-5.05 9.19 4.58 135 132 125
-5.05 9.11 4.58 134 131 126
-5.05 9.03 4.58 131 130 126
-5.05 8.95 4.58 134 133 131
-5.05 8.87 4.58 131 130 126
-5.05 8.79 4.58 133 132 128
-5.05 8.71 4.58 133 129 126
-5.18 8.57 4.70 131 127 124
-5.18 8.49 4.70 146 143 138
-5.18 8.41 4.70 159 155 152
-5.18 8.33 4.70 154 150 147
-5.18 8.25 4.70 148 144 141
-5.18 8.17 4.70 154 150 147
-5.18 8.09 4.70 160 156 155
-5.18 8.01 4.70 171 167 166
-5.18 7.93 4.70 39 35 36
-5.18 7.85 4.70 16 14 15
-5.18 7.77 4.70 30 31 33
-5.18 7.69 4.70 36 37 39
-5.18 7.61 4.70 26 28 27
-5.18 7.53 4.70 4 2 3
-5.18 7.45 4.70 105 101 102
-5.31 7.32 4.82 189 180 183
-5.31 7.24 4.82 157 148 153
-5.31 7.16 4.82 151 140 146
-5.31 7.08 4.82 153 142 150
-5.31 7.00 4.82 155 144 152
-5.31 6.92 4.82 151 141 150
-5.31 6.84 4.82 141 131 140
-5.31 6.76 4.82 130 123 131
-5.31 6.68 4.82 130 123 131
-5.31 6.60 4.82 135 128 136
-5.31 6.52 4.82 137 131 141
-5.31 6.44 4.82 134 134 146
-5.31 6.37 4.82 137 137 147
-5.31 6.29 4.82 139 139 149
-5.44 6.16 4.95 139 139 149
-5.44 6.08 4.95 136 136 146
-5.44 6.00 4.95 135 138 147
-5.44 5.92 4.95 137 140 149
-5.44 5.84 4.95 136 139 148
-5.44 5.76 4.95 138 141 150
-5.44 5.68 4.95 161 165 176
-5.44 5.60 4.95 150 154 165
-5.57 5.47 5.07 71 77 89
-5.57 5.40 5.07 15 21 33
-5.57 5.32 5.07 21 27 41
-5.57 5.24 5.07 36 39 54
-5.57 5.16 5.07 42 44 59
-5.57 5.08 5.07 53 52 68
-5.57 5.00 5.07 40 37 56
-5.57 4.92 5.07 36 33 52
-5.57 4.85 5.07 67 62 84
-5.57 4.77 5.07 139 134 157
-5.71 4.64 5.19 176 170 196
-5.71 4.56 5.19 159 153 181
-5.71 4.48 5.19 64 57 88
-5.71 4.41 5.19 30 26 51
-5.71 4.33 5.19 0 0 19
-5.71 4.25 5.19 173 172 190
-5.71 4.17 5.19 166 165 179
-5.71 4.09 5.19 152 155 162
-5.71 4.01 5.19 148 151 156
-5.71 3.94 5.19 143 151 154
-5.71 3.86 5.19 140 147 153
-5.71 3.78 5.19 137 148 154
-5.71 3.70 5.19 134 144 154
-5.71 3.62 5.19 130 144 155
-5.71 3.54 5.19 127 141 154
-5.71 3.47 5.19 127 140 156
-5.71 3.39 5.19 128 141 157
-5.71 3.31 5.19 132 146 157
-5.71 3.23 5.19 141 155 166
-5.71 3.15 5.19 144 158 167
-5.71 3.08 5.19 143 157 166
-5.71 3.00 5.19 142 161 168
-5.71 2.92 5.19 141 161 168
-5.71 2.84 5.19 138 161 169
-5.71 2.76 5.19 139 164 171
-5.71 2.68 5.19 141 163 174
-5.71 2.61 5.19 142 162 171
-5.71 2.53 5.19 149 168 174
-5.57 2.49 5.07 164 178 178
-5.44 2.45 4.95 156 166 165
-5.44 2.37 4.95 186 195 190
-5.31 2.33 4.82 204 210 206
-5.18 2.28 4.70 197 202 198
-4.78 2.31 4.34 196 201 197
-4.52 2.31 4.10 198 204 202
-4.23 2.30 3.83 187 193 191
-4.10 2.26 3.71 184 195 191
-3.96 2.21 3.59 195 206 202
-3.96 2.13 3.59 185 200 193
-3.67 2.12 3.32 178 191 184
-3.67 2.04 3.32 201 208 201
-3.54 1.99 3.20 197 202 196
-3.25 1.98 2.93 198 203 197
-3.09 1.94 2.78 197 202 196
-3.09 1.85 2.78 197 202 198
-3.09 1.77 2.78 195 200 196
1.37 2.60 -1.32 178 183 179
1.37 2.50 -1.32 140 145 141
1.37 2.41 -1.32 157 163 161
1.37 2.32 -1.32 156 162 160
1.18 2.18 -1.15 159 165 163
1.18 2.08 -1.15 155 161 159
1.18 1.99 -1.15 159 165 163
1.18 1.90 -1.15 154 164 156
1.18 1.80 -1.15 154 164 156
1.18 1.71 -1.15 155 164 159
1.18 1.61 -1.15 155 164 159
1.18 1.52 -1.15 155 164 159
1.18 1.42 -1.15 155 164 159
1.37 1.37 -1.32 155 164 159
1.37 1.28 -1.32 155 164 159
1.37 1.18 -1.32 157 166 161
1.37 1.09 -1.32 156 165 160
1.18 0.95 -1.15 155 164 161
1.18 0.86 -1.15 155 164 161
1.18 0.77 -1.15 156 165 162
1.18 0.67 -1.15 156 165 162
1.18 0.58 -1.15 156 165 162
1.18 0.48 -1.15 156 165 162
1.18 0.39 -1.15 157 166 161
1.18 0.29 -1.15 157 166 161
1.18 0.20 -1.15 157 166 161
1.18 -0.08 -1.15 158 167 162
1.18 -0.18 -1.15 158 167 162
1.18 -0.27 -1.15 160 169 164
1.18 -0.36 -1.15 160 169 164
1.18 -0.46 -1.15 159 170 164
1.18 -0.55 -1.15 159 170 164
1.18 -0.65 -1.15 158 169 163
1.18 -0.74 -1.15 158 169 163
1.18 -0.83 -1.15 157 168 162
1.18 -0.93 -1.15 157 168 162
1.37 -0.99 -1.32 160 169 164
1.37 -1.09 -1.32 160 169 164
1.37 -1.18 -1.32 160 169 164
1.37 -1.28 -1.32 160 169 164
1.37 -1.37 -1.32 160 169 164
1.37 -1.47 -1.32 161 170 165
1.18 -1.59 -1.15 162 171 166
1.18 -1.68 -1.15 162 171 166
1.18 -1.78 -1.15 161 170 167
1.18 -1.87 -1.15 161 170 167
1.18 -1.96 -1.15 160 169 166
1.18 -2.06 -1.15 160 169 166
1.37 -2.32 -1.32 162 171 168
1.37 -2.41 -1.32 160 169 164
1.37 -2.51 -1.32 160 169 164
1.37 -2.60 -1.32 161 170 165
1.37 -2.70 -1.32 161 170 165
1.37 -2.79 -1.32 161 170 167
1.18 -2.91 -1.15 161 170 167
1.18 -3.00 -1.15 162 171 168
1.18 -3.09 -1.15 162 171 168
1.18 -3.19 -1.15 162 171 170
1.18 -3.28 -1.15 162 171 170
1.18 -3.38 -1.15 163 172 171
1.18 -3.47 -1.15 163 172 171
1.18 -3.56 -1.15 162 170 172
1.18 -3.66 -1.15 162 170 172
1.00 -3.77 -0.98 163 171 173
1.00 -3.86 -0.98 163 171 173
1.00 -3.96 -0.98 165 174 171
1.00 -4.05 -0.98 165 174 171
1.18 -4.13 -1.15 166 175 172
1.18 -4.22 -1.15 166 175 172
1.18 -4.32 -1.15 165 174 171
1.18 -4.41 -1.15 165 174 171
1.37 -4.49 -1.32 165 174 171
1.37 -4.59 -1.32 166 175 172
1.37 -4.68 -1.32 165 174 171
1.18 -4.79 -1.15 165 174 171
1.18 -4.88 -1.15 165 174 171
1.18 -4.98 -1.15 165 174 171
1.18 -5.07 -1.15 166 175 172
1.18 -5.17 -1.15 166 175 172
1.18 -5.26 -1.15 166 175 172
1.18 -5.35 -1.15 165 174 169
1.00 -5.46 -0.98 168 177 172
1.00 -5.55 -0.98 169 178 173
1.18 -5.64 -1.15 168 177 172
1.18 -5.73 -1.15 167 178 172
1.18 -5.82 -1.15 168 179 173
1.18 -5.92 -1.15 168 179 175
1.18 -6.01 -1.15 166 177 173
1.00 -6.11 -0.98 166 177 173
1.00 -6.21 -0.98 166 177 173
1.00 -6.30 -0.98 166 177 173
1.00 -6.39 -0.98 166 177 173
1.00 -6.49 -0.98 165 177 173
1.18 -6.58 -1.15 165 177 173
1.18 -6.67 -1.15 166 178 176
1.18 -6.77 -1.15 166 178 176
1.18 -6.86 -1.15 169 180 176
1.18 -6.95 -1.15 169 180 176
1.18 -7.05 -1.15 169 180 176
1.00 -7.14 -0.98 169 180 176
1.00 -7.24 -0.98 169 180 176
1.18 -7.33 -1.15 169 180 176
1.18 -7.42 -1.15 168 179 175
1.00 -7.52 -0.98 169 180 176
1.00 -7.61 -0.98 169 180 176
1.00 -7.71 -0.98 170 181 177
1.00 -7.80 -0.98 170 181 177
1.00 -7.89 -0.98 170 181 177
1.00 -7.99 -0.98 171 182 178
1.00 -8.08 -0.98 171 182 178
1.00 -8.17 -0.98 172 183 179
1.00 -8.27 -0.98 174 183 178
1.00 -8.36 -0.98 174 183 178
1.00 -8.46 -0.98 174 183 178
1.00 -8.55 -0.98 174 183 178
1.00 -8.64 -0.98 174 183 178
1.00 -8.74 -0.98 174 183 178
1.00 -8.83 -0.98 175 184 181
1.00 -8.92 -0.98 175 184 181
1.00 -9.02 -0.98 174 183 180
1.00 -9.11 -0.98 175 184 183
1.00 -9.20 -0.98 175 184 183
1.00 -9.30 -0.98 176 185 184
1.00 -9.39 -0.98 177 186 185
1.00 -9.49 -0.98 178 187 186
1.00 -9.58 -0.98 178 187 186
1.00 -9.67 -0.98 177 186 183
1.00 -9.77 -0.98 178 187 184
1.00 -9.86 -0.98 178 187 184
1.00 -9.95 -0.98 177 186 183
1.00 -10.05 -0.98 177 186 183
1.18 -10.15 -1.15 177 186 183
1.18 -10.25 -1.15 177 186 183
1.18 -10.34 -1.15 178 187 184
1.18 -10.44 -1.15 180 189 186
1.18 -10.53 -1.15 181 190 187
1.18 -10.63 -1.15 181 190 187
1.18 -10.72 -1.15 182 191 188
1.18 -10.81 -1.15 182 191 188
1.18 -10.91 -1.15 183 192 189
1.18 -11.00 -1.15 184 193 190
1.18 -11.10 -1.15 184 193 190
1.18 -11.19 -1.15 185 194 189
1.37 -11.30 -1.32 186 195 190
1.37 -11.40 -1.32 188 197 194
1.37 -11.49 -1.32 189 198 195
1.18 -11.57 -1.15 190 199 196
1.18 -11.66 -1.15 190 199 198
1.00 -11.74 -0.98 191 200 199
1.00 -11.83 -0.98 190 199 198
1.00 -11.92 -0.98 191 200 199
1.00 -12.02 -0.98 192 201 198
1.18 -12.13 -1.15 193 202 199
1.18 -12.23 -1.15 193 202 199
1.18 -12.32 -1.15 194 203 200
1.18 -12.41 -1.15 195 204 199
1.18 -12.51 -1.15 195 204 199
1.18 -12.60 -1.15 196 205 202
1.18 -12.70 -1.15 195 204 201
1.18 -12.79 -1.15 195 204 201
1.00 -12.86 -0.98 196 205 202
1.00 -12.95 -0.98 198 207 204
1.00 -13.05 -0.98 199 208 205
1.00 -13.14 -0.98 199 208 205
1.00 -13.23 -0.98 198 207 204
1.00 -13.33 -0.98 198 207 204
1.00 -13.42 -0.98 199 208 205
1.00 -13.52 -0.98 201 210 207
1.18 -13.64 -1.15 203 212 209
1.00 -13.70 -0.98 202 211 208
1.00 -13.80 -0.98 200 209 206
1.00 -13.89 -0.98 199 208 205
1.00 -13.98 -0.98 204 213 212
1.00 -14.08 -0.98 205 214 213
1.00 -14.17 -0.98 206 215 212
1.00 -14.27 -0.98 208 217 214
1.00 -14.36 -0.98 207 216 213
1.00 -14.45 -0.98 205 214 211
1.00 -14.55 -0.98 207 216 213
1.00 -14.64 -0.98 209 218 215
1.00 -14.73 -0.98 209 218 215
1.00 -14.83 -0.98 208 217 214
1.00 -14.92 -0.98 208 217 216
1.00 -15.02 -0.98 208 217 216
1.00 -15.11 -0.98 208 216 218
1.00 -15.20 -0.98 208 216 218
1.00 -15.30 -0.98 208 216 218
1.00 -15.39 -0.98 208 216 218
1.00 -15.48 -0.98 210 218 220
1.00 -15.58 -0.98 210 218 220
1.00 -15.67 -0.98 210 218 220
1.00 -15.76 -0.98 210 218 220
1.00 -15.86 -0.98 209 217 219
1.00 -15.95 -0.98 209 217 219
1.00 -16.05 -0.98 208 216 218
1.00 -16.14 -0.98 212 221 220
1.00 -16.23 -0.98 212 221 220
1.00 -16.33 -0.98 214 220 220
1.00 -16.42 -0.98 214 220 220
1.00 -16.51 -0.98 215 221 221
1.00 -16.61 -0.98 215 221 221
1.00 -16.70 -0.98 214 220 220
1.00 -16.80 -0.98 214 220 220
1.00 -16.89 -0.98 216 220 219
1.00 -16.98 -0.98 216 220 219
1.00 -17.08 -0.98 216 220 219
1.00 -17.17 -0.98 217 221 220
1.00 -17.26 -0.98 218 222 221
1.00 -17.36 -0.98 218 222 221
1.00 -17.45 -0.98 218 222 221
1.00 -17.55 -0.98 219 223 222
1.00 -17.64 -0.98 217 221 220
1.18 -17.78 -1.15 219 223 222
1.18 -17.87 -1.15 221 225 224
1.18 -17.97 -1.15 221 225 224
1.18 -18.06 -1.15 220 224 223
1.00 -18.11 -0.98 221 225 224
1.00 -18.20 -0.98 225 227 226
1.00 -18.30 -0.98 224 226 225
1.00 -18.39 -0.98 226 226 226
1.00 -18.48 -0.98 227 227 227
1.00 -18.58 -0.98 228 228 228
1.00 -18.67 -0.98 227 227 227
1.00 -18.76 -0.98 225 225 225
1.00 -18.86 -0.98 220 222 221
1.00 -18.95 -0.98 218 220 219
1.00 -19.04 -0.98 217 219 218
1.00 -19.14 -0.98 219 221 220
1.00 -19.23 -0.98 219 223 222
1.00 -19.33 -0.98 219 223 222
1.00 -19.42 -0.98 219 223 222
1.00 -19.51 -0.98 219 223 222
1.00 -19.61 -0.98 219 223 222
1.00 -19.70 -0.98 221 225 224
1.00 -19.79 -0.98 221 225 226
1.00 -19.89 -0.98 222 226 227
1.00 -19.98 -0.98 223 227 228
1.00 -20.08 -0.98 223 227 228
1.00 -20.17 -0.98 223 227 228
1.00 -20.26 -0.98 222 226 227
1.00 -20.36 -0.98 221 222 224
1.00 -20.45 -0.98 223 224 226
1.00 -20.54 -0.98 224 225 227
1.00 -20.64 -0.98 227 227 229
1.00 -20.73 -0.98 228 228 230
1.00 -20.83 -0.98 228 228 230
1.00 -20.92 -0.98 228 228 230
1.00 -21.01 -0.98 227 227 229
1.00 -21.11 -0.98 226 226 228
1.00 -21.20 -0.98 229 229 231
1.00 -21.29 -0.98 228 228 230
1.00 -21.39 -0.98 225 225 227
1.00 -21.48 -0.98 223 223 225
1.00 -21.58 -0.98 221 221 223
1.00 -21.67 -0.98 221 221 223
1.00 -21.76 -0.98 221 221 223
1.00 -21.86 -0.98 221 221 223
1.00 -21.95 -0.98 224 224 226
1.00 -22.04 -0.98 224 224 226
1.00 -22.14 -0.98 224 224 226
1.00 -22.23 -0.98 224 224 226
1.00 -22.32 -0.98 224 224 226
1.00 -22.42 -0.98 224 224 226
1.00 -22.51 -0.98 224 224 226
1.00 -22.61 -0.98 225 224 229
1.00 -22.70 -0.98 224 223 228
1.00 -22.79 -0.98 224 224 226
1.00 -22.89 -0.98 225 225 227
1.00 -22.98 -0.98 226 226 228
1.00 -23.07 -0.98 226 226 228
1.00 -23.17 -0.98 225 225 227
1.00 -23.26 -0.98 223 223 225
1.00 -23.36 -0.98 224 224 224
1.00 -23.45 -0.98 222 222 222
1.00 -23.54 -0.98 221 221 221
1.00 -23.64 -0.98 222 222 222
1.00 -23.73 -0.98 223 223 223
1.00 -23.82 -0.98 224 224 224
1.00 -24.11 -0.98 222 222 224
1.00 -24.20 -0.98 223 222 227
1.00 -24.29 -0.98 223 222 227
1.00 -24.39 -0.98 222 221 226
1.00 -24.48 -0.98 221 221 223
1.00 -24.57 -0.98 220 220 222
1.00 -24.67 -0.98 221 221 223
1.00 -24.76 -0.98 222 222 224
1.00 -24.86 -0.98 222 222 222
1.00 -24.95 -0.98 223 223 223
1.00 -25.04 -0.98 223 223 223
1.00 -25.14 -0.98 222 222 220
0.82 -25.15 -0.81 222 222 220
0.82 -25.24 -0.81 222 222 220
0.82 -25.34 -0.81 222 222 220
0.82 -25.43 -0.81 220 220 218
0.82 -25.52 -0.81 220 220 218
0.82 -25.62 -0.81 219 219 217
1.00 -25.79 -0.98 219 219 217
1.00 -25.89 -0.98 218 218 216
1.18 -26.06 -1.15 218 218 216
1.18 -26.16 -1.15 218 218 218
1.18 -26.25 -1.15 219 219 219
1.00 -26.26 -0.98 218 218 218
1.00 -26.35 -0.98 217 217 217
1.00 -26.45 -0.98 216 216 216
1.00 -26.54 -0.98 216 216 216
1.00 -26.64 -0.98 217 217 217
