ply
format ascii 1.0
element vertex 1643
property float x
property float y
property float z
property uchar red
property uchar green
property uchar blue
end_header
3.14 -3.15 -1.27 163 172 169
3.14 -3.25 -1.27 163 172 169
3.14 -3.34 -1.27 163 172 169
3.14 -3.44 -1.27 164 173 172
3.14 -3.54 -1.27 164 173 172
3.14 -3.64 -1.27 163 172 171
3.14 -3.73 -1.27 162 171 170
3.14 -3.83 -1.27 163 172 171
3.14 -3.93 -1.27 164 173 172
3.14 -4.02 -1.27 165 174 173
3.14 -4.12 -1.27 165 174 173
3.14 -4.22 -1.27 165 174 171
3.14 -4.32 -1.27 165 174 171
3.14 -4.41 -1.27 166 175 172
2.95 -4.52 -1.10 167 176 171
2.95 -4.62 -1.10 167 176 171
2.95 -4.72 -1.10 167 176 171
2.95 -4.81 -1.10 167 176 171
2.95 -4.91 -1.10 167 177 169
2.95 -5.01 -1.10 167 177 169
2.95 -5.10 -1.10 167 177 169
2.95 -5.20 -1.10 167 176 171
2.95 -5.30 -1.10 167 178 172
2.95 -5.39 -1.10 166 177 173
2.95 -5.49 -1.10 164 176 174
2.95 -5.59 -1.10 165 177 175
3.14 -5.68 -1.27 167 179 179
3.14 -5.77 -1.27 168 180 180
3.14 -5.87 -1.27 166 180 181
2.95 -5.97 -1.10 165 179 180
2.95 -6.07 -1.10 166 180 180
3.14 -6.16 -1.27 165 179 179
3.14 -6.26 -1.27 167 179 177
3.14 -6.36 -1.27 167 179 177
3.14 -6.45 -1.27 167 179 175
3.14 -6.55 -1.27 166 178 174
3.14 -6.65 -1.27 167 178 170
3.14 -6.75 -1.27 167 178 172
3.14 -6.84 -1.27 169 180 176
3.14 -6.94 -1.27 169 181 177
3.14 -7.04 -1.27 168 180 176
3.14 -7.13 -1.27 167 179 175
3.14 -7.23 -1.27 167 179 175
3.14 -7.33 -1.27 168 180 176
3.14 -7.43 -1.27 169 181 177
3.14 -7.52 -1.27 167 179 175
3.14 -7.62 -1.27 167 179 175
3.14 -7.72 -1.27 167 179 175
3.14 -7.81 -1.27 168 180 176
3.14 -7.91 -1.27 167 182 177
3.14 -8.01 -1.27 169 184 179
3.14 -8.11 -1.27 169 184 179
3.14 -8.20 -1.27 170 185 180
3.14 -8.30 -1.27 172 184 180
3.14 -8.40 -1.27 171 183 179
3.14 -8.49 -1.27 171 183 179
3.14 -8.59 -1.27 171 183 179
3.14 -8.69 -1.27 173 184 180
3.14 -8.79 -1.27 174 185 181
3.14 -8.88 -1.27 174 183 180
3.14 -8.98 -1.27 173 182 179
2.95 -9.07 -1.10 175 184 181
2.95 -9.17 -1.10 176 185 182
2.95 -9.26 -1.10 176 185 182
2.95 -9.36 -1.10 175 186 182
2.95 -9.46 -1.10 176 187 183
2.95 -9.55 -1.10 177 188 184
2.95 -9.65 -1.10 178 189 185
2.95 -9.75 -1.10 177 186 181
2.95 -9.84 -1.10 179 188 183
2.95 -9.94 -1.10 181 190 185
2.95 -10.04 -1.10 181 190 185
3.14 -10.15 -1.27 181 190 185
3.14 -10.24 -1.27 180 189 184
3.14 -10.34 -1.27 180 189 186
3.14 -10.44 -1.27 180 189 186
3.14 -10.53 -1.27 180 189 186
2.95 -10.62 -1.10 181 190 187
2.95 -10.71 -1.10 183 192 189
2.95 -10.81 -1.10 185 194 191
2.95 -11.10 -1.10 187 196 195
3.14 -11.22 -1.27 187 195 197
3.14 -11.31 -1.27 186 194 196
3.14 -11.41 -1.27 187 195 198
3.14 -11.51 -1.27 190 198 200
3.14 -11.60 -1.27 191 200 199
3.14 -11.70 -1.27 193 202 201
3.14 -11.80 -1.27 194 203 200
3.14 -11.90 -1.27 195 204 201
3.14 -11.99 -1.27 195 204 199
3.14 -12.09 -1.27 197 206 201
3.14 -12.19 -1.27 199 208 203
3.14 -12.28 -1.27 200 209 204
3.14 -12.38 -1.27 201 210 205
3.14 -12.48 -1.27 202 211 206
2.95 -12.55 -1.10 203 212 209
2.95 -12.65 -1.10 204 213 210
2.95 -12.75 -1.10 207 216 211
2.95 -12.84 -1.10 207 216 211
2.95 -12.94 -1.10 208 217 214
2.95 -13.04 -1.10 208 217 214
2.95 -13.13 -1.10 209 218 215
2.95 -13.42 -1.10 212 221 220
2.95 -13.52 -1.10 212 221 220
2.95 -13.62 -1.10 212 221 220
2.95 -13.71 -1.10 213 221 223
2.95 -13.81 -1.10 214 222 224
2.95 -13.91 -1.10 214 222 224
2.95 -14.00 -1.10 214 222 224
2.95 -14.10 -1.10 214 222 224
2.95 -14.20 -1.10 214 223 222
2.95 -14.29 -1.10 214 223 222
2.95 -14.39 -1.10 214 223 222
2.95 -14.49 -1.10 215 224 223
2.95 -14.58 -1.10 215 224 221
2.95 -14.68 -1.10 216 225 222
2.95 -14.78 -1.10 218 224 220
3.14 -14.91 -1.27 219 225 221
3.14 -15.00 -1.27 220 226 222
2.95 -15.07 -1.10 221 227 223
2.95 -15.16 -1.10 222 228 224
2.95 -15.26 -1.10 222 228 224
3.14 -15.39 -1.27 222 228 226
3.14 -15.49 -1.27 223 229 227
3.14 -15.59 -1.27 226 230 229
2.95 -15.65 -1.10 227 231 230
2.95 -15.75 -1.10 227 231 230
2.95 -15.84 -1.10 226 230 229
2.95 -15.94 -1.10 227 231 230
2.95 -16.04 -1.10 229 233 232
2.95 -16.13 -1.10 227 231 230
2.95 -16.23 -1.10 226 230 229
2.95 -16.33 -1.10 227 231 230
2.95 -16.42 -1.10 226 230 229
2.76 -16.48 -0.94 227 231 230
2.76 -16.58 -0.94 228 232 231
2.76 -16.67 -0.94 228 232 231
2.76 -16.77 -0.94 228 232 231
2.76 -16.86 -0.94 228 232 231
2.76 -16.96 -0.94 228 232 231
2.76 -17.06 -0.94 229 233 232
2.76 -17.15 -0.94 229 235 233
2.76 -17.25 -0.94 229 235 233
2.76 -17.35 -0.94 229 235 233
2.76 -17.44 -0.94 230 236 234
2.76 -17.54 -0.94 231 237 235
2.95 -17.68 -1.10 231 237 235
2.95 -17.78 -1.10 230 236 234
2.95 -17.87 -1.10 229 235 233
2.76 -17.92 -0.94 229 235 233
2.76 -18.02 -0.94 230 236 234
2.95 -18.16 -1.10 231 237 235
2.95 -18.26 -1.10 231 237 235
2.76 -18.31 -0.94 230 236 234
2.76 -18.41 -0.94 230 236 234
2.76 -18.50 -0.94 232 236 235
2.95 -18.65 -1.10 233 237 236
2.95 -18.74 -1.10 234 236 235
2.95 -18.84 -1.10 234 236 235
2.95 -18.94 -1.10 235 237 236
2.95 -19.03 -1.10 236 238 237
2.95 -19.13 -1.10 237 239 238
2.76 -19.18 -0.94 236 238 237
2.76 -19.27 -0.94 235 237 236
2.95 -19.42 -1.10 234 236 235
2.95 -19.52 -1.10 234 236 235
2.95 -19.62 -1.10 235 237 236
2.95 -19.71 -1.10 235 237 236
2.95 -19.81 -1.10 235 237 236
2.95 -19.91 -1.10 234 236 235
2.95 -20.00 -1.10 234 236 235
2.95 -20.10 -1.10 233 235 234
2.95 -20.20 -1.10 231 233 232
2.95 -20.29 -1.10 232 234 233
2.95 -20.39 -1.10 232 234 233
2.95 -20.49 -1.10 232 234 233
2.95 -20.58 -1.10 232 234 233
2.95 -20.68 -1.10 232 234 233
2.76 -20.72 -0.94 231 233 232
2.76 -20.81 -0.94 230 232 231
2.76 -20.91 -0.94 230 232 231
2.76 -21.01 -0.94 231 233 232
2.95 -21.16 -1.10 232 234 233
2.95 -21.26 -1.10 232 234 233
2.95 -21.36 -1.10 232 234 233
2.95 -21.45 -1.10 232 234 233
2.95 -21.55 -1.10 232 234 233
2.95 -21.65 -1.10 233 233 231
2.95 -21.74 -1.10 233 233 231
2.95 -21.84 -1.10 232 232 230
2.95 -21.94 -1.10 231 231 229
2.95 -22.03 -1.10 231 231 229
2.95 -22.13 -1.10 230 230 228
2.95 -22.23 -1.10 230 230 228
2.95 -22.32 -1.10 231 231 229
2.95 -22.42 -1.10 231 231 229
2.95 -22.52 -1.10 231 231 229
2.95 -22.61 -1.10 232 232 230
2.95 -22.71 -1.10 232 232 230
2.95 -22.81 -1.10 232 232 230
2.95 -22.90 -1.10 231 231 229
2.95 -23.00 -1.10 231 231 229
2.95 -23.10 -1.10 229 229 229
2.95 -23.19 -1.10 229 229 229
2.95 -23.29 -1.10 230 230 230
2.95 -23.39 -1.10 230 230 230
2.95 -23.49 -1.10 230 230 230
2.95 -23.58 -1.10 229 229 229
2.95 -23.68 -1.10 230 230 230
2.95 -23.78 -1.10 231 231 231
2.95 -23.87 -1.10 229 229 229
2.95 -23.97 -1.10 229 229 229
2.95 -24.07 -1.10 229 229 229
2.95 -24.16 -1.10 229 229 229
2.95 -24.26 -1.10 228 228 228
2.95 -24.36 -1.10 227 227 227
2.95 -24.45 -1.10 226 226 226
2.95 -24.55 -1.10 225 225 227
2.95 -24.65 -1.10 227 227 229
2.95 -24.74 -1.10 227 226 231
2.95 -24.84 -1.10 227 226 231
2.95 -24.94 -1.10 227 226 231
2.95 -25.03 -1.10 227 226 231
2.95 -25.13 -1.10 226 225 230
2.95 -25.23 -1.10 224 223 228
2.95 -25.32 -1.10 223 222 227
2.76 -25.34 -0.94 223 222 227
2.76 -25.44 -0.94 223 222 227
2.76 -25.53 -0.94 223 222 227
2.76 -25.63 -0.94 222 221 226
2.76 -25.73 -0.94 222 221 226
2.76 -25.82 -0.94 221 220 225
2.76 -25.92 -0.94 220 219 224
2.76 -26.02 -0.94 222 222 224
2.76 -26.11 -0.94 221 221 223
2.76 -26.21 -0.94 221 221 223
2.76 -26.30 -0.94 221 221 223
2.76 -26.40 -0.94 222 222 224
2.76 -26.50 -0.94 222 222 224
2.76 -26.59 -0.94 220 220 222
2.76 -26.69 -0.94 219 219 221
2.95 -26.87 -1.10 217 216 221
2.95 -26.97 -1.10 218 217 222
2.95 -27.06 -1.10 219 218 223
2.95 -27.16 -1.10 219 218 223
2.95 -27.26 -1.10 218 217 222
2.95 -27.35 -1.10 217 216 221
2.95 -27.45 -1.10 217 216 221
2.95 -27.55 -1.10 218 217 222
2.95 -27.65 -1.10 217 216 221
2.95 -27.74 -1.10 217 216 221
2.95 -27.84 -1.10 215 214 219
2.95 -27.94 -1.10 215 214 219
2.76 -27.94 -0.94 216 215 220
2.76 -28.04 -0.94 216 216 218
2.95 -28.23 -1.10 214 214 216
2.95 -28.32 -1.10 215 215 217
2.95 -28.42 -1.10 215 215 217
2.95 -28.52 -1.10 215 215 217
2.76 -28.52 -0.94 215 215 217
2.76 -28.62 -0.94 216 216 218
2.76 -28.71 -0.94 215 215 217
2.76 -28.81 -0.94 215 215 217
2.76 -28.90 -0.94 214 214 216
2.76 -29.00 -0.94 213 213 213
2.76 -29.10 -0.94 214 214 214
2.76 -29.19 -0.94 214 214 214
2.76 -29.29 -0.94 215 215 215
2.76 -29.39 -0.94 216 214 215
2.76 -29.48 -0.94 216 214 215
2.95 -29.68 -1.10 216 214 215
2.95 -29.77 -1.10 216 214 215
2.95 -29.87 -1.10 218 216 219
2.95 -29.97 -1.10 219 217 220
2.76 -29.96 -0.94 216 214 217
2.76 -30.06 -0.94 219 214 218
2.76 -30.16 -0.94 221 216 220
2.76 -30.25 -0.94 220 215 219
2.76 -30.35 -0.94 218 213 217
2.95 -30.55 -1.10 220 216 217
2.76 -30.54 -0.94 221 217 218
2.95 -30.74 -1.10 221 217 218
2.95 -30.84 -1.10 221 217 218
2.95 -30.93 -1.10 222 218 219
2.95 -31.03 -1.10 222 218 219
2.95 -31.13 -1.10 222 218 219
2.95 -31.22 -1.10 222 218 219
2.95 -31.32 -1.10 220 216 217
2.95 -31.42 -1.10 223 219 220
2.95 -31.51 -1.10 223 219 220
2.95 -31.61 -1.10 222 218 219
2.76 -31.60 -0.94 221 217 218
2.76 -31.70 -0.94 223 219 220
2.76 -31.79 -0.94 227 223 224
2.76 -31.89 -0.94 174 168 170
2.76 -31.99 -0.94 88 78 79
2.76 -32.08 -0.94 98 86 88
2.76 -32.18 -0.94 111 101 102
2.76 -32.28 -0.94 125 114 118
2.76 -32.37 -0.94 114 103 107
2.95 -32.58 -1.10 104 95 100
2.95 -32.68 -1.10 96 87 92
2.90 23.92 -1.19 0 0 0
2.90 23.82 -1.19 0 0 0
2.90 23.73 -1.19 0 0 0
2.90 23.63 -1.19 0 0 0
2.90 23.53 -1.19 0 0 0
2.90 23.44 -1.19 0 0 0
2.90 23.34 -1.19 0 0 0
2.90 23.24 -1.19 0 0 0
2.90 23.15 -1.19 0 0 0
2.90 23.05 -1.19 126 120 120
2.90 22.95 -1.19 126 120 120
2.90 22.86 -1.19 126 120 120
2.90 22.76 -1.19 127 121 121
2.90 22.66 -1.19 126 120 120
2.90 22.57 -1.19 127 118 119
2.90 22.47 -1.19 127 118 119
2.90 22.37 -1.19 128 120 118
2.90 22.28 -1.19 129 121 119
2.90 22.18 -1.19 128 120 118
2.90 22.08 -1.19 129 121 119
2.90 21.99 -1.19 128 123 120
3.09 22.02 -1.35 128 123 120
3.09 21.92 -1.35 127 124 119
3.09 21.82 -1.35 127 124 119
3.09 21.73 -1.35 125 124 119
3.09 21.63 -1.35 126 123 118
3.30 21.68 -1.54 128 125 116
3.09 21.43 -1.35 129 125 116
3.09 21.34 -1.35 130 126 117
3.09 21.24 -1.35 130 126 115
3.09 21.14 -1.35 130 126 115
3.09 21.05 -1.35 129 125 114
3.09 20.95 -1.35 128 124 113
3.09 20.85 -1.35 131 124 116
3.09 20.75 -1.35 131 124 116
3.09 20.66 -1.35 131 124 118
2.90 20.44 -1.19 131 124 118
2.90 20.34 -1.19 133 124 119
2.90 20.24 -1.19 133 124 119
2.90 20.15 -1.19 133 123 121
2.90 20.05 -1.19 132 122 120
2.90 19.95 -1.19 138 127 125
2.90 19.86 -1.19 137 126 124
2.90 19.76 -1.19 137 126 122
2.90 19.66 -1.19 137 126 122
2.90 19.57 -1.19 136 127 118
2.90 19.47 -1.19 136 127 118
2.90 19.37 -1.19 135 129 117
2.90 19.28 -1.19 135 129 117
2.90 19.18 -1.19 134 127 117
2.90 19.08 -1.19 135 128 118
2.90 18.99 -1.19 134 130 121
2.90 18.89 -1.19 135 130 124
2.90 18.79 -1.19 135 132 127
2.90 18.70 -1.19 134 130 127
3.09 18.71 -1.35 134 130 129
2.90 18.50 -1.19 134 130 129
2.90 18.41 -1.19 135 131 132
2.90 18.31 -1.19 136 132 133
2.90 18.21 -1.19 136 132 133
2.90 18.12 -1.19 135 131 130
2.90 18.02 -1.19 134 130 129
2.90 17.92 -1.19 134 128 128
2.90 17.83 -1.19 134 128 128
2.90 17.73 -1.19 134 129 126
2.90 17.63 -1.19 136 131 128
2.90 17.53 -1.19 136 131 128
2.90 17.44 -1.19 134 129 126
2.90 17.34 -1.19 137 129 126
2.90 17.24 -1.19 139 131 128
2.90 17.15 -1.19 139 131 128
2.90 17.05 -1.19 137 129 126
2.90 16.95 -1.19 137 134 127
2.90 16.86 -1.19 137 134 127
2.90 16.76 -1.19 137 134 125
2.90 16.66 -1.19 135 132 123
2.90 16.57 -1.19 134 132 120
2.90 16.47 -1.19 135 133 121
2.90 16.37 -1.19 137 135 123
2.90 16.28 -1.19 135 133 121
2.90 16.18 -1.19 136 134 122
2.90 16.08 -1.19 135 132 123
2.90 15.99 -1.19 132 129 120
2.90 15.89 -1.19 132 129 122
2.90 15.79 -1.19 135 132 125
2.90 15.70 -1.19 137 134 129
2.90 15.60 -1.19 136 133 128
2.90 15.50 -1.19 135 135 127
2.90 15.41 -1.19 136 136 128
2.90 15.31 -1.19 137 137 129
2.90 15.21 -1.19 137 137 129
2.90 15.12 -1.19 136 136 128
2.90 15.02 -1.19 136 136 128
2.90 14.92 -1.19 136 135 130
2.90 14.83 -1.19 136 135 130
2.90 14.73 -1.19 134 133 128
2.90 14.63 -1.19 134 133 128
3.09 14.63 -1.35 135 131 128
3.09 14.53 -1.35 135 131 128
3.09 14.44 -1.35 135 131 128
3.09 14.34 -1.35 136 132 129
3.09 14.24 -1.35 138 134 133
2.90 14.05 -1.19 135 135 135
2.90 13.96 -1.19 135 135 137
2.90 13.86 -1.19 136 134 135
2.90 13.76 -1.19 135 133 134
2.90 13.67 -1.19 135 134 132
2.90 13.57 -1.19 135 134 132
2.90 13.47 -1.19 135 134 130
2.71 13.28 -1.02 135 134 130
2.90 13.28 -1.19 136 133 128
2.90 13.18 -1.19 136 133 128
2.71 12.99 -1.02 137 134 129
2.71 12.90 -1.02 136 133 128
-4.83 9.22 5.65 136 133 128
-4.83 9.14 5.65 136 133 128
-4.83 9.06 5.65 137 134 129
-4.97 8.92 5.77 138 134 131
-4.97 8.84 5.77 134 134 134
-4.97 8.76 5.77 134 134 136
-4.97 8.68 5.77 127 125 130
-4.97 8.60 5.77 139 137 142
-5.10 8.46 5.88 159 154 161
-5.10 8.38 5.88 157 152 159
-5.10 8.30 5.88 155 148 155
-5.10 8.23 5.88 159 150 153
-5.10 8.15 5.88 159 150 153
-5.10 8.07 5.88 160 150 149
-5.10 7.99 5.88 160 150 149
-5.24 7.85 6.00 162 150 152
-5.24 7.77 6.00 162 150 154
-5.24 7.70 6.00 161 149 153
-5.24 7.62 6.00 162 147 154
-5.24 7.54 6.00 161 146 151
-5.24 7.46 6.00 162 145 151
-5.24 7.38 6.00 162 145 151
-5.24 7.30 6.00 161 144 150
-5.24 7.23 6.00 160 143 149
-5.24 7.15 6.00 160 143 149
-5.24 7.07 6.00 159 144 149
-5.24 6.99 6.00 160 145 150
-5.24 6.91 6.00 156 143 150
-5.37 6.62 6.12 156 143 150
-5.37 6.55 6.12 154 143 149
-5.37 6.47 6.12 154 143 149
-5.37 6.39 6.12 153 142 148
-5.37 6.31 6.12 152 141 149
-5.37 6.23 6.12 152 142 151
-5.37 6.16 6.12 148 143 150
-5.37 6.08 6.12 149 144 151
-5.37 6.00 6.12 147 146 152
-5.37 5.92 6.12 148 147 153
-5.48 5.80 6.21 148 147 155
-5.48 5.72 6.21 147 146 154
-5.48 5.65 6.21 148 145 156
-5.48 5.57 6.21 148 145 156
-5.48 5.49 6.21 147 145 158
-5.48 5.41 6.21 147 145 159
-5.48 5.34 6.21 143 145 158
-5.48 5.26 6.21 143 145 160
-5.48 5.18 6.21 141 147 163
-5.48 5.10 6.21 141 147 161
-5.48 5.02 6.21 146 152 164
-5.48 4.95 6.21 145 152 162
-5.61 4.82 6.33 145 152 162
-5.61 4.74 6.33 146 153 163
-5.61 4.67 6.33 146 155 162
-5.61 4.59 6.33 146 155 162
-5.61 4.51 6.33 144 155 161
-5.61 4.43 6.33 143 154 160
-5.61 4.36 6.33 144 157 163
-5.61 4.28 6.33 139 154 161
-5.61 4.20 6.33 139 154 161
-5.61 4.12 6.33 137 154 162
-5.61 4.05 6.33 138 155 163
-5.61 3.97 6.33 138 155 165
-5.61 3.89 6.33 137 155 165
-5.61 3.81 6.33 139 159 168
-5.61 3.74 6.33 136 159 167
-5.61 3.66 6.33 137 160 166
-5.61 3.58 6.33 139 162 168
-5.61 3.50 6.33 141 161 168
-5.61 3.43 6.33 138 158 165
-5.61 3.35 6.33 137 158 163
-5.61 3.27 6.33 139 160 165
-5.74 3.15 6.45 141 162 167
-5.74 3.08 6.45 140 161 166
-5.74 3.00 6.45 141 160 166
-5.74 2.92 6.45 142 161 167
-5.61 2.88 6.33 144 163 169
-5.61 2.81 6.33 146 165 171
-5.61 2.73 6.33 145 164 171
-5.61 2.65 6.33 143 162 169
-5.48 2.61 6.21 147 168 171
-5.48 2.54 6.21 163 183 184
-5.37 2.49 6.12 161 175 176
-5.37 2.41 6.12 182 188 186
-5.24 2.37 6.00 204 206 203
-5.10 2.33 5.88 202 204 199
-4.97 2.29 5.77 199 200 195
-4.83 2.25 5.65 200 202 199
-4.57 2.24 5.41 198 203 199
-4.30 2.23 5.17 198 204 202
-4.30 2.15 5.17 197 206 203
-4.03 2.14 4.94 197 208 204
-3.60 2.18 4.56 196 207 203
-3.47 2.13 4.44 194 205 197
-3.47 2.05 4.44 191 202 194
-3.34 2.00 4.32 176 187 181
-3.34 1.92 4.32 201 212 206
2.90 2.83 -1.19 155 159 158
2.90 2.73 -1.19 157 161 160
2.90 2.64 -1.19 159 164 160
2.90 2.54 -1.19 160 165 161
2.90 2.44 -1.19 158 163 157
2.90 2.35 -1.19 158 163 157
2.90 2.25 -1.19 159 164 160
2.90 2.15 -1.19 160 162 159
2.90 2.06 -1.19 160 162 161
2.90 1.96 -1.19 159 163 162
2.90 1.86 -1.19 160 164 163
2.90 1.77 -1.19 160 164 163
2.90 1.67 -1.19 160 164 163
2.90 1.57 -1.19 160 165 161
2.90 1.48 -1.19 159 164 160
2.90 1.38 -1.19 155 161 157
2.90 1.28 -1.19 156 162 158
2.90 1.18 -1.19 158 164 160
2.90 1.09 -1.19 160 166 162
2.90 0.99 -1.19 161 167 163
2.90 0.89 -1.19 160 166 162
3.09 0.83 -1.35 159 166 159
3.09 0.74 -1.35 158 164 160
3.09 0.64 -1.35 157 166 161
2.90 0.51 -1.19 157 166 163
2.90 0.41 -1.19 158 167 164
2.90 0.31 -1.19 159 168 165
2.90 0.22 -1.19 160 169 166
2.90 0.12 -1.19 159 168 165
2.90 0.02 -1.19 159 168 165
2.90 -0.07 -1.19 160 169 166
2.90 -0.17 -1.19 160 169 166
2.90 -0.27 -1.19 160 169 166
2.90 -0.36 -1.19 160 169 166
2.90 -0.46 -1.19 159 168 165
2.90 -0.56 -1.19 159 168 165
2.90 -0.65 -1.19 160 169 166
2.90 -0.75 -1.19 161 170 167
3.09 -0.82 -1.35 160 170 162
3.09 -0.92 -1.35 159 169 161
3.09 -1.01 -1.35 157 168 160
3.09 -1.11 -1.35 158 169 161
3.09 -1.21 -1.35 159 170 164
3.09 -1.30 -1.35 159 170 164
3.09 -1.40 -1.35 159 170 166
3.09 -1.50 -1.35 158 169 165
3.09 -1.60 -1.35 155 166 162
3.09 -1.69 -1.35 158 169 165
3.09 -1.79 -1.35 161 170 167
2.90 -1.91 -1.19 161 170 167
2.90 -2.01 -1.19 163 169 165
2.90 -2.10 -1.19 164 170 166
2.90 -2.20 -1.19 162 168 166
2.90 -2.30 -1.19 160 168 170
2.90 -2.39 -1.19 161 169 172
2.90 -2.49 -1.19 161 169 171
2.90 -2.59 -1.19 161 169 171
2.90 -2.68 -1.19 162 171 170
2.90 -2.78 -1.19 162 171 170
2.90 -2.88 -1.19 162 171 170
2.90 -2.98 -1.19 162 171 170
2.90 -3.07 -1.19 164 173 170
2.90 -3.17 -1.19 163 172 169
2.90 -3.27 -1.19 162 171 170
2.90 -3.36 -1.19 163 172 171
2.90 -3.46 -1.19 164 173 172
2.90 -3.56 -1.19 164 173 172
2.90 -3.65 -1.19 164 173 172
2.90 -3.75 -1.19 163 172 171
2.90 -3.85 -1.19 163 172 171
2.90 -3.94 -1.19 164 173 172
3.09 -4.02 -1.35 165 174 173
3.09 -4.12 -1.35 165 174 173
2.90 -4.23 -1.19 165 174 171
2.90 -4.33 -1.19 165 174 171
2.90 -4.43 -1.19 166 175 172
2.90 -4.52 -1.19 167 176 171
2.90 -4.62 -1.19 167 176 171
2.90 -4.72 -1.19 168 177 172
2.90 -4.81 -1.19 168 177 172
2.90 -4.91 -1.19 168 178 170
2.90 -5.01 -1.19 167 177 169
2.90 -5.10 -1.19 166 176 168
2.90 -5.20 -1.19 165 174 169
2.90 -5.30 -1.19 166 179 172
2.90 -5.39 -1.19 165 177 173
2.90 -5.49 -1.19 164 176 174
2.90 -5.59 -1.19 165 177 175
2.90 -5.68 -1.19 165 179 179
2.90 -5.78 -1.19 166 180 180
2.90 -5.88 -1.19 166 180 181
2.90 -5.97 -1.19 166 180 181
2.90 -6.07 -1.19 166 180 181
2.90 -6.17 -1.19 166 180 181
2.90 -6.26 -1.19 165 180 177
3.09 -6.36 -1.35 165 180 177
3.09 -6.45 -1.35 166 178 174
2.90 -6.55 -1.19 166 178 174
2.90 -6.65 -1.19 166 179 170
2.90 -6.75 -1.19 166 179 172
2.90 -6.84 -1.19 167 179 175
2.90 -6.94 -1.19 168 180 176
3.09 -7.04 -1.35 168 180 176
3.09 -7.13 -1.35 167 179 175
3.09 -7.23 -1.35 168 180 176
3.09 -7.33 -1.35 169 181 177
3.09 -7.43 -1.35 170 182 178
3.09 -7.52 -1.35 166 181 176
3.09 -7.62 -1.35 168 183 178
3.09 -7.72 -1.35 170 185 180
3.09 -7.81 -1.35 170 185 180
2.90 -7.91 -1.19 169 184 179
2.90 -8.01 -1.19 168 183 178
2.90 -8.10 -1.19 168 183 178
2.90 -8.20 -1.19 169 184 179
2.90 -8.30 -1.19 172 184 180
2.90 -8.39 -1.19 171 183 179
2.90 -8.49 -1.19 170 182 178
3.09 -8.59 -1.35 170 182 178
3.09 -8.69 -1.35 172 183 179
3.09 -8.79 -1.35 173 184 180
3.09 -8.88 -1.35 173 182 179
2.90 -8.97 -1.19 172 181 178
2.90 -9.07 -1.19 174 183 180
2.90 -9.17 -1.19 175 184 181
2.90 -9.26 -1.19 176 185 182
2.90 -9.36 -1.19 175 186 182
2.90 -9.46 -1.19 175 186 182
2.90 -9.55 -1.19 176 187 183
2.90 -9.65 -1.19 177 188 184
2.90 -9.75 -1.19 177 186 181
2.90 -9.84 -1.19 179 188 183
2.90 -9.94 -1.19 181 190 185
2.90 -10.04 -1.19 182 191 186
2.90 -10.13 -1.19 182 191 186
2.90 -10.23 -1.19 181 190 185
2.90 -10.33 -1.19 182 191 188
2.90 -10.42 -1.19 183 192 189
2.90 -10.52 -1.19 181 190 187
2.90 -10.62 -1.19 183 192 189
2.90 -10.71 -1.19 184 193 190
2.90 -10.81 -1.19 184 193 190
2.90 -11.10 -1.19 183 192 191
2.90 -11.20 -1.19 183 191 193
2.90 -11.30 -1.19 189 197 199
2.90 -11.39 -1.19 189 197 200
2.90 -11.49 -1.19 190 198 200
2.90 -11.59 -1.19 192 201 200
2.90 -11.68 -1.19 193 202 201
3.09 -11.80 -1.35 192 201 198
3.09 -11.90 -1.35 192 201 198
2.90 -11.97 -1.19 195 204 199
2.90 -12.07 -1.19 196 205 200
2.90 -12.17 -1.19 197 206 201
2.90 -12.26 -1.19 197 206 201
2.90 -12.36 -1.19 198 207 202
2.90 -12.46 -1.19 198 207 202
2.90 -12.55 -1.19 199 208 203
2.90 -12.65 -1.19 200 209 204
2.90 -12.75 -1.19 204 213 208
2.90 -12.84 -1.19 205 214 209
2.90 -12.94 -1.19 206 215 212
2.90 -13.04 -1.19 206 215 212
2.90 -13.13 -1.19 207 216 213
2.90 -13.42 -1.19 210 219 218
2.90 -13.52 -1.19 211 220 219
2.90 -13.62 -1.19 212 221 220
2.71 -13.69 -1.02 212 220 222
2.71 -13.78 -1.02 213 221 223
2.71 -13.88 -1.02 213 221 223
2.71 -13.98 -1.02 213 221 224
2.90 -14.10 -1.19 213 221 224
2.90 -14.20 -1.19 215 224 223
2.90 -14.29 -1.19 214 223 222
2.90 -14.39 -1.19 214 223 222
2.90 -14.49 -1.19 215 224 223
2.90 -14.58 -1.19 217 226 223
2.90 -14.68 -1.19 219 228 225
2.90 -14.78 -1.19 221 227 223
2.90 -14.87 -1.19 220 226 222
2.90 -14.97 -1.19 220 226 222
2.90 -15.07 -1.19 221 227 223
2.90 -15.16 -1.19 223 229 225
2.90 -15.26 -1.19 224 230 226
2.90 -15.36 -1.19 223 229 227
2.90 -15.46 -1.19 224 230 228
2.90 -15.55 -1.19 226 230 229
2.90 -15.65 -1.19 227 231 230
2.90 -15.75 -1.19 226 230 229
2.90 -15.84 -1.19 226 230 229
2.90 -15.94 -1.19 228 232 231
2.71 -16.00 -1.02 231 235 234
2.71 -16.09 -1.02 228 232 231
2.71 -16.19 -1.02 226 230 229
2.71 -16.29 -1.02 226 230 229
2.71 -16.38 -1.02 224 228 227
2.71 -16.48 -1.02 225 229 228
2.50 -16.53 -0.83 226 230 229
2.50 -16.63 -0.83 227 231 230
2.71 -16.77 -1.02 227 231 230
2.71 -16.86 -1.02 227 231 230
2.50 -16.91 -0.83 227 231 230
2.50 -17.01 -0.83 228 232 231
2.50 -17.10 -0.83 230 236 234
2.71 -17.25 -1.02 229 235 233
2.71 -17.35 -1.02 228 234 232
2.71 -17.44 -1.02 228 234 232
2.71 -17.54 -1.02 229 235 233
2.71 -17.64 -1.02 230 236 234
2.71 -17.73 -1.02 230 236 234
2.71 -17.83 -1.02 229 235 233
2.71 -17.92 -1.02 228 234 232
2.71 -18.02 -1.02 229 235 233
2.71 -18.12 -1.02 230 236 234
2.71 -18.21 -1.02 230 236 234
2.50 -18.25 -0.83 229 235 233
2.50 -18.35 -0.83 229 235 233
2.71 -18.50 -1.02 231 235 234
2.71 -18.60 -1.02 233 237 236
2.71 -18.69 -1.02 234 236 235
2.71 -18.79 -1.02 233 235 234
2.71 -18.89 -1.02 233 235 234
2.71 -18.98 -1.02 234 236 235
2.71 -19.08 -1.02 234 236 235
2.71 -19.18 -1.02 234 236 235
2.71 -19.27 -1.02 233 235 234
2.71 -19.37 -1.02 230 232 231
2.71 -19.47 -1.02 231 233 232
2.71 -19.56 -1.02 233 235 234
2.71 -19.66 -1.02 234 236 235
2.71 -19.75 -1.02 235 237 236
2.90 -19.91 -1.19 235 237 236
2.90 -20.00 -1.19 235 237 236
2.71 -20.04 -1.02 235 237 236
2.71 -20.14 -1.02 234 234 234
2.71 -20.24 -1.02 234 234 234
2.71 -20.33 -1.02 235 235 235
2.71 -20.43 -1.02 234 234 234
2.71 -20.52 -1.02 233 233 233
2.71 -20.62 -1.02 232 232 232
2.71 -20.72 -1.02 230 230 230
2.71 -20.81 -1.02 232 232 232
2.71 -20.91 -1.02 233 233 233
2.71 -21.01 -1.02 235 235 235
2.71 -21.10 -1.02 236 236 236
2.71 -21.20 -1.02 237 237 237
2.71 -21.30 -1.02 236 236 236
2.71 -21.39 -1.02 235 235 235
2.71 -21.49 -1.02 235 235 235
2.71 -21.58 -1.02 233 233 231
2.71 -21.68 -1.02 233 233 231
2.71 -21.78 -1.02 233 233 231
2.71 -21.87 -1.02 233 233 231
2.90 -22.03 -1.19 232 232 230
2.90 -22.13 -1.19 232 232 230
2.90 -22.23 -1.19 231 231 229
2.71 -22.26 -1.02 231 231 229
2.71 -22.35 -1.02 233 233 231
2.71 -22.45 -1.02 233 233 231
2.71 -22.55 -1.02 233 233 231
2.71 -22.64 -1.02 233 233 231
2.71 -22.74 -1.02 232 232 230
2.71 -22.84 -1.02 231 231 229
2.71 -22.93 -1.02 230 230 228
2.71 -23.03 -1.02 227 227 227
2.71 -23.13 -1.02 228 228 228
2.71 -23.22 -1.02 229 229 229
2.71 -23.32 -1.02 229 229 229
2.90 -23.49 -1.19 228 228 228
2.90 -23.58 -1.19 228 228 228
2.90 -23.68 -1.19 229 229 229
2.90 -23.78 -1.19 230 230 230
2.90 -23.87 -1.19 229 229 229
2.90 -23.97 -1.19 229 229 229
2.90 -24.07 -1.19 229 229 229
2.90 -24.16 -1.19 228 228 228
2.90 -24.26 -1.19 228 228 228
2.90 -24.36 -1.19 227 227 227
2.71 -24.38 -1.02 226 226 226
2.71 -24.47 -1.02 226 226 228
2.71 -24.57 -1.02 224 224 226
2.71 -24.67 -1.02 224 223 228
2.71 -24.76 -1.02 223 222 227
2.71 -24.86 -1.02 223 222 227
2.71 -24.96 -1.02 224 223 228
2.71 -25.05 -1.02 225 224 229
2.71 -25.15 -1.02 225 224 229
2.71 -25.24 -1.02 225 224 229
2.71 -25.34 -1.02 223 222 227
2.50 -25.35 -0.83 224 223 228
2.50 -25.44 -0.83 224 223 228
2.50 -25.54 -0.83 224 223 228
2.50 -25.63 -0.83 223 222 227
2.50 -25.73 -0.83 222 221 226
2.50 -25.83 -0.83 222 221 226
2.50 -25.92 -0.83 224 224 224
2.50 -26.02 -0.83 222 222 222
2.71 -26.21 -1.02 220 220 222
2.71 -26.30 -1.02 220 220 222
2.71 -26.40 -1.02 221 221 223
2.71 -26.50 -1.02 222 222 224
2.71 -26.59 -1.02 221 221 223
2.71 -26.69 -1.02 220 220 222
2.71 -26.79 -1.02 219 218 223
2.71 -26.88 -1.02 220 219 224
2.90 -27.06 -1.19 220 219 224
2.90 -27.16 -1.19 219 218 223
2.90 -27.26 -1.19 218 217 222
2.90 -27.35 -1.19 217 216 221
2.90 -27.45 -1.19 217 216 221
2.71 -27.46 -1.02 218 217 222
2.71 -27.56 -1.02 216 215 220
2.71 -27.65 -1.02 217 216 221
2.71 -27.75 -1.02 215 214 219
2.71 -27.85 -1.02 214 213 218
2.71 -27.94 -1.02 215 214 219
2.71 -28.04 -1.02 215 215 217
2.71 -28.13 -1.02 214 214 216
2.90 -28.32 -1.19 215 215 217
2.71 -28.33 -1.02 214 214 216
2.71 -28.42 -1.02 213 213 215
2.71 -28.52 -1.02 214 214 216
2.71 -28.62 -1.02 215 215 217
2.71 -28.71 -1.02 215 215 217
2.50 -28.70 -0.83 213 213 215
2.50 -28.80 -0.83 211 211 213
2.71 -29.00 -1.02 215 215 215
2.71 -29.10 -1.02 215 215 215
2.71 -29.19 -1.02 216 216 216
2.71 -29.29 -1.02 216 216 216
2.71 -29.39 -1.02 218 216 217
2.71 -29.48 -1.02 218 216 217
2.71 -29.58 -1.02 218 216 217
2.71 -29.68 -1.02 218 216 217
2.71 -29.77 -1.02 219 217 220
2.71 -29.87 -1.02 219 217 220
2.71 -29.96 -1.02 217 215 218
2.71 -30.06 -1.02 220 215 219
2.50 -30.04 -0.83 223 218 222
2.50 -30.14 -0.83 223 218 222
2.71 -30.35 -1.02 221 216 220
2.71 -30.45 -1.02 219 215 216
2.71 -30.54 -1.02 218 214 215
2.71 -30.64 -1.02 218 214 215
2.71 -30.73 -1.02 218 214 215
2.90 -30.93 -1.19 217 213 214
2.90 -31.03 -1.19 218 214 215
2.90 -31.13 -1.19 218 214 215
2.90 -31.22 -1.19 218 214 215
2.90 -31.32 -1.19 223 219 220
2.90 -31.42 -1.19 220 216 217
2.90 -31.51 -1.19 221 217 218
2.71 -31.51 -1.02 217 213 214
2.71 -31.60 -1.02 214 210 211
2.71 -31.70 -1.02 221 217 218
2.71 -31.79 -1.02 234 230 231
2.71 -31.89 -1.02 185 179 181
2.71 -31.99 -1.02 106 98 96
2.50 -31.96 -0.83 106 96 95
2.50 -32.05 -0.83 108 98 99
2.71 -32.28 -1.02 101 92 93
2.71 -32.37 -1.02 114 105 106
2.90 -32.58 -1.19 118 109 112
2.90 -32.68 -1.19 104 95 98
2.85 23.92 -1.27 0 0 0
2.85 23.82 -1.27 0 0 0
2.85 23.73 -1.27 0 0 0
2.67 23.49 -1.10 0 0 0
2.67 23.40 -1.10 0 0 0
2.67 23.30 -1.10 0 0 0
2.67 23.20 -1.10 0 0 0
2.67 23.11 -1.10 0 0 0
2.67 23.01 -1.10 0 0 0
2.67 22.92 -1.10 126 117 122
2.67 22.82 -1.10 126 117 122
2.85 22.86 -1.27 126 117 122
2.85 22.76 -1.27 126 117 120
2.85 22.66 -1.27 128 119 122
2.85 22.57 -1.27 130 121 122
2.85 22.47 -1.27 131 122 123
2.85 22.37 -1.27 129 124 120
2.85 22.28 -1.27 129 124 120
2.85 22.18 -1.27 130 125 119
2.85 22.08 -1.27 128 123 117
2.85 21.99 -1.27 127 122 116
2.85 21.89 -1.27 128 123 117
3.04 21.92 -1.44 128 125 120
3.04 21.82 -1.44 130 127 122
3.04 21.73 -1.44 130 127 122
3.04 21.63 -1.44 130 127 122
3.04 21.53 -1.44 129 125 116
3.04 21.43 -1.44 129 125 116
3.04 21.34 -1.44 129 125 116
3.04 21.24 -1.44 128 124 115
3.04 21.14 -1.44 128 124 115
3.04 21.05 -1.44 131 124 116
2.85 20.82 -1.27 131 124 116
2.85 20.73 -1.27 129 122 114
2.85 20.63 -1.27 130 123 115
2.85 20.53 -1.27 132 125 117
2.85 20.44 -1.27 133 126 118
2.85 20.34 -1.27 134 127 117
2.85 20.24 -1.27 134 127 117
2.85 20.15 -1.27 134 127 117
2.85 20.05 -1.27 135 128 118
2.85 19.95 -1.27 128 124 112
2.85 19.86 -1.27 131 127 115
2.85 19.76 -1.27 133 129 118
2.85 19.66 -1.27 132 128 117
2.85 19.57 -1.27 133 126 118
2.85 19.47 -1.27 135 128 122
2.85 19.37 -1.27 136 129 123
2.85 19.28 -1.27 135 127 124
2.85 19.18 -1.27 135 127 124
2.85 19.08 -1.27 135 127 124
2.85 18.99 -1.27 134 129 125
2.85 18.89 -1.27 135 130 126
2.85 18.79 -1.27 133 130 125
2.85 18.70 -1.27 133 130 123
2.85 18.60 -1.27 132 129 124
2.85 18.50 -1.27 131 130 125
2.85 18.41 -1.27 131 130 126
2.85 18.31 -1.27 130 129 125
2.85 18.21 -1.27 131 130 126
2.85 18.12 -1.27 132 131 129
2.85 18.02 -1.27 133 132 130
2.85 17.92 -1.27 133 131 132
2.85 17.83 -1.27 133 131 132
2.85 17.73 -1.27 130 128 129
2.85 17.63 -1.27 131 129 130
2.85 17.53 -1.27 132 131 129
2.85 17.44 -1.27 133 132 130
2.85 17.34 -1.27 133 132 130
2.85 17.24 -1.27 133 132 130
2.85 17.15 -1.27 133 132 128
2.85 17.05 -1.27 132 131 127
2.85 16.95 -1.27 138 134 131
2.85 16.86 -1.27 137 133 130
2.67 16.65 -1.10 136 132 129
2.67 16.56 -1.10 135 131 128
2.67 16.46 -1.10 135 132 127
2.67 16.37 -1.10 135 132 127
2.67 16.27 -1.10 135 132 127
2.67 16.17 -1.10 136 133 128
2.67 16.08 -1.10 136 133 128
2.67 15.98 -1.10 136 132 129
2.67 15.88 -1.10 136 132 129
2.85 15.89 -1.27 137 133 132
2.85 15.79 -1.27 137 133 132
2.85 15.70 -1.27 136 132 133
2.85 15.60 -1.27 136 132 133
2.85 15.50 -1.27 134 133 129
2.85 15.41 -1.27 135 134 130
2.85 15.31 -1.27 136 135 133
2.85 15.21 -1.27 136 135 133
2.85 15.12 -1.27 135 134 132
2.85 15.02 -1.27 135 134 132
2.85 14.92 -1.27 133 131 132
2.85 14.83 -1.27 133 131 132
2.85 14.73 -1.27 133 131 132
2.85 14.63 -1.27 133 131 132
2.85 14.54 -1.27 133 132 130
2.85 14.44 -1.27 134 133 131
2.85 14.34 -1.27 135 134 130
2.85 14.25 -1.27 136 135 131
2.85 14.15 -1.27 137 136 132
2.85 14.05 -1.27 139 135 134
2.85 13.96 -1.27 138 134 133
2.85 13.86 -1.27 136 132 131
2.85 13.76 -1.27 136 132 131
2.85 13.67 -1.27 135 134 132
2.67 13.48 -1.10 134 133 131
2.67 13.38 -1.10 133 132 128
2.67 13.28 -1.10 132 131 127
2.67 13.19 -1.10 135 134 130
2.67 13.09 -1.10 135 134 130
2.67 12.99 -1.10 135 134 129
2.67 12.90 -1.10 134 133 128
-4.87 9.22 5.58 134 133 128
-4.87 9.14 5.58 134 133 128
-4.87 9.06 5.58 133 132 127
-4.87 8.98 5.58 133 132 128
-5.01 8.84 5.70 139 135 134
-5.01 8.76 5.70 131 126 130
-5.01 8.68 5.70 134 129 133
-5.01 8.60 5.70 135 130 136
-5.01 8.52 5.70 160 155 161
-5.14 8.38 5.82 160 155 161
-5.14 8.30 5.82 154 150 151
-5.14 8.23 5.82 159 154 151
-5.14 8.15 5.82 157 152 149
-5.14 8.07 5.82 157 149 146
-5.14 7.99 5.82 156 148 146
-5.14 7.91 5.82 157 147 146
-5.14 7.83 5.82 157 146 150
-5.14 7.75 5.82 158 146 150
-5.14 7.68 5.82 157 144 151
-5.27 7.54 5.93 158 145 152
-5.27 7.46 5.93 160 147 154
-5.27 7.38 5.93 162 149 156
-5.27 7.30 5.93 160 147 154
-5.27 7.23 5.93 158 143 148
-5.27 7.15 5.93 155 140 145
-5.27 7.07 5.93 157 141 144
-5.27 6.99 5.93 160 144 147
-5.27 6.91 5.93 155 139 142
-5.27 6.83 5.93 156 140 143
-5.27 6.76 5.93 163 148 153
-5.41 6.62 6.05 159 144 149
-5.41 6.55 6.05 148 135 142
-5.41 6.47 6.05 156 143 150
-5.41 6.39 6.05 161 150 156
-5.41 6.31 6.05 148 137 143
-5.41 6.23 6.05 154 144 152
-5.41 6.16 6.05 144 137 145
-5.41 6.08 6.05 155 148 156
-5.41 6.00 6.05 154 151 160
-5.41 5.92 6.05 148 145 154
-5.41 5.84 6.05 154 152 163
-5.41 5.77 6.05 142 140 151
-5.41 5.69 6.05 142 142 150
-5.52 5.57 6.15 147 147 155
-5.52 5.49 6.15 143 142 147
-5.52 5.41 6.15 149 148 153
-5.52 5.34 6.15 144 142 143
-5.52 5.26 6.15 151 149 150
-5.52 5.18 6.15 153 152 150
-5.52 5.10 6.15 149 149 149
-5.52 5.02 6.15 150 151 156
-5.52 4.95 6.15 151 154 161
-5.52 4.87 6.15 144 149 155
-5.52 4.79 6.15 152 157 163
-5.65 4.36 6.27 147 156 161
-5.65 4.28 6.27 146 156 158
-5.65 4.20 6.27 144 154 156
-5.65 4.12 6.27 141 151 153
-5.65 4.05 6.27 141 151 153
-5.65 3.97 6.27 143 153 155
-5.65 3.89 6.27 146 157 161
-5.65 3.81 6.27 139 156 163
-5.65 3.74 6.27 139 158 165
-5.65 3.66 6.27 140 159 166
-5.65 3.58 6.27 140 159 166
-5.65 3.50 6.27 140 160 169
-5.65 3.43 6.27 141 161 170
-5.65 3.35 6.27 141 161 170
-5.65 3.27 6.27 141 161 170
-5.65 3.19 6.27 140 160 169
-5.65 3.12 6.27 140 160 169
-5.65 3.04 6.27 140 160 167
-5.65 2.96 6.27 141 161 168
-5.65 2.88 6.27 142 161 168
-5.65 2.81 6.27 142 161 168
-5.65 2.73 6.27 143 162 168
-5.52 2.69 6.15 143 162 168
-5.52 2.61 6.15 147 166 170
-5.41 2.57 6.05 162 180 184
-5.41 2.49 6.05 160 178 178
-5.41 2.41 6.05 165 177 175
-5.27 2.37 5.93 204 213 210
-5.14 2.33 5.82 192 201 196
-5.01 2.29 5.70 200 205 199
-4.87 2.25 5.58 199 204 197
-4.61 2.24 5.34 202 205 198
-4.34 2.23 5.10 199 204 197
-4.21 2.19 4.99 198 203 197
-4.07 2.14 4.87 199 206 199
-3.64 2.18 4.49 200 206 202
-3.51 2.13 4.37 196 205 202
-3.51 2.05 4.37 196 202 200
-3.38 2.00 4.25 184 190 188
-3.38 1.92 4.25 199 203 202
2.67 2.98 -1.10 222 231 230
2.85 2.93 -1.27 145 154 153
2.67 2.78 -1.10 152 161 158
2.67 2.69 -1.10 155 164 161
2.67 2.59 -1.10 157 163 159
2.67 2.50 -1.10 158 164 160
2.67 2.40 -1.10 156 161 155
2.67 2.30 -1.10 162 167 161
2.67 2.21 -1.10 155 160 154
2.67 2.11 -1.10 157 163 159
2.67 2.01 -1.10 157 163 159
2.67 1.92 -1.10 157 163 159
2.67 1.82 -1.10 158 164 160
2.67 1.73 -1.10 158 164 160
2.67 1.63 -1.10 159 165 161
2.67 1.53 -1.10 159 165 161
2.67 1.44 -1.10 159 165 161
2.67 1.34 -1.10 160 166 162
2.85 1.28 -1.27 159 165 161
2.85 1.18 -1.27 159 165 161
2.85 1.09 -1.27 160 166 162
2.85 0.99 -1.27 161 167 163
2.85 0.89 -1.27 162 168 164
2.85 0.80 -1.27 162 168 164
2.85 0.70 -1.27 161 167 163
2.85 0.60 -1.27 159 163 162
2.85 0.51 -1.27 159 163 162
2.85 0.41 -1.27 160 164 163
2.85 0.31 -1.27 161 165 164
2.67 0.18 -1.10 161 165 164
2.67 0.09 -1.10 162 168 166
2.67 -0.01 -1.10 163 169 167
2.67 -0.10 -1.10 162 168 166
2.67 -0.20 -1.10 161 167 165
2.67 -0.30 -1.10 160 166 164
2.67 -0.39 -1.10 160 166 164
2.67 -0.49 -1.10 160 166 164
2.85 -0.56 -1.27 161 167 165
2.85 -0.65 -1.27 161 167 165
2.85 -0.75 -1.27 159 168 167
2.85 -0.85 -1.27 158 168 167
2.85 -0.94 -1.27 157 169 169
2.85 -1.04 -1.27 158 170 168
2.85 -1.14 -1.27 158 170 168
2.85 -1.23 -1.27 158 168 167
2.85 -1.33 -1.27 159 169 168
2.85 -1.43 -1.27 159 170 166
2.85 -1.52 -1.27 160 171 167
2.85 -1.62 -1.27 156 167 163
3.04 -1.69 -1.44 157 168 164
2.85 -1.81 -1.27 158 167 162
2.85 -1.91 -1.27 157 166 161
2.85 -2.01 -1.27 159 168 163
2.67 -2.13 -1.10 161 170 165
2.67 -2.22 -1.10 163 172 167
2.67 -2.32 -1.10 161 170 167
2.67 -2.42 -1.10 161 170 169
2.85 -2.49 -1.27 161 170 169
2.85 -2.59 -1.27 161 170 169
2.85 -2.68 -1.27 162 171 170
2.85 -2.78 -1.27 162 171 170
2.85 -2.88 -1.27 162 171 168
2.85 -2.98 -1.27 161 170 167
2.85 -3.07 -1.27 162 171 168
2.85 -3.17 -1.27 163 172 169
2.85 -3.27 -1.27 163 172 169
2.85 -3.36 -1.27 163 172 169
2.85 -3.46 -1.27 161 170 167
2.85 -3.56 -1.27 161 170 167
2.85 -3.65 -1.27 162 171 168
2.85 -3.75 -1.27 164 173 170
2.85 -3.85 -1.27 163 172 169
2.85 -3.94 -1.27 164 173 170
2.85 -4.04 -1.27 165 174 171
2.85 -4.14 -1.27 165 174 171
2.85 -4.23 -1.27 164 173 170
2.85 -4.33 -1.27 163 172 169
2.85 -4.43 -1.27 164 173 168
2.67 -4.54 -1.10 166 175 170
2.67 -4.63 -1.10 166 175 170
2.67 -4.73 -1.10 166 175 170
2.67 -4.82 -1.10 166 175 170
2.67 -4.92 -1.10 167 177 169
2.67 -5.02 -1.10 167 177 169
2.67 -5.11 -1.10 168 178 170
2.67 -5.21 -1.10 168 177 172
2.67 -5.31 -1.10 169 180 174
2.67 -5.40 -1.10 167 178 174
2.85 -5.49 -1.27 165 176 172
2.85 -5.59 -1.27 165 176 172
2.85 -5.68 -1.27 166 177 173
2.85 -5.78 -1.27 168 179 175
2.85 -5.88 -1.27 168 179 175
2.67 -5.98 -1.10 168 179 175
2.67 -6.08 -1.10 167 177 176
2.67 -6.17 -1.10 168 178 177
2.67 -6.27 -1.10 169 179 178
2.67 -6.37 -1.10 169 179 178
2.85 -6.46 -1.27 168 178 177
2.85 -6.55 -1.27 168 178 177
2.85 -6.65 -1.27 169 179 178
2.85 -6.75 -1.27 170 180 179
2.85 -6.84 -1.27 166 181 176
2.85 -6.94 -1.27 166 181 176
2.85 -7.04 -1.27 166 181 176
2.85 -7.14 -1.27 166 181 176
2.85 -7.23 -1.27 166 181 176
2.85 -7.33 -1.27 165 180 175
2.85 -7.43 -1.27 165 180 175
2.85 -7.52 -1.27 167 179 175
2.85 -7.62 -1.27 168 180 176
2.85 -7.72 -1.27 168 181 174
2.85 -7.81 -1.27 169 182 175
2.85 -7.91 -1.27 170 183 176
2.85 -8.01 -1.27 171 184 177
2.85 -8.10 -1.27 171 184 177
2.85 -8.20 -1.27 172 185 178
2.85 -8.30 -1.27 168 180 176
2.85 -8.39 -1.27 169 181 177
2.85 -8.49 -1.27 172 183 179
2.85 -8.59 -1.27 172 183 179
3.04 -8.69 -1.44 172 183 179
3.04 -8.79 -1.44 172 183 179
2.85 -8.88 -1.27 173 184 180
2.85 -8.97 -1.27 175 186 182
2.67 -9.06 -1.10 175 186 182
2.67 -9.16 -1.10 175 184 181
2.67 -9.26 -1.10 175 184 181
2.67 -9.35 -1.10 176 185 182
2.67 -9.45 -1.10 177 186 183
2.67 -9.54 -1.10 178 187 184
2.67 -9.64 -1.10 179 188 185
2.67 -9.74 -1.10 176 187 183
2.67 -9.83 -1.10 177 188 184
2.67 -9.93 -1.10 178 189 183
2.67 -10.03 -1.10 179 190 184
2.85 -10.13 -1.27 180 191 185
2.85 -10.23 -1.27 180 191 185
2.85 -10.33 -1.27 181 192 186
2.85 -10.42 -1.27 181 192 186
2.85 -10.52 -1.27 180 191 185
2.67 -10.60 -1.10 181 192 186
2.85 -10.71 -1.27 182 193 189
2.85 -10.81 -1.27 183 194 190
2.85 -10.91 -1.27 184 195 191
2.85 -11.00 -1.27 184 195 191
2.85 -11.10 -1.27 185 195 194
2.85 -11.20 -1.27 185 195 194
2.85 -11.30 -1.27 188 197 196
2.85 -11.39 -1.27 189 198 197
2.85 -11.49 -1.27 191 200 199
2.85 -11.59 -1.27 191 200 199
2.85 -11.68 -1.27 193 202 201
2.85 -11.78 -1.27 194 203 200
2.85 -11.88 -1.27 195 204 201
2.85 -11.97 -1.27 195 204 201
2.85 -12.07 -1.27 195 204 201
2.85 -12.17 -1.27 196 205 202
2.85 -12.26 -1.27 197 206 203
2.67 -12.34 -1.10 198 207 204
2.67 -12.43 -1.10 200 209 206
2.67 -12.53 -1.10 201 210 207
2.67 -12.63 -1.10 202 211 208
2.67 -12.72 -1.10 201 214 207
2.67 -12.82 -1.10 202 215 208
2.67 -12.92 -1.10 204 216 212
2.67 -13.01 -1.10 205 217 213
2.67 -13.11 -1.10 207 217 216
2.67 -13.40 -1.10 208 218 219
2.67 -13.49 -1.10 207 215 217
2.67 -13.59 -1.10 208 216 218
2.67 -13.69 -1.10 212 217 220
2.67 -13.78 -1.10 214 220 220
2.67 -13.88 -1.10 215 221 221
2.67 -13.98 -1.10 216 222 222
2.85 -14.10 -1.27 218 222 223
2.85 -14.20 -1.27 219 223 224
2.85 -14.29 -1.27 220 221 223
2.85 -14.39 -1.27 217 221 220
2.67 -14.46 -1.10 216 220 219
2.67 -14.55 -1.10 215 221 219
2.85 -14.68 -1.27 216 222 220
2.85 -14.78 -1.27 215 224 221
2.85 -14.87 -1.27 216 225 222
2.85 -14.97 -1.27 223 232 229
2.85 -15.07 -1.27 220 229 226
2.85 -15.16 -1.27 219 225 221
2.85 -15.26 -1.27 220 226 222
2.85 -15.36 -1.27 222 228 224
2.85 -15.46 -1.27 224 230 226
2.85 -15.55 -1.27 224 229 225
2.85 -15.65 -1.27 223 228 224
2.67 -15.71 -1.10 222 228 226
2.67 -15.81 -1.10 221 227 225
2.67 -15.90 -1.10 221 227 225
2.67 -16.00 -1.10 221 227 225
2.67 -16.09 -1.10 223 229 227
2.67 -16.19 -1.10 225 231 229
2.67 -16.29 -1.10 226 232 230
2.45 -16.34 -0.91 228 234 232
2.45 -16.43 -0.91 227 233 231
2.45 -16.53 -0.91 227 233 231
2.45 -16.63 -0.91 227 233 231
2.45 -16.72 -0.91 227 233 231
2.45 -16.82 -0.91 227 233 231
2.45 -16.91 -0.91 227 233 231
2.45 -17.01 -0.91 227 233 231
2.45 -17.10 -0.91 224 230 228
2.45 -17.20 -0.91 226 232 230
2.45 -17.30 -0.91 227 233 231
2.45 -17.39 -0.91 228 234 232
2.45 -17.49 -0.91 227 233 231
2.45 -17.58 -0.91 227 233 231
2.67 -17.73 -1.10 228 234 232
2.67 -17.83 -1.10 229 235 233
2.45 -17.87 -0.91 228 234 232
2.45 -17.97 -0.91 227 233 231
2.45 -18.06 -0.91 227 233 231
2.45 -18.16 -0.91 227 233 231
2.45 -18.25 -0.91 227 233 231
2.45 -18.35 -0.91 228 234 232
2.45 -18.45 -0.91 228 234 232
2.45 -18.54 -0.91 231 235 234
2.45 -18.64 -0.91 230 234 233
2.45 -18.73 -0.91 232 234 233
2.45 -18.83 -0.91 232 234 233
2.45 -18.93 -0.91 235 235 235
2.45 -19.02 -0.91 236 236 236
2.45 -19.12 -0.91 237 237 237
2.45 -19.21 -0.91 236 236 236
2.45 -19.31 -0.91 233 233 233
2.45 -19.40 -0.91 235 235 235
2.45 -19.50 -0.91 236 236 236
2.45 -19.60 -0.91 235 235 235
2.45 -19.69 -0.91 234 236 235
2.67 -19.85 -1.10 235 237 236
2.67 -19.95 -1.10 233 235 234
2.67 -20.04 -1.10 231 233 232
2.45 -20.08 -0.91 230 230 230
2.45 -20.17 -0.91 232 232 232
2.45 -20.27 -0.91 234 234 234
2.45 -20.36 -0.91 234 234 234
2.45 -20.46 -0.91 233 233 233
2.45 -20.55 -0.91 233 233 233
2.45 -20.65 -0.91 233 233 233
2.45 -20.75 -0.91 234 234 234
2.45 -20.84 -0.91 234 234 234
2.45 -20.94 -0.91 234 234 234
2.26 -20.97 -0.75 233 233 233
2.26 -21.07 -0.75 232 232 232
2.45 -21.23 -0.91 232 232 232
2.45 -21.32 -0.91 232 232 232
2.45 -21.42 -0.91 233 233 233
2.45 -21.51 -0.91 235 235 235
2.45 -21.61 -0.91 234 234 234
2.67 -21.78 -1.10 234 234 234
2.67 -21.87 -1.10 234 234 234
2.67 -21.97 -1.10 233 233 233
2.67 -22.07 -1.10 233 233 233
2.67 -22.16 -1.10 234 234 234
2.67 -22.26 -1.10 234 234 234
2.67 -22.35 -1.10 231 231 231
2.67 -22.45 -1.10 231 231 231
2.45 -22.47 -0.91 231 231 231
2.45 -22.57 -0.91 231 231 231
2.45 -22.66 -0.91 231 231 231
2.45 -22.76 -0.91 231 231 231
2.45 -22.85 -0.91 231 231 231
2.45 -22.95 -0.91 229 229 229
2.67 -23.13 -1.10 229 229 229
2.67 -23.22 -1.10 229 229 229
2.67 -23.32 -1.10 229 229 229
2.67 -23.41 -1.10 229 229 229
2.67 -23.51 -1.10 228 228 228
2.85 -23.68 -1.27 227 227 227
2.85 -23.78 -1.27 226 226 226
2.85 -23.87 -1.27 228 228 228
2.85 -23.97 -1.27 228 228 228
2.85 -24.07 -1.27 228 228 228
2.85 -24.16 -1.27 229 229 229
2.85 -24.26 -1.27 229 229 229
2.67 -24.28 -1.10 229 229 229
2.67 -24.38 -1.10 229 229 229
2.67 -24.47 -1.10 229 229 229
2.67 -24.57 -1.10 228 229 224
2.45 -24.58 -0.91 228 229 224
2.45 -24.68 -0.91 229 230 225
2.45 -24.77 -0.91 228 229 224
2.45 -24.87 -0.91 227 227 225
2.45 -24.96 -0.91 225 225 223
2.45 -25.06 -0.91 225 225 225
2.45 -25.15 -0.91 225 225 225
2.45 -25.25 -0.91 224 224 226
2.45 -25.35 -0.91 223 223 225
2.45 -25.44 -0.91 222 222 224
2.45 -25.54 -0.91 222 221 226
2.45 -25.63 -0.91 222 221 226
2.45 -25.73 -0.91 222 221 226
2.45 -25.83 -0.91 222 221 226
2.45 -25.92 -0.91 222 221 227
2.45 -26.02 -0.91 224 223 229
2.45 -26.11 -0.91 224 223 229
2.45 -26.21 -0.91 221 220 226
2.67 -26.40 -1.10 219 218 224
2.45 -26.40 -0.91 220 219 225
2.45 -26.50 -0.91 221 220 226
2.45 -26.59 -0.91 221 220 226
2.45 -26.69 -0.91 221 220 226
2.45 -26.78 -0.91 220 219 225
2.45 -26.88 -0.91 218 217 223
2.45 -26.98 -0.91 218 217 223
2.67 -27.17 -1.10 219 218 224
2.67 -27.27 -1.10 218 217 223
2.67 -27.36 -1.10 217 216 222
2.67 -27.46 -1.10 216 215 221
2.67 -27.56 -1.10 218 217 223
2.45 -27.55 -0.91 216 215 220
2.45 -27.65 -0.91 216 215 220
2.45 -27.74 -0.91 216 215 220
2.45 -27.84 -0.91 217 216 221
2.45 -27.93 -0.91 218 218 220
2.45 -28.03 -0.91 218 218 220
2.67 -28.23 -1.10 218 218 220
2.67 -28.33 -1.10 217 217 219
2.67 -28.42 -1.10 217 217 217
2.45 -28.41 -0.91 216 216 216
2.45 -28.51 -0.91 215 215 215
2.45 -28.60 -0.91 215 215 215
2.45 -28.70 -0.91 215 215 213
2.45 -28.80 -0.91 216 215 213
2.45 -28.89 -0.91 215 214 212
2.45 -28.99 -0.91 217 213 212
2.45 -29.08 -0.91 219 215 214
2.45 -29.18 -0.91 220 216 215
2.45 -29.28 -0.91 220 216 215
2.45 -29.37 -0.91 220 216 215
2.45 -29.47 -0.91 220 216 217
2.45 -29.56 -0.91 220 216 217
2.45 -29.66 -0.91 220 216 217
2.45 -29.75 -0.91 221 217 218
2.45 -29.85 -0.91 222 218 219
2.45 -29.95 -0.91 220 218 219
2.45 -30.04 -0.91 220 218 219
2.45 -30.14 -0.91 221 219 222
2.45 -30.23 -0.91 221 219 222
2.45 -30.33 -0.91 223 219 220
2.45 -30.43 -0.91 223 219 220
2.45 -30.52 -0.91 223 219 220
2.45 -30.62 -0.91 222 218 219
2.67 -30.83 -1.10 222 218 219
2.67 -30.93 -1.10 222 218 219
2.67 -31.02 -1.10 222 218 219
2.67 -31.12 -1.10 222 218 219
2.67 -31.22 -1.10 224 220 221
2.67 -31.31 -1.10 218 214 215
2.67 -31.41 -1.10 222 218 219
2.67 -31.51 -1.10 218 214 215
2.45 -31.48 -0.91 219 215 216
2.45 -31.58 -0.91 220 216 217
2.45 -31.67 -0.91 238 234 235
2.45 -31.77 -0.91 195 189 191
2.45 -31.86 -0.91 117 111 111
2.45 -31.96 -0.91 108 99 102
2.26 -31.95 -0.75 132 123 126
2.26 -32.04 -0.75 100 89 97
2.45 -32.25 -0.91 104 93 101
2.80 23.92 -1.35 0 0 0
2.80 23.82 -1.35 0 0 0
2.62 23.59 -1.19 0 0 0
2.62 23.49 -1.19 0 0 0
2.62 23.40 -1.19 0 0 0
2.62 23.30 -1.19 0 0 0
2.62 23.20 -1.19 0 0 0
2.62 23.11 -1.19 0 0 0
2.62 23.01 -1.19 0 0 0
2.62 22.92 -1.19 127 118 123
2.62 22.82 -1.19 127 118 123
2.62 22.72 -1.19 127 118 123
2.62 22.63 -1.19 127 118 123
2.62 22.53 -1.19 128 119 124
2.62 22.43 -1.19 129 120 121
2.62 22.34 -1.19 130 121 122
2.62 22.24 -1.19 128 123 120
2.62 22.15 -1.19 127 122 119
2.62 22.05 -1.19 129 124 120
2.80 22.08 -1.35 129 124 120
2.80 21.99 -1.35 128 123 117
2.80 21.89 -1.35 129 124 118
2.80 21.79 -1.35 130 125 119
2.80 21.69 -1.35 130 125 119
2.80 21.60 -1.35 129 126 119
2.99 21.63 -1.52 128 125 118
2.99 21.53 -1.52 127 123 114
2.99 21.43 -1.52 127 123 114
2.99 21.34 -1.52 127 123 114
2.80 21.11 -1.35 128 124 115
2.80 21.02 -1.35 128 124 115
2.80 20.92 -1.35 128 124 115
2.80 20.82 -1.35 128 124 115
2.80 20.73 -1.35 127 123 114
2.80 20.63 -1.35 128 124 115
2.62 20.41 -1.19 132 125 117
2.62 20.32 -1.19 133 126 118
2.62 20.22 -1.19 133 126 118
2.62 20.12 -1.19 134 127 119
2.62 20.03 -1.19 134 127 117
2.62 19.93 -1.19 134 127 117
2.62 19.83 -1.19 127 123 112
2.62 19.74 -1.19 131 127 116
2.62 19.64 -1.19 133 129 118
2.62 19.54 -1.19 132 128 119
2.62 19.45 -1.19 134 127 119
2.62 19.35 -1.19 134 127 121
2.62 19.26 -1.19 134 126 123
2.62 19.16 -1.19 133 125 122
2.62 19.06 -1.19 134 126 123
2.62 18.97 -1.19 134 126 123
2.62 18.87 -1.19 133 128 124
2.80 18.89 -1.35 133 128 124
2.80 18.79 -1.35 132 129 124
2.80 18.70 -1.35 131 128 123
2.80 18.60 -1.35 131 128 123
2.80 18.50 -1.35 132 129 124
2.80 18.41 -1.35 131 128 123
2.80 18.31 -1.35 131 127 124
2.80 18.21 -1.35 131 127 124
2.80 18.12 -1.35 133 129 128
2.80 18.02 -1.35 134 130 129
2.80 17.92 -1.35 134 130 129
2.80 17.83 -1.35 134 130 129
2.80 17.73 -1.35 133 129 128
2.62 17.52 -1.19 134 130 129
2.62 17.43 -1.19 135 131 130
2.62 17.33 -1.19 136 132 131
2.62 17.23 -1.19 136 132 129
2.62 17.14 -1.19 137 133 130
2.62 17.04 -1.19 137 133 130
2.62 16.94 -1.19 136 132 129
2.62 16.85 -1.19 137 133 132
2.62 16.75 -1.19 137 133 132
2.40 16.53 -1.00 137 133 130
2.40 16.44 -1.00 137 133 130
2.40 16.34 -1.00 137 133 130
2.40 16.25 -1.00 136 133 128
2.62 16.27 -1.19 136 133 128
2.62 16.17 -1.19 135 132 127
2.62 16.08 -1.19 135 132 127
2.40 15.86 -1.00 136 132 129
2.40 15.77 -1.00 136 132 129
2.40 15.67 -1.00 136 132 131
2.62 15.69 -1.19 136 132 131
2.62 15.60 -1.19 136 132 133
2.62 15.50 -1.19 136 132 133
2.62 15.40 -1.19 134 133 131
2.62 15.31 -1.19 133 132 130
2.62 15.21 -1.19 133 132 130
2.62 15.11 -1.19 133 132 130
2.62 15.02 -1.19 133 131 132
2.62 14.92 -1.19 134 132 133
2.80 14.92 -1.35 134 132 133
2.80 14.83 -1.35 134 132 133
2.80 14.73 -1.35 132 130 131
2.80 14.63 -1.35 132 130 131
2.80 14.54 -1.35 133 132 130
2.80 14.44 -1.35 134 133 131
2.80 14.34 -1.35 135 134 130
2.80 14.25 -1.35 136 135 131
2.80 14.15 -1.35 136 135 131
2.62 13.96 -1.19 136 132 129
2.62 13.86 -1.19 135 131 128
2.62 13.77 -1.19 134 130 127
2.62 13.67 -1.19 134 130 127
2.62 13.57 -1.19 135 131 128
2.62 13.48 -1.19 135 131 128
2.62 13.38 -1.19 132 131 127
2.62 13.28 -1.19 131 130 126
2.62 13.19 -1.19 134 133 129
2.62 13.09 -1.19 134 133 129
2.62 12.99 -1.19 135 134 130
2.62 12.90 -1.19 135 134 130
-4.91 9.22 5.51 135 134 129
-4.91 9.14 5.51 134 133 128
-4.91 9.06 5.51 134 133 128
-4.91 8.98 5.51 133 132 128
-4.91 8.90 5.51 139 135 134
-5.05 8.76 5.63 135 131 132
-5.05 8.68 5.63 137 132 136
-5.05 8.60 5.63 136 131 135
-5.05 8.52 5.63 156 151 157
-5.05 8.44 5.63 159 154 160
-5.05 8.37 5.63 155 151 152
-5.18 8.23 5.75 158 153 150
-5.18 8.15 5.75 157 152 148
-5.18 8.07 5.75 157 149 146
-5.18 7.99 5.75 156 148 145
-5.18 7.91 5.75 157 147 146
-5.18 7.83 5.75 157 147 148
-5.18 7.75 5.75 158 146 148
-5.18 7.68 5.75 157 145 149
-5.18 7.60 5.75 160 147 154
-5.18 7.52 5.75 158 145 152
-5.18 7.44 5.75 156 144 148
-5.31 7.30 5.87 157 145 149
-5.31 7.23 5.87 162 147 152
-5.31 7.15 5.87 163 148 153
-5.31 7.07 5.87 156 141 144
-5.31 6.99 5.87 148 133 136
-5.31 6.91 5.87 158 143 148
-5.31 6.83 5.87 152 137 142
-5.31 6.76 5.87 146 134 138
-5.31 6.68 5.87 153 140 147
-5.31 6.60 5.87 160 149 155
-5.45 6.47 5.98 160 149 157
-5.45 6.39 5.98 165 155 163
-5.45 6.31 5.98 181 171 180
-5.45 6.23 5.98 196 190 200
-5.45 6.16 5.98 190 187 196
-5.45 6.08 5.98 197 194 203
-5.45 6.00 5.98 186 185 193
-5.45 5.92 5.98 179 178 186
-5.45 5.84 5.98 187 190 195
-5.45 5.77 5.98 194 197 202
-5.45 5.69 5.98 193 196 201
-5.45 5.61 5.98 186 189 194
-5.45 5.53 5.98 176 177 181
-5.55 5.41 6.08 174 175 179
-5.55 5.34 6.08 169 168 173
-5.55 5.26 6.08 158 157 162
-5.55 5.18 6.08 148 146 149
-5.55 5.10 6.08 155 155 157
-5.55 5.02 6.08 148 149 153
-5.55 4.95 6.08 149 153 156
-5.55 4.87 6.08 149 153 156
-5.55 4.79 6.08 154 158 161
-5.55 4.40 6.08 144 151 159
-5.55 4.32 6.08 142 151 160
-5.55 4.25 6.08 142 151 160
-5.55 4.17 6.08 142 151 160
-5.55 4.09 6.08 142 151 160
-5.69 3.97 6.20 141 151 161
-5.69 3.89 6.20 140 153 162
-5.69 3.81 6.20 139 154 161
-5.69 3.74 6.20 139 156 163
-5.69 3.66 6.20 139 158 165
-5.69 3.58 6.20 139 158 165
-5.69 3.50 6.20 138 156 166
-5.69 3.43 6.20 138 156 166
-5.69 3.35 6.20 138 158 167
-5.69 3.27 6.20 140 160 169
-5.69 3.19 6.20 140 160 169
-5.69 3.12 6.20 140 160 169
-5.69 3.04 6.20 141 161 168
-5.69 2.96 6.20 141 161 168
-5.69 2.88 6.20 143 162 169
-5.69 2.81 6.20 144 163 170
-5.55 2.77 6.08 144 163 169
-5.55 2.69 6.08 145 164 170
-5.55 2.61 6.08 143 162 166
-5.45 2.57 5.98 160 178 182
