ply
format ascii 1.0
element vertex 1585
property float x
property float y
property float z
property uchar red
property uchar green
property uchar blue
end_header
-29.99 -10.71 0.00 255 255 255
-38.88 -20.69 1.60 255 255 255
-45.80 -22.64 1.27 255 255 255
-31.32 -10.80 0.24 255 255 255
-30.57 -11.13 0.35 255 255 255
-39.64 -21.37 -0.34 255 255 255
3.66 14.76 1.90 255 255 255
-48.80 -22.66 -0.61 255 255 255
-43.26 -22.60 -0.01 255 255 255
-14.55 0.96 1.26 255 255 255
-14.14 0.89 1.22 255 255 255
-14.41 1.44 1.29 255 255 255
-14.85 0.72 1.07 255 255 255
-15.25 0.74 1.17 255 255 255
-14.99 0.62 0.74 255 255 255
-39.91 -21.55 0.30 255 255 255
-15.35 0.65 0.97 255 255 255
-45.85 -22.57 -0.28 255 255 255
-15.08 0.55 0.01 255 255 255
-43.34 -22.59 0.72 255 255 255
3.62 14.66 2.56 255 255 255
-15.41 0.60 0.48 255 255 255
-49.07 -22.77 0.22 255 255 255
-39.99 -21.61 0.95 255 255 255
-28.81 -10.53 -0.22 255 255 255
-45.82 -22.53 0.49 255 255 255
-41.44 -21.00 1.45 255 255 255
-30.99 -10.52 -0.23 255 255 255
-30.06 -11.57 0.11 255 255 255
-49.23 -22.86 1.06 255 255 255
-39.00 -20.68 1.60 255 255 255
-30.01 -10.66 0.01 255 255 255
-45.81 -22.50 1.27 255 255 255
-31.45 -10.83 0.23 255 255 255
-30.59 -11.09 0.35 255 255 255
-39.80 -21.38 -0.35 255 255 255
3.69 14.66 1.90 255 255 255
-49.08 -22.71 -0.62 255 255 255
-43.42 -22.59 -0.01 255 255 255
-14.56 0.92 1.26 255 255 255
-14.10 0.89 1.22 255 255 255
-14.42 1.40 1.29 255 255 255
-14.82 0.72 1.07 255 255 255
-15.24 0.72 1.17 255 255 255
-14.95 0.63 0.73 255 255 255
-40.11 -21.60 0.29 255 255 255
-15.33 0.64 0.97 255 255 255
-45.84 -22.41 -0.28 255 255 255
-15.09 0.53 0.01 255 255 255
-43.51 -22.60 0.72 255 255 255
3.68 14.57 2.56 255 255 255
-15.39 0.59 0.48 255 255 255
-49.49 -22.90 0.21 255 255 255
-40.12 -21.60 0.95 255 255 255
-29.61 -10.31 -0.54 255 255 255
-28.85 -10.52 -0.22 255 255 255
-45.83 -22.39 0.50 255 255 255
-41.61 -21.02 1.45 255 255 255
-31.10 -10.54 -0.24 255 255 255
-53.41 -25.52 1.01 255 255 255
-30.03 -11.48 0.11 255 255 255
-39.19 -20.73 1.60 255 255 255
-30.05 -10.63 0.00 255 255 255
-45.87 -22.40 1.27 255 255 255
-31.56 -10.84 0.22 255 255 255
-30.60 -11.03 0.35 255 255 255
-39.96 -21.39 -0.35 255 255 255
3.79 14.62 1.90 255 255 255
-49.37 -22.74 -0.63 255 255 255
-43.61 -22.60 -0.02 255 255 255
-14.59 0.88 1.26 255 255 255
-14.04 0.91 1.22 255 255 255
-14.80 0.72 1.07 255 255 255
-15.22 0.72 1.17 255 255 255
-14.92 0.63 0.73 255 255 255
-40.20 -21.55 0.29 255 255 255
-15.31 0.64 0.97 255 255 255
-45.93 -22.34 -0.28 255 255 255
-15.06 0.53 0.01 255 255 255
-43.75 -22.67 0.72 255 255 255
3.76 14.52 2.56 255 255 255
-15.40 0.57 0.48 255 255 255
-49.81 -22.96 0.20 255 255 255
-40.42 -21.73 0.94 255 255 255
-29.73 -10.35 -0.55 255 255 255
-45.93 -22.32 0.50 255 255 255
-41.81 -21.05 1.45 255 255 255
-31.21 -10.55 -0.25 255 255 255
-30.03 -11.41 0.12 255 255 255
-39.33 -20.72 1.60 255 255 255
-30.07 -10.59 0.01 255 255 255
-45.96 -22.32 1.27 255 255 255
-31.68 -10.86 0.21 255 255 255
-30.62 -10.99 0.35 255 255 255
-40.17 -21.45 -0.37 255 255 255
19.85 26.41 2.34 255 255 255
-49.67 -22.78 -0.65 255 255 255
-14.55 0.88 1.26 255 255 255
6.61 20.79 1.64 255 255 255
-14.00 0.90 1.22 255 255 255
-6.56 7.78 1.34 255 255 255
-14.75 0.73 1.07 255 255 255
-15.19 0.71 1.17 255 255 255
-14.90 0.62 0.73 255 255 255
-40.54 -21.72 0.27 255 255 255
-15.28 0.64 0.97 255 255 255
-46.05 -22.28 -0.28 255 255 255
-15.04 0.52 0.01 255 255 255
-43.91 -22.64 0.71 255 255 255
3.86 14.48 2.56 255 255 255
-15.39 0.55 0.48 255 255 255
-50.06 -22.97 0.19 255 255 255
-40.59 -21.75 0.94 255 255 255
-29.79 -10.32 -0.56 255 255 255
-46.26 -22.42 0.49 255 255 255
-28.93 -10.46 -0.22 255 255 255
-42.02 -21.09 1.45 255 255 255
-31.33 -10.57 -0.27 255 255 255
-50.15 -23.02 1.05 255 255 255
-30.05 -11.36 0.12 255 255 255
-39.51 -20.77 1.60 255 255 255
-46.22 -22.38 1.27 255 255 255
-31.78 -10.86 0.20 255 255 255
-30.74 -11.91 0.39 255 255 255
-30.63 -10.94 0.35 255 255 255
-40.30 -21.43 -0.37 255 255 255
-50.00 -22.86 -0.67 255 255 255
6.68 20.69 2.45 255 255 255
-44.63 -23.15 -0.07 255 255 255
-6.55 7.73 1.72 255 255 255
-14.52 0.88 1.26 255 255 255
6.65 20.63 1.64 255 255 255
-13.96 0.91 1.22 255 255 255
-6.54 7.72 1.34 255 255 255
-14.70 0.74 1.06 255 255 255
-15.16 0.71 1.17 255 255 255
-14.86 0.62 0.73 255 255 255
-6.53 7.71 2.48 255 255 255
-40.69 -21.73 0.27 255 255 255
-15.26 0.63 0.97 255 255 255
-46.33 -22.34 -0.29 255 255 255
-15.01 0.51 0.00 255 255 255
-49.73 -27.19 0.55 255 255 255
-15.35 0.56 0.48 255 255 255
-50.16 -22.88 0.19 255 255 255
-40.78 -21.77 0.94 255 255 255
-46.40 -22.37 0.49 255 255 255
-28.95 -10.43 -0.23 255 255 255
-31.44 -10.59 -0.28 255 255 255
-42.20 -21.10 1.45 255 255 255
-37.31 -14.44 1.20 255 255 255
-30.09 -11.34 0.12 255 255 255
-30.12 -10.51 0.01 255 255 255
-46.46 -22.39 1.27 255 255 255
-31.91 -10.89 0.19 255 255 255
-30.66 -10.89 0.35 255 255 255
-6.54 7.66 2.10 255 255 255
-40.55 -21.52 -0.39 255 255 255
14.20 21.85 2.17 255 255 255
-37.27 -14.38 0.19 255 255 255
6.74 20.59 2.45 255 255 255
-44.67 -23.03 -0.06 255 255 255
-6.53 7.67 1.72 255 255 255
-14.48 0.88 1.26 255 255 255
6.76 20.57 1.64 255 255 255
-13.90 0.92 1.22 255 255 255
-6.51 7.67 1.34 255 255 255
-14.67 0.74 1.06 255 255 255
-15.12 0.72 1.17 255 255 255
-6.52 7.65 2.48 255 255 255
-14.82 0.63 0.72 255 255 255
-40.85 -21.73 0.27 255 255 255
-15.23 0.64 0.96 255 255 255
-46.77 -22.51 -0.32 255 255 255
-14.92 0.56 -0.02 255 255 255
-44.35 -22.71 0.71 255 255 255
-15.32 0.56 0.47 255 255 255
14.20 21.74 3.13 255 255 255
-40.93 -21.79 0.94 255 255 255
-29.00 -10.40 -0.23 255 255 255
-46.80 -22.52 0.48 255 255 255
-42.40 -21.13 1.45 255 255 255
-31.57 -10.61 -0.29 255 255 255
-30.10 -11.29 0.12 255 255 255
-39.81 -20.78 1.60 255 255 255
-46.83 -22.52 1.27 255 255 255
-31.99 -10.88 0.19 255 255 255
-30.76 -11.80 0.39 255 255 255
-30.69 -10.86 0.35 255 255 255
-6.52 7.61 2.10 255 255 255
-40.67 -21.49 -0.39 255 255 255
14.28 21.74 2.17 255 255 255
-37.31 -14.32 0.19 255 255 255
10.03 23.35 2.60 255 255 255
-44.49 -22.75 -0.05 255 255 255
-6.47 7.64 1.72 255 255 255
-14.44 0.88 1.26 255 255 255
-13.86 0.92 1.22 255 255 255
-6.44 7.65 1.34 255 255 255
-14.61 0.75 1.06 255 255 255
-15.10 0.72 1.17 255 255 255
-6.49 7.60 2.48 255 255 255
-14.81 0.62 0.72 255 255 255
-41.02 -21.74 0.26 255 255 255
-15.20 0.64 0.96 255 255 255
-47.02 -22.56 -0.33 255 255 255
-14.90 0.55 -0.03 255 255 255
-44.69 -22.84 0.70 255 255 255
-15.30 0.55 0.47 255 255 255
14.31 21.65 3.13 255 255 255
-41.10 -21.80 0.94 255 255 255
-29.04 -10.38 -0.23 255 255 255
-47.19 -22.65 0.47 255 255 255
-31.70 -10.63 -0.31 255 255 255
-42.61 -21.17 1.45 255 255 255
-30.11 -11.23 0.12 255 255 255
-40.00 -20.81 1.61 255 255 255
-47.12 -22.59 1.27 255 255 255
-30.72 -11.71 0.40 255 255 255
-30.72 -10.82 0.35 255 255 255
-6.48 7.57 2.10 255 255 255
-40.84 -21.51 -0.40 255 255 255
-37.41 -14.30 0.19 255 255 255
10.06 23.16 2.59 255 255 255
-45.35 -23.28 -0.10 255 255 255
-6.43 7.61 1.72 255 255 255
-14.41 0.88 1.26 255 255 255
-13.80 0.93 1.22 255 255 255
-14.56 0.76 1.06 255 255 255
-15.06 0.72 1.17 255 255 255
-14.76 0.63 0.72 255 255 255
-6.44 7.58 2.48 255 255 255
-41.19 -21.76 0.26 255 255 255
-15.17 0.64 0.96 255 255 255
-47.26 -22.57 -0.34 255 255 255
-14.88 0.54 -0.03 255 255 255
-46.07 -23.78 0.66 255 255 255
-15.26 0.56 0.47 255 255 255
-41.26 -21.80 0.94 255 255 255
-29.09 -10.37 -0.23 255 255 255
-47.54 -22.75 0.46 255 255 255
-42.84 -21.22 1.45 255 255 255
-31.83 -10.65 -0.32 255 255 255
-37.46 -14.27 1.20 255 255 255
-30.14 -11.19 0.12 255 255 255
-30.28 -10.45 -0.00 255 255 255
-40.14 -20.81 1.61 255 255 255
-47.49 -22.70 1.27 255 255 255
-30.71 -11.63 0.40 255 255 255
-30.77 -10.79 0.35 255 255 255
-6.38 7.58 2.10 255 255 255
-40.91 -21.44 -0.40 255 255 255
-45.68 -23.40 -0.11 255 255 255
-14.37 0.89 1.26 255 255 255
-13.74 0.94 1.22 255 255 255
15.00 24.48 1.47 255 255 255
-14.54 0.76 1.06 255 255 255
-15.02 0.73 1.17 255 255 255
-6.32 7.60 2.49 255 255 255
-14.72 0.63 0.71 255 255 255
-41.35 -21.76 0.25 255 255 255
-15.14 0.64 0.96 255 255 255
-47.47 -22.58 -0.35 255 255 255
-14.87 0.53 -0.03 255 255 255
-46.07 -23.64 0.67 255 255 255
-15.26 0.55 0.47 255 255 255
-41.38 -21.77 0.94 255 255 255
-29.09 -10.31 -0.23 255 255 255
-47.58 -22.63 0.46 255 255 255
-43.01 -21.22 1.46 255 255 255
-31.95 -10.66 -0.33 255 255 255
-30.07 -11.08 0.14 255 255 255
-37.56 -14.25 1.20 255 255 255
-30.30 -10.40 -0.00 255 255 255
-40.31 -20.82 1.61 255 255 255
-47.59 -22.62 1.27 255 255 255
-30.69 -11.56 0.41 255 255 255
-41.22 -21.57 -0.42 255 255 255
-45.97 -23.47 -0.12 255 255 255
15.66 24.79 2.50 255 255 255
-14.32 0.89 1.26 255 255 255
-13.67 0.96 1.22 255 255 255
-14.50 0.76 1.06 255 255 255
-14.99 0.73 1.17 255 255 255
-14.68 0.63 0.71 255 255 255
-41.45 -21.73 0.25 255 255 255
-15.11 0.63 0.96 255 255 255
-47.66 -22.58 -0.35 255 255 255
-45.78 -23.26 0.68 255 255 255
-50.83 -22.57 0.18 255 255 255
-41.45 -21.71 0.93 255 255 255
-29.15 -10.31 -0.23 255 255 255
-47.79 -22.65 0.46 255 255 255
-32.10 -10.71 -0.35 255 255 255
-43.23 -21.26 1.46 255 255 255
-30.11 -11.05 0.13 255 255 255
-40.54 -20.91 1.61 255 255 255
-47.79 -22.63 1.27 255 255 255
-30.18 -12.00 0.16 255 255 255
-35.43 -12.80 -0.12 255 255 255
-30.68 -11.49 0.41 255 255 255
-31.01 -10.84 0.34 255 255 255
-41.42 -21.63 -0.43 255 255 255
-45.81 -23.21 -0.11 255 255 255
15.69 24.62 2.50 255 255 255
-14.28 0.90 1.26 255 255 255
-13.62 0.96 1.22 255 255 255
-14.47 0.76 1.06 255 255 255
-14.95 0.74 1.17 255 255 255
-14.65 0.64 0.71 255 255 255
-41.54 -21.66 0.25 255 255 255
-47.77 -22.50 -0.35 255 255 255
-15.19 0.55 0.46 255 255 255
-50.94 -22.46 0.18 255 255 255
-41.55 -21.66 0.93 255 255 255
-48.17 -22.76 0.45 255 255 255
-29.18 -10.28 -0.24 255 255 255
-32.41 -10.83 -0.38 255 255 255
-43.43 -21.28 1.46 255 255 255
-30.14 -11.01 0.13 255 255 255
-30.37 -10.34 -0.00 255 255 255
-49.61 -23.73 1.26 255 255 255
-30.18 -11.93 0.16 255 255 255
-35.45 -12.72 -0.12 255 255 255
-30.69 -11.42 0.41 255 255 255
20.54 22.46 3.10 255 255 255
-31.11 -10.85 0.33 255 255 255
-41.55 -21.60 -0.43 255 255 255
-50.88 -22.35 -0.69 255 255 255
-45.80 -23.05 -0.10 255 255 255
20.59 22.47 2.00 255 255 255
-14.24 0.90 1.26 255 255 255
-13.58 0.96 1.22 255 255 255
18.85 26.88 1.49 255 255 255
-14.41 0.78 1.05 255 255 255
-14.93 0.74 1.16 255 255 255
-14.62 0.63 0.71 255 255 255
-41.78 -21.74 0.24 255 255 255
-15.01 0.67 0.95 255 255 255
-48.16 -22.63 -0.37 255 255 255
-15.17 0.55 0.46 255 255 255
-50.99 -22.35 0.18 255 255 255
-41.82 -21.75 0.93 255 255 255
-29.24 -10.26 -0.24 255 255 255
-48.39 -22.77 0.44 255 255 255
-43.66 -21.33 1.46 255 255 255
-32.36 -10.74 -0.37 255 255 255
-30.13 -10.95 0.14 255 255 255
-40.89 -20.95 1.61 255 255 255
-30.20 -11.88 0.16 255 255 255
-49.11 -23.24 1.27 255 255 255
-35.40 -12.62 -0.11 255 255 255
-30.68 -11.36 0.42 255 255 255
20.66 22.32 3.10 255 255 255
-31.21 -10.86 0.32 255 255 255
-41.91 -21.77 -0.46 255 255 255
-51.16 -22.37 -0.70 255 255 255
-45.79 -22.89 -0.10 255 255 255
20.77 22.37 2.00 255 255 255
-14.20 0.90 1.26 255 255 255
-13.53 0.97 1.21 255 255 255
19.10 26.85 1.49 255 255 255
-14.39 0.76 1.05 255 255 255
-14.89 0.73 1.16 255 255 255
-14.58 0.64 0.70 255 255 255
-41.85 -21.66 0.24 255 255 255
-14.96 0.68 0.95 255 255 255
-48.48 -22.70 -0.39 255 255 255
-45.82 -22.86 0.68 255 255 255
-15.14 0.55 0.45 255 255 255
-51.10 -22.27 0.18 255 255 255
-41.99 -21.76 0.93 255 255 255
-48.69 -22.81 0.44 255 255 255
-29.29 -10.24 -0.24 255 255 255
-32.56 -10.80 -0.40 255 255 255
-43.86 -21.35 1.46 255 255 255
-30.17 -10.91 0.14 255 255 255
-30.89 -10.59 -0.06 255 255 255
-41.04 -20.94 1.61 255 255 255
-49.12 -23.09 1.27 255 255 255
-30.14 -11.77 0.17 255 255 255
-37.91 -14.09 -0.34 255 255 255
-30.69 -11.30 0.42 255 255 255
-31.32 -10.88 0.32 255 255 255
-41.95 -21.67 -0.46 255 255 255
-45.87 -22.81 -0.10 255 255 255
18.86 26.47 2.60 255 255 255
-14.15 0.91 1.26 255 255 255
-13.45 0.99 1.21 255 255 255
3.73 14.91 1.40 255 255 255
-14.32 0.79 1.05 255 255 255
-14.86 0.74 1.16 255 255 255
-14.53 0.64 0.70 255 255 255
-43.21 -22.66 0.18 255 255 255
-14.96 0.66 0.95 255 255 255
-48.76 -22.73 -0.40 255 255 255
-45.75 -22.64 0.69 255 255 255
-15.11 0.55 0.45 255 255 255
-43.26 -22.69 0.90 255 255 255
-48.89 -22.80 0.43 255 255 255
-29.37 -10.25 -0.25 255 255 255
-44.07 -21.36 1.46 255 255 255
-32.75 -10.85 -0.42 255 255 255
-30.20 -10.87 0.14 255 255 255
-30.97 -10.58 -0.07 255 255 255
-41.26 -21.00 1.62 255 255 255
-30.18 -11.73 0.17 255 255 255
-48.97 -22.84 1.27 255 255 255
-35.34 -12.42 -0.10 255 255 255
-30.71 -11.25 0.42 255 255 255
-31.50 -10.93 0.31 255 255 255
-43.16 -22.54 -0.55 255 255 255
3.67 14.77 2.06 255 255 255
-14.10 0.92 1.26 255 255 255
-13.39 1.00 1.21 255 255 255
-14.28 0.79 1.05 255 255 255
-14.82 0.75 1.16 255 255 255
-14.49 0.65 0.69 255 255 255
-43.31 -22.61 0.17 255 255 255
-14.93 0.66 0.95 255 255 255
-48.98 -22.74 -0.41 255 255 255
-45.79 -22.54 0.69 255 255 255
-15.08 0.55 0.45 255 255 255
-64.88 -30.33 -0.33 255 255 255
-43.42 -22.67 0.90 255 255 255
-29.47 -10.27 -0.26 255 255 255
-49.21 -22.88 0.42 255 255 255
-44.30 -21.40 1.46 255 255 255
-30.19 -10.81 0.14 255 255 255
-31.07 -10.59 -0.08 255 255 255
-30.19 -11.68 0.17 255 255 255
-49.34 -22.95 1.27 255 255 255
-35.34 -12.35 -0.09 255 255 255
-30.73 -11.21 0.42 255 255 255
-31.57 -10.92 0.30 255 255 255
3.66 14.65 2.73 255 255 255
-43.34 -22.54 -0.56 255 255 255
-14.05 0.92 1.26 255 255 255
17.60 28.01 1.77 255 255 255
-13.34 1.00 1.21 255 255 255
3.73 14.66 1.40 255 255 255
-14.23 0.80 1.05 255 255 255
-14.77 0.75 1.16 255 255 255
-14.44 0.66 0.69 255 255 255
-43.45 -22.60 0.17 255 255 255
-14.89 0.67 0.95 255 255 255
-49.26 -22.78 -0.42 255 255 255
-45.84 -22.44 0.69 255 255 255
-15.04 0.55 0.44 255 255 255
-49.18 -27.29 0.79 255 255 255
-49.55 -22.96 0.42 255 255 255
-29.55 -10.28 -0.27 255 255 255
-44.49 -21.42 1.46 255 255 255
-30.19 -10.75 0.15 255 255 255
-41.59 -21.02 1.62 255 255 255
-31.17 -10.60 -0.08 255 255 255
-30.19 -11.62 0.18 255 255 255
-49.62 -22.99 1.27 255 255 255
-35.35 -12.28 -0.09 255 255 255
-30.74 -11.15 0.42 255 255 255
-31.69 -10.94 0.29 255 255 255
3.68 14.53 2.73 255 255 255
-44.54 -23.39 -0.65 255 255 255
-45.88 -22.39 -0.08 255 255 255
11.18 15.81 1.82 255 255 255
3.75 14.58 2.06 255 255 255
-13.99 0.94 1.26 255 255 255
-13.26 1.02 1.21 255 255 255
3.83 14.61 1.40 255 255 255
-14.18 0.81 1.05 255 255 255
-14.74 0.76 1.16 255 255 255
-14.41 0.66 0.69 255 255 255
-44.57 -23.36 0.12 255 255 255
-14.87 0.66 0.95 255 255 255
-49.51 -22.80 -0.43 255 255 255
-45.84 -22.29 0.69 255 255 255
-15.01 0.55 0.44 255 255 255
-49.34 -27.23 0.79 255 255 255
-50.02 -23.11 0.40 255 255 255
-29.65 -10.30 -0.28 255 255 255
-44.73 -21.46 1.46 255 255 255
-30.24 -10.73 0.14 255 255 255
-31.28 -10.61 -0.09 255 255 255
-49.92 -23.03 1.27 255 255 255
-30.16 -11.53 0.18 255 255 255
-35.29 -12.17 -0.08 255 255 255
-30.75 -11.10 0.42 255 255 255
11.19 15.70 2.64 255 255 255
-31.77 -10.93 0.29 255 255 255
3.75 14.47 2.73 255 255 255
-44.60 -23.29 -0.65 255 255 255
-36.33 -12.78 0.29 255 255 255
-45.87 -22.23 -0.08 255 255 255
11.17 15.68 1.82 255 255 255
19.99 26.51 2.62 255 255 255
-13.95 0.94 1.26 255 255 255
-6.57 7.79 1.44 255 255 255
-14.13 0.82 1.04 255 255 255
-6.50 7.82 2.58 255 255 255
-14.72 0.75 1.16 255 255 255
-14.37 0.66 0.68 255 255 255
-44.58 -23.21 0.12 255 255 255
-14.83 0.66 0.94 255 255 255
-49.81 -22.82 -0.44 255 255 255
-45.92 -22.20 0.69 255 255 255
-14.98 0.56 0.43 255 255 255
-49.57 -27.24 0.78 255 255 255
-50.11 -23.01 0.41 255 255 255
-29.77 -10.32 -0.30 255 255 255
-44.98 -21.49 1.46 255 255 255
-30.26 -10.68 0.15 255 255 255
-31.39 -10.61 -0.10 255 255 255
-50.14 -23.00 1.27 255 255 255
-30.19 -11.48 0.19 255 255 255
-35.30 -12.09 -0.08 255 255 255
-30.78 -11.05 0.42 255 255 255
11.27 15.59 2.64 255 255 255
-31.88 -10.93 0.28 255 255 255
3.87 14.43 2.73 255 255 255
-43.99 -22.65 -0.59 255 255 255
-36.38 -12.72 0.29 255 255 255
-6.54 7.75 1.82 255 255 255
11.31 15.59 1.82 255 255 255
20.73 26.82 2.64 255 255 255
-13.89 0.95 1.25 255 255 255
-6.56 7.72 1.44 255 255 255
21.89 27.66 1.50 255 255 255
-14.09 0.82 1.04 255 255 255
-6.54 7.71 2.58 255 255 255
-14.68 0.76 1.16 255 255 255
-14.33 0.66 0.68 255 255 255
-44.63 -23.10 0.12 255 255 255
-14.80 0.66 0.94 255 255 255
-50.07 -22.85 -0.45 255 255 255
-6.54 7.71 2.20 255 255 255
-46.33 -22.35 0.69 255 255 255
-14.95 0.56 0.43 255 255 255
-49.71 -27.18 0.78 255 255 255
-37.28 -14.43 0.82 255 255 255
-29.87 -10.34 -0.31 255 255 255
-45.23 -21.54 1.47 255 255 255
-30.26 -10.62 0.15 255 255 255
-31.51 -10.63 -0.11 255 255 255
-37.26 -14.40 1.33 255 255 255
-30.18 -11.40 0.19 255 255 255
-35.33 -12.04 -0.08 255 255 255
-30.81 -11.01 0.42 255 255 255
-31.99 -10.94 0.28 255 255 255
-44.37 -22.82 -0.61 255 255 255
-36.35 -12.62 0.29 255 255 255
-6.53 7.68 1.82 255 255 255
-46.34 -22.28 -0.10 255 255 255
20.79 26.64 2.64 255 255 255
-13.82 0.98 1.25 255 255 255
-6.52 7.68 1.44 255 255 255
-0.01 8.75 1.09 255 255 255
14.25 21.85 1.45 255 255 255
-6.54 7.64 2.57 255 255 255
-14.04 0.83 1.04 255 255 255
-14.64 0.76 1.16 255 255 255
-14.27 0.67 0.67 255 255 255
-44.52 -22.88 0.13 255 255 255
-14.76 0.67 0.94 255 255 255
-37.28 -14.36 0.32 255 255 255
-6.52 7.65 2.19 255 255 255
-46.57 -22.40 0.68 255 255 255
-14.90 0.57 0.42 255 255 255
-44.49 -22.84 0.89 255 255 255
-37.29 -14.36 0.82 255 255 255
-29.95 -10.35 -0.32 255 255 255
-45.47 -21.59 1.47 255 255 255
-31.61 -10.64 -0.12 255 255 255
-30.17 -11.35 0.19 255 255 255
-35.38 -11.99 -0.08 255 255 255
-30.84 -10.97 0.42 255 255 255
-37.32 -14.34 -0.19 255 255 255
-44.47 -22.77 -0.62 255 255 255
-36.36 -12.55 0.30 255 255 255
-6.50 7.62 1.82 255 255 255
-46.83 -22.50 -0.12 255 255 255
14.28 21.72 2.41 255 255 255
-13.76 0.99 1.25 255 255 255
-6.47 7.64 1.44 255 255 255
-6.50 7.60 2.57 255 255 255
-13.99 0.83 1.04 255 255 255
-14.60 0.76 1.16 255 255 255
-14.23 0.68 0.67 255 255 255
-45.38 -23.42 0.09 255 255 255
-14.73 0.67 0.94 255 255 255
-37.35 -14.31 0.32 255 255 255
-6.47 7.62 2.20 255 255 255
-46.90 -22.50 0.67 255 255 255
-14.88 0.56 0.42 255 255 255
-30.06 -10.36 -0.33 255 255 255
-37.34 -14.30 0.82 255 255 255
-45.69 -21.60 1.47 255 255 255
-31.76 -10.68 -0.14 255 255 255
-30.20 -11.31 0.19 255 255 255
-35.37 -11.92 -0.08 255 255 255
-30.84 -10.92 0.43 255 255 255
-37.36 -14.28 -0.19 255 255 255
-44.61 -22.72 -0.62 255 255 255
-36.34 -12.47 0.30 255 255 255
-6.44 7.61 1.82 255 255 255
-47.12 -22.56 -0.13 255 255 255
-0.02 8.58 1.61 255 255 255
-13.71 0.99 1.25 255 255 255
-6.36 7.66 1.44 255 255 255
0.00 8.59 1.09 255 255 255
-13.94 0.84 1.04 255 255 255
-6.47 7.56 2.57 255 255 255
-14.55 0.77 1.16 255 255 255
-14.19 0.68 0.67 255 255 255
-45.59 -23.43 0.09 255 255 255
-14.66 0.69 0.93 255 255 255
0.01 8.56 2.64 255 255 255
-6.40 7.60 2.20 255 255 255
-47.12 -22.51 0.67 255 255 255
-14.86 0.55 0.42 255 255 255
-30.15 -10.37 -0.34 255 255 255
-45.94 -21.63 1.47 255 255 255
-30.54 -10.65 0.13 255 255 255
-31.89 -10.70 -0.15 255 255 255
-37.48 -14.29 1.33 255 255 255
-30.21 -11.26 0.20 255 255 255
-35.39 -11.85 -0.07 255 255 255
-30.86 -10.87 0.43 255 255 255
0.01 8.52 2.12 255 255 255
-44.85 -22.78 -0.64 255 255 255
-36.35 -12.39 0.30 255 255 255
-47.37 -22.59 -0.14 255 255 255
0.02 8.52 1.61 255 255 255
-13.66 0.99 1.25 255 255 255
0.07 8.54 1.09 255 255 255
-13.89 0.84 1.03 255 255 255
-6.38 7.55 2.58 255 255 255
-14.51 0.77 1.16 255 255 255
-14.14 0.69 0.66 255 255 255
-45.86 -23.50 0.08 255 255 255
0.01 8.46 2.64 255 255 255
-14.62 0.70 0.93 255 255 255
-47.44 -22.58 0.67 255 255 255
-14.84 0.54 0.41 255 255 255
-47.77 -24.98 0.83 255 255 255
-64.50 -31.40 -0.04 255 255 255
-30.26 -10.39 -0.35 255 255 255
-46.17 -21.66 1.47 255 255 255
-30.60 -10.63 0.12 255 255 255
-32.02 -10.72 -0.16 255 255 255
-30.19 -11.18 0.20 255 255 255
-35.40 -11.78 -0.07 255 255 255
-30.92 -10.85 0.43 255 255 255
0.07 8.46 2.12 255 255 255
-45.12 -22.85 -0.65 255 255 255
-36.43 -12.36 0.30 255 255 255
15.65 24.82 2.76 255 255 255
-47.59 -22.59 -0.15 255 255 255
0.12 8.48 1.61 255 255 255
-13.61 1.00 1.25 255 255 255
19.35 27.70 1.78 255 255 255
22.41 26.93 1.49 255 255 255
-13.82 0.86 1.03 255 255 255
-14.47 0.78 1.16 255 255 255
-14.08 0.70 0.66 255 255 255
-45.91 -23.39 0.08 255 255 255
-14.60 0.69 0.93 255 255 255
0.05 8.40 2.64 255 255 255
-47.64 -22.56 0.66 255 255 255
-14.82 0.54 0.41 255 255 255
-30.37 -10.41 -0.37 255 255 255
-64.42 -31.14 -0.03 255 255 255
-46.43 -21.70 1.47 255 255 255
-30.69 -10.63 0.12 255 255 255
-32.16 -10.74 -0.18 255 255 255
-30.24 -11.15 0.20 255 255 255
-35.45 -11.73 -0.07 255 255 255
-31.01 -10.85 0.42 255 255 255
-36.13 -13.23 -0.07 255 255 255
-45.34 -22.86 -0.66 255 255 255
20.50 22.62 2.28 255 255 255
-36.40 -12.26 0.30 255 255 255
15.68 24.65 2.76 255 255 255
-47.66 -22.50 -0.15 255 255 255
-13.58 0.99 1.25 255 255 255
20.54 28.42 1.79 255 255 255
22.52 26.79 1.49 255 255 255
-13.78 0.86 1.03 255 255 255
-14.43 0.78 1.16 255 255 255
-14.03 0.70 0.65 255 255 255
-45.77 -23.13 0.09 255 255 255
-14.56 0.69 0.93 255 255 255
0.15 8.37 2.64 255 255 255
-50.87 -22.45 -0.47 255 255 255
-48.30 -22.89 0.65 255 255 255
-14.79 0.53 0.41 255 255 255
-30.46 -10.42 -0.38 255 255 255
-64.45 -30.94 -0.03 255 255 255
-46.68 -21.74 1.47 255 255 255
-30.92 -10.74 0.10 255 255 255
-32.30 -10.77 -0.19 255 255 255
-30.25 -11.10 0.20 255 255 255
-35.46 -11.66 -0.07 255 255 255
-45.57 -22.90 -0.67 255 255 255
20.56 22.47 2.28 255 255 255
-36.50 -12.24 0.30 255 255 255
-48.13 -22.67 -0.17 255 255 255
-4.07 5.95 1.53 255 255 255
-13.51 1.01 1.25 255 255 255
-4.00 5.98 1.13 255 255 255
22.67 26.68 1.49 255 255 255
-13.73 0.87 1.03 255 255 255
-14.39 0.79 1.15 255 255 255
-13.99 0.71 0.65 255 255 255
-45.80 -22.99 0.10 255 255 255
-14.51 0.70 0.93 255 255 255
-50.95 -22.34 -0.47 255 255 255
-48.49 -22.86 0.65 255 255 255
-14.77 0.52 0.41 255 255 255
-45.78 -22.97 0.88 255 255 255
-51.00 -22.35 0.40 255 255 255
-30.58 -10.44 -0.39 255 255 255
-46.93 -21.76 1.47 255 255 255
-30.94 -10.68 0.10 255 255 255
-32.45 -10.79 -0.20 255 255 255
-30.25 -11.03 0.21 255 255 255
-35.51 -11.61 -0.07 255 255 255
-31.22 -10.87 0.41 255 255 255
-36.02 -13.00 -0.05 255 255 255
-45.72 -22.86 -0.68 255 255 255
-36.44 -12.12 0.31 255 255 255
-48.36 -22.69 -0.18 255 255 255
-13.47 1.00 1.25 255 255 255
-4.05 5.88 1.13 255 255 255
-14.34 0.80 1.15 255 255 255
-13.94 0.71 0.64 255 255 255
-45.87 -22.92 0.09 255 255 255
-14.48 0.70 0.92 255 255 255
-51.14 -22.32 -0.48 255 255 255
-48.80 -22.93 0.64 255 255 255
-14.74 0.52 0.40 255 255 255
-64.45 -30.51 -0.02 255 255 255
-30.68 -10.45 -0.40 255 255 255
-47.22 -21.83 1.47 255 255 255
-31.03 -10.69 0.09 255 255 255
-32.62 -10.84 -0.22 255 255 255
-30.27 -10.99 0.21 255 255 255
-35.57 -11.58 -0.07 255 255 255
-31.33 -10.89 0.40 255 255 255
-35.85 -12.83 -0.04 255 255 255
-45.95 -22.89 -0.69 255 255 255
-36.43 -12.05 0.31 255 255 255
19.64 27.11 2.91 255 255 255
-48.65 -22.74 -0.19 255 255 255
-4.04 5.83 1.53 255 255 255
-4.07 5.80 1.13 255 255 255
-13.66 0.86 1.03 255 255 255
-14.30 0.80 1.15 255 255 255
-13.89 0.72 0.64 255 255 255
-45.86 -22.76 0.10 255 255 255
-3.99 5.82 2.34 255 255 255
-14.44 0.71 0.92 255 255 255
-51.05 -22.11 -0.47 255 255 255
-48.89 -22.85 0.64 255 255 255
-14.71 0.52 0.40 255 255 255
-45.73 -22.64 0.88 255 255 255
-30.81 -10.48 -0.42 255 255 255
-64.62 -30.40 -0.02 255 255 255
-47.47 -21.86 1.47 255 255 255
-31.11 -10.68 0.08 255 255 255
-30.29 -10.95 0.21 255 255 255
-35.60 -11.52 -0.07 255 255 255
-31.44 -10.90 0.40 255 255 255
-4.01 5.79 1.93 255 255 255
-45.77 -22.62 -0.67 255 255 255
-36.59 -12.06 0.30 255 255 255
17.99 25.64 2.84 255 255 255
-48.93 -22.78 -0.20 255 255 255
-4.01 5.77 1.53 255 255 255
-4.06 5.74 1.13 255 255 255
-13.59 0.87 1.02 255 255 255
-14.26 0.81 1.15 255 255 255
-13.83 0.73 0.63 255 255 255
-45.85 -22.61 0.10 255 255 255
-3.99 5.75 2.34 255 255 255
-14.41 0.70 0.92 255 255 255
-51.07 -21.96 -0.46 255 255 255
-49.01 -22.77 0.64 255 255 255
-14.68 0.52 0.39 255 255 255
-45.82 -22.56 0.88 255 255 255
-30.92 -10.49 -0.43 255 255 255
-64.80 -30.28 -0.02 255 255 255
-47.72 -21.87 1.48 255 255 255
-31.22 -10.70 0.08 255 255 255
-47.97 -18.18 1.11 255 255 255
-34.50 -11.85 -0.44 255 255 255
-30.31 -10.90 0.21 255 255 255
-35.65 -11.47 -0.07 255 255 255
-31.58 -10.93 0.39 255 255 255
-3.97 5.73 1.93 255 255 255
-45.85 -22.52 -0.67 255 255 255
-36.51 -11.93 0.31 255 255 255
3.69 14.66 2.23 255 255 255
-49.14 -22.76 -0.20 255 255 255
-4.00 5.71 1.53 255 255 255
11.14 15.93 1.20 255 255 255
3.70 14.66 1.56 255 255 255
-4.03 5.69 1.13 255 255 255
-13.56 0.87 1.02 255 255 255
-14.21 0.81 1.15 255 255 255
-13.78 0.73 0.63 255 255 255
-45.83 -22.45 0.11 255 255 255
-3.95 5.70 2.33 255 255 255
-14.35 0.72 0.92 255 255 255
-49.36 -22.86 0.63 255 255 255
-14.65 0.52 0.39 255 255 255
11.19 15.88 2.85 255 255 255
-53.96 -21.29 0.14 255 255 255
-45.87 -22.46 0.88 255 255 255
-31.04 -10.52 -0.44 255 255 255
-48.05 -21.96 1.48 255 255 255
-31.33 -10.72 0.07 255 255 255
-34.44 -11.74 -0.43 255 255 255
-30.33 -10.86 0.21 255 255 255
-35.74 -11.45 -0.08 255 255 255
-31.70 -10.95 0.38 255 255 255
-3.91 5.70 1.93 255 255 255
-45.90 -22.42 -0.67 255 255 255
-36.48 -11.84 0.31 255 255 255
3.72 14.56 2.23 255 255 255
-49.49 -22.86 -0.22 255 255 255
-3.94 5.68 1.53 255 255 255
11.14 15.77 1.20 255 255 255
3.81 14.62 1.56 255 255 255
-3.99 5.65 1.13 255 255 255
-13.46 0.90 1.02 255 255 255
-14.16 0.82 1.15 255 255 255
-13.73 0.74 0.62 255 255 255
-45.92 -22.37 0.11 255 255 255
-3.89 5.67 2.34 255 255 255
-14.29 0.73 0.91 255 255 255
-49.63 -22.88 0.63 255 255 255
-14.61 0.52 0.39 255 255 255
11.18 15.73 2.85 255 255 255
-65.34 -27.21 -0.27 255 255 255
-45.90 -22.35 0.88 255 255 255
-31.16 -10.54 -0.46 255 255 255
-48.32 -21.99 1.48 255 255 255
-31.49 -10.75 0.05 255 255 255
-34.48 -11.70 -0.43 255 255 255
-30.34 -10.81 0.21 255 255 255
-35.74 -11.37 -0.08 255 255 255
7.36 11.68 2.42 255 255 255
-36.81 -13.08 -0.10 255 255 255
-45.96 -22.32 -0.67 255 255 255
11.20 15.70 2.02 255 255 255
-36.48 -11.76 0.32 255 255 255
19.16 25.91 2.87 255 255 255
-49.78 -22.90 -0.23 255 255 255
-3.87 5.65 1.53 255 255 255
11.27 15.72 1.20 255 255 255
-3.90 5.62 1.12 255 255 255
-13.40 0.91 1.02 255 255 255
-14.12 0.82 1.15 255 255 255
-13.67 0.75 0.62 255 255 255
-14.22 0.75 0.91 255 255 255
-49.99 -22.98 0.62 255 255 255
-14.57 0.52 0.38 255 255 255
11.25 15.64 2.85 255 255 255
-46.16 -22.39 0.88 255 255 255
-31.28 -10.55 -0.47 255 255 255
-48.55 -22.00 1.48 255 255 255
-48.01 -17.82 1.12 255 255 255
-31.60 -10.77 0.04 255 255 255
-30.35 -10.75 0.22 255 255 255
-35.92 -11.40 -0.09 255 255 255
-36.81 -12.99 -0.10 255 255 255
-46.22 -22.36 -0.68 255 255 255
-36.57 -11.73 0.31 255 255 255
20.04 26.34 2.90 255 255 255
-49.95 -22.86 -0.23 255 255 255
-0.02 8.84 1.22 255 255 255
22.65 28.24 1.80 255 255 255
-13.29 0.94 1.01 255 255 255
-14.07 0.83 1.15 255 255 255
-13.61 0.76 0.61 255 255 255
-46.30 -22.36 0.10 255 255 255
-14.19 0.75 0.91 255 255 255
-50.11 -22.90 0.62 255 255 255
-14.53 0.53 0.37 255 255 255
-48.05 -17.72 0.36 255 255 255
-46.37 -22.40 0.88 255 255 255
-31.41 -10.58 -0.49 255 255 255
-37.22 -14.42 1.45 255 255 255
-31.70 -10.77 0.04 255 255 255
-48.01 -17.69 1.12 255 255 255
-36.09 -11.41 -0.10 255 255 255
-35.82 -12.33 -0.01 255 255 255
-46.28 -22.27 -0.68 255 255 255
-0.02 8.77 1.74 255 255 255
-36.69 -11.71 0.31 255 255 255
20.35 26.37 2.91 255 255 255
-37.32 -14.44 0.44 255 255 255
14.21 21.84 1.69 255 255 255
-13.23 0.96 1.01 255 255 255
-14.03 0.83 1.15 255 255 255
-13.55 0.77 0.60 255 255 255
-46.55 -22.40 0.09 255 255 255
-14.15 0.75 0.91 255 255 255
-0.03 8.71 2.26 255 255 255
-14.47 0.54 0.37 255 255 255
-46.75 -22.52 0.87 255 255 255
-31.52 -10.60 -0.50 255 255 255
-31.81 -10.78 0.03 255 255 255
-48.05 -17.58 1.12 255 255 255
-34.51 -11.50 -0.42 255 255 255
-30.37 -10.65 0.22 255 255 255
-36.13 -11.36 -0.10 255 255 255
-37.30 -14.35 -0.06 255 255 255
5.96 10.59 2.35 255 255 255
-46.66 -22.39 -0.70 255 255 255
14.28 21.74 2.65 255 255 255
-37.33 -14.35 0.44 255 255 255
-0.04 8.66 1.22 255 255 255
-13.19 0.95 1.01 255 255 255
-13.97 0.84 1.15 255 255 255
-13.53 0.75 0.60 255 255 255
-46.94 -22.53 0.08 255 255 255
-14.09 0.76 0.90 255 255 255
-37.33 -14.31 0.95 255 255 255
-14.42 0.55 0.36 255 255 255
-31.65 -10.61 -0.51 255 255 255
-48.05 -17.45 1.12 255 255 255
-31.91 -10.79 0.02 255 255 255
-30.52 -10.69 0.21 255 255 255
-36.42 -11.43 -0.12 255 255 255
-37.36 -14.29 -0.06 255 255 255
-37.09 -12.91 -0.11 255 255 255
-46.99 -22.49 -0.72 255 255 255
-0.02 8.59 1.74 255 255 255
-37.10 -11.78 0.29 255 255 255
14.39 21.63 2.65 255 255 255
-37.37 -14.29 0.44 255 255 255
0.01 8.60 1.22 255 255 255
-13.11 0.97 1.01 255 255 255
-13.92 0.85 1.14 255 255 255
-13.51 0.74 0.60 255 255 255
-47.20 -22.57 0.07 255 255 255
-14.05 0.76 0.90 255 255 255
-14.38 0.55 0.35 255 255 255
-0.01 8.54 2.25 255 255 255
-47.20 -22.56 0.87 255 255 255
-31.74 -10.61 -0.52 255 255 255
-37.42 -14.28 1.45 255 255 255
-48.10 -17.34 1.12 255 255 255
-32.02 -10.79 0.01 255 255 255
-34.52 -11.36 -0.41 255 255 255
-30.60 -10.69 0.20 255 255 255
-36.46 -11.37 -0.12 255 255 255
-37.25 -12.91 -0.12 255 255 255
-31.78 -11.52 0.44 255 255 255
0.03 8.54 1.74 255 255 255
-37.20 -11.74 0.29 255 255 255
18.43 16.77 1.90 255 255 255
0.11 8.57 1.22 255 255 255
22.63 27.33 1.79 255 255 255
-13.05 0.98 1.00 255 255 255
-13.87 0.86 1.14 255 255 255
-13.44 0.76 0.59 255 255 255
-47.47 -22.63 0.06 255 255 255
-14.00 0.77 0.90 255 255 255
0.04 8.49 2.25 255 255 255
-14.34 0.56 0.35 255 255 255
-47.50 -22.63 0.87 255 255 255
-37.53 -14.26 1.45 255 255 255
-32.12 -10.80 0.00 255 255 255
-30.75 -10.74 0.19 255 255 255
-36.62 -11.38 -0.13 255 255 255
6.33 10.44 2.36 255 255 255
-37.15 -12.78 -0.11 255 255 255
-47.40 -22.50 -0.74 255 255 255
-37.51 -11.82 0.27 255 255 255
18.49 16.63 1.90 255 255 255
22.68 27.17 1.79 255 255 255
-13.82 0.86 1.14 255 255 255
-13.37 0.77 0.59 255 255 255
-47.62 -22.59 0.05 255 255 255
-13.96 0.77 0.89 255 255 255
-14.26 0.59 0.33 255 255 255
-47.68 -22.61 0.86 255 255 255
-32.05 -10.68 -0.56 255 255 255
-32.24 -10.81 -0.00 255 255 255
-34.70 -11.32 -0.42 255 255 255
-30.84 -10.74 0.18 255 255 255
-36.94 -11.47 -0.16 255 255 255
6.97 10.66 2.38 255 255 255
-37.15 -12.70 -0.11 255 255 255
-37.58 -11.78 0.27 255 255 255
-50.95 -22.58 -0.26 255 255 255
-4.00 6.06 1.23 255 255 255
22.97 27.13 1.79 255 255 255
20.58 22.61 1.46 255 255 255
-12.94 0.98 1.00 255 255 255
-13.77 0.87 1.14 255 255 255
-13.26 0.80 0.58 255 255 255
-48.07 -22.75 0.04 255 255 255
-13.90 0.78 0.89 255 255 255
-14.13 0.64 0.31 255 255 255
-48.33 -22.91 0.85 255 255 255
-65.00 -28.27 0.02 255 255 255
-32.15 -10.69 -0.57 255 255 255
-32.37 -10.83 -0.02 255 255 255
-34.75 -11.28 -0.43 255 255 255
-31.01 -10.80 0.17 255 255 255
-37.08 -11.46 -0.17 255 255 255
6.89 10.50 2.38 255 255 255
-37.22 -12.66 -0.11 255 255 255
-4.04 5.97 1.63 255 255 255
-37.77 -11.79 0.26 255 255 255
-50.97 -22.44 -0.25 255 255 255
20.63 22.46 1.46 255 255 255
-9.59 2.84 0.86 255 255 255
-13.70 0.88 1.14 255 255 255
-13.16 0.83 0.57 255 255 255
-48.32 -22.78 0.03 255 255 255
-13.82 0.81 0.89 255 255 255
-14.07 0.65 0.30 255 255 255
-48.42 -22.83 0.85 255 255 255
-65.03 -28.07 0.02 255 255 255
-32.29 -10.71 -0.59 255 255 255
-32.52 -10.85 -0.03 255 255 255
-31.07 -10.78 0.17 255 255 255
-37.02 -11.35 -0.16 255 255 255
6.84 10.37 2.37 255 255 255
-36.04 -11.92 -0.01 255 255 255
-41.44 -13.52 0.04 255 255 255
18.68 23.75 2.81 255 255 255
-51.02 -22.33 -0.25 255 255 255
20.70 22.33 2.55 255 255 255
-4.07 5.88 1.23 255 255 255
-9.58 2.80 0.86 255 255 255
-4.01 5.89 2.44 255 255 255
-13.65 0.89 1.14 255 255 255
-13.11 0.83 0.56 255 255 255
-48.69 -22.88 0.02 255 255 255
-13.79 0.80 0.88 255 255 255
-14.03 0.66 0.29 255 255 255
-48.76 -22.91 0.85 255 255 255
-64.70 -27.69 0.03 255 255 255
-32.69 -10.89 -0.04 255 255 255
-34.86 -11.19 -0.43 255 255 255
-31.12 -10.75 0.16 255 255 255
-37.41 -11.46 -0.19 255 255 255
-36.06 -12.96 0.06 255 255 255
7.40 10.54 2.39 255 255 255
-37.94 -12.89 -0.16 255 255 255
-4.04 5.83 1.63 255 255 255
-41.42 -13.41 0.04 255 255 255
-51.16 -22.25 -0.26 255 255 255
-4.06 5.82 1.23 255 255 255
-9.58 2.76 0.86 255 255 255
-13.59 0.90 1.14 255 255 255
-4.02 5.82 2.44 255 255 255
-13.03 0.85 0.55 255 255 255
-48.89 -22.87 0.01 255 255 255
-13.75 0.80 0.88 255 255 255
-13.98 0.66 0.29 255 255 255
-4.01 5.81 2.03 255 255 255
-48.94 -22.88 0.85 255 255 255
-65.23 -27.78 0.02 255 255 255
-34.99 -11.20 -0.44 255 255 255
-31.23 -10.77 0.16 255 255 255
-37.69 -11.52 -0.21 255 255 255
-35.97 -12.82 0.07 255 255 255
-37.81 -12.73 -0.15 255 255 255
-4.03 5.78 1.63 255 255 255
-41.42 -13.32 0.04 255 255 255
-51.09 -22.05 -0.25 255 255 255
-4.04 5.77 1.23 255 255 255
-9.57 2.72 0.86 255 255 255
-13.53 0.91 1.14 255 255 255
-4.00 5.77 2.44 255 255 255
-12.95 0.87 0.55 255 255 255
-49.00 -22.78 0.01 255 255 255
-13.70 0.81 0.88 255 255 255
-3.99 5.76 2.03 255 255 255
-13.93 0.67 0.28 255 255 255
-49.03 -22.78 0.85 255 255 255
-53.91 -21.42 0.36 255 255 255
-34.59 -11.92 -0.24 255 255 255
-35.17 -11.22 -0.46 255 255 255
-31.41 -10.83 0.14 255 255 255
-37.92 -11.55 -0.23 255 255 255
-37.81 -12.64 -0.14 255 255 255
-3.99 5.72 1.63 255 255 255
-41.42 -13.22 0.05 255 255 255
-4.00 5.71 1.23 255 255 255
-9.56 2.68 0.86 255 255 255
-3.96 5.71 2.44 255 255 255
-13.48 0.91 1.14 255 255 255
-12.89 0.87 0.54 255 255 255
-49.49 -22.97 -0.01 255 255 255
-53.97 -21.33 -0.56 255 255 255
-3.92 5.72 2.03 255 255 255
-13.89 0.67 0.27 255 255 255
-65.08 -27.29 0.04 255 255 255
-34.58 -11.84 -0.23 255 255 255
-35.32 -11.23 -0.47 255 255 255
-31.54 -10.86 0.13 255 255 255
-38.15 -11.58 -0.24 255 255 255
-36.08 -11.64 0.00 255 255 255
-3.92 5.69 1.63 255 255 255
-41.40 -13.12 0.05 255 255 255
11.21 15.82 2.23 255 255 255
-3.93 5.68 1.23 255 255 255
-9.58 2.63 0.86 255 255 255
-13.42 0.92 1.13 255 255 255
-3.86 5.69 2.44 255 255 255
-12.81 0.88 0.53 255 255 255
-49.66 -22.93 -0.01 255 255 255
-13.63 0.79 0.88 255 255 255
6.94 11.49 2.58 255 255 255
-13.82 0.68 0.26 255 255 255
-50.12 -23.21 0.83 255 255 255
-65.20 -27.13 0.04 255 255 255
-34.64 -11.80 -0.23 255 255 255
-35.47 -11.24 -0.49 255 255 255
-31.62 -10.84 0.13 255 255 255
-47.97 -17.92 1.31 255 255 255
-38.50 -11.67 -0.27 255 255 255
-36.81 -13.09 0.02 255 255 255
-37.79 -12.46 -0.13 255 255 255
-3.75 5.72 1.63 255 255 255
-41.40 -13.02 0.05 255 255 255
11.20 15.68 2.23 255 255 255
-3.80 5.68 1.22 255 255 255
11.24 15.68 1.40 255 255 255
-9.56 2.59 0.86 255 255 255
-13.36 0.93 1.13 255 255 255
-12.72 0.90 0.52 255 255 255
-49.94 -22.96 -0.02 255 255 255
-13.57 0.81 0.87 255 255 255
-13.78 0.68 0.26 255 255 255
-50.17 -23.09 0.83 255 255 255
-47.96 -17.80 0.55 255 255 255
-34.58 -11.69 -0.22 255 255 255
-35.73 -11.31 -0.51 255 255 255
-37.47 -14.67 1.58 255 255 255
-31.74 -10.86 0.12 255 255 255
-47.98 -17.81 1.31 255 255 255
-38.84 -11.75 -0.30 255 255 255
-36.87 -13.05 0.02 255 255 255
-36.11 -11.50 0.01 255 255 255
-41.42 -12.94 0.06 255 255 255
-9.56 2.55 0.86 255 255 255
-13.29 0.95 1.13 255 255 255
-12.65 0.91 0.52 255 255 255
-50.16 -22.95 -0.03 255 255 255
-48.00 -17.72 -0.21 255 255 255
-13.72 0.70 0.25 255 255 255
-37.25 -14.44 1.07 255 255 255
-48.03 -17.72 0.55 255 255 255
-34.69 -11.69 -0.23 255 255 255
-35.85 -11.30 -0.52 255 255 255
-31.83 -10.87 0.11 255 255 255
-48.02 -17.70 1.31 255 255 255
-41.24 -12.77 -0.50 255 255 255
-36.26 -11.50 -0.00 255 255 255
-37.29 -14.44 0.06 255 255 255
-41.41 -12.84 0.06 255 255 255
0.00 8.77 1.35 255 255 255
-9.55 2.51 0.86 255 255 255
-13.22 0.96 1.13 255 255 255
-12.55 0.93 0.51 255 255 255
-37.29 -14.40 0.57 255 255 255
6.12 10.73 2.53 255 255 255
-13.64 0.71 0.24 255 255 255
-43.57 -13.79 0.56 255 255 255
-34.75 -11.65 -0.24 255 255 255
-35.93 -11.26 -0.53 255 255 255
-37.30 -14.38 1.58 255 255 255
-48.02 -17.57 1.31 255 255 255
-31.98 -10.90 0.10 255 255 255
-41.22 -12.67 -0.49 255 255 255
-37.30 -14.36 0.06 255 255 255
-41.43 -12.76 0.06 255 255 255
-9.53 2.48 0.86 255 255 255
-13.16 0.97 1.13 255 255 255
-12.45 0.96 0.50 255 255 255
-37.32 -14.32 0.57 255 255 255
-13.35 0.85 0.86 255 255 255
-13.58 0.72 0.23 255 255 255
6.32 10.71 2.53 255 255 255
-43.71 -13.75 0.55 255 255 255
-34.71 -11.55 -0.23 255 255 255
-37.47 -14.39 1.58 255 255 255
-36.13 -11.29 -0.55 255 255 255
-48.04 -17.45 1.31 255 255 255
-32.06 -10.88 0.09 255 255 255
-41.16 -12.55 -0.49 255 255 255
-36.16 -11.30 0.01 255 255 255
-37.35 -14.29 0.06 255 255 255
18.37 16.92 2.15 255 255 255
-41.44 -12.67 0.06 255 255 255
-0.01 8.59 1.86 255 255 255
-0.00 8.58 1.35 255 255 255
-9.55 2.43 0.86 255 255 255
-13.09 0.98 1.13 255 255 255
-13.29 0.87 0.86 255 255 255
-13.51 0.74 0.22 255 255 255
6.01 10.43 2.51 255 255 255
-37.40 -14.28 1.07 255 255 255
-34.77 -11.52 -0.23 255 255 255
-36.36 -11.34 -0.57 255 255 255
-37.49 -14.33 1.58 255 255 255
-48.08 -17.35 1.31 255 255 255
-41.20 -12.49 -0.49 255 255 255
-37.19 -12.90 0.00 255 255 255
-36.21 -11.25 0.01 255 255 255
-0.02 8.51 2.38 255 255 255
-41.44 -12.58 0.07 255 255 255
0.02 8.52 1.86 255 255 255
0.07 8.54 1.35 255 255 255
-9.53 2.40 0.86 255 255 255
0.12 8.57 0.83 255 255 255
-12.27 0.99 0.48 255 255 255
-13.21 0.88 0.85 255 255 255
5.93 10.30 2.51 255 255 255
-13.44 0.75 0.21 255 255 255
-37.51 -14.25 1.07 255 255 255
-34.83 -11.48 -0.23 255 255 255
-36.57 -11.36 -0.59 255 255 255
-32.29 -10.90 0.08 255 255 255
-41.23 -12.40 -0.48 255 255 255
-37.14 -12.79 0.01 255 255 255
-36.24 -11.19 0.01 255 255 255
0.03 8.45 2.38 255 255 255
-41.47 -12.49 0.07 255 255 255
0.12 8.48 1.86 255 255 255
-9.52 2.36 0.86 255 255 255
-12.16 1.02 0.46 255 255 255
-50.97 -22.71 -0.04 255 255 255
-13.12 0.90 0.85 255 255 255
-13.38 0.76 0.20 255 255 255
7.39 10.92 2.58 255 255 255
-34.84 -11.42 -0.23 255 255 255
-32.43 -10.93 0.07 255 255 255
-41.24 -12.32 -0.48 255 255 255
-37.12 -12.70 0.02 255 255 255
0.13 8.41 2.38 255 255 255
-41.48 -12.41 0.07 255 255 255
20.54 22.62 1.73 255 255 255
-9.50 2.33 0.86 255 255 255
-12.03 1.05 0.45 255 255 255
-50.96 -22.55 -0.04 255 255 255
-13.08 0.90 0.84 255 255 255
5.89 10.04 2.50 255 255 255
-13.32 0.77 0.19 255 255 255
-34.78 -11.31 -0.22 255 255 255
-32.60 -10.98 0.05 255 255 255
-41.26 -12.23 -0.48 255 255 255
-37.73 -12.96 -0.03 255 255 255
-37.30 -11.58 -0.07 255 255 255
-41.50 -12.33 0.07 255 255 255
20.61 22.49 2.83 255 255 255
-4.04 5.96 1.73 255 255 255
20.63 22.48 1.73 255 255 255
-4.02 5.97 1.33 255 255 255
-9.51 2.28 0.86 255 255 255
-4.03 5.97 0.92 255 255 255
-12.01 1.03 0.45 255 255 255
-50.92 -22.39 -0.03 255 255 255
-12.96 0.94 0.84 255 255 255
-42.18 -13.96 0.14 255 255 255
7.66 10.82 2.58 255 255 255
-13.24 0.79 0.17 255 255 255
-34.91 -11.32 -0.23 255 255 255
-32.78 -11.02 0.04 255 255 255
-41.29 -12.15 -0.48 255 255 255
-37.84 -12.94 -0.03 255 255 255
-37.44 -11.57 -0.08 255 255 255
-41.49 -12.24 0.07 255 255 255
20.66 22.35 2.82 255 255 255
-65.17 -28.09 -0.90 255 255 255
-9.49 2.25 0.86 255 255 255
-4.07 5.88 0.93 255 255 255
-11.96 1.03 0.45 255 255 255
-3.99 5.91 2.54 255 255 255
-51.03 -22.28 -0.03 255 255 255
-12.92 0.94 0.83 255 255 255
-42.29 -13.90 0.14 255 255 255
-13.16 0.80 0.16 255 255 255
7.74 10.76 2.58 255 255 255
-34.91 -11.23 -0.23 255 255 255
-34.84 -12.22 -0.16 255 255 255
-41.33 -12.07 -0.48 255 255 255
-37.69 -11.60 -0.09 255 255 255
-41.56 -12.16 0.07 255 255 255
-4.05 5.82 1.73 255 255 255
-4.05 5.81 1.33 255 255 255
-9.46 2.22 0.86 255 255 255
-4.06 5.81 0.93 255 255 255
-3.99 5.82 2.54 255 255 255
-11.91 1.02 0.44 255 255 255
-51.14 -22.20 -0.03 255 255 255
-12.87 0.93 0.83 255 255 255
-42.03 -13.68 0.15 255 255 255
-13.08 0.82 0.15 255 255 255
-35.09 -11.27 -0.24 255 255 255
-34.87 -12.18 -0.16 255 255 255
-41.39 -12.01 -0.48 255 255 255
-36.17 -11.85 0.10 255 255 255
-38.06 -11.71 -0.12 255 255 255
-4.01 5.79 2.13 255 255 255
-37.92 -14.02 0.05 255 255 255
-41.59 -12.09 0.07 255 255 255
-65.02 -27.61 -0.88 255 255 255
-4.06 5.76 1.73 255 255 255
-4.02 5.76 1.33 255 255 255
-9.46 2.18 0.86 255 255 255
-8.78 3.15 1.03 255 255 255
-11.85 1.02 0.44 255 255 255
-4.00 5.76 2.54 255 255 255
-64.89 -30.41 -0.65 255 255 255
-12.85 0.92 0.83 255 255 255
-42.03 -13.58 0.15 255 255 255
-13.00 0.84 0.13 255 255 255
-35.12 -11.20 -0.24 255 255 255
-34.87 -12.09 -0.16 255 255 255
-41.46 -11.95 -0.48 255 255 255
-36.02 -11.69 0.12 255 255 255
-38.08 -11.63 -0.12 255 255 255
-3.99 5.73 2.13 255 255 255
-37.98 -13.97 0.05 255 255 255
7.49 10.35 1.88 255 255 255
-41.65 -12.01 0.07 255 255 255
-4.02 5.71 1.73 255 255 255
-3.99 5.72 1.33 255 255 255
-9.44 2.15 0.86 255 255 255
-8.84 3.07 1.03 255 255 255
-3.96 5.71 2.54 255 255 255
-11.75 1.04 0.43 255 255 255
-12.77 0.94 0.82 255 255 255
-42.03 -13.48 0.16 255 255 255
-53.96 -21.33 0.60 255 255 255
-12.93 0.85 0.13 255 255 255
-42.96 -13.91 0.72 255 255 255
-35.26 -11.21 -0.25 255 255 255
-34.83 -11.99 -0.15 255 255 255
-41.54 -11.89 -0.48 255 255 255
-37.91 -12.63 -0.02 255 255 255
-38.34 -11.68 -0.14 255 255 255
-3.95 5.68 2.13 255 255 255
-36.29 -12.86 0.17 255 255 255
7.59 10.27 1.88 255 255 255
-41.73 -11.96 0.07 255 255 255
-54.02 -21.27 -0.33 255 255 255
-3.97 5.66 1.73 255 255 255
-3.93 5.67 1.33 255 255 255
-9.42 2.11 0.86 255 255 255
-8.88 3.00 1.03 255 255 255
-10.26 1.72 0.26 255 255 255
-3.89 5.68 2.54 255 255 255
-12.77 0.90 0.83 255 255 255
-42.03 -13.39 0.16 255 255 255
-12.83 0.87 0.11 255 255 255
-43.70 -12.74 0.58 255 255 255
-42.78 -13.73 0.73 255 255 255
-35.31 -11.17 -0.25 255 255 255
-34.93 -11.98 -0.16 255 255 255
-41.71 -11.87 -0.49 255 255 255
-36.09 -11.58 0.12 255 255 255
-38.61 -11.72 -0.15 255 255 255
-36.04 -12.64 0.19 255 255 255
7.69 10.22 1.88 255 255 255
-41.95 -11.96 0.06 255 255 255
-65.40 -27.18 -0.88 255 255 255
-3.90 5.63 1.73 255 255 255
11.20 15.69 1.61 255 255 255
-3.83 5.66 1.33 255 255 255
-9.40 2.08 0.86 255 255 255
-8.90 2.95 1.04 255 255 255
-10.21 1.70 0.26 255 255 255
-12.83 0.84 0.83 255 255 255
-42.04 -13.29 0.16 255 255 255
-12.75 0.89 0.10 255 255 255
-42.71 -12.23 0.61 255 255 255
-42.70 -13.59 0.73 255 255 255
-35.45 -11.17 -0.26 255 255 255
-34.91 -11.89 -0.15 255 255 255
-42.03 -11.91 -0.52 255 255 255
-36.13 -11.52 0.12 255 255 255
-38.93 -11.79 -0.18 255 255 255
-36.85 -13.03 0.14 255 255 255
-42.21 -11.97 0.05 255 255 255
-9.38 2.05 0.86 255 255 255
-8.91 2.90 1.04 255 255 255
-10.18 1.68 0.25 255 255 255
-12.85 0.80 0.83 255 255 255
-48.00 -17.73 0.74 255 255 255
-12.65 0.91 0.08 255 255 255
-42.80 -12.17 0.61 255 255 255
-42.70 -13.50 0.74 255 255 255
-35.69 -11.23 -0.28 255 255 255
-34.95 -11.85 -0.15 255 255 255
-42.45 -11.99 -0.55 255 255 255
-36.21 -11.49 0.11 255 255 255
-41.33 -12.82 -0.36 255 255 255
6.38 10.92 2.71 255 255 255
-42.53 -12.01 0.03 255 255 255
-48.04 -17.68 -0.02 255 255 255
-0.04 8.75 1.48 255 255 255
-3.46 3.86 1.11 255 255 255
-9.35 2.02 0.86 255 255 255
-8.92 2.84 1.04 255 255 255
-10.12 1.67 0.25 255 255 255
-12.87 0.76 0.83 255 255 255
-12.57 0.93 0.07 255 255 255
-42.66 -13.38 0.74 255 255 255
-35.88 -11.25 -0.30 255 255 255
-34.94 -11.77 -0.15 255 255 255
-41.30 -12.71 -0.36 255 255 255
6.33 10.79 2.71 255 255 255
-42.87 -12.06 0.02 255 255 255
-3.45 3.79 1.11 255 255 255
-9.32 1.99 0.86 255 255 255
-8.94 2.79 1.04 255 255 255
-10.06 1.66 0.24 255 255 255
-12.88 0.73 0.83 255 255 255
-41.98 -12.98 0.17 255 255 255
0.00 8.65 2.51 255 255 255
-12.43 0.97 0.04 255 255 255
-42.64 -13.27 0.74 255 255 255
-36.05 -11.26 -0.31 255 255 255
-35.01 -11.73 -0.15 255 255 255
-41.28 -12.61 -0.35 255 255 255
5.29 10.14 2.64 255 255 255
-43.23 -12.10 -0.00 255 255 255
-0.01 8.60 1.48 255 255 255
-3.50 3.71 1.11 255 255 255
18.42 16.92 1.41 255 255 255
-8.94 2.74 1.04 255 255 255
-9.99 1.65 0.24 255 255 255
-12.38 0.97 0.04 255 255 255
-42.66 -13.17 0.74 255 255 255
-36.24 -11.28 -0.33 255 255 255
-35.04 -11.68 -0.15 255 255 255
-43.45 -12.10 -0.62 255 255 255
-41.41 -12.57 -0.36 255 255 255
5.43 10.09 2.64 255 255 255
-37.77 -13.23 0.08 255 255 255
-43.60 -12.14 -0.02 255 255 255
0.01 8.52 1.99 255 255 255
18.46 16.77 2.39 255 255 255
0.05 8.53 1.48 255 255 255
-3.50 3.65 1.11 255 255 255
-9.29 1.93 0.85 255 255 255
-8.98 2.67 1.04 255 255 255
-9.93 1.64 0.23 255 255 255
-41.87 -12.74 0.19 255 255 255
0.01 8.47 2.51 255 255 255
-12.36 0.95 0.03 255 255 255
-44.30 -12.38 0.57 255 255 255
-42.65 -13.08 0.74 255 255 255
-36.49 -11.35 -0.35 255 255 255
-35.12 -11.65 -0.16 255 255 255
-36.99 -11.59 0.07 255 255 255
-41.50 -12.53 -0.36 255 255 255
5.37 9.96 2.64 255 255 255
-43.96 -12.20 -0.04 255 255 255
0.08 8.48 1.99 255 255 255
18.51 16.63 2.39 255 255 255
-3.51 3.58 1.11 255 255 255
-9.20 1.93 0.85 255 255 255
-8.93 2.66 1.04 255 255 255
-9.84 1.64 0.22 255 255 255
-10.19 2.02 0.65 255 255 255
-42.09 -12.74 0.18 255 255 255
0.08 8.43 2.51 255 255 255
-12.33 0.93 0.03 255 255 255
-44.71 -12.43 0.56 255 255 255
-42.68 -12.99 0.75 255 255 255
-36.53 -11.28 -0.35 255 255 255
-35.04 -11.53 -0.14 255 255 255
-41.54 -12.45 -0.36 255 255 255
5.76 10.05 2.66 255 255 255
-36.28 -12.22 0.20 255 255 255
-44.40 -12.26 -0.06 255 255 255
-3.50 3.53 1.11 255 255 255
-9.12 1.92 0.85 255 255 255
-8.93 2.62 1.04 255 255 255
-9.77 1.64 0.21 255 255 255
-10.18 1.99 0.65 255 255 255
-41.86 -12.54 0.19 255 255 255
-12.31 0.92 0.03 255 255 255
-45.08 -12.47 0.55 255 255 255
-42.70 -12.90 0.75 255 255 255
-36.79 -11.34 -0.37 255 255 255
-35.07 -11.47 -0.14 255 255 255
-37.85 -11.86 0.01 255 255 255
-41.42 -12.30 -0.35 255 255 255
6.25 10.19 2.68 255 255 255
-44.73 -12.29 -0.08 255 255 255
-4.03 5.98 1.43 255 255 255
-3.52 3.45 1.11 255 255 255
-9.00 1.93 0.84 255 255 255
-8.92 2.57 1.04 255 255 255
-9.71 1.62 0.21 255 255 255
-64.97 -28.15 -0.59 255 255 255
-10.16 1.96 0.65 255 255 255
-41.97 -12.50 0.19 255 255 255
-12.27 0.91 0.02 255 255 255
-45.51 -12.54 0.54 255 255 255
-42.69 -12.81 0.75 255 255 255
-37.07 -11.40 -0.40 255 255 255
-35.15 -11.45 -0.15 255 255 255
-37.52 -11.62 0.04 255 255 255
15.62 10.68 2.65 255 255 255
7.63 10.76 2.75 255 255 255
-45.16 -12.35 -0.10 255 255 255
-42.46 -14.04 0.28 255 255 255
15.70 10.70 1.78 255 255 255
6.61 10.24 2.03 255 255 255
-3.51 3.39 1.11 255 255 255
-8.86 1.95 0.84 255 255 255
-8.91 2.53 1.04 255 255 255
-9.64 1.61 0.20 255 255 255
-10.16 1.91 0.65 255 255 255
-3.98 5.90 2.24 255 255 255
-12.15 0.93 0.01 255 255 255
-45.97 -12.61 0.52 255 255 255
-42.77 -12.74 0.75 255 255 255
-37.27 -11.42 -0.42 255 255 255
-35.19 -11.40 -0.15 255 255 255
-37.75 -11.65 0.02 255 255 255
-41.55 -12.18 -0.35 255 255 255
8.13 10.90 2.78 255 255 255
-45.61 -12.42 -0.12 255 255 255
-42.62 -14.02 0.27 255 255 255
-4.05 5.82 1.43 255 255 255
-3.52 3.33 1.11 255 255 255
-8.72 1.97 0.83 255 255 255
-8.90 2.50 1.04 255 255 255
-9.52 1.63 0.19 255 255 255
-10.16 1.88 0.65 255 255 255
-4.00 5.82 2.23 255 255 255
-12.11 0.92 -0.00 255 255 255
-46.48 -12.68 0.51 255 255 255
-42.74 -12.62 0.75 255 255 255
-37.49 -11.44 -0.43 255 255 255
-63.78 -19.08 1.05 255 255 255
-35.26 -11.36 -0.15 255 255 255
-37.94 -11.66 0.01 255 255 255
-41.60 -12.10 -0.35 255 255 255
-46.12 -12.49 -0.15 255 255 255
-4.02 5.79 1.83 255 255 255
6.39 9.92 2.02 255 255 255
-4.04 5.76 1.43 255 255 255
-3.53 3.27 1.11 255 255 255
-8.51 2.02 0.82 255 255 255
-8.89 2.45 1.04 255 255 255
-9.32 1.67 0.17 255 255 255
-10.17 1.83 0.66 255 255 255
-3.99 5.76 2.23 255 255 255
-12.11 0.89 0.00 255 255 255
-46.93 -12.75 0.50 255 255 255
-37.75 -11.50 -0.46 255 255 255
-63.89 -18.95 1.05 255 255 255
-35.30 -11.32 -0.15 255 255 255
-38.10 -11.66 0.00 255 255 255
-41.61 -12.02 -0.35 255 255 255
-46.60 -12.57 -0.17 255 255 255
-3.98 5.73 1.83 255 255 255
-42.11 -13.58 0.30 255 255 255
-3.99 5.72 1.43 255 255 255
-3.53 3.20 1.11 255 255 255
-8.44 2.00 0.82 255 255 255
-8.88 2.41 1.04 255 255 255
-9.04 1.75 0.14 255 255 255
-54.01 -21.38 -0.10 255 255 255
-10.14 1.81 0.65 255 255 255
-3.95 5.71 2.23 255 255 255
-12.06 0.88 -0.00 255 255 255
-42.91 -12.51 0.75 255 255 255
-38.13 -11.60 -0.49 255 255 255
-35.44 -11.32 -0.16 255 255 255
