ply
format ascii 1.0
element vertex 1604
property float x
property float y
property float z
property uchar red
property uchar green
property uchar blue
end_header
-11.37 -3.75 1.54 255 255 255
-11.68 -3.77 0.87 255 255 255
-19.81 0.45 1.35 255 255 255
-11.37 -3.74 1.01 255 255 255
-11.95 -3.82 1.46 255 255 255
-18.39 0.03 0.32 255 255 255
-19.00 0.60 1.31 255 255 255
-10.72 -4.34 0.04 255 255 255
-11.03 -3.70 1.48 255 255 255
-18.17 0.12 0.68 255 255 255
-11.68 -3.79 1.41 255 255 255
-11.38 -3.73 0.61 255 255 255
-18.31 -0.03 0.84 255 255 255
-28.74 4.65 1.50 255 255 255
-18.32 0.20 0.94 255 255 255
-19.14 0.42 0.92 255 255 255
-59.63 24.84 1.09 255 255 255
-18.78 0.22 1.14 255 255 255
-28.74 4.66 1.86 255 255 255
-18.46 0.28 1.11 255 255 255
-19.17 0.16 1.14 255 255 255
-18.82 0.24 1.24 255 255 255
-11.97 -3.82 1.38 255 255 255
-18.66 0.40 1.22 255 255 255
-11.40 -3.74 1.44 255 255 255
-19.19 0.17 1.25 255 255 255
-11.70 -3.78 1.33 255 255 255
-11.35 -3.79 2.13 255 255 255
-11.67 -3.81 1.90 255 255 255
-11.04 -3.71 1.38 255 255 255
-19.23 0.46 1.33 255 255 255
-11.96 -3.82 1.30 255 255 255
-11.37 -3.77 1.83 255 255 255
-11.39 -3.75 1.35 255 255 255
-11.69 -3.80 1.72 255 255 255
-11.04 -3.71 1.73 255 255 255
-11.70 -3.79 1.24 255 255 255
-11.06 -3.70 1.28 255 255 255
-11.69 -3.80 1.58 255 255 255
-11.38 -3.76 1.65 255 255 255
-11.96 -3.83 1.22 255 255 255
-11.96 -3.83 1.54 255 255 255
-11.38 -3.75 1.26 255 255 255
-11.71 -3.78 1.11 255 255 255
-11.05 -3.71 1.58 255 255 255
-11.70 -3.79 1.50 255 255 255
-11.39 -3.75 1.17 255 255 255
-11.70 -3.78 0.87 255 255 255
-11.39 -3.75 1.53 255 255 255
-19.78 0.46 1.35 255 255 255
-11.39 -3.75 1.01 255 255 255
-11.97 -3.83 1.46 255 255 255
-18.37 0.03 0.33 255 255 255
-18.99 0.61 1.31 255 255 255
-11.06 -3.70 1.48 255 255 255
-18.15 0.12 0.68 255 255 255
-48.00 15.89 1.38 255 255 255
-11.40 -3.74 0.62 255 255 255
-11.71 -3.79 1.41 255 255 255
-18.30 -0.02 0.84 255 255 255
-18.29 0.20 0.94 255 255 255
-19.13 0.43 0.92 255 255 255
-59.28 24.83 1.10 255 255 255
-18.74 0.22 1.14 255 255 255
-18.49 0.32 1.11 255 255 255
-19.15 0.17 1.14 255 255 255
-18.78 0.24 1.24 255 255 255
-11.98 -3.82 1.38 255 255 255
-18.65 0.42 1.22 255 255 255
-11.44 -3.74 1.44 255 255 255
-19.14 0.17 1.25 255 255 255
-11.72 -3.79 1.33 255 255 255
-11.37 -3.79 2.12 255 255 255
-11.69 -3.82 1.90 255 255 255
-11.06 -3.71 1.38 255 255 255
-19.22 0.47 1.33 255 255 255
-11.40 -3.77 1.83 255 255 255
-11.98 -3.83 1.30 255 255 255
-11.41 -3.75 1.35 255 255 255
-11.71 -3.81 1.72 255 255 255
-11.07 -3.71 1.72 255 255 255
-11.72 -3.79 1.24 255 255 255
-11.08 -3.70 1.28 255 255 255
-11.71 -3.80 1.58 255 255 255
-11.41 -3.76 1.65 255 255 255
-11.98 -3.83 1.22 255 255 255
-11.40 -3.76 1.26 255 255 255
-11.97 -3.84 1.54 255 255 255
-11.07 -3.71 1.58 255 255 255
-11.73 -3.78 1.11 255 255 255
-11.41 -3.75 1.17 255 255 255
-11.72 -3.80 1.50 255 255 255
-11.73 -3.78 0.88 255 255 255
-11.42 -3.76 1.53 255 255 255
-19.76 0.47 1.35 255 255 255
-11.42 -3.75 1.01 255 255 255
-11.99 -3.83 1.46 255 255 255
-18.98 0.63 1.31 255 255 255
-18.34 0.03 0.33 255 255 255
-11.09 -3.71 1.48 255 255 255
-18.13 0.13 0.68 255 255 255
-11.42 -3.74 0.62 255 255 255
-11.73 -3.79 1.41 255 255 255
-18.29 -0.00 0.84 255 255 255
-18.27 0.21 0.94 255 255 255
-59.05 24.93 1.10 255 255 255
-19.27 0.52 0.91 255 255 255
-18.72 0.22 1.14 255 255 255
-18.48 0.33 1.11 255 255 255
-19.11 0.17 1.14 255 255 255
-18.77 0.25 1.24 255 255 255
-12.00 -3.83 1.38 255 255 255
-18.65 0.43 1.22 255 255 255
-11.45 -3.75 1.44 255 255 255
-19.11 0.17 1.25 255 255 255
-23.76 3.52 2.30 255 255 255
-11.74 -3.79 1.32 255 255 255
-11.40 -3.79 2.11 255 255 255
-11.08 -3.72 1.38 255 255 255
-11.71 -3.82 1.90 255 255 255
-19.22 0.50 1.33 255 255 255
-12.00 -3.83 1.30 255 255 255
-11.42 -3.77 1.83 255 255 255
-11.72 -3.81 1.72 255 255 255
-11.43 -3.76 1.35 255 255 255
-11.10 -3.72 1.72 255 255 255
-11.74 -3.79 1.24 255 255 255
-11.73 -3.81 1.58 255 255 255
-11.11 -3.71 1.28 255 255 255
-11.43 -3.76 1.65 255 255 255
-12.00 -3.83 1.22 255 255 255
-11.42 -3.77 1.26 255 255 255
-11.99 -3.84 1.54 255 255 255
-11.75 -3.78 1.11 255 255 255
-11.10 -3.71 1.58 255 255 255
-11.44 -3.76 1.17 255 255 255
-11.74 -3.80 1.49 255 255 255
-11.45 -3.76 1.53 255 255 255
-11.75 -3.78 0.88 255 255 255
-19.73 0.48 1.35 255 255 255
-11.44 -3.75 1.01 255 255 255
-12.00 -3.84 1.46 255 255 255
-18.99 0.65 1.31 255 255 255
-18.33 0.04 0.34 255 255 255
-11.11 -3.71 1.48 255 255 255
-18.12 0.13 0.68 255 255 255
-11.75 -3.80 1.41 255 255 255
-11.44 -3.75 0.62 255 255 255
-18.29 0.01 0.84 255 255 255
-54.21 17.16 1.59 255 255 255
-18.26 0.21 0.94 255 255 255
-18.57 0.16 0.99 255 255 255
-58.80 24.97 1.10 255 255 255
-43.99 14.00 2.17 255 255 255
-18.68 0.22 1.14 255 255 255
-18.47 0.34 1.11 255 255 255
-19.10 0.18 1.14 255 255 255
-18.75 0.26 1.24 255 255 255
-12.01 -3.84 1.38 255 255 255
-18.64 0.45 1.22 255 255 255
-11.48 -3.74 1.44 255 255 255
-19.09 0.18 1.25 255 255 255
-11.76 -3.79 1.32 255 255 255
-11.43 -3.79 2.11 255 255 255
-11.11 -3.72 1.38 255 255 255
-11.74 -3.82 1.89 255 255 255
-19.21 0.51 1.33 255 255 255
-12.02 -3.83 1.30 255 255 255
-11.45 -3.77 1.82 255 255 255
-11.74 -3.81 1.72 255 255 255
-11.44 -3.77 1.35 255 255 255
-11.12 -3.72 1.72 255 255 255
-11.76 -3.79 1.24 255 255 255
-11.74 -3.81 1.58 255 255 255
-11.13 -3.71 1.28 255 255 255
-12.02 -3.83 1.22 255 255 255
-11.45 -3.77 1.64 255 255 255
-12.01 -3.84 1.54 255 255 255
-11.44 -3.77 1.26 255 255 255
-11.12 -3.72 1.57 255 255 255
-11.77 -3.78 1.11 255 255 255
-11.46 -3.76 1.17 255 255 255
-11.76 -3.80 1.49 255 255 255
-11.77 -3.78 0.88 255 255 255
-11.46 -3.77 1.53 255 255 255
-19.71 0.49 1.35 255 255 255
-12.02 -3.84 1.46 255 255 255
-11.47 -3.75 1.01 255 255 255
-18.31 0.04 0.34 255 255 255
-18.98 0.67 1.31 255 255 255
-11.14 -3.71 1.48 255 255 255
-18.10 0.13 0.69 255 255 255
-11.77 -3.80 1.41 255 255 255
-11.46 -3.75 0.62 255 255 255
-18.28 0.02 0.84 255 255 255
-54.14 17.29 1.59 255 255 255
-18.24 0.22 0.94 255 255 255
-20.10 1.03 0.80 255 255 255
-18.66 0.22 1.15 255 255 255
-18.47 0.36 1.11 255 255 255
-19.06 0.19 1.14 255 255 255
-18.74 0.27 1.24 255 255 255
-12.02 -3.84 1.38 255 255 255
-18.65 0.47 1.22 255 255 255
-11.49 -3.75 1.44 255 255 255
-19.07 0.19 1.25 255 255 255
-23.64 3.53 2.29 255 255 255
-11.78 -3.79 1.32 255 255 255
-11.45 -3.79 2.11 255 255 255
-11.77 -3.82 1.89 255 255 255
-11.13 -3.72 1.38 255 255 255
-19.20 0.53 1.33 255 255 255
-11.47 -3.78 1.82 255 255 255
-12.04 -3.83 1.30 255 255 255
-11.77 -3.81 1.71 255 255 255
-11.47 -3.77 1.35 255 255 255
-11.15 -3.72 1.72 255 255 255
-11.78 -3.79 1.24 255 255 255
-11.77 -3.81 1.58 255 255 255
-11.15 -3.71 1.28 255 255 255
-12.04 -3.83 1.22 255 255 255
-11.48 -3.77 1.64 255 255 255
-12.02 -3.85 1.54 255 255 255
-11.47 -3.77 1.26 255 255 255
-11.80 -3.78 1.12 255 255 255
-11.15 -3.72 1.57 255 255 255
-11.77 -3.81 1.49 255 255 255
-11.48 -3.76 1.17 255 255 255
-11.48 -3.77 1.53 255 255 255
-11.79 -3.79 0.88 255 255 255
-19.69 0.50 1.35 255 255 255
-11.50 -3.75 1.02 255 255 255
-12.03 -3.84 1.46 255 255 255
-18.98 0.68 1.31 255 255 255
-18.28 0.05 0.35 255 255 255
-11.17 -3.71 1.47 255 255 255
-18.10 0.15 0.69 255 255 255
-37.97 10.92 1.41 255 255 255
-11.79 -3.80 1.41 255 255 255
-11.48 -3.75 0.63 255 255 255
-18.28 0.04 0.84 255 255 255
-18.24 0.23 0.94 255 255 255
-20.07 1.03 0.80 255 255 255
-37.98 10.94 2.03 255 255 255
-18.48 0.38 1.10 255 255 255
-33.24 9.54 1.82 255 255 255
-19.04 0.19 1.15 255 255 255
-18.71 0.27 1.24 255 255 255
-12.04 -3.84 1.38 255 255 255
-18.64 0.48 1.22 255 255 255
-11.52 -3.75 1.44 255 255 255
-19.04 0.19 1.26 255 255 255
-23.65 3.58 2.30 255 255 255
-11.47 -3.80 2.10 255 255 255
-11.79 -3.80 1.32 255 255 255
-11.15 -3.73 1.38 255 255 255
-11.78 -3.82 1.89 255 255 255
-19.19 0.54 1.33 255 255 255
-11.49 -3.78 1.82 255 255 255
-12.06 -3.83 1.30 255 255 255
-11.49 -3.77 1.35 255 255 255
-11.80 -3.81 1.71 255 255 255
-11.80 -3.80 1.24 255 255 255
-11.17 -3.73 1.71 255 255 255
-11.18 -3.72 1.28 255 255 255
-11.78 -3.82 1.58 255 255 255
-11.49 -3.78 1.64 255 255 255
-12.05 -3.84 1.22 255 255 255
-12.04 -3.85 1.54 255 255 255
-11.48 -3.77 1.26 255 255 255
-11.82 -3.78 1.12 255 255 255
-11.17 -3.73 1.57 255 255 255
-11.79 -3.81 1.49 255 255 255
-11.50 -3.77 1.17 255 255 255
-11.81 -3.79 0.88 255 255 255
-11.49 -3.78 1.53 255 255 255
-19.72 0.54 1.35 255 255 255
-11.51 -3.75 1.02 255 255 255
-12.05 -3.84 1.46 255 255 255
-18.97 0.70 1.31 255 255 255
-18.25 0.04 0.35 255 255 255
-11.19 -3.72 1.47 255 255 255
-37.92 11.02 1.41 255 255 255
-18.05 0.14 0.69 255 255 255
-11.50 -3.75 0.63 255 255 255
-11.80 -3.80 1.41 255 255 255
-18.27 0.05 0.84 255 255 255
-52.93 17.03 1.59 255 255 255
-18.23 0.24 0.95 255 255 255
-20.08 1.06 0.80 255 255 255
-18.60 0.23 1.15 255 255 255
-20.22 1.49 0.93 255 255 255
-18.97 0.18 1.15 255 255 255
-18.70 0.28 1.24 255 255 255
-12.06 -3.84 1.38 255 255 255
-18.64 0.50 1.22 255 255 255
-11.53 -3.76 1.44 255 255 255
-19.01 0.20 1.26 255 255 255
-11.82 -3.80 1.32 255 255 255
-11.49 -3.80 2.10 255 255 255
-11.18 -3.73 1.38 255 255 255
-11.80 -3.82 1.89 255 255 255
-19.18 0.55 1.33 255 255 255
-12.07 -3.84 1.30 255 255 255
-11.50 -3.79 1.82 255 255 255
-11.81 -3.82 1.71 255 255 255
-11.51 -3.78 1.35 255 255 255
-11.82 -3.80 1.24 255 255 255
-11.21 -3.72 1.71 255 255 255
-11.81 -3.81 1.57 255 255 255
-11.21 -3.71 1.28 255 255 255
-12.07 -3.84 1.22 255 255 255
-11.51 -3.78 1.64 255 255 255
-11.51 -3.77 1.26 255 255 255
-12.06 -3.85 1.54 255 255 255
-11.19 -3.73 1.57 255 255 255
-11.84 -3.79 1.12 255 255 255
-11.53 -3.76 1.17 255 255 255
-11.81 -3.81 1.49 255 255 255
-11.51 -3.78 1.53 255 255 255
-11.83 -3.79 0.89 255 255 255
-19.77 0.58 1.35 255 255 255
-12.06 -3.85 1.46 255 255 255
-11.54 -3.76 1.02 255 255 255
-18.97 0.72 1.31 255 255 255
-18.23 0.05 0.36 255 255 255
-11.21 -3.72 1.47 255 255 255
-18.04 0.15 0.70 255 255 255
-11.54 -3.75 0.64 255 255 255
-11.83 -3.80 1.41 255 255 255
-18.26 0.06 0.84 255 255 255
-18.22 0.26 0.95 255 255 255
-33.11 9.63 1.32 255 255 255
-20.05 1.06 0.80 255 255 255
-18.59 0.24 1.15 255 255 255
-18.46 0.41 1.11 255 255 255
-33.07 9.60 1.82 255 255 255
-18.96 0.19 1.15 255 255 255
-18.69 0.30 1.24 255 255 255
-12.08 -3.84 1.38 255 255 255
-18.63 0.52 1.22 255 255 255
-11.54 -3.77 1.44 255 255 255
-18.99 0.20 1.26 255 255 255
-11.84 -3.80 1.32 255 255 255
-11.50 -3.81 2.10 255 255 255
-11.20 -3.73 1.38 255 255 255
-11.82 -3.82 1.88 255 255 255
-19.16 0.56 1.33 255 255 255
-11.52 -3.79 1.81 255 255 255
-12.08 -3.84 1.30 255 255 255
-11.53 -3.78 1.35 255 255 255
-11.83 -3.82 1.71 255 255 255
-11.23 -3.73 1.71 255 255 255
-11.84 -3.80 1.24 255 255 255
-11.83 -3.82 1.57 255 255 255
-11.24 -3.72 1.28 255 255 255
-11.53 -3.79 1.64 255 255 255
-12.08 -3.84 1.22 255 255 255
-11.53 -3.77 1.26 255 255 255
-12.08 -3.85 1.54 255 255 255
-11.22 -3.73 1.57 255 255 255
-11.86 -3.79 1.12 255 255 255
-11.55 -3.77 1.17 255 255 255
-11.84 -3.81 1.49 255 255 255
-11.54 -3.78 1.53 255 255 255
-11.86 -3.78 0.89 255 255 255
-19.74 0.59 1.35 255 255 255
-12.09 -3.85 1.46 255 255 255
-11.55 -3.76 1.02 255 255 255
-18.20 0.05 0.36 255 255 255
-18.97 0.74 1.31 255 255 255
-11.23 -3.73 1.47 255 255 255
-18.01 0.15 0.70 255 255 255
-11.55 -3.75 0.64 255 255 255
-11.84 -3.81 1.41 255 255 255
-18.27 0.07 0.84 255 255 255
-18.24 0.29 0.94 255 255 255
-19.98 1.05 0.81 255 255 255
-33.05 9.69 1.32 255 255 255
-18.57 0.25 1.15 255 255 255
-18.46 0.43 1.10 255 255 255
-18.95 0.20 1.15 255 255 255
-18.70 0.32 1.24 255 255 255
-12.09 -3.85 1.38 255 255 255
-11.57 -3.77 1.44 255 255 255
-18.96 0.21 1.26 255 255 255
-11.86 -3.80 1.32 255 255 255
-11.52 -3.81 2.09 255 255 255
-11.84 -3.83 1.88 255 255 255
-11.23 -3.73 1.38 255 255 255
-19.16 0.58 1.33 255 255 255
-12.10 -3.84 1.30 255 255 255
-11.54 -3.80 1.81 255 255 255
-11.84 -3.82 1.71 255 255 255
-11.55 -3.79 1.35 255 255 255
-11.86 -3.80 1.24 255 255 255
-11.25 -3.74 1.71 255 255 255
-11.85 -3.82 1.57 255 255 255
-11.26 -3.72 1.28 255 255 255
-11.56 -3.79 1.64 255 255 255
-12.10 -3.84 1.22 255 255 255
-11.56 -3.78 1.26 255 255 255
-12.10 -3.85 1.54 255 255 255
-11.87 -3.80 1.12 255 255 255
-11.24 -3.74 1.57 255 255 255
-11.57 -3.77 1.17 255 255 255
-11.86 -3.81 1.49 255 255 255
-11.87 -3.79 0.89 255 255 255
-11.56 -3.79 1.53 255 255 255
-19.71 0.60 1.35 255 255 255
-11.58 -3.76 1.02 255 255 255
-12.11 -3.84 1.46 255 255 255
-18.19 0.06 0.37 255 255 255
-11.27 -3.73 1.47 255 255 255
-11.58 -3.76 0.64 255 255 255
-11.87 -3.80 1.41 255 255 255
-18.25 0.08 0.84 255 255 255
-20.01 1.09 0.81 255 255 255
-18.54 0.25 1.15 255 255 255
-18.92 0.21 1.15 255 255 255
-18.69 0.33 1.24 255 255 255
-12.11 -3.85 1.38 255 255 255
-11.59 -3.77 1.44 255 255 255
-18.94 0.21 1.26 255 255 255
-11.54 -3.82 2.09 255 255 255
-11.88 -3.80 1.32 255 255 255
-11.27 -3.73 1.38 255 255 255
-11.86 -3.83 1.88 255 255 255
-19.15 0.60 1.34 255 255 255
-11.57 -3.80 1.81 255 255 255
-12.12 -3.84 1.30 255 255 255
-11.86 -3.83 1.71 255 255 255
-11.57 -3.78 1.35 255 255 255
-11.88 -3.80 1.24 255 255 255
-11.27 -3.74 1.71 255 255 255
-11.87 -3.82 1.57 255 255 255
-11.29 -3.72 1.28 255 255 255
-11.58 -3.79 1.64 255 255 255
-12.12 -3.85 1.22 255 255 255
-11.59 -3.78 1.26 255 255 255
-12.11 -3.85 1.53 255 255 255
-11.27 -3.74 1.56 255 255 255
-11.88 -3.81 1.12 255 255 255
-11.59 -3.77 1.17 255 255 255
-11.88 -3.81 1.49 255 255 255
-11.58 -3.79 1.52 255 255 255
-11.89 -3.79 0.89 255 255 255
-19.70 0.61 1.35 255 255 255
-11.59 -3.77 1.02 255 255 255
-12.13 -3.85 1.46 255 255 255
-18.18 0.07 0.37 255 255 255
-11.29 -3.73 1.47 255 255 255
-60.88 24.68 1.38 255 255 255
-11.60 -3.76 0.64 255 255 255
-11.88 -3.81 1.41 255 255 255
-18.25 0.10 0.84 255 255 255
-18.41 0.19 1.01 255 255 255
-18.55 0.27 1.15 255 255 255
-18.92 0.22 1.15 255 255 255
-18.69 0.35 1.24 255 255 255
-12.14 -3.84 1.38 255 255 255
-11.88 -3.84 2.31 255 255 255
-11.62 -3.77 1.43 255 255 255
-18.91 0.22 1.26 255 255 255
-11.89 -3.81 1.32 255 255 255
-11.56 -3.82 2.09 255 255 255
-11.87 -3.83 1.87 255 255 255
-11.29 -3.74 1.38 255 255 255
-19.15 0.62 1.34 255 255 255
-12.13 -3.85 1.30 255 255 255
-11.59 -3.80 1.81 255 255 255
-11.88 -3.83 1.70 255 255 255
-11.60 -3.78 1.35 255 255 255
-11.89 -3.81 1.24 255 255 255
-11.30 -3.74 1.70 255 255 255
-11.89 -3.82 1.57 255 255 255
-11.31 -3.73 1.28 255 255 255
-12.13 -3.85 1.22 255 255 255
-11.59 -3.79 1.63 255 255 255
-12.13 -3.86 1.53 255 255 255
-11.60 -3.79 1.26 255 255 255
-11.90 -3.80 1.12 255 255 255
-11.30 -3.74 1.56 255 255 255
-11.89 -3.82 1.49 255 255 255
-11.61 -3.77 1.17 255 255 255
-11.90 -3.80 0.89 255 255 255
-11.60 -3.79 1.52 255 255 255
-19.71 0.64 1.35 255 255 255
-12.14 -3.85 1.46 255 255 255
-11.61 -3.78 1.02 255 255 255
-18.15 0.07 0.38 255 255 255
-11.31 -3.73 1.47 255 255 255
-60.53 24.67 1.38 255 255 255
-11.90 -3.81 1.40 255 255 255
-11.62 -3.76 0.65 255 255 255
-18.24 0.11 0.84 255 255 255
-18.54 0.28 1.15 255 255 255
-18.86 0.21 1.16 255 255 255
-18.68 0.36 1.24 255 255 255
-12.15 -3.85 1.38 255 255 255
-11.89 -3.84 2.31 255 255 255
-11.64 -3.77 1.43 255 255 255
-18.89 0.23 1.26 255 255 255
-11.59 -3.82 2.08 255 255 255
-11.91 -3.81 1.32 255 255 255
-11.31 -3.74 1.38 255 255 255
-11.89 -3.84 1.87 255 255 255
-19.14 0.63 1.34 255 255 255
-11.60 -3.81 1.81 255 255 255
-12.15 -3.85 1.30 255 255 255
-11.63 -3.78 1.35 255 255 255
-11.89 -3.83 1.70 255 255 255
-11.32 -3.75 1.70 255 255 255
-11.91 -3.81 1.24 255 255 255
-11.90 -3.83 1.57 255 255 255
-11.33 -3.73 1.28 255 255 255
-11.61 -3.80 1.63 255 255 255
-12.15 -3.85 1.22 255 255 255
-11.62 -3.79 1.26 255 255 255
-12.15 -3.86 1.53 255 255 255
-11.33 -3.74 1.56 255 255 255
-11.91 -3.81 1.12 255 255 255
-11.63 -3.78 1.17 255 255 255
-11.91 -3.82 1.49 255 255 255
-11.92 -3.80 0.89 255 255 255
-11.63 -3.79 1.52 255 255 255
-19.67 0.64 1.35 255 255 255
-12.15 -3.85 1.46 255 255 255
-11.63 -3.78 1.02 255 255 255
-18.13 0.07 0.38 255 255 255
-11.34 -3.74 1.47 255 255 255
-11.64 -3.77 0.65 255 255 255
-11.92 -3.82 1.40 255 255 255
-18.23 0.12 0.84 255 255 255
-18.37 0.20 1.01 255 255 255
-18.53 0.29 1.15 255 255 255
-18.84 0.22 1.16 255 255 255
-18.69 0.39 1.24 255 255 255
-12.16 -3.85 1.38 255 255 255
-11.67 -3.77 1.43 255 255 255
-11.92 -3.84 2.31 255 255 255
-18.86 0.23 1.26 255 255 255
-11.93 -3.81 1.32 255 255 255
-11.61 -3.82 2.08 255 255 255
-11.33 -3.75 1.38 255 255 255
-11.90 -3.84 1.87 255 255 255
-19.13 0.65 1.34 255 255 255
-12.16 -3.85 1.30 255 255 255
-11.62 -3.81 1.80 255 255 255
-11.91 -3.84 1.70 255 255 255
-11.64 -3.78 1.35 255 255 255
-11.92 -3.82 1.24 255 255 255
-11.35 -3.74 1.70 255 255 255
-11.92 -3.83 1.57 255 255 255
-11.36 -3.73 1.28 255 255 255
-12.17 -3.85 1.22 255 255 255
-11.63 -3.80 1.63 255 255 255
-12.16 -3.86 1.53 255 255 255
-11.63 -3.79 1.26 255 255 255
-11.93 -3.81 1.12 255 255 255
-11.35 -3.74 1.56 255 255 255
-11.65 -3.79 1.17 255 255 255
-11.93 -3.82 1.48 255 255 255
-11.65 -3.79 1.52 255 255 255
-11.94 -3.81 0.89 255 255 255
-19.66 0.66 1.35 255 255 255
-11.64 -3.78 1.02 255 255 255
-12.18 -3.85 1.45 255 255 255
-18.10 0.07 0.39 255 255 255
-11.36 -3.74 1.47 255 255 255
-59.94 24.76 1.39 255 255 255
-11.65 -3.77 0.65 255 255 255
-11.93 -3.82 1.40 255 255 255
-18.24 0.14 0.84 255 255 255
-18.36 0.21 1.01 255 255 255
-43.87 15.28 2.20 255 255 255
-18.53 0.31 1.15 255 255 255
-18.81 0.22 1.16 255 255 255
-18.69 0.40 1.24 255 255 255
-12.18 -3.85 1.38 255 255 255
-11.69 -3.77 1.43 255 255 255
-11.93 -3.84 2.30 255 255 255
-18.83 0.23 1.26 255 255 255
-11.95 -3.81 1.32 255 255 255
-11.63 -3.82 2.07 255 255 255
-11.36 -3.75 1.38 255 255 255
-11.93 -3.84 1.87 255 255 255
-19.13 0.66 1.34 255 255 255
-11.65 -3.81 1.80 255 255 255
-12.18 -3.86 1.30 255 255 255
-11.67 -3.79 1.35 255 255 255
-11.93 -3.84 1.70 255 255 255
-11.37 -3.75 1.70 255 255 255
-11.94 -3.82 1.24 255 255 255
-11.37 -3.74 1.28 255 255 255
-11.93 -3.83 1.57 255 255 255
-11.66 -3.80 1.63 255 255 255
-12.18 -3.85 1.22 255 255 255
-12.18 -3.86 1.53 255 255 255
-11.65 -3.80 1.26 255 255 255
-11.37 -3.75 1.56 255 255 255
-11.95 -3.81 1.12 255 255 255
-11.66 -3.79 1.17 255 255 255
-11.94 -3.83 1.48 255 255 255
-11.67 -3.79 1.52 255 255 255
-11.96 -3.81 0.90 255 255 255
-19.64 0.67 1.35 255 255 255
-11.67 -3.78 1.02 255 255 255
-12.19 -3.85 1.45 255 255 255
-18.09 0.07 0.39 255 255 255
-11.38 -3.74 1.47 255 255 255
-59.56 24.76 1.39 255 255 255
-11.67 -3.78 0.65 255 255 255
-11.94 -3.83 1.40 255 255 255
-18.24 0.15 0.84 255 255 255
-18.33 0.21 1.01 255 255 255
-18.54 0.33 1.15 255 255 255
-18.81 0.24 1.16 255 255 255
-18.68 0.41 1.24 255 255 255
-12.20 -3.85 1.38 255 255 255
-11.95 -3.85 2.30 255 255 255
-11.71 -3.78 1.43 255 255 255
-18.82 0.24 1.27 255 255 255
-11.96 -3.82 1.32 255 255 255
-11.66 -3.82 2.07 255 255 255
-11.38 -3.75 1.37 255 255 255
-11.94 -3.85 1.87 255 255 255
-19.12 0.68 1.34 255 255 255
-11.67 -3.81 1.80 255 255 255
-12.20 -3.86 1.30 255 255 255
-11.69 -3.79 1.35 255 255 255
-11.94 -3.84 1.70 255 255 255
-11.39 -3.75 1.70 255 255 255
-11.95 -3.83 1.24 255 255 255
-11.40 -3.74 1.28 255 255 255
-11.95 -3.84 1.57 255 255 255
-12.20 -3.86 1.22 255 255 255
-11.69 -3.80 1.63 255 255 255
-11.67 -3.80 1.26 255 255 255
-12.20 -3.86 1.53 255 255 255
-11.39 -3.75 1.56 255 255 255
-11.96 -3.82 1.12 255 255 255
-11.96 -3.83 1.48 255 255 255
-11.68 -3.79 1.18 255 255 255
-11.97 -3.81 0.90 255 255 255
-11.69 -3.80 1.52 255 255 255
-19.63 0.68 1.35 255 255 255
-12.21 -3.86 1.45 255 255 255
-11.70 -3.78 1.03 255 255 255
-18.07 0.08 0.39 255 255 255
-11.41 -3.74 1.46 255 255 255
-59.46 24.93 1.40 255 255 255
-11.97 -3.83 1.40 255 255 255
-11.69 -3.78 0.66 255 255 255
-18.24 0.17 0.83 255 255 255
-48.04 15.92 1.60 255 255 255
-18.32 0.22 1.02 255 255 255
-18.55 0.36 1.15 255 255 255
-18.80 0.25 1.16 255 255 255
-18.67 0.43 1.25 255 255 255
-12.22 -3.85 1.38 255 255 255
-11.73 -3.78 1.43 255 255 255
-11.97 -3.85 2.30 255 255 255
-18.80 0.25 1.27 255 255 255
-11.68 -3.82 2.07 255 255 255
-11.97 -3.83 1.32 255 255 255
-11.40 -3.76 1.37 255 255 255
-11.96 -3.85 1.86 255 255 255
-19.11 0.70 1.34 255 255 255
-11.70 -3.80 1.79 255 255 255
-12.21 -3.86 1.30 255 255 255
-11.70 -3.79 1.35 255 255 255
-11.97 -3.84 1.70 255 255 255
-11.42 -3.75 1.69 255 255 255
-11.97 -3.82 1.24 255 255 255
-11.43 -3.74 1.28 255 255 255
-11.96 -3.84 1.56 255 255 255
-12.21 -3.86 1.22 255 255 255
-11.70 -3.80 1.62 255 255 255
-11.69 -3.80 1.26 255 255 255
-12.21 -3.87 1.53 255 255 255
-11.41 -3.76 1.56 255 255 255
-11.99 -3.82 1.12 255 255 255
-11.71 -3.79 1.18 255 255 255
-11.98 -3.83 1.48 255 255 255
-11.70 -3.80 1.52 255 255 255
-11.99 -3.81 0.90 255 255 255
-19.62 0.70 1.35 255 255 255
-11.72 -3.79 1.03 255 255 255
-12.22 -3.86 1.45 255 255 255
-18.05 0.08 0.40 255 255 255
-11.43 -3.75 1.46 255 255 255
-11.72 -3.78 0.66 255 255 255
-11.98 -3.83 1.40 255 255 255
-18.22 0.18 0.84 255 255 255
-44.03 13.91 1.59 255 255 255
-18.31 0.23 1.02 255 255 255
-17.24 -0.42 1.26 255 255 255
-18.71 0.22 1.17 255 255 255
-18.66 0.44 1.25 255 255 255
-12.23 -3.86 1.38 255 255 255
-11.98 -3.86 2.29 255 255 255
-11.74 -3.78 1.43 255 255 255
-18.79 0.26 1.27 255 255 255
-11.70 -3.83 2.06 255 255 255
-11.99 -3.83 1.32 255 255 255
-11.97 -3.85 1.86 255 255 255
-11.42 -3.76 1.37 255 255 255
-19.11 0.72 1.34 255 255 255
-12.23 -3.86 1.30 255 255 255
-11.71 -3.81 1.79 255 255 255
-11.98 -3.84 1.69 255 255 255
-11.72 -3.80 1.35 255 255 255
-11.44 -3.76 1.69 255 255 255
-11.99 -3.83 1.24 255 255 255
-11.45 -3.74 1.28 255 255 255
-11.98 -3.84 1.56 255 255 255
-11.72 -3.80 1.62 255 255 255
-12.23 -3.86 1.22 255 255 255
-11.71 -3.80 1.26 255 255 255
-12.23 -3.87 1.53 255 255 255
-11.43 -3.76 1.56 255 255 255
-12.01 -3.82 1.12 255 255 255
-11.73 -3.79 1.18 255 255 255
-12.00 -3.83 1.48 255 255 255
-12.01 -3.81 0.90 255 255 255
-11.73 -3.80 1.52 255 255 255
-19.60 0.71 1.35 255 255 255
-12.23 -3.86 1.45 255 255 255
-11.74 -3.79 1.03 255 255 255
-18.00 0.07 0.41 255 255 255
-11.45 -3.75 1.46 255 255 255
-11.73 -3.78 0.66 255 255 255
-12.00 -3.83 1.40 255 255 255
-43.98 14.01 1.59 255 255 255
-18.30 0.24 1.02 255 255 255
-18.54 0.39 1.15 255 255 255
-18.67 0.22 1.17 255 255 255
-18.67 0.47 1.24 255 255 255
-12.25 -3.86 1.38 255 255 255
-11.99 -3.86 2.29 255 255 255
-11.76 -3.79 1.43 255 255 255
-18.77 0.27 1.27 255 255 255
-12.00 -3.83 1.32 255 255 255
-11.72 -3.83 2.06 255 255 255
-12.00 -3.85 1.86 255 255 255
-11.45 -3.76 1.37 255 255 255
-19.11 0.74 1.34 255 255 255
-12.24 -3.86 1.30 255 255 255
-11.73 -3.82 1.79 255 255 255
-12.00 -3.85 1.69 255 255 255
-11.73 -3.81 1.35 255 255 255
-12.01 -3.83 1.24 255 255 255
-11.46 -3.76 1.69 255 255 255
-11.47 -3.74 1.28 255 255 255
-11.99 -3.85 1.56 255 255 255
-12.25 -3.86 1.22 255 255 255
-11.74 -3.81 1.62 255 255 255
-11.74 -3.80 1.26 255 255 255
-12.24 -3.87 1.53 255 255 255
-11.45 -3.76 1.55 255 255 255
-12.02 -3.82 1.12 255 255 255
-12.01 -3.84 1.48 255 255 255
-11.75 -3.79 1.18 255 255 255
-11.74 -3.81 1.52 255 255 255
-12.03 -3.81 0.90 255 255 255
-19.60 0.73 1.35 255 255 255
-11.76 -3.79 1.03 255 255 255
-12.25 -3.87 1.45 255 255 255
-17.97 0.07 0.42 255 255 255
-11.47 -3.76 1.46 255 255 255
-58.56 25.00 1.41 255 255 255
-12.01 -3.84 1.40 255 255 255
-11.75 -3.79 0.66 255 255 255
-18.18 0.18 0.84 255 255 255
-18.30 0.26 1.02 255 255 255
-18.52 0.39 1.15 255 255 255
-38.02 10.86 2.18 255 255 255
-18.64 0.22 1.17 255 255 255
-18.67 0.48 1.24 255 255 255
-12.26 -3.87 1.37 255 255 255
-11.78 -3.79 1.43 255 255 255
-12.01 -3.86 2.29 255 255 255
-18.76 0.28 1.27 255 255 255
-11.73 -3.83 2.06 255 255 255
-12.02 -3.83 1.32 255 255 255
-12.01 -3.85 1.86 255 255 255
-11.47 -3.76 1.37 255 255 255
-19.10 0.76 1.34 255 255 255
-11.75 -3.82 1.79 255 255 255
-12.26 -3.86 1.30 255 255 255
-11.75 -3.81 1.35 255 255 255
-12.02 -3.85 1.69 255 255 255
-11.48 -3.76 1.69 255 255 255
-12.03 -3.83 1.24 255 255 255
-11.50 -3.75 1.28 255 255 255
-12.01 -3.85 1.56 255 255 255
-12.27 -3.86 1.22 255 255 255
-11.77 -3.81 1.62 255 255 255
-11.76 -3.81 1.26 255 255 255
-12.25 -3.88 1.53 255 255 255
-11.48 -3.77 1.55 255 255 255
-12.04 -3.82 1.12 255 255 255
-11.78 -3.79 1.18 255 255 255
-12.03 -3.84 1.48 255 255 255
-11.76 -3.81 1.51 255 255 255
-12.04 -3.82 0.90 255 255 255
-19.59 0.75 1.35 255 255 255
-12.27 -3.87 1.45 255 255 255
-11.78 -3.79 1.03 255 255 255
-17.96 0.08 0.42 255 255 255
-11.49 -3.76 1.46 255 255 255
-58.31 25.07 1.41 255 255 255
-11.77 -3.79 0.67 255 255 255
-12.03 -3.84 1.40 255 255 255
-18.16 0.19 0.85 255 255 255
-37.94 10.93 1.56 255 255 255
-18.52 0.41 1.15 255 255 255
-37.97 10.94 2.18 255 255 255
-18.61 0.22 1.17 255 255 255
-23.43 3.44 2.04 255 255 255
-18.66 0.50 1.25 255 255 255
-12.27 -3.87 1.37 255 255 255
-12.03 -3.86 2.28 255 255 255
-11.79 -3.80 1.43 255 255 255
-18.77 0.31 1.27 255 255 255
-12.04 -3.83 1.32 255 255 255
-11.75 -3.83 2.05 255 255 255
-11.49 -3.77 1.37 255 255 255
-12.03 -3.86 1.86 255 255 255
-19.10 0.77 1.34 255 255 255
-12.28 -3.86 1.30 255 255 255
-11.77 -3.82 1.79 255 255 255
-11.77 -3.81 1.34 255 255 255
-12.04 -3.85 1.69 255 255 255
-11.50 -3.77 1.69 255 255 255
-12.05 -3.83 1.24 255 255 255
-11.51 -3.76 1.28 255 255 255
-12.03 -3.85 1.56 255 255 255
-11.79 -3.81 1.62 255 255 255
-12.28 -3.86 1.22 255 255 255
-12.27 -3.88 1.53 255 255 255
-11.78 -3.80 1.26 255 255 255
-11.50 -3.77 1.55 255 255 255
-12.06 -3.82 1.12 255 255 255
-11.79 -3.80 1.18 255 255 255
-12.04 -3.85 1.48 255 255 255
-11.77 -3.82 1.51 255 255 255
-12.06 -3.82 0.91 255 255 255
-19.62 0.79 1.35 255 255 255
-12.28 -3.87 1.45 255 255 255
-11.80 -3.79 1.03 255 255 255
-17.94 0.07 0.43 255 255 255
-11.51 -3.76 1.46 255 255 255
-33.23 9.60 1.44 255 255 255
-12.05 -3.84 1.40 255 255 255
-11.79 -3.79 0.67 255 255 255
-18.13 0.19 0.85 255 255 255
-18.30 0.29 1.01 255 255 255
-20.22 1.50 1.01 255 255 255
-18.60 0.23 1.17 255 255 255
-23.38 3.45 2.04 255 255 255
-18.65 0.51 1.25 255 255 255
-12.29 -3.87 1.37 255 255 255
-11.81 -3.80 1.43 255 255 255
-12.05 -3.87 2.28 255 255 255
-18.76 0.32 1.27 255 255 255
-12.06 -3.84 1.32 255 255 255
-11.77 -3.84 2.05 255 255 255
-12.05 -3.86 1.85 255 255 255
-11.51 -3.77 1.37 255 255 255
-19.09 0.79 1.34 255 255 255
-12.29 -3.87 1.30 255 255 255
-11.79 -3.83 1.78 255 255 255
-11.79 -3.81 1.34 255 255 255
-12.06 -3.85 1.69 255 255 255
-12.07 -3.83 1.24 255 255 255
-11.52 -3.77 1.68 255 255 255
-11.53 -3.76 1.28 255 255 255
-12.05 -3.85 1.56 255 255 255
-11.80 -3.82 1.62 255 255 255
-12.29 -3.87 1.22 255 255 255
-11.80 -3.81 1.26 255 255 255
-12.29 -3.88 1.52 255 255 255
-11.53 -3.77 1.55 255 255 255
-12.08 -3.82 1.12 255 255 255
-11.81 -3.80 1.18 255 255 255
-12.06 -3.84 1.48 255 255 255
-11.79 -3.82 1.51 255 255 255
-12.08 -3.82 0.91 255 255 255
-19.66 0.83 1.35 255 255 255
-11.81 -3.80 1.03 255 255 255
-12.30 -3.87 1.45 255 255 255
-17.92 0.08 0.43 255 255 255
-11.53 -3.76 1.46 255 255 255
-12.07 -3.84 1.40 255 255 255
-11.81 -3.79 0.67 255 255 255
-18.13 0.20 0.85 255 255 255
-18.29 0.30 1.02 255 255 255
-33.07 9.60 1.94 255 255 255
-18.55 0.47 1.15 255 255 255
-18.58 0.24 1.18 255 255 255
-18.65 0.53 1.24 255 255 255
-12.30 -3.87 1.37 255 255 255
-12.06 -3.87 2.27 255 255 255
-11.83 -3.80 1.43 255 255 255
-18.75 0.34 1.27 255 255 255
-12.08 -3.83 1.32 255 255 255
-11.79 -3.84 2.05 255 255 255
-11.53 -3.77 1.37 255 255 255
-12.07 -3.86 1.85 255 255 255
-19.10 0.81 1.34 255 255 255
-12.31 -3.87 1.30 255 255 255
-11.81 -3.82 1.78 255 255 255
-12.07 -3.85 1.69 255 255 255
-11.81 -3.82 1.34 255 255 255
-12.09 -3.83 1.24 255 255 255
-11.54 -3.77 1.68 255 255 255
-11.55 -3.76 1.28 255 255 255
-12.07 -3.85 1.56 255 255 255
-11.81 -3.82 1.62 255 255 255
-12.31 -3.87 1.22 255 255 255
-11.82 -3.81 1.26 255 255 255
-12.30 -3.88 1.52 255 255 255
-11.54 -3.77 1.55 255 255 255
-12.10 -3.82 1.13 255 255 255
-11.83 -3.80 1.18 255 255 255
-12.08 -3.85 1.48 255 255 255
-12.10 -3.82 0.91 255 255 255
-11.81 -3.82 1.51 255 255 255
-19.64 0.84 1.35 255 255 255
-12.31 -3.88 1.45 255 255 255
-11.83 -3.80 1.03 255 255 255
-17.90 0.08 0.43 255 255 255
-11.55 -3.77 1.46 255 255 255
-33.05 9.66 1.44 255 255 255
-11.83 -3.80 0.67 255 255 255
-12.09 -3.84 1.40 255 255 255
-18.11 0.21 0.85 255 255 255
-18.29 0.32 1.01 255 255 255
-33.03 9.66 1.94 255 255 255
-18.50 0.45 1.15 255 255 255
-18.57 0.25 1.18 255 255 255
-12.31 -3.88 1.37 255 255 255
-11.84 -3.81 1.43 255 255 255
-12.08 -3.87 2.27 255 255 255
-18.74 0.35 1.27 255 255 255
-12.11 -3.83 1.32 255 255 255
-11.81 -3.84 2.04 255 255 255
-11.55 -3.78 1.37 255 255 255
-12.08 -3.86 1.85 255 255 255
-11.82 -3.83 1.78 255 255 255
-12.32 -3.87 1.30 255 255 255
-11.83 -3.81 1.34 255 255 255
-12.08 -3.86 1.68 255 255 255
-12.10 -3.84 1.24 255 255 255
-11.55 -3.78 1.68 255 255 255
-12.09 -3.85 1.56 255 255 255
-11.57 -3.76 1.28 255 255 255
-11.84 -3.82 1.61 255 255 255
-12.33 -3.87 1.22 255 255 255
-11.83 -3.82 1.26 255 255 255
-12.32 -3.88 1.52 255 255 255
-11.57 -3.77 1.55 255 255 255
-12.11 -3.83 1.13 255 255 255
-12.10 -3.85 1.48 255 255 255
-11.85 -3.80 1.18 255 255 255
-11.84 -3.82 1.51 255 255 255
-12.12 -3.82 0.91 255 255 255
-19.63 0.86 1.35 255 255 255
-11.84 -3.81 1.03 255 255 255
-12.32 -3.88 1.45 255 255 255
-11.57 -3.77 1.46 255 255 255
-11.85 -3.79 0.68 255 255 255
-12.11 -3.84 1.40 255 255 255
-18.56 0.26 1.18 255 255 255
-12.33 -3.88 1.37 255 255 255
-11.87 -3.81 1.43 255 255 255
-12.10 -3.87 2.27 255 255 255
-18.74 0.36 1.27 255 255 255
-11.83 -3.85 2.04 255 255 255
-12.12 -3.84 1.32 255 255 255
-11.58 -3.78 1.37 255 255 255
-12.10 -3.86 1.84 255 255 255
-11.84 -3.84 1.78 255 255 255
-12.34 -3.87 1.30 255 255 255
-12.10 -3.86 1.68 255 255 255
-11.85 -3.82 1.34 255 255 255
-12.12 -3.84 1.24 255 255 255
-11.57 -3.79 1.68 255 255 255
-11.59 -3.77 1.28 255 255 255
-12.11 -3.86 1.56 255 255 255
-11.86 -3.82 1.61 255 255 255
-12.34 -3.88 1.22 255 255 255
-12.34 -3.88 1.52 255 255 255
-11.86 -3.82 1.26 255 255 255
-11.59 -3.78 1.55 255 255 255
-12.13 -3.83 1.13 255 255 255
-11.86 -3.81 1.18 255 255 255
-12.11 -3.85 1.48 255 255 255
-11.85 -3.82 1.51 255 255 255
-12.13 -3.83 0.91 255 255 255
-19.62 0.88 1.35 255 255 255
-11.86 -3.81 1.03 255 255 255
-12.34 -3.88 1.45 255 255 255
-11.60 -3.77 1.46 255 255 255
-11.87 -3.80 0.68 255 255 255
-12.12 -3.85 1.40 255 255 255
-60.85 24.68 1.69 255 255 255
-18.54 0.27 1.18 255 255 255
-12.35 -3.88 1.37 255 255 255
-11.89 -3.81 1.42 255 255 255
-12.12 -3.88 2.26 255 255 255
-18.74 0.38 1.27 255 255 255
-11.85 -3.85 2.04 255 255 255
-12.14 -3.84 1.32 255 255 255
-11.59 -3.79 1.37 255 255 255
-12.11 -3.87 1.84 255 255 255
-12.35 -3.87 1.30 255 255 255
-11.86 -3.83 1.78 255 255 255
-11.88 -3.82 1.34 255 255 255
-12.12 -3.86 1.68 255 255 255
-11.60 -3.78 1.68 255 255 255
-12.14 -3.84 1.24 255 255 255
-12.12 -3.86 1.55 255 255 255
-11.61 -3.77 1.28 255 255 255
-11.87 -3.83 1.61 255 255 255
-12.35 -3.88 1.22 255 255 255
-11.87 -3.82 1.26 255 255 255
-12.36 -3.88 1.52 255 255 255
-12.14 -3.83 1.13 255 255 255
-11.60 -3.78 1.54 255 255 255
-12.13 -3.85 1.48 255 255 255
-11.88 -3.82 1.18 255 255 255
-11.88 -3.82 1.51 255 255 255
-12.14 -3.83 0.91 255 255 255
-19.60 0.89 1.35 255 255 255
-11.89 -3.81 1.04 255 255 255
-12.35 -3.88 1.45 255 255 255
-11.62 -3.77 1.46 255 255 255
-11.89 -3.80 0.68 255 255 255
-12.14 -3.84 1.40 255 255 255
-60.50 24.67 1.69 255 255 255
-18.55 0.29 1.18 255 255 255
-12.37 -3.88 1.37 255 255 255
-11.91 -3.81 1.42 255 255 255
-12.14 -3.87 2.26 255 255 255
-18.73 0.40 1.27 255 255 255
-11.87 -3.85 2.03 255 255 255
-12.15 -3.84 1.32 255 255 255
-11.61 -3.79 1.37 255 255 255
-12.13 -3.87 1.84 255 255 255
-11.88 -3.84 1.77 255 255 255
-12.37 -3.87 1.30 255 255 255
-11.90 -3.82 1.34 255 255 255
-12.13 -3.86 1.68 255 255 255
-11.62 -3.79 1.67 255 255 255
-12.16 -3.84 1.24 255 255 255
-11.63 -3.78 1.28 255 255 255
-12.14 -3.86 1.55 255 255 255
-11.89 -3.83 1.61 255 255 255
-12.36 -3.88 1.22 255 255 255
-11.88 -3.83 1.26 255 255 255
-12.36 -3.89 1.52 255 255 255
-11.63 -3.78 1.54 255 255 255
-12.16 -3.84 1.13 255 255 255
-11.89 -3.82 1.18 255 255 255
-12.15 -3.85 1.47 255 255 255
-11.89 -3.83 1.51 255 255 255
-12.16 -3.83 0.91 255 255 255
-19.59 0.91 1.35 255 255 255
-11.90 -3.82 1.04 255 255 255
-12.37 -3.89 1.45 255 255 255
-11.64 -3.78 1.46 255 255 255
-11.91 -3.80 0.68 255 255 255
-12.16 -3.85 1.40 255 255 255
-60.23 24.75 1.69 255 255 255
-38.37 11.93 2.22 255 255 255
-18.56 0.31 1.18 255 255 255
-12.38 -3.88 1.37 255 255 255
-11.93 -3.81 1.42 255 255 255
-12.15 -3.88 2.25 255 255 255
-18.73 0.41 1.27 255 255 255
-12.17 -3.84 1.32 255 255 255
-11.90 -3.85 2.03 255 255 255
-12.14 -3.88 1.84 255 255 255
-11.62 -3.79 1.37 255 255 255
-12.38 -3.88 1.30 255 255 255
-11.90 -3.83 1.77 255 255 255
-12.15 -3.87 1.68 255 255 255
-11.92 -3.82 1.34 255 255 255
-12.18 -3.84 1.24 255 255 255
-11.65 -3.79 1.67 255 255 255
-12.16 -3.86 1.55 255 255 255
-11.65 -3.78 1.28 255 255 255
-11.91 -3.83 1.61 255 255 255
-12.37 -3.89 1.22 255 255 255
-12.38 -3.89 1.52 255 255 255
-11.90 -3.83 1.26 255 255 255
-11.64 -3.79 1.54 255 255 255
-12.17 -3.84 1.13 255 255 255
-11.90 -3.83 1.18 255 255 255
-12.17 -3.85 1.47 255 255 255
-11.92 -3.83 1.51 255 255 255
-12.17 -3.83 0.91 255 255 255
-19.58 0.92 1.35 255 255 255
-11.92 -3.82 1.04 255 255 255
-12.39 -3.88 1.45 255 255 255
-11.66 -3.78 1.45 255 255 255
-11.92 -3.81 0.68 255 255 255
-12.17 -3.85 1.40 255 255 255
-59.98 24.78 1.69 255 255 255
-18.59 0.35 1.17 255 255 255
-12.40 -3.88 1.37 255 255 255
-11.95 -3.81 1.42 255 255 255
-12.17 -3.87 2.25 255 255 255
-18.72 0.43 1.27 255 255 255
-12.18 -3.84 1.32 255 255 255
-11.91 -3.85 2.03 255 255 255
-12.16 -3.88 1.84 255 255 255
-11.65 -3.79 1.37 255 255 255
-11.92 -3.84 1.77 255 255 255
-12.39 -3.88 1.30 255 255 255
-11.93 -3.82 1.34 255 255 255
-12.16 -3.87 1.68 255 255 255
-12.18 -3.84 1.24 255 255 255
-11.67 -3.79 1.67 255 255 255
-12.17 -3.86 1.55 255 255 255
-11.67 -3.78 1.28 255 255 255
-12.39 -3.89 1.22 255 255 255
-11.93 -3.83 1.61 255 255 255
-11.91 -3.84 1.26 255 255 255
-12.39 -3.89 1.52 255 255 255
-12.19 -3.84 1.13 255 255 255
-11.66 -3.79 1.54 255 255 255
-11.92 -3.83 1.18 255 255 255
-12.18 -3.86 1.47 255 255 255
-11.94 -3.82 1.50 255 255 255
-12.19 -3.84 0.92 255 255 255
-19.56 0.93 1.36 255 255 255
-11.94 -3.82 1.04 255 255 255
-12.40 -3.88 1.44 255 255 255
-11.68 -3.78 1.45 255 255 255
-11.95 -3.80 0.69 255 255 255
-12.19 -3.85 1.40 255 255 255
-59.67 24.83 1.70 255 255 255
-18.61 0.38 1.17 255 255 255
-12.41 -3.88 1.37 255 255 255
-11.96 -3.82 1.42 255 255 255
-12.19 -3.88 2.25 255 255 255
-18.72 0.44 1.27 255 255 255
-11.93 -3.85 2.02 255 255 255
-12.20 -3.85 1.32 255 255 255
-11.68 -3.79 1.37 255 255 255
-12.18 -3.88 1.84 255 255 255
-11.94 -3.84 1.77 255 255 255
-12.41 -3.89 1.30 255 255 255
-11.94 -3.83 1.34 255 255 255
-12.18 -3.87 1.68 255 255 255
-12.20 -3.85 1.24 255 255 255
-11.68 -3.79 1.67 255 255 255
-11.70 -3.78 1.28 255 255 255
-12.18 -3.87 1.55 255 255 255
-11.95 -3.84 1.61 255 255 255
-12.40 -3.89 1.22 255 255 255
-11.93 -3.84 1.26 255 255 255
-12.41 -3.89 1.52 255 255 255
-11.68 -3.80 1.54 255 255 255
-12.20 -3.85 1.13 255 255 255
-12.20 -3.86 1.47 255 255 255
-11.94 -3.83 1.18 255 255 255
-11.95 -3.83 1.50 255 255 255
-12.20 -3.84 0.92 255 255 255
-19.55 0.95 1.36 255 255 255
-11.96 -3.82 1.04 255 255 255
-12.42 -3.89 1.44 255 255 255
-11.70 -3.79 1.45 255 255 255
-11.95 -3.81 0.69 255 255 255
-12.20 -3.86 1.40 255 255 255
-59.43 24.90 1.70 255 255 255
-18.63 0.41 1.17 255 255 255
-12.42 -3.89 1.37 255 255 255
-11.98 -3.82 1.42 255 255 255
-12.20 -3.88 2.24 255 255 255
-18.72 0.46 1.27 255 255 255
-11.94 -3.86 2.02 255 255 255
-12.21 -3.85 1.32 255 255 255
-11.69 -3.80 1.37 255 255 255
-12.19 -3.88 1.83 255 255 255
-12.42 -3.89 1.30 255 255 255
-11.96 -3.84 1.76 255 255 255
-12.19 -3.88 1.68 255 255 255
-11.95 -3.84 1.34 255 255 255
-12.21 -3.85 1.24 255 255 255
-11.71 -3.80 1.67 255 255 255
-11.72 -3.78 1.28 255 255 255
-12.20 -3.87 1.55 255 255 255
-11.97 -3.84 1.61 255 255 255
-12.42 -3.89 1.22 255 255 255
-11.95 -3.84 1.26 255 255 255
-12.42 -3.89 1.52 255 255 255
-11.70 -3.80 1.54 255 255 255
-12.22 -3.85 1.13 255 255 255
-11.96 -3.83 1.18 255 255 255
-12.22 -3.86 1.47 255 255 255
-11.96 -3.84 1.50 255 255 255
-12.21 -3.85 0.92 255 255 255
-19.57 0.99 1.36 255 255 255
-12.43 -3.89 1.44 255 255 255
-11.98 -3.82 1.04 255 255 255
-11.72 -3.79 1.45 255 255 255
-12.21 -3.86 1.39 255 255 255
-11.97 -3.81 0.69 255 255 255
-59.12 24.95 1.70 255 255 255
-37.82 12.04 2.21 255 255 255
-18.60 0.41 1.17 255 255 255
-12.44 -3.88 1.37 255 255 255
-12.21 -3.88 2.24 255 255 255
-12.00 -3.82 1.42 255 255 255
-18.71 0.48 1.27 255 255 255
-11.96 -3.86 2.02 255 255 255
-12.22 -3.86 1.32 255 255 255
-12.20 -3.89 1.83 255 255 255
-11.71 -3.80 1.37 255 255 255
-12.44 -3.89 1.30 255 255 255
-11.97 -3.85 1.76 255 255 255
-11.97 -3.84 1.34 255 255 255
-12.22 -3.87 1.67 255 255 255
-11.73 -3.80 1.67 255 255 255
-12.23 -3.85 1.24 255 255 255
-11.73 -3.79 1.28 255 255 255
-12.21 -3.87 1.55 255 255 255
-12.43 -3.89 1.22 255 255 255
-11.98 -3.84 1.60 255 255 255
-12.44 -3.90 1.52 255 255 255
-11.97 -3.84 1.26 255 255 255
-11.72 -3.80 1.54 255 255 255
-12.23 -3.85 1.13 255 255 255
-12.23 -3.86 1.47 255 255 255
-11.98 -3.83 1.18 255 255 255
-11.97 -3.84 1.50 255 255 255
-12.23 -3.85 0.92 255 255 255
-19.66 1.06 1.35 255 255 255
-11.99 -3.82 1.04 255 255 255
-12.44 -3.89 1.44 255 255 255
-11.74 -3.79 1.45 255 255 255
-12.00 -3.81 0.70 255 255 255
-12.23 -3.86 1.39 255 255 255
-58.80 24.93 1.70 255 255 255
-37.78 12.13 2.21 255 255 255
-18.59 0.42 1.17 255 255 255
-12.45 -3.89 1.37 255 255 255
-12.23 -3.89 2.24 255 255 255
-12.02 -3.82 1.42 255 255 255
-18.71 0.50 1.27 255 255 255
-11.98 -3.86 2.02 255 255 255
-12.25 -3.86 1.32 255 255 255
-11.73 -3.80 1.37 255 255 255
-12.22 -3.88 1.83 255 255 255
-11.99 -3.85 1.76 255 255 255
-12.45 -3.89 1.30 255 255 255
-12.23 -3.88 1.67 255 255 255
-11.99 -3.84 1.34 255 255 255
-12.24 -3.86 1.24 255 255 255
-11.75 -3.80 1.66 255 255 255
-12.23 -3.88 1.55 255 255 255
-11.75 -3.79 1.28 255 255 255
-12.45 -3.89 1.22 255 255 255
-12.00 -3.84 1.60 255 255 255
-11.99 -3.84 1.26 255 255 255
-12.45 -3.90 1.51 255 255 255
-11.73 -3.81 1.54 255 255 255
-12.25 -3.85 1.13 255 255 255
-12.00 -3.83 1.18 255 255 255
-12.25 -3.86 1.47 255 255 255
-11.99 -3.85 1.50 255 255 255
-12.25 -3.85 0.92 255 255 255
-19.72 1.12 1.35 255 255 255
-12.01 -3.82 1.04 255 255 255
-12.46 -3.89 1.44 255 255 255
-11.76 -3.79 1.45 255 255 255
-12.01 -3.82 0.70 255 255 255
-12.25 -3.86 1.39 255 255 255
-58.59 25.03 1.71 255 255 255
-18.61 0.45 1.17 255 255 255
-12.47 -3.89 1.37 255 255 255
-12.24 -3.89 2.24 255 255 255
-12.02 -3.83 1.42 255 255 255
-18.71 0.51 1.27 255 255 255
-11.99 -3.87 2.02 255 255 255
-12.27 -3.85 1.32 255 255 255
-11.76 -3.80 1.37 255 255 255
-12.24 -3.89 1.83 255 255 255
-12.46 -3.90 1.30 255 255 255
-12.00 -3.85 1.76 255 255 255
-12.25 -3.88 1.67 255 255 255
-12.01 -3.84 1.34 255 255 255
-12.26 -3.86 1.24 255 255 255
-11.76 -3.81 1.66 255 255 255
-11.78 -3.79 1.28 255 255 255
-12.25 -3.87 1.55 255 255 255
-12.01 -3.85 1.60 255 255 255
-12.46 -3.89 1.22 255 255 255
-12.00 -3.85 1.26 255 255 255
-12.46 -3.90 1.51 255 255 255
-11.76 -3.80 1.54 255 255 255
-12.26 -3.86 1.13 255 255 255
-12.02 -3.84 1.18 255 255 255
-12.26 -3.87 1.47 255 255 255
-12.01 -3.85 1.50 255 255 255
-12.27 -3.85 0.92 255 255 255
-19.68 1.12 1.35 255 255 255
-12.03 -3.82 1.04 255 255 255
-12.47 -3.90 1.44 255 255 255
-11.77 -3.80 1.45 255 255 255
-12.02 -3.82 0.70 255 255 255
-12.27 -3.86 1.39 255 255 255
-58.21 24.99 1.71 255 255 255
-33.20 9.51 2.07 255 255 255
-18.58 0.45 1.17 255 255 255
-12.48 -3.89 1.37 255 255 255
-12.26 -3.89 2.23 255 255 255
-12.04 -3.84 1.42 255 255 255
-18.70 0.53 1.27 255 255 255
-12.27 -3.86 1.32 255 255 255
-12.01 -3.87 2.01 255 255 255
-12.26 -3.89 1.82 255 255 255
-11.78 -3.80 1.37 255 255 255
-12.47 -3.90 1.30 255 255 255
-12.02 -3.86 1.76 255 255 255
-12.26 -3.88 1.67 255 255 255
-12.01 -3.85 1.34 255 255 255
-11.78 -3.81 1.66 255 255 255
-12.28 -3.86 1.24 255 255 255
-11.79 -3.79 1.28 255 255 255
-12.26 -3.88 1.54 255 255 255
-12.48 -3.89 1.23 255 255 255
-12.03 -3.85 1.60 255 255 255
-12.02 -3.85 1.26 255 255 255
-12.47 -3.91 1.51 255 255 255
-11.78 -3.81 1.53 255 255 255
-12.27 -3.86 1.13 255 255 255
-12.04 -3.83 1.18 255 255 255
-12.27 -3.87 1.47 255 255 255
-12.02 -3.85 1.50 255 255 255
-12.27 -3.86 0.92 255 255 255
-19.66 1.13 1.35 255 255 255
-12.05 -3.83 1.04 255 255 255
-12.49 -3.89 1.44 255 255 255
-11.79 -3.80 1.45 255 255 255
-12.27 -3.87 1.39 255 255 255
-12.05 -3.82 0.70 255 255 255
-33.12 9.55 2.07 255 255 255
-18.58 0.47 1.17 255 255 255
-12.50 -3.89 1.37 255 255 255
-12.06 -3.84 1.42 255 255 255
-12.27 -3.90 2.23 255 255 255
-18.70 0.54 1.27 255 255 255
-12.29 -3.87 1.32 255 255 255
-12.02 -3.88 2.01 255 255 255
-12.28 -3.89 1.82 255 255 255
-11.80 -3.80 1.37 255 255 255
-12.04 -3.86 1.76 255 255 255
-12.49 -3.90 1.30 255 255 255
-12.28 -3.88 1.67 255 255 255
-12.04 -3.85 1.34 255 255 255
-11.80 -3.81 1.66 255 255 255
-12.29 -3.86 1.24 255 255 255
-12.28 -3.88 1.54 255 255 255
-11.81 -3.79 1.28 255 255 255
-12.50 -3.90 1.23 255 255 255
-12.05 -3.85 1.60 255 255 255
-12.49 -3.91 1.51 255 255 255
-12.05 -3.85 1.26 255 255 255
-12.29 -3.86 1.13 255 255 255
-11.80 -3.81 1.53 255 255 255
-12.28 -3.87 1.47 255 255 255
-12.06 -3.84 1.18 255 255 255
-12.29 -3.86 0.92 255 255 255
-12.03 -3.86 1.50 255 255 255
-33.17 9.65 1.06 255 255 255
-12.06 -3.83 1.04 255 255 255
-12.50 -3.90 1.44 255 255 255
-11.38 -4.55 0.15 255 255 255
-11.82 -3.80 1.45 255 255 255
-12.29 -3.87 1.39 255 255 255
-12.06 -3.83 0.70 255 255 255
-33.09 9.60 1.57 255 255 255
-33.06 9.59 2.07 255 255 255
-18.56 0.48 1.17 255 255 255
-12.51 -3.90 1.37 255 255 255
-12.28 -3.90 2.23 255 255 255
-12.07 -3.84 1.42 255 255 255
-18.71 0.57 1.27 255 255 255
-12.30 -3.87 1.32 255 255 255
-12.03 -3.88 2.01 255 255 255
-11.81 -3.81 1.36 255 255 255
-12.29 -3.89 1.82 255 255 255
-12.05 -3.86 1.75 255 255 255
-12.50 -3.90 1.30 255 255 255
-12.30 -3.88 1.66 255 255 255
-12.06 -3.85 1.34 255 255 255
-11.82 -3.81 1.66 255 255 255
-12.30 -3.87 1.24 255 255 255
-12.29 -3.89 1.54 255 255 255
-11.82 -3.80 1.28 255 255 255
-12.51 -3.90 1.23 255 255 255
-12.06 -3.86 1.60 255 255 255
-12.06 -3.85 1.26 255 255 255
-12.50 -3.91 1.51 255 255 255
-12.32 -3.85 1.13 255 255 255
-11.83 -3.81 1.53 255 255 255
-12.30 -3.88 1.47 255 255 255
-12.08 -3.84 1.18 255 255 255
-12.05 -3.86 1.50 255 255 255
-12.31 -3.86 0.92 255 255 255
-33.07 9.67 1.07 255 255 255
-12.08 -3.83 1.05 255 255 255
-12.51 -3.90 1.44 255 255 255
-11.84 -3.80 1.45 255 255 255
-12.08 -3.83 0.71 255 255 255
-12.32 -3.87 1.39 255 255 255
-33.03 9.65 1.57 255 255 255
-33.02 9.65 2.07 255 255 255
-18.56 0.49 1.17 255 255 255
-12.52 -3.90 1.37 255 255 255
-12.10 -3.84 1.42 255 255 255
-12.30 -3.90 2.22 255 255 255
-18.71 0.59 1.27 255 255 255
-12.05 -3.88 2.00 255 255 255
-12.32 -3.87 1.32 255 255 255
-11.83 -3.81 1.36 255 255 255
-12.31 -3.89 1.82 255 255 255
-12.06 -3.87 1.75 255 255 255
-12.52 -3.90 1.30 255 255 255
-12.08 -3.85 1.34 255 255 255
-12.31 -3.88 1.66 255 255 255
-11.84 -3.81 1.66 255 255 255
-12.32 -3.86 1.24 255 255 255
-12.31 -3.89 1.54 255 255 255
-11.84 -3.80 1.28 255 255 255
-12.07 -3.86 1.60 255 255 255
-12.52 -3.90 1.23 255 255 255
-12.08 -3.85 1.26 255 255 255
-12.52 -3.91 1.51 255 255 255
-11.85 -3.81 1.53 255 255 255
-12.33 -3.86 1.13 255 255 255
-12.32 -3.88 1.47 255 255 255
-12.10 -3.84 1.18 255 255 255
-12.07 -3.86 1.50 255 255 255
-12.32 -3.86 0.92 255 255 255
-12.09 -3.84 1.05 255 255 255
-12.52 -3.91 1.44 255 255 255
-11.86 -3.80 1.45 255 255 255
-11.39 -4.58 0.14 255 255 255
-12.11 -3.82 0.71 255 255 255
-12.32 -3.87 1.39 255 255 255
-12.54 -3.90 1.37 255 255 255
-12.11 -3.84 1.42 255 255 255
-12.31 -3.91 2.22 255 255 255
-12.08 -3.88 2.00 255 255 255
-12.33 -3.87 1.32 255 255 255
-11.85 -3.82 1.36 255 255 255
-12.32 -3.89 1.82 255 255 255
-12.54 -3.90 1.30 255 255 255
-12.08 -3.87 1.75 255 255 255
-12.10 -3.85 1.34 255 255 255
-12.33 -3.89 1.66 255 255 255
-11.86 -3.82 1.65 255 255 255
-12.34 -3.86 1.24 255 255 255
-11.86 -3.81 1.28 255 255 255
-12.32 -3.89 1.54 255 255 255
-12.09 -3.86 1.60 255 255 255
-12.54 -3.89 1.23 255 255 255
-12.53 -3.91 1.51 255 255 255
-12.10 -3.85 1.26 255 255 255
-11.86 -3.81 1.53 255 255 255
-12.35 -3.86 1.13 255 255 255
-12.11 -3.84 1.18 255 255 255
-12.34 -3.88 1.47 255 255 255
-12.09 -3.86 1.50 255 255 255
-12.34 -3.86 0.93 255 255 255
-12.11 -3.84 1.05 255 255 255
-12.54 -3.91 1.44 255 255 255
-11.87 -3.81 1.45 255 255 255
-11.41 -4.58 0.15 255 255 255
-12.12 -3.83 0.71 255 255 255
-12.34 -3.88 1.39 255 255 255
-12.55 -3.90 1.37 255 255 255
-12.33 -3.91 2.22 255 255 255
-12.13 -3.84 1.42 255 255 255
-12.35 -3.87 1.32 255 255 255
-12.09 -3.88 2.00 255 255 255
-11.87 -3.82 1.36 255 255 255
-12.33 -3.90 1.82 255 255 255
-12.10 -3.87 1.75 255 255 255
-12.55 -3.90 1.30 255 255 255
-12.11 -3.85 1.34 255 255 255
-12.34 -3.89 1.66 255 255 255
-11.87 -3.82 1.65 255 255 255
-12.36 -3.87 1.24 255 255 255
-11.88 -3.81 1.28 255 255 255
-12.34 -3.89 1.54 255 255 255
-12.11 -3.86 1.59 255 255 255
-12.56 -3.90 1.23 255 255 255
-12.11 -3.86 1.26 255 255 255
-12.54 -3.92 1.51 255 255 255
-12.36 -3.87 1.13 255 255 255
-11.87 -3.82 1.53 255 255 255
-12.12 -3.85 1.18 255 255 255
-12.35 -3.88 1.47 255 255 255
-12.11 -3.86 1.50 255 255 255
-12.35 -3.86 0.93 255 255 255
-12.13 -3.84 1.05 255 255 255
-12.55 -3.91 1.44 255 255 255
-11.42 -4.60 0.15 255 255 255
-11.90 -3.81 1.45 255 255 255
-12.14 -3.83 0.71 255 255 255
-12.35 -3.88 1.39 255 255 255
-12.56 -3.91 1.37 255 255 255
-12.14 -3.84 1.42 255 255 255
-12.34 -3.91 2.21 255 255 255
-12.11 -3.88 1.99 255 255 255
-12.37 -3.87 1.32 255 255 255
-12.35 -3.89 1.81 255 255 255
-11.88 -3.82 1.36 255 255 255
-12.12 -3.87 1.75 255 255 255
-12.57 -3.90 1.30 255 255 255
-12.13 -3.85 1.34 255 255 255
-12.35 -3.89 1.66 255 255 255
-11.90 -3.82 1.65 255 255 255
-12.37 -3.87 1.24 255 255 255
-12.35 -3.89 1.54 255 255 255
-11.90 -3.81 1.28 255 255 255
-12.13 -3.86 1.59 255 255 255
-12.57 -3.90 1.23 255 255 255
-12.13 -3.86 1.26 255 255 255
-12.56 -3.91 1.51 255 255 255
-11.89 -3.83 1.53 255 255 255
-12.37 -3.87 1.13 255 255 255
-12.13 -3.85 1.18 255 255 255
-12.36 -3.89 1.46 255 255 255
-12.37 -3.86 0.93 255 255 255
-12.13 -3.86 1.49 255 255 255
-12.14 -3.84 1.05 255 255 255
-12.56 -3.91 1.44 255 255 255
-11.91 -3.81 1.44 255 255 255
-11.45 -4.59 0.16 255 255 255
-12.15 -3.83 0.72 255 255 255
-12.37 -3.88 1.39 255 255 255
-12.57 -3.91 1.37 255 255 255
-12.17 -3.84 1.42 255 255 255
-12.36 -3.91 2.21 255 255 255
-12.13 -3.88 1.99 255 255 255
-12.38 -3.87 1.32 255 255 255
-11.90 -3.83 1.36 255 255 255
-12.36 -3.90 1.81 255 255 255
-12.14 -3.87 1.74 255 255 255
-12.58 -3.90 1.30 255 255 255
-12.37 -3.89 1.66 255 255 255
-12.16 -3.85 1.34 255 255 255
-11.91 -3.82 1.65 255 255 255
-12.38 -3.87 1.24 255 255 255
-11.91 -3.82 1.28 255 255 255
-12.37 -3.89 1.54 255 255 255
-12.15 -3.87 1.59 255 255 255
-12.58 -3.90 1.23 255 255 255
-12.14 -3.86 1.26 255 255 255
-12.58 -3.92 1.51 255 255 255
-11.91 -3.82 1.53 255 255 255
-12.39 -3.87 1.13 255 255 255
-12.15 -3.86 1.18 255 255 255
-12.38 -3.88 1.46 255 255 255
-12.14 -3.87 1.49 255 255 255
-12.38 -3.87 0.93 255 255 255
-12.58 -3.91 1.44 255 255 255
-12.15 -3.85 1.05 255 255 255
-11.93 -3.82 1.44 255 255 255
-11.48 -4.59 0.16 255 255 255
-12.18 -3.83 0.72 255 255 255
-12.39 -3.88 1.39 255 255 255
-12.59 -3.91 1.37 255 255 255
-12.38 -3.91 2.20 255 255 255
-12.19 -3.84 1.42 255 255 255
-12.14 -3.89 1.99 255 255 255
-12.39 -3.88 1.32 255 255 255
-11.92 -3.83 1.36 255 255 255
-12.38 -3.90 1.81 255 255 255
-12.15 -3.87 1.74 255 255 255
-12.59 -3.90 1.30 255 255 255
-12.17 -3.85 1.34 255 255 255
-12.38 -3.89 1.66 255 255 255
-12.41 -3.87 1.24 255 255 255
-11.94 -3.82 1.65 255 255 255
-11.94 -3.82 1.28 255 255 255
-12.39 -3.89 1.54 255 255 255
-12.16 -3.87 1.59 255 255 255
-12.59 -3.90 1.23 255 255 255
-12.15 -3.87 1.26 255 255 255
-12.58 -3.92 1.51 255 255 255
-12.40 -3.87 1.13 255 255 255
-11.92 -3.83 1.53 255 255 255
-12.17 -3.85 1.18 255 255 255
-12.39 -3.89 1.46 255 255 255
