ply
format ascii 1.0
element vertex 1615
property float x
property float y
property float z
property uchar red
property uchar green
property uchar blue
end_header
-18.44 0.97 1.09 255 255 255
-18.62 1.39 1.18 255 255 255
-10.16 -3.59 1.40 255 255 255
-9.59 -3.51 1.46 255 255 255
-18.62 1.05 1.22 255 255 255
-9.90 -3.55 1.34 255 255 255
-9.54 -3.55 2.15 255 255 255
-9.22 -3.48 1.40 255 255 255
-9.87 -3.58 1.92 255 255 255
-9.58 -3.53 1.85 255 255 255
-10.17 -3.58 1.32 255 255 255
-9.58 -3.52 1.37 255 255 255
-9.88 -3.57 1.74 255 255 255
-9.90 -3.55 1.25 255 255 255
-9.25 -3.47 1.74 255 255 255
-9.26 -3.46 1.30 255 255 255
-9.89 -3.56 1.60 255 255 255
-9.57 -3.53 1.67 255 255 255
-10.16 -3.59 1.23 255 255 255
-9.58 -3.52 1.27 255 255 255
-10.16 -3.60 1.56 255 255 255
-9.91 -3.54 1.13 255 255 255
-9.24 -3.47 1.59 255 255 255
-9.60 -3.51 1.18 255 255 255
-9.90 -3.55 1.51 255 255 255
-9.90 -3.54 0.89 255 255 255
-9.58 -3.52 1.55 255 255 255
-10.17 -3.59 1.48 255 255 255
-9.59 -3.51 1.02 255 255 255
-16.77 0.42 0.29 255 255 255
-44.23 17.35 0.42 255 255 255
-9.82 -3.58 0.33 255 255 255
-9.25 -3.47 1.50 255 255 255
-16.73 0.63 0.62 255 255 255
-9.61 -3.49 0.63 255 255 255
-9.90 -3.55 1.43 255 255 255
-17.08 0.58 0.76 255 255 255
-17.53 1.12 0.81 255 255 255
-44.46 17.49 1.27 255 255 255
-18.04 1.10 0.86 255 255 255
-43.84 15.11 2.27 255 255 255
-18.37 1.28 1.05 255 255 255
-18.42 1.66 0.96 255 255 255
-18.43 0.98 1.09 255 255 255
-18.62 1.42 1.18 255 255 255
-10.19 -3.58 1.40 255 255 255
-9.62 -3.51 1.46 255 255 255
-18.61 1.07 1.22 255 255 255
-9.56 -3.55 2.14 255 255 255
-9.93 -3.55 1.34 255 255 255
-9.25 -3.48 1.40 255 255 255
-9.89 -3.58 1.92 255 255 255
-9.59 -3.54 1.85 255 255 255
-10.18 -3.59 1.32 255 255 255
-9.60 -3.52 1.37 255 255 255
-9.90 -3.58 1.74 255 255 255
-9.27 -3.48 1.74 255 255 255
-9.91 -3.55 1.25 255 255 255
-9.29 -3.46 1.30 255 255 255
-9.91 -3.57 1.60 255 255 255
-9.60 -3.53 1.67 255 255 255
-10.18 -3.59 1.24 255 255 255
-9.60 -3.52 1.27 255 255 255
-10.17 -3.60 1.56 255 255 255
-9.26 -3.48 1.59 255 255 255
-9.93 -3.54 1.13 255 255 255
-9.61 -3.51 1.18 255 255 255
-9.92 -3.56 1.51 255 255 255
-9.61 -3.52 1.55 255 255 255
-9.92 -3.54 0.89 255 255 255
-10.19 -3.59 1.48 255 255 255
-9.62 -3.51 1.02 255 255 255
-44.17 17.47 0.42 255 255 255
-16.75 0.42 0.29 255 255 255
-9.28 -3.47 1.49 255 255 255
-9.84 -3.59 0.33 255 255 255
-16.76 0.67 0.61 255 255 255
-9.92 -3.56 1.43 255 255 255
-9.63 -3.49 0.63 255 255 255
-17.07 0.59 0.76 255 255 255
-17.51 1.13 0.81 255 255 255
-18.03 1.12 0.86 255 255 255
-44.05 17.40 1.27 255 255 255
-18.40 1.32 1.05 255 255 255
-18.45 1.70 0.96 255 255 255
-18.43 1.01 1.08 255 255 255
-18.64 1.45 1.18 255 255 255
-10.20 -3.59 1.40 255 255 255
-9.64 -3.51 1.46 255 255 255
-18.62 1.10 1.22 255 255 255
-9.93 -3.55 1.34 255 255 255
-9.60 -3.55 2.14 255 255 255
-9.28 -3.48 1.40 255 255 255
-9.91 -3.58 1.92 255 255 255
-9.62 -3.54 1.84 255 255 255
-10.20 -3.59 1.32 255 255 255
-9.92 -3.58 1.74 255 255 255
-9.63 -3.52 1.37 255 255 255
-9.93 -3.56 1.25 255 255 255
-9.29 -3.48 1.74 255 255 255
-9.92 -3.57 1.60 255 255 255
-9.31 -3.47 1.30 255 255 255
-9.62 -3.53 1.66 255 255 255
-10.20 -3.59 1.24 255 255 255
-9.62 -3.53 1.27 255 255 255
-10.19 -3.60 1.56 255 255 255
-9.29 -3.48 1.59 255 255 255
-9.94 -3.55 1.13 255 255 255
-9.93 -3.56 1.51 255 255 255
-9.63 -3.52 1.18 255 255 255
-9.95 -3.55 0.89 255 255 255
-9.64 -3.52 1.55 255 255 255
-10.21 -3.59 1.48 255 255 255
-9.64 -3.51 1.03 255 255 255
-43.95 17.49 0.43 255 255 255
-16.76 0.45 0.28 255 255 255
-9.31 -3.48 1.49 255 255 255
-9.86 -3.59 0.33 255 255 255
-16.76 0.69 0.61 255 255 255
-9.65 -3.50 0.63 255 255 255
-9.94 -3.56 1.42 255 255 255
-17.07 0.61 0.76 255 255 255
-17.49 1.14 0.81 255 255 255
-44.16 17.60 1.27 255 255 255
-18.01 1.13 0.86 255 255 255
-18.38 1.33 1.05 255 255 255
-18.47 1.74 0.96 255 255 255
-18.40 1.01 1.09 255 255 255
-18.68 1.50 1.17 255 255 255
-10.21 -3.59 1.40 255 255 255
-9.67 -3.51 1.46 255 255 255
-18.65 1.14 1.21 255 255 255
-9.62 -3.56 2.13 255 255 255
-9.95 -3.56 1.34 255 255 255
-9.31 -3.48 1.40 255 255 255
-9.93 -3.58 1.91 255 255 255
-9.64 -3.54 1.84 255 255 255
-10.22 -3.59 1.32 255 255 255
-9.65 -3.52 1.37 255 255 255
-9.93 -3.58 1.74 255 255 255
-9.32 -3.48 1.74 255 255 255
-9.95 -3.56 1.25 255 255 255
-9.94 -3.57 1.60 255 255 255
-9.33 -3.47 1.30 255 255 255
-10.22 -3.59 1.24 255 255 255
-9.65 -3.53 1.66 255 255 255
-10.21 -3.60 1.56 255 255 255
-9.64 -3.53 1.27 255 255 255
-9.96 -3.55 1.13 255 255 255
-9.32 -3.48 1.59 255 255 255
-9.95 -3.57 1.51 255 255 255
-9.65 -3.52 1.18 255 255 255
-9.96 -3.55 0.89 255 255 255
-9.66 -3.53 1.55 255 255 255
-9.66 -3.52 1.03 255 255 255
-10.23 -3.60 1.48 255 255 255
-16.76 0.47 0.28 255 255 255
-43.86 17.58 0.43 255 255 255
-9.88 -3.59 0.34 255 255 255
-9.33 -3.48 1.49 255 255 255
-16.76 0.70 0.60 255 255 255
-33.20 9.59 1.46 255 255 255
-9.96 -3.56 1.42 255 255 255
-9.67 -3.50 0.64 255 255 255
-17.05 0.62 0.76 255 255 255
-17.51 1.17 0.81 255 255 255
-39.55 14.89 1.30 255 255 255
-18.04 1.17 0.86 255 255 255
-18.43 1.39 1.04 255 255 255
-18.49 1.78 0.96 255 255 255
-18.40 1.04 1.09 255 255 255
-18.68 1.53 1.17 255 255 255
-10.23 -3.60 1.40 255 255 255
-9.70 -3.51 1.46 255 255 255
-18.63 1.15 1.22 255 255 255
-9.64 -3.56 2.13 255 255 255
-9.97 -3.56 1.34 255 255 255
-9.33 -3.48 1.39 255 255 255
-9.95 -3.58 1.91 255 255 255
-33.25 9.69 0.93 255 255 255
-9.67 -3.54 1.84 255 255 255
-10.24 -3.59 1.32 255 255 255
-9.67 -3.53 1.37 255 255 255
-9.96 -3.58 1.73 255 255 255
-9.97 -3.56 1.25 255 255 255
-9.35 -3.48 1.73 255 255 255
-9.36 -3.47 1.30 255 255 255
-9.96 -3.58 1.60 255 255 255
-9.67 -3.53 1.66 255 255 255
-10.23 -3.60 1.24 255 255 255
-9.66 -3.53 1.27 255 255 255
-10.22 -3.61 1.56 255 255 255
-9.35 -3.48 1.59 255 255 255
-9.98 -3.55 1.13 255 255 255
-9.67 -3.53 1.18 255 255 255
-9.97 -3.57 1.51 255 255 255
-9.68 -3.53 1.55 255 255 255
-9.98 -3.55 0.89 255 255 255
-48.04 15.83 0.74 255 255 255
-10.24 -3.60 1.48 255 255 255
-9.69 -3.52 1.03 255 255 255
-39.45 14.95 0.58 255 255 255
-16.76 0.48 0.28 255 255 255
-9.90 -3.59 0.34 255 255 255
-9.37 -3.47 1.49 255 255 255
-16.77 0.73 0.60 255 255 255
-9.70 -3.51 0.64 255 255 255
-9.98 -3.57 1.42 255 255 255
-17.05 0.63 0.76 255 255 255
-48.05 15.83 1.65 255 255 255
-17.52 1.20 0.81 255 255 255
-18.01 1.18 0.86 255 255 255
-39.50 14.98 1.30 255 255 255
-33.05 9.60 2.00 255 255 255
-18.41 1.40 1.04 255 255 255
-38.00 10.83 2.25 255 255 255
-39.56 15.02 2.03 255 255 255
-18.42 1.07 1.08 255 255 255
-18.69 1.56 1.17 255 255 255
-10.25 -3.60 1.40 255 255 255
-9.72 -3.52 1.45 255 255 255
-18.64 1.18 1.21 255 255 255
-9.99 -3.56 1.34 255 255 255
-9.67 -3.56 2.12 255 255 255
-9.98 -3.58 1.91 255 255 255
-9.36 -3.49 1.39 255 255 255
-10.26 -3.59 1.32 255 255 255
-9.69 -3.54 1.83 255 255 255
-9.99 -3.58 1.73 255 255 255
-9.68 -3.53 1.37 255 255 255
-9.37 -3.49 1.73 255 255 255
-9.99 -3.56 1.25 255 255 255
-9.38 -3.48 1.30 255 255 255
-9.98 -3.58 1.59 255 255 255
-9.70 -3.53 1.66 255 255 255
-10.25 -3.60 1.24 255 255 255
-9.69 -3.53 1.27 255 255 255
-10.25 -3.61 1.56 255 255 255
-9.37 -3.49 1.59 255 255 255
-10.00 -3.55 1.13 255 255 255
-9.99 -3.57 1.51 255 255 255
-9.70 -3.53 1.19 255 255 255
-10.00 -3.55 0.90 255 255 255
-9.70 -3.54 1.54 255 255 255
-10.25 -3.61 1.48 255 255 255
-9.71 -3.52 1.03 255 255 255
-16.76 0.50 0.28 255 255 255
-9.92 -3.59 0.35 255 255 255
-9.39 -3.48 1.49 255 255 255
-16.75 0.73 0.60 255 255 255
-33.00 9.67 1.47 255 255 255
-9.71 -3.51 0.64 255 255 255
-10.00 -3.57 1.42 255 255 255
-17.04 0.65 0.76 255 255 255
-37.96 10.91 1.60 255 255 255
-17.55 1.23 0.80 255 255 255
-18.00 1.19 0.86 255 255 255
-32.99 9.67 2.00 255 255 255
-18.42 1.43 1.04 255 255 255
-37.97 10.91 2.25 255 255 255
-18.49 1.83 0.96 255 255 255
-39.49 15.11 2.03 255 255 255
-18.40 1.08 1.09 255 255 255
-18.70 1.59 1.17 255 255 255
-10.26 -3.61 1.40 255 255 255
-9.73 -3.52 1.45 255 255 255
-18.65 1.21 1.21 255 255 255
-10.01 -3.56 1.34 255 255 255
-9.69 -3.56 2.12 255 255 255
-10.00 -3.59 1.90 255 255 255
-9.37 -3.49 1.39 255 255 255
-33.02 9.73 0.93 255 255 255
-9.71 -3.54 1.83 255 255 255
-10.27 -3.60 1.32 255 255 255
-9.71 -3.54 1.36 255 255 255
-10.01 -3.58 1.73 255 255 255
-10.01 -3.57 1.25 255 255 255
-9.40 -3.49 1.73 255 255 255
-9.40 -3.48 1.30 255 255 255
-10.00 -3.58 1.59 255 255 255
-10.27 -3.60 1.24 255 255 255
-9.72 -3.54 1.66 255 255 255
-10.25 -3.62 1.56 255 255 255
-9.71 -3.54 1.28 255 255 255
-10.02 -3.56 1.13 255 255 255
-9.39 -3.49 1.59 255 255 255
-10.01 -3.58 1.51 255 255 255
-9.73 -3.53 1.19 255 255 255
-9.72 -3.54 1.54 255 255 255
-10.02 -3.55 0.90 255 255 255
-10.27 -3.61 1.47 255 255 255
-9.73 -3.52 1.03 255 255 255
-43.79 17.97 0.43 255 255 255
-16.73 0.50 0.29 255 255 255
-9.95 -3.59 0.35 255 255 255
-9.41 -3.49 1.49 255 255 255
-16.72 0.74 0.61 255 255 255
-32.97 9.74 1.47 255 255 255
-9.73 -3.52 0.64 255 255 255
-10.02 -3.57 1.42 255 255 255
-17.03 0.66 0.76 255 255 255
-17.53 1.25 0.80 255 255 255
-37.91 11.00 1.60 255 255 255
-43.99 18.10 1.28 255 255 255
-18.00 1.22 0.86 255 255 255
-32.97 9.75 2.00 255 255 255
-18.43 1.46 1.04 255 255 255
-18.63 1.95 0.94 255 255 255
-18.45 1.13 1.08 255 255 255
-18.73 1.63 1.17 255 255 255
-10.28 -3.61 1.40 255 255 255
-9.75 -3.53 1.45 255 255 255
-18.65 1.24 1.21 255 255 255
-10.04 -3.56 1.34 255 255 255
-9.71 -3.56 2.12 255 255 255
-10.02 -3.59 1.90 255 255 255
-9.40 -3.50 1.39 255 255 255
-32.95 9.79 0.93 255 255 255
-10.29 -3.60 1.32 255 255 255
-9.73 -3.55 1.83 255 255 255
-9.72 -3.55 1.36 255 255 255
-10.02 -3.58 1.73 255 255 255
-10.03 -3.57 1.26 255 255 255
-9.43 -3.49 1.73 255 255 255
-9.43 -3.48 1.30 255 255 255
-10.02 -3.58 1.59 255 255 255
-9.74 -3.54 1.65 255 255 255
-10.29 -3.60 1.24 255 255 255
-9.73 -3.54 1.27 255 255 255
-10.27 -3.62 1.55 255 255 255
-9.41 -3.50 1.58 255 255 255
-10.04 -3.56 1.13 255 255 255
-10.03 -3.58 1.51 255 255 255
-9.75 -3.53 1.19 255 255 255
-9.74 -3.54 1.54 255 255 255
-10.04 -3.56 0.90 255 255 255
-18.91 1.38 1.36 255 255 255
-10.29 -3.61 1.47 255 255 255
-9.77 -3.51 1.03 255 255 255
-16.76 0.53 0.28 255 255 255
-9.97 -3.60 0.36 255 255 255
-9.44 -3.49 1.49 255 255 255
-32.98 9.83 1.47 255 255 255
-9.75 -3.52 0.65 255 255 255
-10.03 -3.57 1.42 255 255 255
-17.02 0.67 0.76 255 255 255
-18.02 1.25 0.86 255 255 255
-33.02 9.86 2.01 255 255 255
-18.46 1.50 1.04 255 255 255
-18.44 1.15 1.08 255 255 255
-18.77 1.68 1.17 255 255 255
-10.30 -3.61 1.39 255 255 255
-9.76 -3.54 1.45 255 255 255
-18.67 1.27 1.21 255 255 255
-9.72 -3.57 2.11 255 255 255
-10.05 -3.57 1.34 255 255 255
-9.43 -3.50 1.39 255 255 255
-10.04 -3.59 1.90 255 255 255
-32.95 9.88 0.93 255 255 255
-9.75 -3.55 1.83 255 255 255
-10.31 -3.60 1.32 255 255 255
-10.05 -3.58 1.73 255 255 255
-9.74 -3.55 1.36 255 255 255
-9.45 -3.50 1.72 255 255 255
-10.05 -3.57 1.25 255 255 255
-9.45 -3.49 1.30 255 255 255
-10.03 -3.59 1.59 255 255 255
-9.75 -3.55 1.65 255 255 255
-10.30 -3.61 1.24 255 255 255
-9.76 -3.54 1.28 255 255 255
-10.30 -3.61 1.55 255 255 255
-9.43 -3.50 1.58 255 255 255
-10.06 -3.56 1.13 255 255 255
-10.05 -3.58 1.51 255 255 255
-9.77 -3.53 1.19 255 255 255
-9.75 -3.55 1.54 255 255 255
-10.06 -3.56 0.90 255 255 255
-9.78 -3.52 1.03 255 255 255
-10.30 -3.61 1.47 255 255 255
-16.73 0.53 0.28 255 255 255
-9.45 -3.50 1.49 255 255 255
-9.99 -3.59 0.36 255 255 255
-58.87 24.93 1.46 255 255 255
-10.05 -3.58 1.42 255 255 255
-9.77 -3.52 0.65 255 255 255
-17.01 0.69 0.76 255 255 255
-18.00 1.26 0.86 255 255 255
-18.44 1.52 1.04 255 255 255
-18.45 1.18 1.08 255 255 255
-18.73 1.69 1.17 255 255 255
-10.31 -3.61 1.39 255 255 255
-9.78 -3.54 1.45 255 255 255
-18.68 1.30 1.21 255 255 255
-10.06 -3.57 1.34 255 255 255
-9.74 -3.58 2.11 255 255 255
-9.45 -3.50 1.39 255 255 255
-10.06 -3.59 1.90 255 255 255
-33.00 10.01 0.93 255 255 255
-10.32 -3.61 1.32 255 255 255
-9.77 -3.55 1.83 255 255 255
-10.06 -3.58 1.72 255 255 255
-9.77 -3.55 1.36 255 255 255
-9.46 -3.50 1.72 255 255 255
-10.08 -3.56 1.26 255 255 255
-9.48 -3.49 1.30 255 255 255
-10.06 -3.59 1.59 255 255 255
-9.77 -3.55 1.65 255 255 255
-10.32 -3.61 1.24 255 255 255
-9.78 -3.54 1.28 255 255 255
-10.31 -3.62 1.55 255 255 255
-10.08 -3.56 1.13 255 255 255
-9.47 -3.50 1.58 255 255 255
-9.80 -3.53 1.19 255 255 255
-10.07 -3.58 1.50 255 255 255
-9.77 -3.55 1.54 255 255 255
-10.08 -3.56 0.90 255 255 255
-9.80 -3.53 1.03 255 255 255
-10.32 -3.61 1.47 255 255 255
-16.74 0.56 0.28 255 255 255
-9.48 -3.50 1.49 255 255 255
-10.00 -3.60 0.36 255 255 255
-9.80 -3.52 0.65 255 255 255
-10.08 -3.57 1.42 255 255 255
-17.02 0.71 0.76 255 255 255
-18.01 1.29 0.86 255 255 255
-18.47 1.56 1.04 255 255 255
-18.44 1.20 1.08 255 255 255
-10.33 -3.61 1.39 255 255 255
-9.81 -3.54 1.45 255 255 255
-18.68 1.33 1.21 255 255 255
-9.77 -3.58 2.11 255 255 255
-10.09 -3.57 1.34 255 255 255
-10.07 -3.60 1.89 255 255 255
-9.48 -3.50 1.39 255 255 255
-9.79 -3.56 1.82 255 255 255
-10.34 -3.61 1.32 255 255 255
-9.80 -3.55 1.36 255 255 255
-10.08 -3.59 1.72 255 255 255
-9.49 -3.50 1.72 255 255 255
-10.10 -3.57 1.26 255 255 255
-10.08 -3.59 1.59 255 255 255
-9.50 -3.49 1.30 255 255 255
-9.79 -3.56 1.65 255 255 255
-10.33 -3.62 1.24 255 255 255
-9.80 -3.54 1.28 255 255 255
-10.33 -3.62 1.55 255 255 255
-9.48 -3.51 1.58 255 255 255
-10.09 -3.57 1.13 255 255 255
-9.82 -3.53 1.19 255 255 255
-10.09 -3.58 1.50 255 255 255
-10.10 -3.56 0.90 255 255 255
-9.80 -3.55 1.54 255 255 255
-10.34 -3.62 1.47 255 255 255
-9.81 -3.53 1.03 255 255 255
-16.72 0.56 0.28 255 255 255
-9.50 -3.50 1.48 255 255 255
-10.02 -3.60 0.37 255 255 255
-9.83 -3.52 0.66 255 255 255
-10.10 -3.57 1.42 255 255 255
-17.01 0.73 0.76 255 255 255
-18.02 1.32 0.86 255 255 255
-18.50 1.61 1.03 255 255 255
-18.47 1.24 1.08 255 255 255
-10.35 -3.61 1.39 255 255 255
-9.82 -3.54 1.45 255 255 255
-10.09 -3.60 2.33 255 255 255
-18.69 1.35 1.21 255 255 255
-9.78 -3.58 2.10 255 255 255
-10.12 -3.57 1.34 255 255 255
-9.50 -3.51 1.39 255 255 255
-10.09 -3.60 1.89 255 255 255
-9.81 -3.56 1.82 255 255 255
-10.35 -3.61 1.32 255 255 255
-9.82 -3.55 1.36 255 255 255
-10.10 -3.59 1.72 255 255 255
-10.12 -3.57 1.26 255 255 255
-9.51 -3.51 1.72 255 255 255
-9.53 -3.49 1.30 255 255 255
-10.10 -3.59 1.59 255 255 255
-9.81 -3.56 1.65 255 255 255
-10.35 -3.61 1.24 255 255 255
-9.82 -3.55 1.27 255 255 255
-10.35 -3.62 1.55 255 255 255
-9.51 -3.51 1.58 255 255 255
-10.12 -3.57 1.13 255 255 255
-10.11 -3.58 1.50 255 255 255
-9.83 -3.54 1.19 255 255 255
-10.12 -3.56 0.91 255 255 255
-9.82 -3.55 1.54 255 255 255
-10.36 -3.61 1.47 255 255 255
-9.83 -3.54 1.03 255 255 255
-16.72 0.58 0.28 255 255 255
-9.52 -3.50 1.48 255 255 255
-10.03 -3.61 0.37 255 255 255
-9.85 -3.52 0.66 255 255 255
-10.12 -3.58 1.42 255 255 255
-16.99 0.73 0.76 255 255 255
-18.06 1.37 0.85 255 255 255
-18.50 1.63 1.03 255 255 255
-38.40 11.81 2.28 255 255 255
-18.48 1.26 1.08 255 255 255
-10.36 -3.62 1.39 255 255 255
-9.85 -3.54 1.45 255 255 255
-10.11 -3.61 2.33 255 255 255
-18.70 1.38 1.21 255 255 255
-9.81 -3.58 2.10 255 255 255
-10.13 -3.57 1.34 255 255 255
-9.53 -3.51 1.39 255 255 255
-10.11 -3.60 1.89 255 255 255
-9.82 -3.57 1.82 255 255 255
-10.37 -3.61 1.32 255 255 255
-9.84 -3.55 1.36 255 255 255
-10.11 -3.60 1.72 255 255 255
-10.13 -3.57 1.26 255 255 255
-9.54 -3.51 1.72 255 255 255
-9.55 -3.50 1.30 255 255 255
-10.12 -3.59 1.58 255 255 255
-10.37 -3.62 1.24 255 255 255
-9.83 -3.56 1.65 255 255 255
-10.36 -3.62 1.55 255 255 255
-9.84 -3.55 1.28 255 255 255
-10.13 -3.57 1.13 255 255 255
-9.54 -3.51 1.58 255 255 255
-10.13 -3.59 1.50 255 255 255
-9.85 -3.55 1.19 255 255 255
-10.13 -3.57 0.91 255 255 255
-9.84 -3.56 1.54 255 255 255
-9.85 -3.55 1.04 255 255 255
-10.38 -3.62 1.47 255 255 255
-16.71 0.60 0.28 255 255 255
-9.56 -3.50 1.48 255 255 255
-10.05 -3.62 0.37 255 255 255
-10.13 -3.58 1.42 255 255 255
-9.87 -3.53 0.66 255 255 255
-17.00 0.76 0.76 255 255 255
-18.04 1.38 0.85 255 255 255
-18.53 1.67 1.03 255 255 255
-38.35 11.90 2.29 255 255 255
-18.46 1.28 1.08 255 255 255
-10.38 -3.61 1.39 255 255 255
-10.13 -3.61 2.33 255 255 255
-9.87 -3.55 1.45 255 255 255
-18.71 1.42 1.21 255 255 255
-10.15 -3.57 1.34 255 255 255
-9.83 -3.59 2.10 255 255 255
-9.55 -3.51 1.39 255 255 255
-10.13 -3.61 1.89 255 255 255
-44.78 17.47 0.61 255 255 255
-10.38 -3.62 1.32 255 255 255
-9.85 -3.57 1.82 255 255 255
-10.13 -3.60 1.72 255 255 255
-9.86 -3.55 1.36 255 255 255
-9.56 -3.52 1.72 255 255 255
-10.14 -3.58 1.26 255 255 255
-10.14 -3.59 1.58 255 255 255
-9.57 -3.50 1.30 255 255 255
-10.38 -3.62 1.24 255 255 255
-9.85 -3.57 1.65 255 255 255
-9.85 -3.56 1.28 255 255 255
-10.38 -3.63 1.55 255 255 255
-10.15 -3.58 1.13 255 255 255
-9.57 -3.51 1.57 255 255 255
-10.14 -3.59 1.50 255 255 255
-9.86 -3.55 1.19 255 255 255
-9.86 -3.56 1.54 255 255 255
-10.15 -3.57 0.91 255 255 255
-9.87 -3.55 1.04 255 255 255
-10.39 -3.62 1.47 255 255 255
-9.58 -3.51 1.48 255 255 255
-10.06 -3.62 0.37 255 255 255
-57.45 25.17 1.48 255 255 255
-9.88 -3.53 0.66 255 255 255
-10.15 -3.59 1.42 255 255 255
-16.99 0.77 0.76 255 255 255
-18.05 1.41 0.85 255 255 255
-18.53 1.70 1.03 255 255 255
-18.48 1.32 1.08 255 255 255
-10.40 -3.62 1.39 255 255 255
-10.15 -3.61 2.32 255 255 255
-9.89 -3.55 1.45 255 255 255
-18.72 1.45 1.21 255 255 255
-10.16 -3.58 1.34 255 255 255
-9.85 -3.59 2.09 255 255 255
-9.57 -3.51 1.39 255 255 255
-10.15 -3.60 1.88 255 255 255
-44.28 17.32 0.63 255 255 255
-10.39 -3.62 1.32 255 255 255
-9.87 -3.57 1.82 255 255 255
-9.88 -3.56 1.36 255 255 255
-10.15 -3.60 1.72 255 255 255
-10.17 -3.58 1.26 255 255 255
-9.59 -3.52 1.71 255 255 255
-9.59 -3.50 1.30 255 255 255
-10.16 -3.59 1.58 255 255 255
-10.40 -3.62 1.24 255 255 255
-9.88 -3.56 1.64 255 255 255
-10.40 -3.62 1.55 255 255 255
-9.87 -3.56 1.28 255 255 255
-10.17 -3.58 1.13 255 255 255
-9.59 -3.51 1.57 255 255 255
-9.88 -3.56 1.19 255 255 255
-10.17 -3.59 1.50 255 255 255
-10.17 -3.57 0.91 255 255 255
-9.88 -3.56 1.53 255 255 255
-10.41 -3.62 1.47 255 255 255
-9.89 -3.55 1.04 255 255 255
-10.07 -3.63 0.37 255 255 255
-9.60 -3.51 1.48 255 255 255
-9.90 -3.53 0.67 255 255 255
-10.17 -3.59 1.42 255 255 255
-16.99 0.79 0.76 255 255 255
-18.05 1.44 0.85 255 255 255
-40.31 14.97 2.22 255 255 255
-18.54 1.73 1.03 255 255 255
-18.46 1.33 1.08 255 255 255
-10.41 -3.62 1.39 255 255 255
-9.91 -3.55 1.45 255 255 255
-10.17 -3.61 2.32 255 255 255
-18.72 1.48 1.21 255 255 255
-9.87 -3.59 2.09 255 255 255
-10.18 -3.58 1.34 255 255 255
-9.60 -3.52 1.39 255 255 255
-10.16 -3.61 1.88 255 255 255
-44.39 17.53 0.62 255 255 255
-10.41 -3.62 1.32 255 255 255
-9.88 -3.58 1.81 255 255 255
-10.16 -3.60 1.71 255 255 255
-9.90 -3.56 1.36 255 255 255
-9.62 -3.51 1.71 255 255 255
-10.18 -3.59 1.26 255 255 255
-9.61 -3.51 1.30 255 255 255
-10.17 -3.60 1.58 255 255 255
-9.90 -3.57 1.64 255 255 255
-10.41 -3.62 1.24 255 255 255
-9.88 -3.57 1.27 255 255 255
-10.41 -3.63 1.55 255 255 255
-9.61 -3.52 1.57 255 255 255
-10.19 -3.58 1.14 255 255 255
-9.90 -3.56 1.19 255 255 255
-10.18 -3.59 1.50 255 255 255
-10.18 -3.58 0.91 255 255 255
-9.90 -3.56 1.53 255 255 255
-9.90 -3.55 1.04 255 255 255
-10.42 -3.62 1.47 255 255 255
-16.67 0.62 0.29 255 255 255
-10.08 -3.63 0.37 255 255 255
-9.63 -3.51 1.48 255 255 255
-56.55 25.05 1.48 255 255 255
-10.19 -3.59 1.42 255 255 255
-9.92 -3.54 0.67 255 255 255
-16.99 0.81 0.76 255 255 255
-18.05 1.46 0.85 255 255 255
-37.79 11.94 2.28 255 255 255
-18.49 1.37 1.08 255 255 255
-10.43 -3.62 1.39 255 255 255
-10.19 -3.61 2.31 255 255 255
-9.94 -3.55 1.45 255 255 255
-18.75 1.52 1.21 255 255 255
-9.89 -3.59 2.08 255 255 255
-10.20 -3.59 1.34 255 255 255
-10.18 -3.62 1.88 255 255 255
-9.61 -3.52 1.39 255 255 255
-44.24 17.58 0.63 255 255 255
-9.91 -3.58 1.81 255 255 255
-10.42 -3.63 1.31 255 255 255
-9.91 -3.57 1.36 255 255 255
-10.19 -3.60 1.71 255 255 255
-9.64 -3.52 1.71 255 255 255
-10.20 -3.59 1.26 255 255 255
-10.19 -3.60 1.58 255 255 255
-9.64 -3.51 1.30 255 255 255
-9.92 -3.57 1.64 255 255 255
-10.43 -3.62 1.24 255 255 255
-9.90 -3.57 1.27 255 255 255
-10.43 -3.63 1.55 255 255 255
-9.64 -3.52 1.57 255 255 255
-10.20 -3.58 1.14 255 255 255
-10.20 -3.59 1.50 255 255 255
-9.92 -3.56 1.19 255 255 255
-10.21 -3.58 0.91 255 255 255
-9.92 -3.57 1.53 255 255 255
-10.44 -3.62 1.47 255 255 255
-9.93 -3.55 1.04 255 255 255
-16.74 0.68 0.26 255 255 255
-9.65 -3.51 1.48 255 255 255
-10.09 -3.64 0.38 255 255 255
-56.30 25.09 1.48 255 255 255
-9.94 -3.54 0.67 255 255 255
-10.20 -3.59 1.42 255 255 255
-16.99 0.83 0.76 255 255 255
-18.07 1.49 0.84 255 255 255
-18.53 1.78 1.03 255 255 255
-33.17 9.50 2.13 255 255 255
-18.48 1.39 1.08 255 255 255
-10.45 -3.62 1.39 255 255 255
-10.20 -3.62 2.31 255 255 255
-9.95 -3.55 1.45 255 255 255
-18.76 1.55 1.21 255 255 255
-10.21 -3.59 1.34 255 255 255
-9.91 -3.59 2.08 255 255 255
-10.20 -3.61 1.88 255 255 255
-9.64 -3.52 1.39 255 255 255
-10.44 -3.63 1.31 255 255 255
-9.93 -3.58 1.81 255 255 255
-10.20 -3.61 1.71 255 255 255
-9.93 -3.57 1.36 255 255 255
-10.21 -3.59 1.26 255 255 255
-9.67 -3.52 1.71 255 255 255
-10.20 -3.61 1.58 255 255 255
-9.66 -3.51 1.30 255 255 255
-9.93 -3.57 1.64 255 255 255
-10.45 -3.62 1.24 255 255 255
-10.44 -3.64 1.55 255 255 255
-9.92 -3.58 1.28 255 255 255
-10.22 -3.59 1.14 255 255 255
-9.65 -3.53 1.57 255 255 255
-9.93 -3.57 1.19 255 255 255
-10.21 -3.60 1.50 255 255 255
-9.94 -3.57 1.53 255 255 255
-10.23 -3.58 0.91 255 255 255
-9.96 -3.55 1.04 255 255 255
-10.46 -3.62 1.47 255 255 255
-10.11 -3.65 0.38 255 255 255
-9.67 -3.51 1.48 255 255 255
-56.06 25.16 1.49 255 255 255
-9.96 -3.54 0.68 255 255 255
-10.22 -3.60 1.42 255 255 255
-16.98 0.84 0.76 255 255 255
-33.15 9.57 1.60 255 255 255
-18.10 1.54 0.84 255 255 255
-39.66 14.94 2.21 255 255 255
-33.09 9.54 2.13 255 255 255
-18.51 1.43 1.07 255 255 255
-10.47 -3.62 1.39 255 255 255
-9.97 -3.56 1.45 255 255 255
-10.21 -3.62 2.31 255 255 255
-18.77 1.58 1.21 255 255 255
-10.22 -3.59 1.34 255 255 255
-9.93 -3.60 2.08 255 255 255
-10.21 -3.62 1.88 255 255 255
-9.66 -3.53 1.39 255 255 255
-43.89 17.67 0.64 255 255 255
-9.95 -3.58 1.81 255 255 255
-10.46 -3.62 1.31 255 255 255
-9.94 -3.58 1.36 255 255 255
-10.22 -3.61 1.71 255 255 255
-9.68 -3.53 1.70 255 255 255
-10.22 -3.60 1.26 255 255 255
-10.22 -3.61 1.58 255 255 255
-9.69 -3.51 1.30 255 255 255
-10.47 -3.62 1.24 255 255 255
-9.96 -3.57 1.64 255 255 255
-9.95 -3.57 1.28 255 255 255
-10.46 -3.64 1.54 255 255 255
-9.67 -3.53 1.57 255 255 255
-10.24 -3.59 1.14 255 255 255
-9.95 -3.57 1.19 255 255 255
-10.22 -3.60 1.50 255 255 255
-10.24 -3.58 0.91 255 255 255
-9.96 -3.57 1.53 255 255 255
-33.12 9.64 1.06 255 255 255
-9.97 -3.55 1.04 255 255 255
-10.47 -3.63 1.47 255 255 255
-9.69 -3.52 1.48 255 255 255
-10.13 -3.65 0.38 255 255 255
-39.52 14.98 1.49 255 255 255
-10.23 -3.60 1.42 255 255 255
-9.97 -3.55 0.68 255 255 255
-16.99 0.87 0.75 255 255 255
-33.06 9.61 1.60 255 255 255
-18.05 1.53 0.84 255 255 255
-33.02 9.60 2.13 255 255 255
-18.50 1.45 1.07 255 255 255
-10.48 -3.62 1.39 255 255 255
-9.99 -3.56 1.44 255 255 255
-10.23 -3.63 2.31 255 255 255
-18.81 1.63 1.20 255 255 255
-10.24 -3.60 1.34 255 255 255
-9.95 -3.60 2.08 255 255 255
-10.23 -3.62 1.87 255 255 255
-9.68 -3.53 1.39 255 255 255
-39.42 15.00 0.76 255 255 255
-9.97 -3.58 1.80 255 255 255
-10.48 -3.63 1.31 255 255 255
-10.24 -3.61 1.71 255 255 255
-9.95 -3.58 1.36 255 255 255
-10.25 -3.59 1.26 255 255 255
-9.70 -3.53 1.70 255 255 255
-9.71 -3.52 1.30 255 255 255
-10.23 -3.61 1.58 255 255 255
-10.49 -3.62 1.24 255 255 255
-9.97 -3.58 1.64 255 255 255
-9.96 -3.58 1.28 255 255 255
-10.47 -3.64 1.54 255 255 255
-9.69 -3.53 1.57 255 255 255
-10.26 -3.59 1.14 255 255 255
-9.98 -3.57 1.19 255 255 255
-10.24 -3.60 1.50 255 255 255
-9.97 -3.58 1.53 255 255 255
-10.26 -3.58 0.92 255 255 255
-33.03 9.69 1.07 255 255 255
-10.48 -3.63 1.47 255 255 255
-10.00 -3.55 1.04 255 255 255
-16.75 0.74 0.25 255 255 255
-10.13 -3.66 0.38 255 255 255
-9.71 -3.52 1.48 255 255 255
-10.25 -3.60 1.42 255 255 255
-10.00 -3.55 0.68 255 255 255
-16.99 0.89 0.75 255 255 255
-33.01 9.67 1.60 255 255 255
-17.96 1.50 0.85 255 255 255
-32.99 9.67 2.13 255 255 255
-18.52 1.49 1.07 255 255 255
-10.50 -3.63 1.39 255 255 255
-10.00 -3.57 1.44 255 255 255
-10.25 -3.63 2.30 255 255 255
-9.97 -3.60 2.07 255 255 255
-10.26 -3.60 1.34 255 255 255
-9.70 -3.53 1.39 255 255 255
-10.25 -3.62 1.87 255 255 255
-10.49 -3.63 1.31 255 255 255
-9.99 -3.59 1.80 255 255 255
-9.98 -3.58 1.36 255 255 255
-10.26 -3.61 1.71 255 255 255
-9.72 -3.53 1.70 255 255 255
-10.27 -3.59 1.26 255 255 255
-9.73 -3.52 1.30 255 255 255
-10.25 -3.61 1.58 255 255 255
-9.99 -3.58 1.64 255 255 255
-10.50 -3.63 1.24 255 255 255
-9.98 -3.58 1.28 255 255 255
-10.48 -3.64 1.54 255 255 255
-9.71 -3.54 1.57 255 255 255
-10.27 -3.59 1.14 255 255 255
-10.26 -3.60 1.50 255 255 255
-10.01 -3.56 1.19 255 255 255
-10.28 -3.58 0.92 255 255 255
-9.99 -3.58 1.53 255 255 255
-32.96 9.74 1.07 255 255 255
-10.01 -3.56 1.04 255 255 255
-10.50 -3.64 1.47 255 255 255
-16.74 0.75 0.25 255 255 255
-9.73 -3.53 1.48 255 255 255
-10.13 -3.68 0.38 255 255 255
-55.25 25.25 1.50 255 255 255
-10.02 -3.55 0.68 255 255 255
-10.27 -3.60 1.42 255 255 255
-16.99 0.90 0.75 255 255 255
-32.98 9.75 1.60 255 255 255
-33.01 9.76 2.14 255 255 255
-18.52 1.52 1.07 255 255 255
-10.51 -3.63 1.39 255 255 255
-10.26 -3.63 2.30 255 255 255
-10.02 -3.57 1.44 255 255 255
-18.79 1.67 1.21 255 255 255
-9.99 -3.60 2.07 255 255 255
-10.28 -3.60 1.34 255 255 255
-10.26 -3.63 1.87 255 255 255
-9.73 -3.53 1.39 255 255 255
-10.01 -3.59 1.80 255 255 255
-10.51 -3.63 1.31 255 255 255
-10.27 -3.62 1.70 255 255 255
-10.00 -3.59 1.36 255 255 255
-10.28 -3.60 1.26 255 255 255
-9.75 -3.53 1.70 255 255 255
-9.76 -3.52 1.30 255 255 255
-10.27 -3.62 1.58 255 255 255
-10.01 -3.59 1.63 255 255 255
-10.51 -3.63 1.24 255 255 255
-10.00 -3.58 1.28 255 255 255
-10.50 -3.65 1.54 255 255 255
-10.29 -3.59 1.14 255 255 255
-9.75 -3.53 1.56 255 255 255
-10.02 -3.57 1.19 255 255 255
-10.28 -3.61 1.49 255 255 255
-10.01 -3.59 1.53 255 255 255
-10.30 -3.59 0.92 255 255 255
-32.97 9.83 1.07 255 255 255
-10.03 -3.56 1.05 255 255 255
-10.52 -3.63 1.47 255 255 255
-10.13 -3.69 0.38 255 255 255
-9.75 -3.53 1.47 255 255 255
-10.03 -3.56 0.68 255 255 255
-10.28 -3.61 1.42 255 255 255
-32.98 9.84 1.60 255 255 255
-18.54 1.55 1.07 255 255 255
-10.52 -3.64 1.39 255 255 255
-10.04 -3.57 1.44 255 255 255
-10.28 -3.64 2.29 255 255 255
-10.00 -3.61 2.07 255 255 255
-10.30 -3.60 1.34 255 255 255
-9.76 -3.53 1.39 255 255 255
-10.29 -3.62 1.87 255 255 255
-10.02 -3.59 1.80 255 255 255
-10.53 -3.63 1.31 255 255 255
-10.02 -3.58 1.36 255 255 255
-10.29 -3.62 1.70 255 255 255
-9.76 -3.54 1.70 255 255 255
-10.30 -3.60 1.26 255 255 255
-9.78 -3.52 1.30 255 255 255
-10.28 -3.62 1.57 255 255 255
-10.03 -3.59 1.63 255 255 255
-10.53 -3.63 1.24 255 255 255
-10.03 -3.58 1.28 255 255 255
-10.51 -3.65 1.54 255 255 255
-9.76 -3.54 1.56 255 255 255
-10.31 -3.59 1.14 255 255 255
-10.04 -3.57 1.19 255 255 255
-10.29 -3.61 1.49 255 255 255
-10.03 -3.59 1.53 255 255 255
-10.31 -3.59 0.92 255 255 255
-32.97 9.93 1.07 255 255 255
-10.05 -3.56 1.05 255 255 255
-10.53 -3.64 1.46 255 255 255
-9.77 -3.53 1.47 255 255 255
-10.13 -3.71 0.37 255 255 255
-10.05 -3.56 0.69 255 255 255
-10.31 -3.60 1.41 255 255 255
-58.81 24.90 1.77 255 255 255
-18.56 1.59 1.07 255 255 255
-10.53 -3.64 1.39 255 255 255
-10.06 -3.57 1.44 255 255 255
-10.30 -3.64 2.29 255 255 255
-10.02 -3.61 2.06 255 255 255
-10.32 -3.60 1.34 255 255 255
-10.30 -3.62 1.87 255 255 255
-9.78 -3.54 1.39 255 255 255
-10.54 -3.63 1.31 255 255 255
-10.04 -3.59 1.80 255 255 255
-10.05 -3.58 1.36 255 255 255
-10.30 -3.62 1.70 255 255 255
-9.78 -3.54 1.70 255 255 255
-10.32 -3.60 1.26 255 255 255
-9.79 -3.53 1.30 255 255 255
-10.30 -3.62 1.57 255 255 255
-10.05 -3.59 1.63 255 255 255
-10.54 -3.63 1.24 255 255 255
-10.53 -3.65 1.54 255 255 255
-10.05 -3.58 1.28 255 255 255
-9.79 -3.53 1.56 255 255 255
-10.33 -3.59 1.14 255 255 255
-10.05 -3.58 1.19 255 255 255
-10.31 -3.61 1.49 255 255 255
-10.05 -3.59 1.53 255 255 255
-10.33 -3.59 0.92 255 255 255
-45.48 17.33 0.81 255 255 255
-10.07 -3.57 1.05 255 255 255
-10.54 -3.64 1.46 255 255 255
-9.80 -3.54 1.47 255 255 255
-10.13 -3.72 0.37 255 255 255
-10.32 -3.61 1.41 255 255 255
-10.08 -3.55 0.69 255 255 255
-58.56 24.97 1.77 255 255 255
-18.54 1.60 1.07 255 255 255
-10.55 -3.64 1.39 255 255 255
-10.08 -3.58 1.44 255 255 255
-10.31 -3.64 2.29 255 255 255
-10.33 -3.61 1.34 255 255 255
-10.04 -3.61 2.06 255 255 255
-10.32 -3.63 1.86 255 255 255
-9.80 -3.54 1.39 255 255 255
-10.56 -3.63 1.31 255 255 255
-10.06 -3.60 1.79 255 255 255
-10.32 -3.62 1.70 255 255 255
-10.07 -3.58 1.36 255 255 255
-10.33 -3.60 1.26 255 255 255
-9.80 -3.55 1.69 255 255 255
-10.32 -3.62 1.57 255 255 255
-9.81 -3.53 1.30 255 255 255
-10.56 -3.64 1.24 255 255 255
-10.06 -3.59 1.63 255 255 255
-10.07 -3.58 1.28 255 255 255
-10.55 -3.65 1.54 255 255 255
-9.80 -3.54 1.56 255 255 255
-10.35 -3.59 1.14 255 255 255
-10.08 -3.58 1.19 255 255 255
-10.33 -3.61 1.49 255 255 255
-10.06 -3.59 1.53 255 255 255
-10.34 -3.59 0.92 255 255 255
-10.08 -3.57 1.05 255 255 255
-10.55 -3.65 1.46 255 255 255
-9.81 -3.54 1.47 255 255 255
-10.14 -3.73 0.37 255 255 255
-10.09 -3.56 0.69 255 255 255
-10.34 -3.61 1.41 255 255 255
-58.22 24.99 1.77 255 255 255
-18.59 1.66 1.06 255 255 255
-10.56 -3.64 1.39 255 255 255
-10.11 -3.57 1.44 255 255 255
-10.33 -3.64 2.28 255 255 255
-10.35 -3.60 1.34 255 255 255
-10.06 -3.61 2.06 255 255 255
-9.81 -3.55 1.39 255 255 255
-10.33 -3.63 1.86 255 255 255
-10.57 -3.64 1.31 255 255 255
-10.08 -3.60 1.79 255 255 255
-10.09 -3.59 1.36 255 255 255
-10.33 -3.63 1.70 255 255 255
-9.83 -3.54 1.69 255 255 255
-10.36 -3.60 1.26 255 255 255
-9.83 -3.54 1.30 255 255 255
-10.34 -3.62 1.57 255 255 255
-10.57 -3.64 1.24 255 255 255
-10.09 -3.59 1.63 255 255 255
-10.09 -3.59 1.28 255 255 255
-10.57 -3.65 1.54 255 255 255
-9.82 -3.55 1.56 255 255 255
-10.36 -3.60 1.14 255 255 255
-10.09 -3.58 1.19 255 255 255
-10.34 -3.62 1.49 255 255 255
-10.09 -3.59 1.52 255 255 255
-10.36 -3.59 0.93 255 255 255
-10.57 -3.64 1.46 255 255 255
-10.10 -3.58 1.05 255 255 255
-9.84 -3.54 1.47 255 255 255
-10.14 -3.75 0.37 255 255 255
-10.11 -3.57 0.69 255 255 255
-10.36 -3.61 1.41 255 255 255
-58.02 25.11 1.77 255 255 255
-18.58 1.68 1.06 255 255 255
-10.58 -3.65 1.39 255 255 255
-10.13 -3.57 1.44 255 255 255
-10.35 -3.64 2.28 255 255 255
-10.37 -3.61 1.34 255 255 255
-10.09 -3.61 2.05 255 255 255
-9.83 -3.55 1.38 255 255 255
-10.34 -3.64 1.86 255 255 255
-10.09 -3.60 1.79 255 255 255
-10.58 -3.64 1.31 255 255 255
-10.11 -3.59 1.36 255 255 255
-10.35 -3.63 1.70 255 255 255
-9.85 -3.55 1.69 255 255 255
-10.38 -3.60 1.26 255 255 255
-9.85 -3.54 1.30 255 255 255
-10.36 -3.62 1.57 255 255 255
-10.58 -3.64 1.24 255 255 255
-10.10 -3.60 1.63 255 255 255
-10.58 -3.65 1.54 255 255 255
-10.10 -3.59 1.28 255 255 255
-10.38 -3.60 1.14 255 255 255
-9.85 -3.55 1.56 255 255 255
-10.36 -3.62 1.49 255 255 255
-10.11 -3.58 1.19 255 255 255
-10.38 -3.59 0.93 255 255 255
-10.12 -3.59 1.52 255 255 255
-44.71 17.32 0.83 255 255 255
-10.11 -3.58 1.05 255 255 255
-10.59 -3.64 1.46 255 255 255
-9.85 -3.54 1.47 255 255 255
-10.14 -3.76 0.37 255 255 255
-10.13 -3.56 0.70 255 255 255
-10.38 -3.61 1.41 255 255 255
-57.66 25.07 1.77 255 255 255
-18.60 1.72 1.06 255 255 255
-10.59 -3.65 1.39 255 255 255
-10.37 -3.64 2.27 255 255 255
-10.14 -3.58 1.44 255 255 255
-10.11 -3.61 2.05 255 255 255
-10.38 -3.61 1.34 255 255 255
-9.85 -3.55 1.38 255 255 255
-10.36 -3.64 1.86 255 255 255
-10.12 -3.60 1.79 255 255 255
-10.60 -3.64 1.31 255 255 255
-10.13 -3.59 1.36 255 255 255
-10.36 -3.63 1.70 255 255 255
-9.86 -3.55 1.69 255 255 255
-10.39 -3.61 1.26 255 255 255
-9.87 -3.54 1.30 255 255 255
-10.37 -3.62 1.57 255 255 255
-10.13 -3.59 1.62 255 255 255
-10.60 -3.64 1.24 255 255 255
-10.12 -3.59 1.28 255 255 255
-10.60 -3.65 1.54 255 255 255
-9.86 -3.56 1.56 255 255 255
-10.39 -3.60 1.14 255 255 255
-10.38 -3.62 1.49 255 255 255
-10.12 -3.59 1.19 255 255 255
-10.40 -3.59 0.93 255 255 255
-10.14 -3.59 1.52 255 255 255
-44.73 17.49 0.83 255 255 255
-10.61 -3.64 1.46 255 255 255
-10.13 -3.58 1.05 255 255 255
-10.14 -3.78 0.36 255 255 255
-9.88 -3.55 1.47 255 255 255
-10.15 -3.57 0.70 255 255 255
-10.39 -3.61 1.41 255 255 255
-57.39 25.14 1.78 255 255 255
-18.57 1.73 1.06 255 255 255
-10.61 -3.65 1.39 255 255 255
-10.39 -3.64 2.27 255 255 255
-10.16 -3.58 1.44 255 255 255
-10.13 -3.61 2.04 255 255 255
-10.40 -3.61 1.34 255 255 255
-10.37 -3.64 1.86 255 255 255
-9.87 -3.56 1.38 255 255 255
-10.62 -3.64 1.31 255 255 255
-10.15 -3.60 1.78 255 255 255
-10.38 -3.64 1.69 255 255 255
-10.15 -3.59 1.36 255 255 255
-9.88 -3.56 1.69 255 255 255
-10.40 -3.61 1.26 255 255 255
-10.39 -3.63 1.57 255 255 255
-9.89 -3.55 1.30 255 255 255
-10.61 -3.65 1.24 255 255 255
-10.15 -3.59 1.62 255 255 255
-10.62 -3.65 1.54 255 255 255
-10.14 -3.60 1.28 255 255 255
-9.88 -3.56 1.56 255 255 255
-10.40 -3.61 1.14 255 255 255
-10.14 -3.59 1.19 255 255 255
-10.40 -3.62 1.49 255 255 255
-10.41 -3.60 0.93 255 255 255
-10.16 -3.59 1.52 255 255 255
-44.50 17.49 0.84 255 255 255
-10.15 -3.59 1.05 255 255 255
-10.62 -3.65 1.46 255 255 255
-9.90 -3.54 1.47 255 255 255
-10.14 -3.79 0.36 255 255 255
-10.16 -3.57 0.70 255 255 255
-10.40 -3.62 1.41 255 255 255
-56.76 24.95 1.78 255 255 255
-10.63 -3.64 1.39 255 255 255
-10.18 -3.58 1.44 255 255 255
-10.40 -3.65 2.27 255 255 255
-10.15 -3.62 2.04 255 255 255
-10.42 -3.61 1.33 255 255 255
-9.89 -3.56 1.38 255 255 255
-10.39 -3.65 1.85 255 255 255
-10.16 -3.61 1.78 255 255 255
-10.63 -3.65 1.31 255 255 255
-10.40 -3.64 1.69 255 255 255
-10.16 -3.60 1.36 255 255 255
-10.42 -3.61 1.26 255 255 255
-9.91 -3.56 1.69 255 255 255
-10.41 -3.63 1.57 255 255 255
-9.91 -3.55 1.30 255 255 255
-10.62 -3.65 1.24 255 255 255
-10.17 -3.60 1.62 255 255 255
-10.63 -3.65 1.53 255 255 255
-10.15 -3.60 1.28 255 255 255
-10.42 -3.61 1.14 255 255 255
-9.90 -3.56 1.56 255 255 255
-10.42 -3.62 1.49 255 255 255
-10.16 -3.59 1.19 255 255 255
-10.17 -3.60 1.52 255 255 255
-10.42 -3.61 0.93 255 255 255
-10.17 -3.59 1.05 255 255 255
-10.64 -3.65 1.46 255 255 255
-10.15 -3.80 0.36 255 255 255
-9.92 -3.55 1.47 255 255 255
-10.43 -3.61 1.41 255 255 255
-10.18 -3.57 0.70 255 255 255
-56.55 25.05 1.78 255 255 255
-10.63 -3.65 1.39 255 255 255
-10.20 -3.58 1.44 255 255 255
-10.42 -3.65 2.26 255 255 255
-10.16 -3.62 2.04 255 255 255
-10.43 -3.62 1.33 255 255 255
-10.40 -3.65 1.85 255 255 255
-9.90 -3.57 1.38 255 255 255
-10.64 -3.65 1.31 255 255 255
-10.18 -3.61 1.78 255 255 255
-10.41 -3.64 1.69 255 255 255
-10.18 -3.60 1.36 255 255 255
-10.43 -3.62 1.26 255 255 255
-9.92 -3.56 1.68 255 255 255
-10.42 -3.63 1.57 255 255 255
-9.93 -3.55 1.30 255 255 255
-10.63 -3.66 1.24 255 255 255
-10.18 -3.60 1.62 255 255 255
-10.17 -3.60 1.28 255 255 255
-10.64 -3.65 1.53 255 255 255
-9.92 -3.56 1.55 255 255 255
-10.44 -3.61 1.14 255 255 255
-10.18 -3.60 1.19 255 255 255
-10.43 -3.62 1.49 255 255 255
-10.19 -3.60 1.52 255 255 255
-10.43 -3.61 0.93 255 255 255
-44.02 17.50 0.85 255 255 255
-10.19 -3.59 1.05 255 255 255
-10.64 -3.65 1.46 255 255 255
-10.13 -3.83 0.35 255 255 255
-9.93 -3.55 1.47 255 255 255
-10.19 -3.58 0.71 255 255 255
-10.43 -3.62 1.41 255 255 255
-56.21 25.04 1.78 255 255 255
-10.65 -3.65 1.39 255 255 255
-10.43 -3.65 2.26 255 255 255
-10.22 -3.58 1.44 255 255 255
-10.45 -3.62 1.33 255 255 255
-10.18 -3.62 2.04 255 255 255
-10.42 -3.65 1.85 255 255 255
-9.92 -3.57 1.38 255 255 255
-10.19 -3.61 1.78 255 255 255
-10.65 -3.66 1.31 255 255 255
-10.19 -3.61 1.36 255 255 255
-10.43 -3.64 1.69 255 255 255
-9.94 -3.56 1.68 255 255 255
-10.45 -3.62 1.26 255 255 255
-10.44 -3.63 1.56 255 255 255
-9.94 -3.55 1.30 255 255 255
-10.65 -3.65 1.24 255 255 255
-10.21 -3.60 1.62 255 255 255
-10.65 -3.66 1.53 255 255 255
-10.18 -3.61 1.28 255 255 255
-10.45 -3.61 1.14 255 255 255
-9.93 -3.57 1.55 255 255 255
-10.20 -3.59 1.20 255 255 255
-10.45 -3.62 1.49 255 255 255
-10.20 -3.60 1.52 255 255 255
-10.45 -3.61 0.93 255 255 255
-39.59 14.89 0.94 255 255 255
-10.66 -3.66 1.46 255 255 255
-10.21 -3.59 1.05 255 255 255
-10.13 -3.85 0.35 255 255 255
-9.95 -3.56 1.47 255 255 255
-10.21 -3.58 0.71 255 255 255
-10.45 -3.63 1.41 255 255 255
-39.58 14.90 1.67 255 255 255
-10.67 -3.65 1.39 255 255 255
-10.45 -3.65 2.26 255 255 255
-10.23 -3.58 1.44 255 255 255
-10.46 -3.62 1.33 255 255 255
-10.20 -3.62 2.03 255 255 255
-10.44 -3.65 1.85 255 255 255
-9.95 -3.57 1.38 255 255 255
-10.21 -3.61 1.78 255 255 255
-10.67 -3.66 1.31 255 255 255
-10.20 -3.61 1.36 255 255 255
-10.45 -3.64 1.69 255 255 255
-9.96 -3.57 1.68 255 255 255
-10.46 -3.62 1.26 255 255 255
-10.45 -3.64 1.56 255 255 255
-9.97 -3.55 1.30 255 255 255
-10.67 -3.65 1.24 255 255 255
-10.23 -3.60 1.62 255 255 255
-10.67 -3.66 1.53 255 255 255
-10.21 -3.61 1.28 255 255 255
-10.46 -3.62 1.14 255 255 255
-9.95 -3.57 1.55 255 255 255
-10.22 -3.60 1.20 255 255 255
-10.46 -3.63 1.49 255 255 255
-10.22 -3.60 1.52 255 255 255
-10.47 -3.61 0.93 255 255 255
-10.67 -3.66 1.46 255 255 255
-10.23 -3.59 1.06 255 255 255
-10.12 -3.86 0.35 255 255 255
-9.96 -3.56 1.47 255 255 255
-10.46 -3.63 1.41 255 255 255
-10.23 -3.58 0.71 255 255 255
-10.69 -3.65 1.39 255 255 255
-10.46 -3.65 2.25 255 255 255
-10.24 -3.59 1.44 255 255 255
-10.48 -3.62 1.33 255 255 255
-10.21 -3.63 2.03 255 255 255
-9.97 -3.57 1.38 255 255 255
-10.45 -3.65 1.85 255 255 255
-10.23 -3.61 1.78 255 255 255
-10.68 -3.66 1.31 255 255 255
-10.22 -3.61 1.36 255 255 255
-10.47 -3.64 1.69 255 255 255
-9.98 -3.57 1.68 255 255 255
-10.48 -3.62 1.26 255 255 255
-9.99 -3.56 1.30 255 255 255
-10.46 -3.64 1.56 255 255 255
-10.69 -3.65 1.24 255 255 255
-10.24 -3.61 1.62 255 255 255
-10.22 -3.61 1.28 255 255 255
-10.68 -3.66 1.53 255 255 255
-9.97 -3.57 1.55 255 255 255
-10.48 -3.62 1.14 255 255 255
-10.48 -3.63 1.49 255 255 255
-10.23 -3.60 1.20 255 255 255
-10.48 -3.61 0.93 255 255 255
-10.23 -3.61 1.52 255 255 255
-10.69 -3.66 1.46 255 255 255
-10.24 -3.59 1.06 255 255 255
-10.04 -3.95 0.31 255 255 255
-9.99 -3.57 1.47 255 255 255
-10.24 -3.59 0.71 255 255 255
-10.48 -3.63 1.41 255 255 255
-10.70 -3.65 1.39 255 255 255
-10.26 -3.60 1.44 255 255 255
-10.48 -3.66 2.25 255 255 255
-10.22 -3.64 2.03 255 255 255
-10.49 -3.62 1.33 255 255 255
-9.99 -3.57 1.38 255 255 255
-10.47 -3.65 1.84 255 255 255
-10.24 -3.62 1.77 255 255 255
-10.69 -3.66 1.31 255 255 255
-10.23 -3.62 1.36 255 255 255
-10.48 -3.65 1.69 255 255 255
-10.49 -3.62 1.26 255 255 255
-9.99 -3.57 1.68 255 255 255
-10.01 -3.56 1.30 255 255 255
-10.48 -3.64 1.56 255 255 255
-10.69 -3.66 1.24 255 255 255
-10.25 -3.61 1.62 255 255 255
-10.24 -3.61 1.28 255 255 255
-10.69 -3.67 1.53 255 255 255
-10.51 -3.61 1.15 255 255 255
-9.99 -3.58 1.55 255 255 255
-10.25 -3.60 1.20 255 255 255
-10.49 -3.63 1.49 255 255 255
-10.50 -3.62 0.94 255 255 255
-10.25 -3.61 1.52 255 255 255
-43.78 17.95 0.86 255 255 255
-10.26 -3.59 1.06 255 255 255
-10.71 -3.66 1.46 255 255 255
-10.00 -3.57 1.47 255 255 255
-10.05 -3.96 0.31 255 255 255
-10.27 -3.59 0.71 255 255 255
-10.49 -3.63 1.41 255 255 255
-55.16 25.22 1.79 255 255 255
-10.71 -3.66 1.39 255 255 255
-10.28 -3.60 1.43 255 255 255
-10.49 -3.66 2.25 255 255 255
-10.25 -3.64 2.03 255 255 255
-10.51 -3.63 1.33 255 255 255
-10.01 -3.58 1.38 255 255 255
-10.48 -3.66 1.84 255 255 255
-10.26 -3.62 1.77 255 255 255
-10.71 -3.66 1.31 255 255 255
-10.27 -3.61 1.36 255 255 255
-10.49 -3.65 1.68 255 255 255
-10.02 -3.57 1.68 255 255 255
-10.51 -3.63 1.26 255 255 255
-10.49 -3.65 1.56 255 255 255
-10.02 -3.56 1.30 255 255 255
-10.26 -3.62 1.62 255 255 255
-10.70 -3.67 1.24 255 255 255
-10.26 -3.61 1.28 255 255 255
-10.71 -3.67 1.53 255 255 255
-10.02 -3.58 1.55 255 255 255
-10.52 -3.62 1.15 255 255 255
-10.51 -3.63 1.48 255 255 255
-10.27 -3.60 1.20 255 255 255
-10.27 -3.62 1.51 255 255 255
-10.51 -3.62 0.94 255 255 255
-10.28 -3.59 1.06 255 255 255
-10.72 -3.66 1.46 255 255 255
-10.02 -3.57 1.46 255 255 255
-10.07 -3.96 0.32 255 255 255
-10.28 -3.59 0.72 255 255 255
-10.51 -3.63 1.41 255 255 255
-10.73 -3.66 1.38 255 255 255
-10.29 -3.60 1.43 255 255 255
-10.50 -3.66 2.25 255 255 255
-10.27 -3.63 2.02 255 255 255
-10.52 -3.63 1.33 255 255 255
-10.03 -3.58 1.38 255 255 255
-10.50 -3.66 1.84 255 255 255
-10.72 -3.66 1.31 255 255 255
-10.27 -3.63 1.77 255 255 255
-10.27 -3.62 1.36 255 255 255
-10.51 -3.64 1.68 255 255 255
-10.04 -3.58 1.67 255 255 255
-10.52 -3.63 1.26 255 255 255
-10.04 -3.57 1.30 255 255 255
-10.52 -3.64 1.56 255 255 255
-10.27 -3.62 1.62 255 255 255
-10.73 -3.66 1.24 255 255 255
-10.72 -3.68 1.53 255 255 255
-10.28 -3.61 1.28 255 255 255
-10.04 -3.58 1.55 255 255 255
-10.54 -3.62 1.15 255 255 255
-10.29 -3.60 1.20 255 255 255
-10.52 -3.64 1.48 255 255 255
-10.27 -3.62 1.51 255 255 255
-10.53 -3.62 0.94 255 255 255
-10.29 -3.60 1.06 255 255 255
-10.73 -3.67 1.46 255 255 255
-10.04 -3.57 1.46 255 255 255
-10.07 -3.97 0.32 255 255 255
-10.29 -3.59 0.72 255 255 255
-10.52 -3.64 1.41 255 255 255
-10.73 -3.67 1.38 255 255 255
-10.30 -3.61 1.43 255 255 255
-10.52 -3.66 2.24 255 255 255
-10.54 -3.63 1.33 255 255 255
-10.27 -3.65 2.02 255 255 255
-10.05 -3.58 1.38 255 255 255
-10.52 -3.65 1.84 255 255 255
-10.28 -3.63 1.77 255 255 255
-10.73 -3.67 1.31 255 255 255
-10.29 -3.62 1.36 255 255 255
-10.53 -3.65 1.68 255 255 255
-10.54 -3.63 1.26 255 255 255
-10.05 -3.58 1.67 255 255 255
-10.06 -3.57 1.30 255 255 255
-10.53 -3.65 1.56 255 255 255
-10.28 -3.63 1.61 255 255 255
-10.75 -3.65 1.24 255 255 255
-10.29 -3.62 1.28 255 255 255
-10.73 -3.67 1.53 255 255 255
-10.54 -3.63 1.15 255 255 255
-10.05 -3.58 1.55 255 255 255
-10.53 -3.64 1.48 255 255 255
-10.31 -3.60 1.20 255 255 255
-10.29 -3.62 1.51 255 255 255
-10.55 -3.62 0.94 255 255 255
-10.31 -3.60 1.06 255 255 255
-10.74 -3.67 1.46 255 255 255
-10.07 -3.57 1.46 255 255 255
-10.09 -3.97 0.32 255 255 255
-10.31 -3.60 0.72 255 255 255
-10.53 -3.64 1.41 255 255 255
-10.75 -3.67 1.38 255 255 255
-10.33 -3.61 1.43 255 255 255
-10.53 -3.67 2.24 255 255 255
-10.29 -3.64 2.02 255 255 255
-10.55 -3.63 1.33 255 255 255
-10.06 -3.58 1.38 255 255 255
-10.54 -3.66 1.84 255 255 255
-10.75 -3.67 1.31 255 255 255
-10.30 -3.63 1.77 255 255 255
-10.31 -3.62 1.36 255 255 255
-10.54 -3.65 1.68 255 255 255
-10.07 -3.58 1.67 255 255 255
-10.55 -3.63 1.26 255 255 255
-10.08 -3.57 1.30 255 255 255
-10.54 -3.65 1.56 255 255 255
-10.31 -3.63 1.61 255 255 255
-10.76 -3.66 1.24 255 255 255
-10.31 -3.62 1.28 255 255 255
-10.75 -3.67 1.53 255 255 255
-10.08 -3.58 1.55 255 255 255
-10.57 -3.62 1.15 255 255 255
-10.33 -3.61 1.20 255 255 255
-10.55 -3.64 1.48 255 255 255
-10.56 -3.62 0.94 255 255 255
-10.31 -3.62 1.51 255 255 255
-10.33 -3.60 1.06 255 255 255
-10.75 -3.67 1.46 255 255 255
-10.09 -3.57 1.46 255 255 255
-10.10 -3.98 0.32 255 255 255
-10.34 -3.59 0.72 255 255 255
-10.56 -3.64 1.41 255 255 255
-10.77 -3.67 1.38 255 255 255
-10.35 -3.61 1.43 255 255 255
-10.55 -3.67 2.24 255 255 255
-10.31 -3.65 2.02 255 255 255
-10.57 -3.63 1.33 255 255 255
-10.08 -3.59 1.38 255 255 255
-10.55 -3.66 1.83 255 255 255
-10.32 -3.63 1.77 255 255 255
-10.76 -3.67 1.31 255 255 255
-10.33 -3.62 1.36 255 255 255
-10.56 -3.65 1.68 255 255 255
-10.57 -3.63 1.26 255 255 255
-10.10 -3.58 1.67 255 255 255
-10.09 -3.58 1.30 255 255 255
-10.56 -3.65 1.56 255 255 255
-10.33 -3.62 1.61 255 255 255
-10.77 -3.66 1.24 255 255 255
-10.33 -3.62 1.28 255 255 255
-10.76 -3.68 1.53 255 255 255
-10.58 -3.62 1.15 255 255 255
-10.10 -3.58 1.54 255 255 255
-10.34 -3.61 1.20 255 255 255
-10.56 -3.65 1.48 255 255 255
-10.33 -3.63 1.51 255 255 255
-10.58 -3.62 0.94 255 255 255
-10.35 -3.61 1.06 255 255 255
-10.77 -3.67 1.45 255 255 255
-10.12 -3.98 0.32 255 255 255
-10.11 -3.58 1.46 255 255 255
-10.57 -3.64 1.41 255 255 255
-10.36 -3.59 0.73 255 255 255
-10.78 -3.67 1.38 255 255 255
-10.37 -3.60 1.43 255 255 255
-10.57 -3.67 2.23 255 255 255
-10.33 -3.65 2.01 255 255 255
-10.58 -3.64 1.33 255 255 255
-10.10 -3.59 1.38 255 255 255
-10.57 -3.66 1.83 255 255 255
-10.78 -3.67 1.31 255 255 255
-10.34 -3.64 1.76 255 255 255
-10.35 -3.62 1.35 255 255 255
-10.57 -3.65 1.68 255 255 255
-10.12 -3.58 1.67 255 255 255
-10.59 -3.63 1.26 255 255 255
-10.12 -3.58 1.30 255 255 255
-10.58 -3.65 1.56 255 255 255
-10.79 -3.66 1.24 255 255 255
-10.34 -3.63 1.61 255 255 255
-10.35 -3.62 1.28 255 255 255
-10.77 -3.68 1.53 255 255 255
-10.11 -3.59 1.54 255 255 255
-10.60 -3.62 1.15 255 255 255
-10.36 -3.61 1.20 255 255 255
-10.58 -3.65 1.48 255 255 255
-10.35 -3.62 1.51 255 255 255
-10.59 -3.62 0.94 255 255 255
-10.36 -3.61 1.06 255 255 255
-10.78 -3.68 1.45 255 255 255
-10.13 -3.58 1.46 255 255 255
-10.13 -3.99 0.32 255 255 255
-10.38 -3.59 0.73 255 255 255
-10.58 -3.64 1.41 255 255 255
-10.79 -3.67 1.38 255 255 255
-10.59 -3.67 2.23 255 255 255
-10.38 -3.61 1.43 255 255 255
-10.35 -3.65 2.01 255 255 255
-10.60 -3.63 1.33 255 255 255
-10.12 -3.59 1.38 255 255 255
-10.59 -3.66 1.83 255 255 255
-10.35 -3.64 1.76 255 255 255
-10.79 -3.67 1.31 255 255 255
-10.59 -3.65 1.68 255 255 255
-10.37 -3.62 1.35 255 255 255
-10.14 -3.58 1.66 255 255 255
-10.60 -3.63 1.26 255 255 255
-10.13 -3.58 1.30 255 255 255
-10.59 -3.65 1.56 255 255 255
-10.36 -3.63 1.61 255 255 255
-10.80 -3.67 1.24 255 255 255
-10.78 -3.69 1.53 255 255 255
-10.36 -3.62 1.28 255 255 255
-10.61 -3.63 1.15 255 255 255
-10.13 -3.59 1.54 255 255 255
-10.37 -3.62 1.20 255 255 255
-10.60 -3.65 1.48 255 255 255
-10.37 -3.62 1.51 255 255 255
-10.61 -3.62 0.95 255 255 255
-10.38 -3.61 1.06 255 255 255
-10.79 -3.68 1.45 255 255 255
-10.14 -3.58 1.46 255 255 255
-10.13 -4.01 0.32 255 255 255
-10.39 -3.60 0.73 255 255 255
-10.60 -3.64 1.41 255 255 255
-10.80 -3.68 1.38 255 255 255
-10.39 -3.61 1.43 255 255 255
-10.59 -3.67 2.23 255 255 255
-10.61 -3.64 1.33 255 255 255
-10.36 -3.65 2.01 255 255 255
-10.13 -3.59 1.38 255 255 255
-10.60 -3.66 1.83 255 255 255
-10.37 -3.64 1.76 255 255 255
-10.81 -3.67 1.31 255 255 255
-10.39 -3.62 1.35 255 255 255
-10.60 -3.66 1.68 255 255 255
-10.62 -3.63 1.26 255 255 255
-10.16 -3.58 1.66 255 255 255
-10.15 -3.58 1.30 255 255 255
-10.61 -3.65 1.55 255 255 255
-10.38 -3.63 1.61 255 255 255
-10.82 -3.66 1.24 255 255 255
-10.38 -3.63 1.28 255 255 255
-10.80 -3.69 1.53 255 255 255
-10.14 -3.59 1.54 255 255 255
-10.62 -3.63 1.15 255 255 255
-10.61 -3.65 1.48 255 255 255
-10.38 -3.62 1.20 255 255 255
-10.39 -3.63 1.51 255 255 255
-10.62 -3.63 0.95 255 255 255
-10.39 -3.61 1.06 255 255 255
-10.81 -3.68 1.45 255 255 255
-10.16 -3.58 1.46 255 255 255
-10.14 -4.02 0.32 255 255 255
-10.62 -3.65 1.41 255 255 255
-10.39 -3.60 0.73 255 255 255
-10.81 -3.68 1.38 255 255 255
-10.41 -3.61 1.43 255 255 255
-10.61 -3.68 2.22 255 255 255
-10.38 -3.65 2.00 255 255 255
-10.63 -3.64 1.33 255 255 255
-10.15 -3.59 1.38 255 255 255
-10.61 -3.67 1.83 255 255 255
-10.82 -3.67 1.31 255 255 255
-10.39 -3.64 1.76 255 255 255
-10.40 -3.62 1.35 255 255 255
-10.61 -3.66 1.67 255 255 255
-10.17 -3.59 1.66 255 255 255
-10.63 -3.64 1.26 255 255 255
-10.17 -3.58 1.30 255 255 255
-10.62 -3.66 1.55 255 255 255
-10.40 -3.63 1.61 255 255 255
-10.82 -3.67 1.24 255 255 255
-10.39 -3.63 1.28 255 255 255
-10.82 -3.68 1.52 255 255 255
-10.16 -3.59 1.54 255 255 255
-10.64 -3.63 1.15 255 255 255
-10.40 -3.63 1.20 255 255 255
-10.62 -3.65 1.48 255 255 255
-10.40 -3.63 1.51 255 255 255
-10.64 -3.63 0.95 255 255 255
-10.41 -3.62 1.06 255 255 255
-10.82 -3.68 1.45 255 255 255
-10.14 -4.03 0.32 255 255 255
-10.18 -3.58 1.46 255 255 255
-10.42 -3.60 0.74 255 255 255
-10.64 -3.64 1.41 255 255 255
-10.83 -3.68 1.38 255 255 255
-10.43 -3.61 1.43 255 255 255
-10.63 -3.68 2.22 255 255 255
-10.64 -3.64 1.33 255 255 255
-10.39 -3.66 2.00 255 255 255
-10.17 -3.59 1.38 255 255 255
-10.62 -3.67 1.83 255 255 255
-10.41 -3.64 1.76 255 255 255
-10.84 -3.67 1.31 255 255 255
-10.42 -3.62 1.35 255 255 255
-10.63 -3.66 1.67 255 255 255
-10.65 -3.64 1.26 255 255 255
-10.19 -3.59 1.66 255 255 255
-10.63 -3.66 1.55 255 255 255
-10.19 -3.58 1.30 255 255 255
-10.41 -3.63 1.60 255 255 255
-10.84 -3.67 1.24 255 255 255
-10.41 -3.63 1.28 255 255 255
-10.83 -3.68 1.52 255 255 255
-10.18 -3.60 1.54 255 255 255
-10.65 -3.63 1.15 255 255 255
-10.41 -3.63 1.20 255 255 255
