ply
format ascii 1.0
element vertex 1607
property float x
property float y
property float z
property uchar red
property uchar green
property uchar blue
end_header
-15.29 17.65 2.27 255 255 255
-9.98 -3.57 1.01 255 255 255
-9.86 -3.56 1.49 255 255 255
-15.48 30.99 2.53 255 255 255
-10.10 -3.59 1.46 255 255 255
-9.86 -3.54 1.12 255 255 255
-9.98 -3.56 1.19 255 255 255
-9.75 -3.53 1.50 255 255 255
-9.98 -3.59 1.47 255 255 255
-9.87 -3.53 1.23 255 255 255
-10.10 -3.60 1.26 255 255 255
-9.87 -3.57 1.54 255 255 255
-10.10 -3.60 1.51 255 255 255
-9.87 -3.56 1.32 255 255 255
-9.98 -3.58 1.29 255 255 255
-9.75 -3.54 1.56 255 255 255
-9.76 -3.52 1.34 255 255 255
-9.98 -3.59 1.53 255 255 255
-9.87 -3.57 1.63 255 255 255
-10.10 -3.58 1.35 255 255 255
-9.87 -3.55 1.38 255 255 255
-9.98 -3.58 1.58 255 255 255
-13.85 31.20 2.35 255 255 255
-9.98 -3.59 1.36 255 255 255
-9.87 -3.58 1.78 255 255 255
-9.76 -3.52 1.39 255 255 255
-9.98 -3.59 1.68 255 255 255
-15.42 31.01 1.77 255 255 255
-9.87 -3.58 2.13 255 255 255
-10.10 -3.59 1.40 255 255 255
-15.25 17.66 1.81 255 255 255
-9.99 -3.60 1.92 255 255 255
-9.87 -3.56 1.43 255 255 255
-13.82 31.18 1.60 255 255 255
-16.99 30.78 1.94 255 255 255
-15.40 31.02 1.01 255 255 255
-15.24 17.70 1.36 255 255 255
-11.74 5.48 2.01 255 255 255
-12.89 22.62 0.98 255 255 255
-16.96 30.79 1.18 255 255 255
-9.76 -3.53 1.45 255 255 255
-9.97 -3.61 0.35 255 255 255
-9.87 -3.52 0.83 255 255 255
-9.99 -3.57 1.42 255 255 255
-9.99 -3.56 1.01 255 255 255
-9.87 -3.56 1.49 255 255 255
-15.37 31.01 2.53 255 255 255
-9.87 -3.54 1.12 255 255 255
-10.10 -3.59 1.46 255 255 255
-9.76 -3.53 1.50 255 255 255
-9.99 -3.57 1.18 255 255 255
-9.88 -3.54 1.23 255 255 255
-9.99 -3.59 1.47 255 255 255
-9.87 -3.57 1.54 255 255 255
-10.10 -3.59 1.26 255 255 255
-9.87 -3.56 1.32 255 255 255
-10.11 -3.59 1.51 255 255 255
-9.99 -3.59 1.29 255 255 255
-9.76 -3.54 1.56 255 255 255
-9.99 -3.59 1.53 255 255 255
-9.76 -3.52 1.34 255 255 255
-10.11 -3.58 1.35 255 255 255
-9.88 -3.57 1.63 255 255 255
-9.99 -3.58 1.58 255 255 255
-9.88 -3.55 1.38 255 255 255
-13.74 31.21 2.36 255 255 255
-9.99 -3.58 1.36 255 255 255
-9.88 -3.58 1.78 255 255 255
-9.99 -3.59 1.68 255 255 255
-9.76 -3.53 1.39 255 255 255
-15.31 31.02 1.77 255 255 255
-10.11 -3.59 1.40 255 255 255
-9.88 -3.59 2.13 255 255 255
-18.47 30.53 2.11 255 255 255
-10.00 -3.59 1.92 255 255 255
-9.88 -3.56 1.43 255 255 255
-13.72 31.22 1.60 255 255 255
-16.88 30.79 1.94 255 255 255
-15.28 31.04 1.01 255 255 255
-18.45 30.57 1.35 255 255 255
-12.78 22.45 0.98 255 255 255
-11.74 5.58 2.02 255 255 255
-16.85 30.81 1.18 255 255 255
-9.77 -3.54 1.45 255 255 255
-9.98 -3.61 0.35 255 255 255
-10.00 -3.56 1.42 255 255 255
-9.88 -3.52 0.83 255 255 255
-9.99 -3.56 1.01 255 255 255
-9.88 -3.55 1.49 255 255 255
-15.25 31.02 2.53 255 255 255
-10.11 -3.59 1.46 255 255 255
-9.88 -3.54 1.12 255 255 255
-10.00 -3.57 1.18 255 255 255
-9.77 -3.54 1.50 255 255 255
-9.88 -3.54 1.23 255 255 255
-10.00 -3.59 1.47 255 255 255
-10.11 -3.60 1.26 255 255 255
-9.88 -3.58 1.54 255 255 255
-9.88 -3.56 1.32 255 255 255
-10.11 -3.59 1.51 255 255 255
-9.77 -3.53 1.56 255 255 255
-10.00 -3.59 1.29 255 255 255
-9.77 -3.53 1.34 255 255 255
-10.00 -3.59 1.53 255 255 255
-9.88 -3.56 1.63 255 255 255
-10.11 -3.58 1.35 255 255 255
-9.88 -3.56 1.38 255 255 255
-10.00 -3.59 1.58 255 255 255
-13.62 31.23 2.36 255 255 255
-9.88 -3.58 1.78 255 255 255
-10.00 -3.59 1.36 255 255 255
-10.00 -3.59 1.68 255 255 255
-9.77 -3.53 1.39 255 255 255
-15.19 31.01 1.77 255 255 255
-10.11 -3.60 1.40 255 255 255
-9.89 -3.59 2.13 255 255 255
-18.36 30.58 2.12 255 255 255
-10.00 -3.60 1.92 255 255 255
-9.88 -3.56 1.43 255 255 255
-13.59 31.21 1.60 255 255 255
-16.76 30.81 1.94 255 255 255
-15.16 31.02 1.01 255 255 255
-11.98 5.25 2.07 255 255 255
-18.33 30.59 1.35 255 255 255
-11.72 5.61 2.02 255 255 255
-12.69 22.40 0.99 255 255 255
-16.73 30.82 1.18 255 255 255
-9.99 -3.61 0.35 255 255 255
-9.77 -3.54 1.45 255 255 255
-9.89 -3.53 0.83 255 255 255
-10.00 -3.57 1.42 255 255 255
-9.89 -3.56 1.49 255 255 255
-10.00 -3.57 1.01 255 255 255
-15.14 31.04 2.53 255 255 255
-9.89 -3.54 1.12 255 255 255
-10.12 -3.58 1.46 255 255 255
-9.78 -3.54 1.50 255 255 255
-10.00 -3.56 1.19 255 255 255
-10.00 -3.59 1.47 255 255 255
-9.89 -3.54 1.23 255 255 255
-9.89 -3.57 1.54 255 255 255
-10.12 -3.60 1.26 255 255 255
-9.89 -3.57 1.32 255 255 255
-10.12 -3.60 1.51 255 255 255
-10.00 -3.58 1.29 255 255 255
-9.78 -3.54 1.56 255 255 255
-10.01 -3.59 1.53 255 255 255
-9.78 -3.53 1.34 255 255 255
-10.12 -3.59 1.35 255 255 255
-9.89 -3.56 1.63 255 255 255
-10.01 -3.58 1.58 255 255 255
-9.89 -3.56 1.38 255 255 255
-13.52 31.24 2.36 255 255 255
-10.00 -3.59 1.36 255 255 255
-9.89 -3.58 1.78 255 255 255
-10.01 -3.59 1.68 255 255 255
-9.78 -3.53 1.39 255 255 255
-15.08 31.02 1.77 255 255 255
-9.89 -3.59 2.13 255 255 255
-10.12 -3.59 1.40 255 255 255
-18.25 30.59 2.12 255 255 255
-10.01 -3.60 1.92 255 255 255
-9.89 -3.57 1.43 255 255 255
-13.49 31.23 1.60 255 255 255
-16.65 30.83 1.94 255 255 255
-11.96 5.24 2.07 255 255 255
-15.05 31.04 1.01 255 255 255
-18.22 30.60 1.35 255 255 255
-12.61 22.38 0.99 255 255 255
-16.62 30.84 1.18 255 255 255
-10.00 -3.61 0.35 255 255 255
-9.78 -3.54 1.45 255 255 255
-11.67 12.62 2.12 255 255 255
-9.90 -3.53 0.83 255 255 255
-10.01 -3.57 1.42 255 255 255
-9.90 -3.57 1.49 255 255 255
-10.01 -3.56 1.01 255 255 255
-15.03 31.05 2.53 255 255 255
-9.90 -3.54 1.12 255 255 255
-10.13 -3.59 1.46 255 255 255
-10.01 -3.56 1.19 255 255 255
-9.79 -3.53 1.50 255 255 255
-9.90 -3.54 1.23 255 255 255
-10.01 -3.59 1.47 255 255 255
-10.13 -3.59 1.26 255 255 255
-9.90 -3.58 1.54 255 255 255
-10.13 -3.60 1.51 255 255 255
-9.90 -3.57 1.32 255 255 255
-9.79 -3.54 1.56 255 255 255
-10.01 -3.59 1.29 255 255 255
-10.01 -3.59 1.53 255 255 255
-9.79 -3.52 1.34 255 255 255
-10.13 -3.59 1.35 255 255 255
-9.90 -3.57 1.63 255 255 255
-10.02 -3.58 1.58 255 255 255
-9.90 -3.57 1.38 255 255 255
-11.65 12.64 1.80 255 255 255
-10.01 -3.59 1.36 255 255 255
-9.90 -3.58 1.78 255 255 255
-10.02 -3.59 1.68 255 255 255
-9.79 -3.53 1.39 255 255 255
-14.96 31.07 1.77 255 255 255
-9.90 -3.59 2.13 255 255 255
-10.13 -3.59 1.40 255 255 255
-18.13 30.61 2.12 255 255 255
-9.90 -3.57 1.43 255 255 255
-10.02 -3.60 1.92 255 255 255
-11.64 12.65 1.47 255 255 255
-16.53 30.84 1.94 255 255 255
-11.93 5.26 2.07 255 255 255
-14.94 31.09 1.01 255 255 255
-18.10 30.62 1.35 255 255 255
-11.63 12.68 1.15 255 255 255
-16.50 30.86 1.18 255 255 255
-11.63 12.56 2.44 255 255 255
-10.00 -3.61 0.35 255 255 255
-9.79 -3.54 1.45 255 255 255
-11.62 12.59 2.12 255 255 255
-10.02 -3.57 1.42 255 255 255
-9.90 -3.53 0.83 255 255 255
-10.02 -3.57 1.01 255 255 255
-9.90 -3.57 1.49 255 255 255
-14.91 31.07 2.53 255 255 255
-9.90 -3.54 1.12 255 255 255
-10.14 -3.59 1.46 255 255 255
-9.79 -3.53 1.50 255 255 255
-10.02 -3.57 1.18 255 255 255
-9.91 -3.55 1.23 255 255 255
-10.02 -3.59 1.47 255 255 255
-9.90 -3.58 1.54 255 255 255
-10.13 -3.60 1.26 255 255 255
-10.14 -3.60 1.51 255 255 255
-9.90 -3.57 1.32 255 255 255
-9.79 -3.55 1.56 255 255 255
-10.02 -3.59 1.29 255 255 255
-10.02 -3.59 1.53 255 255 255
-9.79 -3.53 1.34 255 255 255
-10.14 -3.59 1.35 255 255 255
-9.91 -3.57 1.63 255 255 255
-10.02 -3.59 1.58 255 255 255
-9.91 -3.57 1.38 255 255 255
-11.60 12.60 1.80 255 255 255
-9.91 -3.58 1.78 255 255 255
-10.02 -3.60 1.36 255 255 255
-10.02 -3.59 1.68 255 255 255
-9.79 -3.54 1.39 255 255 255
-14.86 31.06 1.77 255 255 255
-10.14 -3.60 1.40 255 255 255
-9.91 -3.59 2.13 255 255 255
-18.03 30.62 2.12 255 255 255
-10.03 -3.60 1.92 255 255 255
-9.91 -3.57 1.43 255 255 255
-11.59 12.60 1.47 255 255 255
-16.43 30.86 1.95 255 255 255
-14.83 31.07 1.02 255 255 255
-18.00 30.64 1.36 255 255 255
-11.58 12.62 1.15 255 255 255
-16.40 30.87 1.19 255 255 255
-11.58 12.56 2.44 255 255 255
-9.80 -3.54 1.45 255 255 255
-10.01 -3.61 0.35 255 255 255
-11.57 12.57 2.12 255 255 255
-10.03 -3.56 1.42 255 255 255
-9.91 -3.52 0.83 255 255 255
-10.02 -3.57 1.01 255 255 255
-9.91 -3.57 1.49 255 255 255
-14.81 31.09 2.53 255 255 255
-10.14 -3.60 1.46 255 255 255
-9.91 -3.55 1.12 255 255 255
-9.80 -3.54 1.50 255 255 255
-10.03 -3.57 1.18 255 255 255
-10.03 -3.59 1.47 255 255 255
-9.91 -3.55 1.23 255 255 255
-9.91 -3.57 1.54 255 255 255
-10.14 -3.60 1.26 255 255 255
-10.14 -3.60 1.51 255 255 255
-9.91 -3.56 1.32 255 255 255
-9.80 -3.55 1.56 255 255 255
-10.03 -3.59 1.29 255 255 255
-10.03 -3.59 1.53 255 255 255
-9.80 -3.53 1.34 255 255 255
-10.15 -3.59 1.35 255 255 255
-9.92 -3.57 1.63 255 255 255
-10.03 -3.58 1.58 255 255 255
-9.91 -3.57 1.38 255 255 255
-11.55 12.58 1.80 255 255 255
-10.03 -3.59 1.36 255 255 255
-9.92 -3.58 1.78 255 255 255
-9.80 -3.54 1.39 255 255 255
-10.03 -3.59 1.68 255 255 255
-14.74 31.07 1.77 255 255 255
-10.15 -3.59 1.40 255 255 255
-9.92 -3.60 2.13 255 255 255
-17.91 30.64 2.12 255 255 255
-10.03 -3.60 1.92 255 255 255
-9.92 -3.57 1.43 255 255 255
-11.54 12.60 1.47 255 255 255
-16.32 30.87 1.95 255 255 255
-14.72 31.09 1.02 255 255 255
-11.89 5.28 2.08 255 255 255
-17.88 30.65 1.36 255 255 255
-11.53 12.60 1.15 255 255 255
-16.29 30.89 1.19 255 255 255
-11.54 12.56 2.44 255 255 255
-10.02 -3.61 0.35 255 255 255
-9.81 -3.54 1.45 255 255 255
-11.53 12.58 2.12 255 255 255
-10.04 -3.58 1.42 255 255 255
-9.92 -3.53 0.83 255 255 255
-9.92 -3.57 1.49 255 255 255
-10.03 -3.56 1.01 255 255 255
-14.69 31.07 2.53 255 255 255
-9.92 -3.55 1.12 255 255 255
-10.15 -3.59 1.46 255 255 255
-10.03 -3.57 1.18 255 255 255
-9.81 -3.54 1.50 255 255 255
-10.04 -3.59 1.47 255 255 255
-9.92 -3.56 1.23 255 255 255
-10.15 -3.60 1.26 255 255 255
-9.92 -3.59 1.54 255 255 255
-10.15 -3.60 1.51 255 255 255
-9.92 -3.56 1.32 255 255 255
-10.04 -3.58 1.29 255 255 255
-9.81 -3.54 1.56 255 255 255
-10.04 -3.59 1.53 255 255 255
-9.81 -3.54 1.34 255 255 255
-9.92 -3.57 1.63 255 255 255
-10.15 -3.60 1.35 255 255 255
-9.92 -3.57 1.38 255 255 255
-10.04 -3.59 1.58 255 255 255
-11.50 12.59 1.80 255 255 255
-9.93 -3.58 1.78 255 255 255
-10.04 -3.59 1.36 255 255 255
-10.04 -3.59 1.68 255 255 255
-9.81 -3.53 1.39 255 255 255
-14.63 31.09 1.78 255 255 255
-9.93 -3.60 2.13 255 255 255
-10.15 -3.60 1.40 255 255 255
-17.80 30.66 2.12 255 255 255
-9.92 -3.57 1.43 255 255 255
-10.04 -3.60 1.92 255 255 255
-11.49 12.60 1.47 255 255 255
-16.21 30.92 1.95 255 255 255
-11.88 5.33 2.08 255 255 255
-14.61 31.10 1.02 255 255 255
-17.77 30.67 1.36 255 255 255
-11.48 12.59 1.15 255 255 255
-16.18 30.90 1.19 255 255 255
-11.49 12.59 2.44 255 255 255
-9.81 -3.55 1.45 255 255 255
-10.03 -3.62 0.35 255 255 255
-11.48 12.60 2.12 255 255 255
-9.93 -3.53 0.83 255 255 255
-10.04 -3.57 1.42 255 255 255
-9.93 -3.57 1.49 255 255 255
-10.04 -3.56 1.01 255 255 255
-14.58 31.09 2.54 255 255 255
-10.16 -3.59 1.46 255 255 255
-9.93 -3.55 1.12 255 255 255
-10.04 -3.57 1.18 255 255 255
-9.82 -3.54 1.50 255 255 255
-10.04 -3.59 1.47 255 255 255
-9.93 -3.55 1.23 255 255 255
-10.16 -3.59 1.26 255 255 255
-9.93 -3.58 1.54 255 255 255
-10.16 -3.60 1.51 255 255 255
-9.93 -3.56 1.32 255 255 255
-9.82 -3.54 1.56 255 255 255
-10.04 -3.59 1.29 255 255 255
-9.82 -3.53 1.34 255 255 255
-10.05 -3.60 1.53 255 255 255
-10.16 -3.59 1.35 255 255 255
-9.93 -3.58 1.63 255 255 255
-9.93 -3.57 1.38 255 255 255
-10.05 -3.59 1.58 255 255 255
-11.45 12.60 1.80 255 255 255
-9.93 -3.58 1.78 255 255 255
-10.04 -3.60 1.36 255 255 255
-10.05 -3.59 1.68 255 255 255
-9.82 -3.53 1.39 255 255 255
-14.51 31.11 1.78 255 255 255
-10.16 -3.59 1.40 255 255 255
-9.93 -3.60 2.13 255 255 255
-17.68 30.67 2.12 255 255 255
-10.05 -3.61 1.92 255 255 255
-9.93 -3.57 1.43 255 255 255
-11.44 12.61 1.47 255 255 255
-16.08 30.91 1.95 255 255 255
-14.49 31.12 1.02 255 255 255
-11.85 5.31 2.08 255 255 255
-17.65 30.69 1.36 255 255 255
-11.43 12.60 1.15 255 255 255
-11.44 12.63 2.45 255 255 255
-16.06 30.92 1.19 255 255 255
-10.03 -3.62 0.35 255 255 255
-9.82 -3.55 1.45 255 255 255
-11.43 12.63 2.12 255 255 255
-10.05 -3.57 1.42 255 255 255
-9.93 -3.53 0.83 255 255 255
-9.94 -3.57 1.49 255 255 255
-10.05 -3.57 1.01 255 255 255
-14.46 31.14 2.54 255 255 255
-10.17 -3.59 1.46 255 255 255
-9.94 -3.55 1.12 255 255 255
-10.05 -3.56 1.19 255 255 255
-9.82 -3.54 1.50 255 255 255
-10.05 -3.60 1.47 255 255 255
-9.94 -3.55 1.23 255 255 255
-10.17 -3.61 1.26 255 255 255
-9.94 -3.59 1.54 255 255 255
-9.94 -3.57 1.32 255 255 255
-10.17 -3.60 1.51 255 255 255
-10.05 -3.59 1.29 255 255 255
-9.83 -3.55 1.56 255 255 255
-9.83 -3.53 1.34 255 255 255
-10.05 -3.59 1.53 255 255 255
-9.94 -3.58 1.63 255 255 255
-10.17 -3.59 1.35 255 255 255
-10.06 -3.59 1.58 255 255 255
-9.94 -3.57 1.38 255 255 255
-11.40 12.65 1.80 255 255 255
-9.94 -3.58 1.78 255 255 255
-10.05 -3.59 1.36 255 255 255
-10.06 -3.59 1.68 255 255 255
-9.83 -3.53 1.39 255 255 255
-14.40 31.12 1.78 255 255 255
-10.17 -3.60 1.40 255 255 255
-9.94 -3.60 2.13 255 255 255
-17.56 30.69 2.12 255 255 255
-9.94 -3.57 1.43 255 255 255
-10.06 -3.61 1.92 255 255 255
-11.39 12.63 1.47 255 255 255
-15.97 30.92 1.95 255 255 255
-11.83 5.31 2.08 255 255 255
-14.37 31.14 1.02 255 255 255
-17.54 30.70 1.36 255 255 255
-11.38 12.64 1.15 255 255 255
-15.94 30.94 1.19 255 255 255
-10.04 -3.62 0.35 255 255 255
-9.83 -3.55 1.45 255 255 255
-10.06 -3.58 1.42 255 255 255
-9.94 -3.53 0.83 255 255 255
-10.06 -3.58 1.01 255 255 255
-9.94 -3.58 1.49 255 255 255
-14.35 31.12 2.54 255 255 255
-9.94 -3.56 1.12 255 255 255
-10.18 -3.60 1.46 255 255 255
-10.06 -3.57 1.18 255 255 255
-9.83 -3.54 1.50 255 255 255
-10.06 -3.59 1.47 255 255 255
-9.94 -3.56 1.23 255 255 255
-9.94 -3.58 1.54 255 255 255
-10.17 -3.60 1.26 255 255 255
-10.18 -3.60 1.51 255 255 255
-9.94 -3.57 1.32 255 255 255
-10.06 -3.59 1.29 255 255 255
-9.83 -3.55 1.56 255 255 255
-9.83 -3.53 1.34 255 255 255
-10.06 -3.60 1.53 255 255 255
-10.18 -3.60 1.35 255 255 255
-9.95 -3.58 1.63 255 255 255
-10.06 -3.60 1.58 255 255 255
-9.95 -3.57 1.38 255 255 255
-12.72 31.33 2.37 255 255 255
-10.06 -3.59 1.36 255 255 255
-9.95 -3.58 1.78 255 255 255
-10.06 -3.60 1.68 255 255 255
-9.84 -3.54 1.39 255 255 255
-14.29 31.17 1.78 255 255 255
-9.95 -3.60 2.13 255 255 255
-10.18 -3.60 1.40 255 255 255
-17.45 30.71 2.13 255 255 255
-9.95 -3.57 1.43 255 255 255
-10.07 -3.60 1.92 255 255 255
-12.69 31.34 1.61 255 255 255
-15.86 30.94 1.95 255 255 255
-11.80 5.32 2.08 255 255 255
-14.26 31.15 1.02 255 255 255
-17.42 30.72 1.36 255 255 255
-11.34 12.69 1.15 255 255 255
-15.83 30.95 1.19 255 255 255
-9.84 -3.55 1.45 255 255 255
-10.05 -3.62 0.35 255 255 255
-9.95 -3.54 0.83 255 255 255
-10.07 -3.58 1.42 255 255 255
-9.95 -3.57 1.49 255 255 255
-10.06 -3.56 1.01 255 255 255
-14.23 31.14 2.54 255 255 255
-9.95 -3.56 1.12 255 255 255
-10.18 -3.60 1.46 255 255 255
-10.07 -3.57 1.18 255 255 255
-9.84 -3.55 1.50 255 255 255
-10.07 -3.59 1.47 255 255 255
-9.95 -3.55 1.23 255 255 255
-10.18 -3.60 1.26 255 255 255
-9.95 -3.59 1.54 255 255 255
-10.18 -3.61 1.51 255 255 255
-9.95 -3.57 1.32 255 255 255
-9.84 -3.55 1.56 255 255 255
-10.07 -3.60 1.29 255 255 255
-9.84 -3.54 1.34 255 255 255
-10.07 -3.60 1.53 255 255 255
-9.95 -3.58 1.63 255 255 255
-10.18 -3.59 1.35 255 255 255
-9.95 -3.57 1.38 255 255 255
-10.07 -3.59 1.58 255 255 255
-12.61 31.34 2.37 255 255 255
-10.07 -3.59 1.36 255 255 255
-9.96 -3.58 1.78 255 255 255
-10.07 -3.60 1.68 255 255 255
-9.84 -3.54 1.39 255 255 255
-14.18 31.15 1.78 255 255 255
-10.19 -3.60 1.40 255 255 255
-9.96 -3.60 2.13 255 255 255
-17.35 30.75 2.13 255 255 255
-10.07 -3.61 1.92 255 255 255
-9.96 -3.57 1.43 255 255 255
-12.59 31.36 1.61 255 255 255
-15.75 30.96 1.95 255 255 255
-14.15 31.17 1.02 255 255 255
-11.80 5.42 2.09 255 255 255
-17.32 30.74 1.36 255 255 255
-15.72 30.97 1.19 255 255 255
-10.06 -3.63 0.35 255 255 255
-9.84 -3.55 1.45 255 255 255
-9.96 -3.54 0.83 255 255 255
-10.07 -3.59 1.42 255 255 255
-10.07 -3.57 1.01 255 255 255
-9.96 -3.57 1.49 255 255 255
-14.13 31.15 2.54 255 255 255
-10.19 -3.60 1.46 255 255 255
-9.96 -3.55 1.12 255 255 255
-10.07 -3.58 1.18 255 255 255
-9.85 -3.55 1.50 255 255 255
-10.07 -3.60 1.47 255 255 255
-9.96 -3.56 1.23 255 255 255
-9.96 -3.58 1.54 255 255 255
-10.19 -3.60 1.26 255 255 255
-10.19 -3.60 1.51 255 255 255
-9.96 -3.57 1.32 255 255 255
-10.07 -3.59 1.29 255 255 255
-9.85 -3.56 1.56 255 255 255
-10.08 -3.60 1.53 255 255 255
-9.85 -3.54 1.34 255 255 255
-10.19 -3.59 1.35 255 255 255
-9.96 -3.58 1.63 255 255 255
-10.08 -3.59 1.58 255 255 255
-9.96 -3.57 1.38 255 255 255
-12.49 31.33 2.37 255 255 255
-9.97 -3.58 1.78 255 255 255
-10.08 -3.59 1.36 255 255 255
-10.08 -3.59 1.68 255 255 255
-9.85 -3.54 1.39 255 255 255
-14.07 31.17 1.78 255 255 255
-9.97 -3.60 2.13 255 255 255
-10.19 -3.60 1.40 255 255 255
-17.23 30.77 2.13 255 255 255
-9.96 -3.58 1.43 255 255 255
-10.08 -3.61 1.92 255 255 255
-12.47 31.37 1.61 255 255 255
-15.64 30.97 1.95 255 255 255
-11.78 5.43 2.09 255 255 255
-14.04 31.18 1.02 255 255 255
-17.20 30.75 1.37 255 255 255
-15.61 30.99 1.20 255 255 255
-9.85 -3.56 1.45 255 255 255
-10.07 -3.63 0.35 255 255 255
-10.08 -3.59 1.42 255 255 255
-9.97 -3.54 0.83 255 255 255
-9.97 -3.57 1.49 255 255 255
-10.08 -3.57 1.01 255 255 255
-14.01 31.17 2.54 255 255 255
-9.97 -3.56 1.12 255 255 255
-10.20 -3.60 1.46 255 255 255
-10.08 -3.58 1.18 255 255 255
-9.86 -3.54 1.50 255 255 255
-10.08 -3.60 1.47 255 255 255
-9.97 -3.56 1.23 255 255 255
-10.20 -3.60 1.26 255 255 255
-9.97 -3.59 1.54 255 255 255
-10.20 -3.61 1.51 255 255 255
-9.97 -3.57 1.32 255 255 255
-9.86 -3.55 1.56 255 255 255
-10.08 -3.59 1.29 255 255 255
-9.85 -3.55 1.34 255 255 255
-10.08 -3.60 1.53 255 255 255
-9.97 -3.58 1.63 255 255 255
-10.20 -3.60 1.35 255 255 255
-10.09 -3.59 1.58 255 255 255
-9.97 -3.57 1.38 255 255 255
-12.39 31.38 2.37 255 255 255
-10.08 -3.60 1.36 255 255 255
-9.97 -3.59 1.78 255 255 255
-10.09 -3.60 1.68 255 255 255
-9.86 -3.54 1.39 255 255 255
-13.95 31.19 1.78 255 255 255
-9.97 -3.60 2.13 255 255 255
-10.20 -3.59 1.40 255 255 255
-17.12 30.79 2.13 255 255 255
-9.97 -3.58 1.43 255 255 255
-10.09 -3.61 1.92 255 255 255
-12.36 31.36 1.61 255 255 255
-15.52 30.99 1.96 255 255 255
-11.76 5.46 2.09 255 255 255
-13.93 31.20 1.03 255 255 255
-17.09 30.77 1.37 255 255 255
-11.79 22.51 0.99 255 255 255
-15.50 31.00 1.20 255 255 255
-10.08 -3.62 0.35 255 255 255
-9.86 -3.55 1.45 255 255 255
-10.09 -3.59 1.42 255 255 255
-9.97 -3.54 0.83 255 255 255
-9.98 -3.58 1.49 255 255 255
-10.09 -3.57 1.01 255 255 255
-13.90 31.19 2.54 255 255 255
-10.21 -3.60 1.46 255 255 255
-9.98 -3.56 1.12 255 255 255
-9.86 -3.55 1.50 255 255 255
-10.09 -3.58 1.18 255 255 255
-10.09 -3.60 1.47 255 255 255
-9.98 -3.56 1.23 255 255 255
-10.21 -3.61 1.26 255 255 255
-9.98 -3.59 1.54 255 255 255
-10.21 -3.60 1.51 255 255 255
-9.98 -3.57 1.32 255 255 255
-10.09 -3.59 1.29 255 255 255
-9.86 -3.55 1.56 255 255 255
-9.87 -3.54 1.34 255 255 255
-10.09 -3.59 1.53 255 255 255
-9.98 -3.58 1.63 255 255 255
-10.21 -3.60 1.35 255 255 255
-9.98 -3.57 1.38 255 255 255
-10.10 -3.59 1.58 255 255 255
-12.26 31.36 2.37 255 255 255
-10.09 -3.60 1.36 255 255 255
-9.98 -3.59 1.78 255 255 255
-10.10 -3.59 1.68 255 255 255
-9.87 -3.55 1.39 255 255 255
-13.83 31.21 1.79 255 255 255
-9.98 -3.60 2.13 255 255 255
-10.21 -3.59 1.40 255 255 255
-17.00 30.77 2.13 255 255 255
-9.98 -3.58 1.43 255 255 255
-10.10 -3.60 1.92 255 255 255
-15.41 31.01 1.96 255 255 255
-11.74 5.49 2.10 255 255 255
-13.81 31.22 1.03 255 255 255
-16.97 30.79 1.37 255 255 255
-11.70 22.52 1.00 255 255 255
-15.38 31.02 1.20 255 255 255
-11.73 5.45 1.85 255 255 255
-10.08 -3.63 0.35 255 255 255
-9.87 -3.55 1.45 255 255 255
-10.10 -3.59 1.42 255 255 255
-9.98 -3.53 0.83 255 255 255
-9.98 -3.57 1.49 255 255 255
-10.10 -3.58 1.01 255 255 255
-13.78 31.20 2.54 255 255 255
-9.98 -3.56 1.12 255 255 255
-10.22 -3.60 1.46 255 255 255
-9.87 -3.54 1.50 255 255 255
-10.10 -3.58 1.18 255 255 255
-9.98 -3.55 1.23 255 255 255
-10.10 -3.60 1.47 255 255 255
-9.98 -3.59 1.54 255 255 255
-10.21 -3.60 1.26 255 255 255
-10.22 -3.61 1.51 255 255 255
-9.98 -3.58 1.32 255 255 255
-9.87 -3.55 1.56 255 255 255
-10.10 -3.59 1.29 255 255 255
-10.10 -3.60 1.53 255 255 255
-9.87 -3.54 1.34 255 255 255
-9.99 -3.58 1.63 255 255 255
-10.22 -3.60 1.35 255 255 255
-10.10 -3.60 1.58 255 255 255
-9.99 -3.57 1.38 255 255 255
-12.15 31.38 2.37 255 255 255
-10.10 -3.61 1.36 255 255 255
-9.99 -3.59 1.78 255 255 255
-10.10 -3.60 1.68 255 255 255
-9.87 -3.54 1.39 255 255 255
-13.73 31.22 1.79 255 255 255
-9.99 -3.60 2.13 255 255 255
-10.22 -3.60 1.40 255 255 255
-16.89 30.79 2.13 255 255 255
-10.11 -3.61 1.92 255 255 255
-9.99 -3.58 1.43 255 255 255
-15.30 31.02 1.96 255 255 255
-11.73 5.55 2.10 255 255 255
-16.86 30.80 1.37 255 255 255
-11.63 22.55 1.00 255 255 255
-15.27 31.03 1.20 255 255 255
-11.70 5.43 1.85 255 255 255
-10.09 -3.63 0.35 255 255 255
-9.88 -3.56 1.45 255 255 255
-9.99 -3.54 0.83 255 255 255
-10.11 -3.59 1.42 255 255 255
-10.10 -3.58 1.01 255 255 255
-9.99 -3.58 1.49 255 255 255
-13.67 31.22 2.55 255 255 255
-10.22 -3.60 1.46 255 255 255
-9.99 -3.56 1.12 255 255 255
-10.11 -3.57 1.18 255 255 255
-9.88 -3.55 1.50 255 255 255
-10.11 -3.60 1.47 255 255 255
-9.99 -3.55 1.23 255 255 255
-9.99 -3.59 1.54 255 255 255
-10.22 -3.60 1.26 255 255 255
-9.99 -3.58 1.32 255 255 255
-10.23 -3.60 1.51 255 255 255
-9.88 -3.56 1.56 255 255 255
-10.11 -3.60 1.29 255 255 255
-9.88 -3.55 1.34 255 255 255
-10.11 -3.60 1.53 255 255 255
-9.99 -3.59 1.63 255 255 255
-10.22 -3.60 1.35 255 255 255
-9.99 -3.58 1.38 255 255 255
-10.11 -3.60 1.58 255 255 255
-12.03 31.40 2.38 255 255 255
-10.00 -3.59 1.78 255 255 255
-10.11 -3.60 1.36 255 255 255
-9.88 -3.55 1.39 255 255 255
-10.11 -3.61 1.68 255 255 255
-13.61 31.24 1.79 255 255 255
-10.00 -3.60 2.13 255 255 255
-10.23 -3.60 1.40 255 255 255
-16.77 30.81 2.13 255 255 255
-10.00 -3.58 1.43 255 255 255
-10.12 -3.60 1.92 255 255 255
-11.62 23.75 1.56 255 255 255
-15.18 31.04 1.96 255 255 255
-12.77 23.08 1.12 255 255 255
-16.74 30.82 1.37 255 255 255
-11.74 12.62 2.52 255 255 255
-11.54 22.56 1.00 255 255 255
-15.15 31.05 1.20 255 255 255
-11.68 5.44 1.85 255 255 255
-11.72 12.62 2.20 255 255 255
-9.88 -3.56 1.45 255 255 255
-10.10 -3.63 0.35 255 255 255
-10.00 -3.54 0.83 255 255 255
-10.11 -3.58 1.42 255 255 255
-10.00 -3.58 1.49 255 255 255
-10.11 -3.57 1.01 255 255 255
-13.56 31.24 2.55 255 255 255
-10.00 -3.56 1.12 255 255 255
-10.23 -3.61 1.46 255 255 255
-10.11 -3.58 1.18 255 255 255
-9.89 -3.55 1.50 255 255 255
-10.00 -3.56 1.23 255 255 255
-10.12 -3.60 1.47 255 255 255
-10.00 -3.59 1.54 255 255 255
-10.23 -3.61 1.26 255 255 255
-10.00 -3.57 1.32 255 255 255
-10.23 -3.60 1.51 255 255 255
-9.89 -3.56 1.56 255 255 255
-10.11 -3.60 1.29 255 255 255
-10.12 -3.60 1.53 255 255 255
-9.89 -3.55 1.34 255 255 255
-10.23 -3.60 1.35 255 255 255
-10.00 -3.59 1.63 255 255 255
-10.00 -3.58 1.38 255 255 255
-10.12 -3.60 1.58 255 255 255
-11.93 31.41 2.38 255 255 255
-10.12 -3.60 1.36 255 255 255
-10.00 -3.59 1.78 255 255 255
-9.89 -3.55 1.39 255 255 255
-10.12 -3.60 1.68 255 255 255
-11.69 12.67 1.55 255 255 255
-10.23 -3.60 1.40 255 255 255
-10.01 -3.60 2.13 255 255 255
-16.66 30.82 2.13 255 255 255
-10.12 -3.61 1.92 255 255 255
-10.00 -3.58 1.43 255 255 255
-11.54 23.77 1.56 255 255 255
-15.07 31.05 1.96 255 255 255
-16.64 30.83 1.37 255 255 255
-11.69 12.58 2.52 255 255 255
-11.46 22.54 1.00 255 255 255
-15.05 31.07 1.20 255 255 255
-9.89 -3.56 1.45 255 255 255
-10.11 -3.64 0.35 255 255 255
-10.12 -3.58 1.42 255 255 255
-10.01 -3.54 0.83 255 255 255
-10.01 -3.57 1.49 255 255 255
-10.12 -3.57 1.01 255 255 255
-11.67 12.63 1.88 255 255 255
-10.01 -3.56 1.12 255 255 255
-10.24 -3.60 1.46 255 255 255
-9.90 -3.55 1.50 255 255 255
-10.12 -3.58 1.18 255 255 255
-10.12 -3.60 1.47 255 255 255
-10.01 -3.56 1.23 255 255 255
-10.01 -3.59 1.54 255 255 255
-10.24 -3.61 1.26 255 255 255
-10.24 -3.61 1.51 255 255 255
-10.01 -3.58 1.32 255 255 255
-9.90 -3.56 1.56 255 255 255
-10.12 -3.60 1.29 255 255 255
-9.90 -3.55 1.34 255 255 255
-10.12 -3.60 1.53 255 255 255
-10.01 -3.59 1.63 255 255 255
-10.24 -3.61 1.35 255 255 255
-10.01 -3.58 1.38 255 255 255
-10.13 -3.60 1.58 255 255 255
-11.81 31.43 2.38 255 255 255
-10.01 -3.59 1.78 255 255 255
-10.12 -3.61 1.36 255 255 255
-9.90 -3.54 1.39 255 255 255
-10.13 -3.60 1.68 255 255 255
-11.64 12.63 1.55 255 255 255
-10.01 -3.61 2.13 255 255 255
-10.24 -3.60 1.40 255 255 255
-16.55 30.87 2.14 255 255 255
-10.13 -3.61 1.92 255 255 255
-10.01 -3.59 1.43 255 255 255
-11.45 23.79 1.56 255 255 255
-14.96 31.07 1.96 255 255 255
-11.63 12.62 1.23 255 255 255
-11.64 12.57 2.52 255 255 255
-16.52 30.85 1.37 255 255 255
-11.38 22.56 1.00 255 255 255
-14.93 31.08 1.20 255 255 255
-13.71 22.55 0.69 255 255 255
-11.62 12.57 2.20 255 255 255
-10.11 -3.63 0.35 255 255 255
-9.90 -3.56 1.45 255 255 255
-10.13 -3.59 1.42 255 255 255
-10.01 -3.54 0.83 255 255 255
-10.13 -3.58 1.01 255 255 255
-10.02 -3.57 1.49 255 255 255
-11.62 12.61 1.88 255 255 255
-10.25 -3.60 1.46 255 255 255
-10.01 -3.56 1.12 255 255 255
-10.13 -3.58 1.18 255 255 255
-9.90 -3.55 1.50 255 255 255
-10.13 -3.60 1.47 255 255 255
-10.02 -3.56 1.23 255 255 255
-10.25 -3.61 1.26 255 255 255
-10.02 -3.59 1.54 255 255 255
-10.02 -3.57 1.32 255 255 255
-10.25 -3.60 1.51 255 255 255
-9.90 -3.56 1.56 255 255 255
-10.13 -3.60 1.29 255 255 255
-9.90 -3.55 1.34 255 255 255
-10.13 -3.60 1.53 255 255 255
-10.02 -3.58 1.62 255 255 255
-10.25 -3.60 1.35 255 255 255
-10.02 -3.58 1.38 255 255 255
-10.13 -3.60 1.58 255 255 255
-11.70 31.45 2.38 255 255 255
-10.13 -3.61 1.36 255 255 255
-10.02 -3.59 1.78 255 255 255
-10.14 -3.60 1.68 255 255 255
-9.91 -3.55 1.39 255 255 255
-11.59 12.60 1.55 255 255 255
-10.02 -3.60 2.13 255 255 255
-10.25 -3.60 1.40 255 255 255
-16.44 30.85 2.14 255 255 255
-10.14 -3.61 1.92 255 255 255
-10.02 -3.58 1.43 255 255 255
-11.36 23.80 1.56 255 255 255
-14.84 31.06 1.96 255 255 255
-11.58 12.61 1.23 255 255 255
-16.40 30.84 1.38 255 255 255
-11.59 12.57 2.52 255 255 255
-11.29 22.57 1.00 255 255 255
-14.82 31.10 1.21 255 255 255
-13.61 22.49 0.69 255 255 255
-11.58 12.57 2.20 255 255 255
-10.12 -3.63 0.35 255 255 255
-9.91 -3.56 1.45 255 255 255
-10.02 -3.54 0.83 255 255 255
-10.14 -3.58 1.42 255 255 255
-10.13 -3.58 1.01 255 255 255
-10.02 -3.58 1.49 255 255 255
-11.57 12.59 1.88 255 255 255
-10.02 -3.56 1.12 255 255 255
-10.25 -3.61 1.46 255 255 255
-9.91 -3.55 1.50 255 255 255
-10.14 -3.58 1.18 255 255 255
-10.02 -3.56 1.23 255 255 255
-10.14 -3.60 1.47 255 255 255
-10.02 -3.59 1.54 255 255 255
-10.25 -3.61 1.26 255 255 255
-10.02 -3.58 1.32 255 255 255
-10.26 -3.61 1.51 255 255 255
-9.91 -3.56 1.56 255 255 255
-10.14 -3.59 1.29 255 255 255
-10.14 -3.61 1.53 255 255 255
-9.91 -3.56 1.34 255 255 255
-10.26 -3.60 1.35 255 255 255
-10.03 -3.58 1.62 255 255 255
-10.14 -3.60 1.58 255 255 255
-10.02 -3.58 1.38 255 255 255
-11.59 31.46 2.38 255 255 255
-10.14 -3.61 1.36 255 255 255
-10.03 -3.59 1.78 255 255 255
-10.14 -3.60 1.68 255 255 255
-9.91 -3.55 1.39 255 255 255
-11.54 12.60 1.55 255 255 255
-10.03 -3.60 2.13 255 255 255
-10.26 -3.61 1.40 255 255 255
-16.32 30.87 2.14 255 255 255
-10.03 -3.58 1.43 255 255 255
-10.15 -3.61 1.92 255 255 255
-11.27 23.80 1.56 255 255 255
-14.73 31.07 1.96 255 255 255
-11.53 12.61 1.23 255 255 255
-16.30 30.88 1.38 255 255 255
-11.54 12.57 2.52 255 255 255
-11.21 22.58 1.00 255 255 255
-14.71 31.12 1.21 255 255 255
-11.53 12.59 2.20 255 255 255
-9.92 -3.56 1.45 255 255 255
-10.13 -3.65 0.34 255 255 255
-10.03 -3.54 0.83 255 255 255
-10.15 -3.58 1.42 255 255 255
-10.14 -3.58 1.01 255 255 255
-10.03 -3.58 1.49 255 255 255
-11.52 12.60 1.88 255 255 255
-10.03 -3.57 1.12 255 255 255
-10.26 -3.61 1.46 255 255 255
-9.92 -3.55 1.50 255 255 255
-10.15 -3.58 1.18 255 255 255
-10.03 -3.56 1.23 255 255 255
-10.15 -3.61 1.47 255 255 255
-10.03 -3.59 1.54 255 255 255
-10.26 -3.61 1.26 255 255 255
-10.27 -3.61 1.51 255 255 255
-10.03 -3.58 1.32 255 255 255
-9.92 -3.56 1.56 255 255 255
-10.15 -3.60 1.29 255 255 255
-9.92 -3.55 1.34 255 255 255
-10.15 -3.61 1.53 255 255 255
-10.04 -3.58 1.62 255 255 255
-10.26 -3.59 1.35 255 255 255
-10.03 -3.57 1.38 255 255 255
-10.15 -3.59 1.58 255 255 255
-11.47 31.48 2.38 255 255 255
-10.04 -3.60 1.78 255 255 255
-10.15 -3.60 1.36 255 255 255
-9.92 -3.56 1.39 255 255 255
-10.15 -3.61 1.68 255 255 255
-11.49 12.61 1.55 255 255 255
-10.04 -3.61 2.13 255 255 255
-10.27 -3.62 1.40 255 255 255
-16.21 30.89 2.14 255 255 255
-10.03 -3.58 1.43 255 255 255
-10.15 -3.61 1.92 255 255 255
-11.19 23.82 1.56 255 255 255
-14.61 31.09 1.97 255 255 255
-11.48 12.61 1.23 255 255 255
-16.18 30.90 1.38 255 255 255
-11.49 12.60 2.52 255 255 255
-11.12 22.59 1.00 255 255 255
-14.59 31.10 1.21 255 255 255
-13.42 22.29 0.70 255 255 255
-11.48 12.61 2.20 255 255 255
-9.92 -3.56 1.45 255 255 255
-10.14 -3.65 0.34 255 255 255
-10.15 -3.58 1.42 255 255 255
-10.04 -3.54 0.83 255 255 255
-10.15 -3.57 1.01 255 255 255
-10.04 -3.58 1.49 255 255 255
-11.47 12.62 1.88 255 255 255
-10.27 -3.61 1.46 255 255 255
-10.04 -3.57 1.12 255 255 255
-9.93 -3.56 1.50 255 255 255
-10.15 -3.59 1.18 255 255 255
-10.04 -3.56 1.23 255 255 255
-10.15 -3.60 1.47 255 255 255
-10.27 -3.61 1.26 255 255 255
-10.04 -3.60 1.54 255 255 255
-10.27 -3.62 1.51 255 255 255
-10.04 -3.58 1.32 255 255 255
-10.15 -3.60 1.29 255 255 255
-9.93 -3.57 1.56 255 255 255
-10.16 -3.61 1.53 255 255 255
-9.93 -3.55 1.34 255 255 255
-10.04 -3.59 1.63 255 255 255
-10.27 -3.60 1.35 255 255 255
-10.16 -3.61 1.58 255 255 255
-10.04 -3.58 1.38 255 255 255
-11.37 31.49 2.38 255 255 255
-10.16 -3.61 1.36 255 255 255
-10.04 -3.58 1.78 255 255 255
-10.16 -3.61 1.68 255 255 255
-9.93 -3.56 1.39 255 255 255
-11.45 12.63 1.55 255 255 255
-10.05 -3.61 2.13 255 255 255
-10.27 -3.62 1.40 255 255 255
-16.10 30.90 2.14 255 255 255
-10.16 -3.61 1.92 255 255 255
-10.04 -3.58 1.43 255 255 255
-11.11 23.84 1.56 255 255 255
-14.51 31.11 1.97 255 255 255
-11.44 12.64 1.23 255 255 255
-16.07 30.92 1.38 255 255 255
-11.45 12.66 2.53 255 255 255
-11.05 22.60 1.00 255 255 255
-14.49 31.15 1.21 255 255 255
-11.44 12.68 2.21 255 255 255
-10.14 -3.66 0.34 255 255 255
-9.93 -3.57 1.45 255 255 255
-10.04 -3.55 0.83 255 255 255
-10.16 -3.59 1.42 255 255 255
-10.16 -3.58 1.01 255 255 255
-10.05 -3.58 1.49 255 255 255
-11.43 12.67 1.88 255 255 255
-10.28 -3.61 1.46 255 255 255
-10.04 -3.57 1.12 255 255 255
-10.16 -3.59 1.18 255 255 255
-9.93 -3.56 1.50 255 255 255
-10.16 -3.61 1.47 255 255 255
-10.05 -3.57 1.23 255 255 255
-10.28 -3.61 1.26 255 255 255
-10.05 -3.59 1.54 255 255 255
-10.28 -3.61 1.51 255 255 255
-10.05 -3.58 1.32 255 255 255
-10.16 -3.60 1.29 255 255 255
-9.93 -3.56 1.56 255 255 255
-10.16 -3.61 1.53 255 255 255
-9.93 -3.55 1.34 255 255 255
-10.05 -3.59 1.62 255 255 255
-10.28 -3.61 1.34 255 255 255
-10.05 -3.58 1.38 255 255 255
-10.17 -3.61 1.58 255 255 255
-11.25 31.51 2.39 255 255 255
-10.16 -3.60 1.36 255 255 255
-10.05 -3.59 1.78 255 255 255
-10.17 -3.60 1.68 255 255 255
-9.94 -3.55 1.39 255 255 255
-11.40 12.68 1.56 255 255 255
-10.28 -3.62 1.40 255 255 255
-10.05 -3.61 2.13 255 255 255
-15.99 30.92 2.14 255 255 255
-10.17 -3.63 1.92 255 255 255
-10.05 -3.59 1.43 255 255 255
-11.02 23.86 1.57 255 255 255
-14.39 31.12 1.97 255 255 255
-11.39 12.68 1.23 255 255 255
-15.96 30.90 1.38 255 255 255
-10.97 22.61 1.00 255 255 255
-14.37 31.13 1.21 255 255 255
-13.25 22.22 0.71 255 255 255
-10.15 -3.65 0.34 255 255 255
-9.94 -3.56 1.45 255 255 255
-10.17 -3.59 1.42 255 255 255
-10.05 -3.55 0.83 255 255 255
-10.17 -3.59 1.01 255 255 255
-10.06 -3.58 1.49 255 255 255
-12.77 31.32 2.56 255 255 255
-10.29 -3.61 1.46 255 255 255
-10.05 -3.57 1.12 255 255 255
-10.17 -3.58 1.18 255 255 255
-9.94 -3.55 1.50 255 255 255
-10.17 -3.61 1.47 255 255 255
-10.05 -3.57 1.23 255 255 255
-10.28 -3.62 1.26 255 255 255
-10.05 -3.60 1.54 255 255 255
-10.29 -3.61 1.51 255 255 255
-10.06 -3.58 1.32 255 255 255
-10.17 -3.60 1.29 255 255 255
-9.94 -3.57 1.56 255 255 255
-10.17 -3.60 1.53 255 255 255
-9.94 -3.55 1.34 255 255 255
-10.06 -3.59 1.62 255 255 255
-10.29 -3.61 1.34 255 255 255
-10.06 -3.59 1.37 255 255 255
-10.17 -3.61 1.58 255 255 255
-11.13 31.53 2.39 255 255 255
-10.06 -3.59 1.78 255 255 255
-10.17 -3.60 1.36 255 255 255
-9.94 -3.55 1.39 255 255 255
-10.17 -3.60 1.68 255 255 255
-12.71 31.34 1.80 255 255 255
-10.29 -3.61 1.40 255 255 255
-10.06 -3.61 2.13 255 255 255
-15.87 30.94 2.14 255 255 255
-10.06 -3.58 1.43 255 255 255
-10.18 -3.62 1.92 255 255 255
-10.93 23.86 1.57 255 255 255
-14.28 31.14 1.97 255 255 255
-15.85 30.95 1.38 255 255 255
-10.88 22.63 1.00 255 255 255
-14.26 31.15 1.21 255 255 255
-13.16 22.20 0.71 255 255 255
-10.16 -3.65 0.34 255 255 255
-9.95 -3.56 1.45 255 255 255
-10.18 -3.58 1.42 255 255 255
-10.06 -3.54 0.83 255 255 255
-10.18 -3.58 1.01 255 255 255
-10.06 -3.59 1.49 255 255 255
-12.66 31.34 2.56 255 255 255
-10.06 -3.56 1.12 255 255 255
-10.29 -3.61 1.46 255 255 255
-10.18 -3.58 1.18 255 255 255
-9.95 -3.56 1.50 255 255 255
-10.06 -3.56 1.23 255 255 255
-10.18 -3.60 1.47 255 255 255
-10.29 -3.62 1.26 255 255 255
-10.06 -3.60 1.54 255 255 255
-10.06 -3.58 1.32 255 255 255
-10.30 -3.62 1.51 255 255 255
-9.95 -3.57 1.56 255 255 255
-10.18 -3.60 1.29 255 255 255
-9.95 -3.56 1.34 255 255 255
-10.18 -3.61 1.53 255 255 255
-10.07 -3.58 1.62 255 255 255
-10.30 -3.61 1.34 255 255 255
-10.06 -3.58 1.38 255 255 255
-10.18 -3.60 1.58 255 255 255
-11.01 31.54 2.39 255 255 255
-10.18 -3.61 1.36 255 255 255
-10.07 -3.60 1.78 255 255 255
-9.95 -3.55 1.39 255 255 255
-10.18 -3.60 1.68 255 255 255
-12.59 31.35 1.80 255 255 255
-10.30 -3.62 1.40 255 255 255
-10.07 -3.61 2.13 255 255 255
-15.76 30.95 2.14 255 255 255
-10.07 -3.59 1.43 255 255 255
-10.19 -3.61 1.92 255 255 255
-10.84 23.87 1.57 255 255 255
-14.16 31.16 1.97 255 255 255
-15.72 30.94 1.38 255 255 255
-10.79 22.66 1.00 255 255 255
-14.14 31.17 1.21 255 255 255
-13.07 22.20 0.71 255 255 255
-10.17 -3.66 0.34 255 255 255
-9.95 -3.57 1.45 255 255 255
-10.19 -3.58 1.42 255 255 255
-10.07 -3.54 0.83 255 255 255
-10.07 -3.58 1.49 255 255 255
-10.18 -3.58 1.01 255 255 255
-12.54 31.35 2.56 255 255 255
-10.30 -3.61 1.46 255 255 255
-10.07 -3.57 1.12 255 255 255
-10.18 -3.59 1.18 255 255 255
-9.96 -3.56 1.50 255 255 255
-10.19 -3.61 1.47 255 255 255
-10.07 -3.57 1.23 255 255 255
-10.30 -3.62 1.26 255 255 255
-10.07 -3.60 1.54 255 255 255
-10.30 -3.62 1.51 255 255 255
-10.07 -3.58 1.32 255 255 255
-10.19 -3.61 1.29 255 255 255
-9.96 -3.58 1.56 255 255 255
-10.19 -3.61 1.53 255 255 255
-9.96 -3.56 1.34 255 255 255
-10.30 -3.61 1.34 255 255 255
-10.07 -3.59 1.62 255 255 255
-10.19 -3.60 1.58 255 255 255
-10.07 -3.58 1.38 255 255 255
-10.91 31.56 2.39 255 255 255
-10.19 -3.61 1.36 255 255 255
-10.08 -3.60 1.78 255 255 255
-10.19 -3.61 1.68 255 255 255
-9.96 -3.55 1.39 255 255 255
-12.48 31.37 1.80 255 255 255
-10.31 -3.62 1.40 255 255 255
-10.08 -3.61 2.13 255 255 255
-15.65 30.97 2.15 255 255 255
-10.07 -3.59 1.43 255 255 255
-10.19 -3.62 1.92 255 255 255
-10.88 31.57 1.63 255 255 255
-14.06 31.17 1.97 255 255 255
-11.88 22.43 1.13 255 255 255
-15.62 30.98 1.39 255 255 255
-10.72 22.67 1.00 255 255 255
-14.03 31.18 1.21 255 255 255
-10.18 -3.66 0.34 255 255 255
-9.96 -3.57 1.45 255 255 255
-10.19 -3.58 1.42 255 255 255
-10.07 -3.55 0.83 255 255 255
-10.19 -3.58 1.01 255 255 255
-10.08 -3.58 1.49 255 255 255
-12.43 31.37 2.56 255 255 255
-10.08 -3.57 1.12 255 255 255
-10.31 -3.62 1.46 255 255 255
-9.97 -3.56 1.50 255 255 255
-10.19 -3.59 1.18 255 255 255
-10.19 -3.61 1.47 255 255 255
-10.08 -3.57 1.23 255 255 255
-10.08 -3.59 1.54 255 255 255
-10.31 -3.62 1.26 255 255 255
-10.08 -3.58 1.32 255 255 255
-10.31 -3.62 1.51 255 255 255
-9.97 -3.57 1.56 255 255 255
-10.19 -3.61 1.29 255 255 255
-9.96 -3.56 1.34 255 255 255
-10.20 -3.61 1.53 255 255 255
-10.08 -3.59 1.62 255 255 255
-10.31 -3.61 1.34 255 255 255
-10.20 -3.61 1.58 255 255 255
-10.08 -3.58 1.38 255 255 255
-10.79 31.58 2.39 255 255 255
-10.08 -3.59 1.78 255 255 255
-10.20 -3.61 1.36 255 255 255
-9.97 -3.55 1.39 255 255 255
-10.20 -3.61 1.68 255 255 255
-12.37 31.39 1.80 255 255 255
-10.31 -3.62 1.40 255 255 255
-10.09 -3.61 2.13 255 255 255
-15.54 30.99 2.15 255 255 255
-10.20 -3.62 1.92 255 255 255
-10.08 -3.59 1.43 255 255 255
-10.77 31.59 1.63 255 255 255
-13.94 31.19 1.97 255 255 255
-11.81 22.63 1.13 255 255 255
-15.50 30.97 1.39 255 255 255
-10.63 22.66 1.00 255 255 255
-13.92 31.20 1.22 255 255 255
-12.91 22.21 0.71 255 255 255
-10.19 -3.66 0.34 255 255 255
-9.97 -3.57 1.45 255 255 255
-10.20 -3.59 1.42 255 255 255
-10.08 -3.55 0.83 255 255 255
-10.09 -3.58 1.49 255 255 255
-10.20 -3.58 1.01 255 255 255
-12.32 31.38 2.56 255 255 255
-10.08 -3.57 1.12 255 255 255
-10.32 -3.61 1.46 255 255 255
-9.97 -3.56 1.50 255 255 255
-10.20 -3.59 1.18 255 255 255
-10.09 -3.57 1.23 255 255 255
-10.20 -3.61 1.47 255 255 255
-10.09 -3.60 1.54 255 255 255
-10.32 -3.62 1.26 255 255 255
-10.32 -3.61 1.51 255 255 255
-10.09 -3.58 1.32 255 255 255
-10.20 -3.60 1.29 255 255 255
-9.97 -3.57 1.56 255 255 255
-9.97 -3.56 1.34 255 255 255
-10.20 -3.61 1.53 255 255 255
-10.09 -3.59 1.62 255 255 255
-10.32 -3.62 1.34 255 255 255
-10.09 -3.58 1.38 255 255 255
-10.21 -3.60 1.58 255 255 255
-10.68 31.59 2.39 255 255 255
-10.20 -3.61 1.36 255 255 255
-10.09 -3.59 1.78 255 255 255
-9.98 -3.55 1.39 255 255 255
-10.21 -3.61 1.68 255 255 255
-12.26 31.40 1.80 255 255 255
-10.32 -3.62 1.40 255 255 255
-10.09 -3.61 2.13 255 255 255
-15.42 31.00 2.15 255 255 255
-10.21 -3.63 1.92 255 255 255
-10.09 -3.60 1.43 255 255 255
-10.65 31.57 1.63 255 255 255
-13.83 31.20 1.98 255 255 255
-11.72 22.57 1.13 255 255 255
-15.39 30.98 1.39 255 255 255
-10.55 22.69 1.01 255 255 255
-13.80 31.22 1.22 255 255 255
-12.83 22.21 0.71 255 255 255
-9.98 -3.58 1.45 255 255 255
-10.19 -3.67 0.33 255 255 255
-10.09 -3.55 0.83 255 255 255
-10.21 -3.59 1.42 255 255 255
-10.09 -3.58 1.49 255 255 255
-10.21 -3.59 1.01 255 255 255
-12.20 31.37 2.56 255 255 255
-10.09 -3.57 1.12 255 255 255
-10.33 -3.61 1.46 255 255 255
-10.21 -3.59 1.18 255 255 255
-9.98 -3.55 1.50 255 255 255
-10.09 -3.57 1.23 255 255 255
-10.21 -3.61 1.47 255 255 255
-10.33 -3.63 1.26 255 255 255
-10.09 -3.60 1.54 255 255 255
-10.33 -3.62 1.51 255 255 255
-10.09 -3.58 1.32 255 255 255
-10.21 -3.61 1.29 255 255 255
-9.98 -3.57 1.56 255 255 255
-9.98 -3.56 1.34 255 255 255
-10.21 -3.61 1.53 255 255 255
-10.10 -3.59 1.62 255 255 255
-10.33 -3.61 1.34 255 255 255
-10.10 -3.59 1.38 255 255 255
-10.21 -3.61 1.58 255 255 255
-10.57 31.61 2.40 255 255 255
-10.10 -3.59 1.78 255 255 255
-10.21 -3.61 1.36 255 255 255
-9.98 -3.56 1.39 255 255 255
-10.22 -3.61 1.68 255 255 255
-12.15 31.42 1.80 255 255 255
-10.10 -3.61 2.13 255 255 255
-10.33 -3.61 1.40 255 255 255
-15.31 31.02 2.15 255 255 255
-10.22 -3.62 1.92 255 255 255
-10.10 -3.60 1.43 255 255 255
-10.54 31.59 1.63 255 255 255
-13.72 31.22 1.98 255 255 255
-11.71 24.04 1.12 255 255 255
-15.28 31.00 1.39 255 255 255
-10.46 22.70 1.01 255 255 255
-13.69 31.23 1.22 255 255 255
-12.75 22.23 0.71 255 255 255
-10.20 -3.66 0.34 255 255 255
-9.99 -3.57 1.45 255 255 255
-10.10 -3.55 0.83 255 255 255
-10.22 -3.58 1.42 255 255 255
-10.21 -3.58 1.01 255 255 255
-10.10 -3.59 1.49 255 255 255
-12.09 31.42 2.57 255 255 255
-10.33 -3.62 1.46 255 255 255
-10.10 -3.57 1.12 255 255 255
-10.22 -3.59 1.18 255 255 255
-9.99 -3.56 1.50 255 255 255
-10.22 -3.61 1.47 255 255 255
-10.10 -3.57 1.23 255 255 255
-10.33 -3.62 1.26 255 255 255
-10.10 -3.60 1.54 255 255 255
-10.34 -3.62 1.51 255 255 255
-10.10 -3.59 1.32 255 255 255
-10.22 -3.61 1.29 255 255 255
-9.99 -3.58 1.56 255 255 255
-10.22 -3.61 1.53 255 255 255
-9.99 -3.56 1.34 255 255 255
-10.34 -3.61 1.34 255 255 255
-10.11 -3.60 1.62 255 255 255
-10.22 -3.61 1.58 255 255 255
-10.10 -3.59 1.38 255 255 255
-10.45 31.63 2.40 255 255 255
-10.11 -3.60 1.78 255 255 255
-10.22 -3.61 1.36 255 255 255
-10.22 -3.61 1.68 255 255 255
-9.99 -3.56 1.39 255 255 255
-12.03 31.44 1.81 255 255 255
-10.11 -3.61 2.13 255 255 255
-10.34 -3.62 1.40 255 255 255
-15.20 31.03 2.15 255 255 255
-10.10 -3.60 1.43 255 255 255
-10.23 -3.62 1.92 255 255 255
-10.42 31.61 1.63 255 255 255
-13.60 31.24 1.98 255 255 255
-11.62 23.94 1.12 255 255 255
-15.17 31.02 1.39 255 255 255
-10.38 22.72 1.01 255 255 255
-13.58 31.25 1.22 255 255 255
-12.67 22.26 0.71 255 255 255
-10.21 -3.67 0.33 255 255 255
-9.99 -3.57 1.45 255 255 255
-10.23 -3.59 1.42 255 255 255
-10.11 -3.55 0.83 255 255 255
-10.11 -3.58 1.49 255 255 255
-10.22 -3.59 1.01 255 255 255
-11.98 31.43 2.57 255 255 255
-10.11 -3.57 1.12 255 255 255
-10.34 -3.62 1.46 255 255 255
-10.00 -3.56 1.50 255 255 255
-10.22 -3.59 1.18 255 255 255
-10.11 -3.57 1.23 255 255 255
-10.23 -3.61 1.47 255 255 255
-10.34 -3.62 1.26 255 255 255
-10.11 -3.59 1.54 255 255 255
-10.34 -3.62 1.51 255 255 255
-10.11 -3.58 1.32 255 255 255
-10.00 -3.57 1.56 255 255 255
-10.23 -3.61 1.29 255 255 255
-10.23 -3.61 1.53 255 255 255
-10.00 -3.57 1.34 255 255 255
-10.11 -3.60 1.62 255 255 255
-10.34 -3.62 1.34 255 255 255
-10.11 -3.59 1.37 255 255 255
-10.23 -3.61 1.58 255 255 255
-10.33 31.64 2.40 255 255 255
-10.12 -3.60 1.78 255 255 255
-10.23 -3.62 1.36 255 255 255
-10.23 -3.61 1.68 255 255 255
-10.00 -3.57 1.39 255 255 255
-11.92 31.45 1.81 255 255 255
-10.12 -3.62 2.13 255 255 255
-10.35 -3.63 1.40 255 255 255
-15.08 31.05 2.15 255 255 255
-10.11 -3.59 1.43 255 255 255
-10.23 -3.62 1.92 255 255 255
-10.31 31.66 1.63 255 255 255
-13.49 31.25 1.98 255 255 255
-11.47 22.60 1.14 255 255 255
-15.05 31.03 1.39 255 255 255
-10.29 22.74 1.01 255 255 255
-11.68 12.69 1.31 255 255 255
-12.58 22.26 0.71 255 255 255
-10.00 -3.58 1.45 255 255 255
-10.22 -3.69 0.32 255 255 255
-10.11 -3.56 0.83 255 255 255
-10.23 -3.59 1.42 255 255 255
-10.23 -3.58 1.01 255 255 255
-10.12 -3.59 1.49 255 255 255
-11.86 31.42 2.57 255 255 255
-10.35 -3.62 1.46 255 255 255
-10.12 -3.58 1.12 255 255 255
-10.01 -3.57 1.50 255 255 255
-10.23 -3.59 1.18 255 255 255
-10.23 -3.61 1.47 255 255 255
-10.12 -3.57 1.23 255 255 255
-10.35 -3.62 1.26 255 255 255
-10.12 -3.59 1.54 255 255 255
-10.35 -3.62 1.51 255 255 255
-10.12 -3.60 1.32 255 255 255
-10.23 -3.61 1.29 255 255 255
-10.01 -3.57 1.56 255 255 255
-10.24 -3.62 1.53 255 255 255
-10.00 -3.57 1.33 255 255 255
-10.35 -3.61 1.34 255 255 255
-10.12 -3.60 1.62 255 255 255
-10.24 -3.61 1.58 255 255 255
-10.12 -3.59 1.37 255 255 255
-10.22 31.66 2.40 255 255 255
-10.24 -3.61 1.36 255 255 255
-10.12 -3.60 1.78 255 255 255
-10.24 -3.61 1.68 255 255 255
-10.01 -3.56 1.39 255 255 255
-11.80 31.47 1.81 255 255 255
-10.35 -3.62 1.40 255 255 255
-10.13 -3.61 2.13 255 255 255
-14.97 31.07 2.15 255 255 255
-10.24 -3.62 1.92 255 255 255
-10.12 -3.59 1.43 255 255 255
-10.19 31.67 1.64 255 255 255
-11.63 12.65 1.63 255 255 255
-11.39 22.62 1.14 255 255 255
-14.94 31.05 1.39 255 255 255
-10.21 22.77 1.01 255 255 255
-11.62 12.65 1.31 255 255 255
-11.62 12.57 2.28 255 255 255
-10.01 -3.58 1.45 255 255 255
-10.23 -3.72 0.31 255 255 255
-10.24 -3.60 1.41 255 255 255
-10.12 -3.56 0.83 255 255 255
-10.13 -3.59 1.49 255 255 255
-10.24 -3.59 1.01 255 255 255
-11.75 31.47 2.57 255 255 255
-10.12 -3.57 1.12 255 255 255
-10.36 -3.62 1.46 255 255 255
-10.24 -3.60 1.18 255 255 255
-10.01 -3.57 1.50 255 255 255
-10.24 -3.62 1.47 255 255 255
-10.13 -3.58 1.23 255 255 255
-10.36 -3.63 1.26 255 255 255
-10.13 -3.60 1.54 255 255 255
-10.36 -3.63 1.51 255 255 255
-10.13 -3.59 1.32 255 255 255
-10.24 -3.61 1.29 255 255 255
-10.01 -3.57 1.56 255 255 255
-10.24 -3.61 1.53 255 255 255
-10.01 -3.56 1.34 255 255 255
-10.13 -3.60 1.62 255 255 255
-10.36 -3.62 1.34 255 255 255
-10.25 -3.61 1.58 255 255 255
-10.13 -3.59 1.37 255 255 255
-10.10 31.68 2.40 255 255 255
-10.13 -3.60 1.78 255 255 255
-10.24 -3.61 1.36 255 255 255
-11.59 12.57 1.96 255 255 255
-10.02 -3.56 1.39 255 255 255
-10.25 -3.61 1.68 255 255 255
-11.69 31.45 1.81 255 255 255
-10.13 -3.62 2.13 255 255 255
-10.36 -3.63 1.40 255 255 255
-14.85 31.05 2.15 255 255 255
-10.25 -3.63 1.92 255 255 255
-10.13 -3.59 1.43 255 255 255
-10.08 31.69 1.64 255 255 255
-11.58 12.63 1.63 255 255 255
-11.30 22.63 1.14 255 255 255
-14.83 31.07 1.39 255 255 255
-10.13 22.77 1.01 255 255 255
-11.57 12.62 1.31 255 255 255
-11.57 12.56 2.28 255 255 255
-10.02 -3.58 1.45 255 255 255
-10.23 -3.76 0.29 255 255 255
-10.25 -3.60 1.41 255 255 255
-10.13 -3.56 0.83 255 255 255
-10.25 -3.58 1.01 255 255 255
-10.13 -3.59 1.49 255 255 255
-11.63 31.45 2.57 255 255 255
-10.13 -3.57 1.12 255 255 255
-10.37 -3.62 1.45 255 255 255
-10.02 -3.57 1.50 255 255 255
-10.25 -3.59 1.18 255 255 255
-10.25 -3.61 1.47 255 255 255
-10.13 -3.58 1.23 255 255 255
-10.37 -3.64 1.26 255 255 255
-10.13 -3.61 1.54 255 255 255
-10.37 -3.62 1.51 255 255 255
-10.13 -3.60 1.32 255 255 255
-10.25 -3.61 1.29 255 255 255
-10.02 -3.58 1.56 255 255 255
-10.25 -3.62 1.53 255 255 255
-10.02 -3.56 1.34 255 255 255
-10.14 -3.60 1.62 255 255 255
-10.37 -3.62 1.34 255 255 255
-10.14 -3.59 1.37 255 255 255
-10.25 -3.62 1.58 255 255 255
-9.99 31.69 2.40 255 255 255
-10.14 -3.60 1.78 255 255 255
-10.25 -3.61 1.36 255 255 255
-11.54 12.56 1.96 255 255 255
-10.26 -3.62 1.68 255 255 255
-10.02 -3.56 1.39 255 255 255
-11.57 31.47 1.81 255 255 255
-10.37 -3.63 1.40 255 255 255
-10.14 -3.62 2.13 255 255 255
-14.74 31.07 2.15 255 255 255
-10.26 -3.63 1.92 255 255 255
-10.14 -3.60 1.43 255 255 255
-9.96 31.68 1.64 255 255 255
-11.53 12.60 1.63 255 255 255
-11.22 22.66 1.14 255 255 255
-14.71 31.08 1.40 255 255 255
-11.52 12.61 1.31 255 255 255
-11.52 12.57 2.28 255 255 255
-10.24 -3.81 0.27 255 255 255
-10.03 -3.58 1.45 255 255 255
-10.26 -3.60 1.41 255 255 255
-10.14 -3.56 0.83 255 255 255
-10.25 -3.59 1.01 255 255 255
-10.14 -3.59 1.48 255 255 255
-11.52 31.47 2.57 255 255 255
-10.14 -3.58 1.12 255 255 255
-10.38 -3.62 1.46 255 255 255
-10.03 -3.57 1.50 255 255 255
-10.26 -3.59 1.18 255 255 255
-10.26 -3.61 1.47 255 255 255
-10.14 -3.57 1.23 255 255 255
-10.14 -3.61 1.54 255 255 255
-10.37 -3.63 1.26 255 255 255
-10.38 -3.62 1.51 255 255 255
-10.14 -3.60 1.32 255 255 255
-10.26 -3.61 1.29 255 255 255
-10.03 -3.58 1.56 255 255 255
-10.26 -3.62 1.53 255 255 255
-10.03 -3.56 1.33 255 255 255
-10.38 -3.61 1.34 255 255 255
-10.15 -3.60 1.62 255 255 255
-10.14 -3.59 1.37 255 255 255
-10.26 -3.62 1.58 255 255 255
-9.87 31.71 2.41 255 255 255
-10.15 -3.60 1.78 255 255 255
-10.26 -3.62 1.36 255 255 255
-11.49 12.56 1.96 255 255 255
-10.03 -3.56 1.39 255 255 255
-10.26 -3.62 1.68 255 255 255
-11.46 31.49 1.81 255 255 255
-10.15 -3.62 2.13 255 255 255
-10.38 -3.63 1.40 255 255 255
-14.63 31.12 2.16 255 255 255
-10.15 -3.59 1.43 255 255 255
-10.27 -3.62 1.92 255 255 255
-9.85 31.72 1.64 255 255 255
-11.48 12.60 1.64 255 255 255
-11.14 22.67 1.14 255 255 255
-14.60 31.10 1.40 255 255 255
-9.96 22.84 1.01 255 255 255
-11.47 12.61 1.31 255 255 255
-11.48 12.60 2.28 255 255 255
-10.03 -3.58 1.45 255 255 255
-10.24 -3.96 0.19 255 255 255
-10.15 -3.56 0.83 255 255 255
-10.27 -3.59 1.41 255 255 255
-10.46 2.78 0.36 255 255 255
-10.26 -3.59 1.01 255 255 255
-10.15 -3.59 1.48 255 255 255
-11.40 31.49 2.58 255 255 255
-10.15 -3.58 1.12 255 255 255
-10.38 -3.62 1.45 255 255 255
-10.04 -3.57 1.50 255 255 255
-10.26 -3.59 1.18 255 255 255
-10.15 -3.57 1.23 255 255 255
-10.27 -3.62 1.47 255 255 255
-10.38 -3.63 1.26 255 255 255
-10.15 -3.60 1.54 255 255 255
-10.15 -3.59 1.32 255 255 255
-10.38 -3.62 1.51 255 255 255
-10.26 -3.61 1.29 255 255 255
-10.04 -3.58 1.56 255 255 255
-10.27 -3.62 1.53 255 255 255
-10.04 -3.57 1.33 255 255 255
-10.38 -3.62 1.34 255 255 255
-10.15 -3.60 1.62 255 255 255
-10.15 -3.59 1.37 255 255 255
-10.27 -3.61 1.58 255 255 255
-9.76 31.73 2.41 255 255 255
-10.27 -3.61 1.36 255 255 255
-10.15 -3.60 1.78 255 255 255
-11.44 12.59 1.96 255 255 255
-10.04 -3.57 1.39 255 255 255
-10.27 -3.62 1.68 255 255 255
-11.35 31.50 1.81 255 255 255
-10.39 -3.63 1.40 255 255 255
-10.16 -3.62 2.13 255 255 255
-14.51 31.10 2.16 255 255 255
-10.27 -3.63 1.92 255 255 255
-10.15 -3.59 1.43 255 255 255
-9.73 31.74 1.64 255 255 255
-11.44 12.62 1.64 255 255 255
-11.05 22.57 1.14 255 255 255
-14.49 31.11 1.40 255 255 255
-9.87 22.90 1.01 255 255 255
-11.43 12.64 1.31 255 255 255
-11.43 12.66 2.29 255 255 255
-10.04 -3.58 1.45 255 255 255
