ply
format ascii 1.0
element vertex 1629
property float x
property float y
property float z
property uchar red
property uchar green
property uchar blue
end_header
1.97 33.46 1.23 255 255 255
-10.87 -3.70 1.68 255 255 255
-11.16 -3.72 1.32 255 255 255
-10.86 -3.68 1.36 255 255 255
-11.02 -3.73 1.63 255 255 255
-10.73 -3.68 1.58 255 255 255
-11.01 -3.70 1.27 255 255 255
-10.72 -3.66 1.31 255 255 255
-11.01 -3.71 1.53 255 255 255
-10.86 -3.69 1.56 255 255 255
-11.16 -3.73 1.25 255 255 255
-10.87 -3.71 1.29 255 255 255
-11.17 -3.74 1.52 255 255 255
-10.73 -3.69 1.49 255 255 255
-11.01 -3.70 1.18 255 255 255
-10.87 -3.70 1.23 255 255 255
-11.01 -3.71 1.46 255 255 255
-10.87 -3.71 1.48 255 255 255
-11.01 -3.70 1.00 255 255 255
0.09 33.25 1.44 255 255 255
-8.83 1.71 0.13 255 255 255
-11.17 -3.74 1.45 255 255 255
-10.86 -3.69 1.12 255 255 255
-6.43 7.68 1.39 255 255 255
-8.94 1.89 0.66 255 255 255
-11.00 -3.69 0.61 255 255 255
-10.73 -3.68 1.43 255 255 255
-8.72 2.01 0.89 255 255 255
2.03 33.46 2.08 255 255 255
-10.85 -3.67 0.86 255 255 255
-11.01 -3.71 1.40 255 255 255
-8.85 2.13 1.03 255 255 255
6.28 34.11 1.68 255 255 255
0.10 33.21 2.27 255 255 255
-8.52 2.50 1.08 255 255 255
-6.43 7.68 1.61 255 255 255
6.29 34.07 2.58 255 255 255
-6.42 7.69 0.89 255 255 255
-2.88 23.02 2.64 255 255 255
-6.44 7.66 1.84 255 255 255
-6.44 7.65 2.06 255 255 255
-1.19 24.08 0.69 255 255 255
-11.18 -3.74 1.38 255 255 255
-6.42 7.69 1.17 255 255 255
-11.03 -3.74 2.11 255 255 255
-10.86 -3.67 1.42 255 255 255
-6.44 7.63 2.44 255 255 255
-11.02 -3.70 1.34 255 255 255
-10.88 -3.72 1.88 255 255 255
1.49 23.61 1.00 255 255 255
-10.73 -3.68 1.37 255 255 255
-11.03 -3.74 1.77 255 255 255
2.12 33.52 1.23 255 255 255
-10.88 -3.70 1.68 255 255 255
-11.17 -3.72 1.32 255 255 255
-11.03 -3.73 1.63 255 255 255
-10.87 -3.70 1.35 255 255 255
-10.74 -3.69 1.58 255 255 255
-11.01 -3.70 1.27 255 255 255
-10.73 -3.67 1.31 255 255 255
-11.02 -3.72 1.53 255 255 255
-11.17 -3.72 1.25 255 255 255
-10.87 -3.69 1.56 255 255 255
-10.88 -3.71 1.29 255 255 255
-11.18 -3.74 1.52 255 255 255
-10.74 -3.69 1.49 255 255 255
-11.02 -3.70 1.18 255 255 255
-10.88 -3.70 1.23 255 255 255
-11.02 -3.71 1.46 255 255 255
-10.88 -3.70 1.48 255 255 255
-11.02 -3.70 1.00 255 255 255
-8.82 1.71 0.13 255 255 255
0.22 33.24 1.44 255 255 255
-10.87 -3.68 1.12 255 255 255
-11.18 -3.74 1.45 255 255 255
-6.40 7.68 1.39 255 255 255
-8.94 1.85 0.67 255 255 255
-10.74 -3.68 1.43 255 255 255
-11.01 -3.70 0.61 255 255 255
2.18 33.48 2.09 255 255 255
-8.70 2.02 0.89 255 255 255
-10.87 -3.67 0.86 255 255 255
-11.03 -3.72 1.40 255 255 255
-8.83 2.15 1.03 255 255 255
6.42 34.10 1.68 255 255 255
0.24 33.23 2.27 255 255 255
-8.51 2.49 1.08 255 255 255
-6.39 7.68 1.61 255 255 255
6.44 34.09 2.59 255 255 255
-6.38 7.70 0.89 255 255 255
-2.78 23.07 2.64 255 255 255
-6.40 7.65 1.84 255 255 255
-1.04 24.22 0.68 255 255 255
-6.41 7.63 2.06 255 255 255
-11.19 -3.74 1.38 255 255 255
-6.38 7.69 1.17 255 255 255
-10.87 -3.67 1.42 255 255 255
-11.05 -3.75 2.11 255 255 255
-6.41 7.62 2.44 255 255 255
-11.02 -3.70 1.34 255 255 255
-10.89 -3.73 1.88 255 255 255
1.58 23.59 1.00 255 255 255
-10.74 -3.68 1.37 255 255 255
-11.04 -3.74 1.77 255 255 255
2.26 33.54 1.23 255 255 255
-10.89 -3.70 1.68 255 255 255
-11.18 -3.72 1.32 255 255 255
-10.88 -3.69 1.35 255 255 255
-11.04 -3.73 1.63 255 255 255
-11.03 -3.71 1.27 255 255 255
-10.75 -3.69 1.58 255 255 255
-11.03 -3.72 1.53 255 255 255
-10.74 -3.67 1.31 255 255 255
-11.18 -3.72 1.25 255 255 255
-10.88 -3.69 1.56 255 255 255
-11.19 -3.74 1.52 255 255 255
-10.89 -3.71 1.29 255 255 255
-11.03 -3.70 1.18 255 255 255
-10.75 -3.69 1.49 255 255 255
-10.88 -3.70 1.23 255 255 255
-11.03 -3.72 1.47 255 255 255
-10.89 -3.70 1.48 255 255 255
-11.03 -3.70 1.00 255 255 255
-8.81 1.71 0.12 255 255 255
0.36 33.26 1.44 255 255 255
-10.88 -3.68 1.12 255 255 255
-11.19 -3.74 1.45 255 255 255
-8.92 1.88 0.67 255 255 255
-6.36 7.68 1.39 255 255 255
-10.75 -3.68 1.43 255 255 255
-11.02 -3.69 0.61 255 255 255
2.33 33.54 2.09 255 255 255
-8.69 2.01 0.89 255 255 255
-10.87 -3.67 0.86 255 255 255
-11.04 -3.72 1.40 255 255 255
6.59 34.16 1.68 255 255 255
-8.82 2.14 1.03 255 255 255
-8.49 2.49 1.08 255 255 255
0.38 33.28 2.28 255 255 255
-6.35 7.69 1.61 255 255 255
6.60 34.12 2.59 255 255 255
-6.33 7.73 0.88 255 255 255
-6.36 7.65 1.84 255 255 255
-6.37 7.63 2.06 255 255 255
-11.19 -3.73 1.38 255 255 255
-6.34 7.70 1.17 255 255 255
-11.05 -3.75 2.11 255 255 255
-10.88 -3.67 1.42 255 255 255
-2.13 24.81 0.83 255 255 255
-6.38 7.60 2.44 255 255 255
-11.03 -3.70 1.34 255 255 255
-10.90 -3.73 1.88 255 255 255
1.69 23.61 1.00 255 255 255
-11.05 -3.74 1.77 255 255 255
-10.75 -3.69 1.37 255 255 255
-11.19 -3.72 1.32 255 255 255
-10.90 -3.71 1.68 255 255 255
-11.05 -3.73 1.63 255 255 255
-10.89 -3.69 1.35 255 255 255
-11.04 -3.71 1.27 255 255 255
-10.76 -3.69 1.58 255 255 255
-11.05 -3.72 1.53 255 255 255
-10.75 -3.67 1.31 255 255 255
-10.89 -3.69 1.56 255 255 255
-11.19 -3.72 1.25 255 255 255
-10.90 -3.72 1.29 255 255 255
-11.20 -3.74 1.52 255 255 255
-10.76 -3.69 1.49 255 255 255
-11.03 -3.70 1.18 255 255 255
-10.89 -3.69 1.23 255 255 255
-11.04 -3.71 1.47 255 255 255
-11.04 -3.70 1.00 255 255 255
-10.90 -3.71 1.48 255 255 255
-8.80 1.72 0.12 255 255 255
0.51 33.31 1.44 255 255 255
-10.89 -3.69 1.12 255 255 255
-11.20 -3.74 1.45 255 255 255
-6.31 7.71 1.39 255 255 255
-8.40 3.28 0.27 255 255 255
-11.03 -3.69 0.61 255 255 255
-10.75 -3.68 1.43 255 255 255
-8.58 2.25 0.84 255 255 255
2.47 33.53 2.09 255 255 255
-11.04 -3.71 1.40 255 255 255
-10.88 -3.66 0.86 255 255 255
6.76 34.18 1.68 255 255 255
-8.81 2.13 1.03 255 255 255
0.52 33.27 2.28 255 255 255
-8.48 2.49 1.08 255 255 255
-6.31 7.70 1.61 255 255 255
6.77 34.14 2.59 255 255 255
-6.27 7.78 0.88 255 255 255
-6.32 7.68 1.84 255 255 255
-6.32 7.65 2.06 255 255 255
-0.94 23.91 0.69 255 255 255
-11.21 -3.74 1.38 255 255 255
-6.27 7.76 1.16 255 255 255
-11.07 -3.75 2.11 255 255 255
-10.89 -3.67 1.42 255 255 255
-6.33 7.63 2.45 255 255 255
-2.07 24.67 0.83 255 255 255
-10.91 -3.72 1.88 255 255 255
-11.05 -3.71 1.34 255 255 255
1.79 23.59 1.00 255 255 255
-11.06 -3.74 1.77 255 255 255
-10.76 -3.69 1.37 255 255 255
-0.57 24.92 1.30 255 255 255
-11.20 -3.73 1.32 255 255 255
-10.91 -3.71 1.68 255 255 255
-11.06 -3.74 1.63 255 255 255
-10.90 -3.69 1.35 255 255 255
-10.76 -3.69 1.58 255 255 255
-11.05 -3.70 1.27 255 255 255
-10.76 -3.67 1.31 255 255 255
-11.06 -3.73 1.53 255 255 255
-10.90 -3.69 1.56 255 255 255
-11.20 -3.72 1.25 255 255 255
-11.22 -3.74 1.52 255 255 255
-10.91 -3.72 1.29 255 255 255
-11.05 -3.70 1.18 255 255 255
-10.77 -3.69 1.49 255 255 255
-11.05 -3.71 1.47 255 255 255
-10.90 -3.70 1.23 255 255 255
-10.91 -3.70 1.48 255 255 255
-11.05 -3.70 1.00 255 255 255
-8.78 1.73 0.11 255 255 255
0.62 33.30 1.44 255 255 255
-11.22 -3.74 1.45 255 255 255
-10.90 -3.69 1.12 255 255 255
-8.41 3.19 0.30 255 255 255
-11.04 -3.69 0.60 255 255 255
-10.76 -3.68 1.43 255 255 255
-8.56 2.27 0.83 255 255 255
2.60 33.54 2.09 255 255 255
-10.89 -3.66 0.86 255 255 255
-11.05 -3.71 1.40 255 255 255
6.90 34.17 1.68 255 255 255
-8.80 2.13 1.03 255 255 255
-8.47 2.48 1.08 255 255 255
0.64 33.29 2.28 255 255 255
-3.73 13.76 1.68 255 255 255
6.92 34.16 2.60 255 255 255
-0.87 23.90 0.69 255 255 255
-6.28 7.68 2.06 255 255 255
-11.22 -3.74 1.38 255 255 255
-11.08 -3.75 2.11 255 255 255
-10.90 -3.67 1.42 255 255 255
-2.04 24.47 0.84 255 255 255
-6.29 7.64 2.45 255 255 255
-10.92 -3.72 1.88 255 255 255
-11.06 -3.71 1.34 255 255 255
1.88 23.59 0.99 255 255 255
-10.77 -3.69 1.37 255 255 255
-11.07 -3.74 1.77 255 255 255
-0.57 24.65 1.31 255 255 255
-11.22 -3.73 1.32 255 255 255
-10.92 -3.71 1.68 255 255 255
-11.07 -3.74 1.63 255 255 255
-10.91 -3.69 1.35 255 255 255
-11.06 -3.71 1.27 255 255 255
-10.77 -3.69 1.59 255 255 255
-11.07 -3.72 1.53 255 255 255
-10.77 -3.67 1.31 255 255 255
-10.91 -3.69 1.56 255 255 255
-11.22 -3.73 1.25 255 255 255
-10.92 -3.72 1.29 255 255 255
-11.23 -3.75 1.52 255 255 255
-10.78 -3.70 1.49 255 255 255
-11.06 -3.70 1.18 255 255 255
-11.07 -3.72 1.47 255 255 255
-10.92 -3.70 1.23 255 255 255
-11.06 -3.71 1.00 255 255 255
-10.92 -3.70 1.48 255 255 255
-8.77 1.73 0.11 255 255 255
0.76 33.32 1.44 255 255 255
-10.91 -3.69 1.12 255 255 255
-11.22 -3.74 1.45 255 255 255
-3.70 13.70 1.30 255 255 255
-8.88 1.88 0.66 255 255 255
-10.78 -3.69 1.43 255 255 255
-11.06 -3.71 0.60 255 255 255
-8.54 2.27 0.83 255 255 255
2.75 33.60 2.09 255 255 255
-10.90 -3.67 0.85 255 255 255
-11.07 -3.72 1.40 255 255 255
-8.79 2.12 1.03 255 255 255
0.78 33.31 2.28 255 255 255
-8.45 2.48 1.08 255 255 255
-3.68 13.74 1.68 255 255 255
7.09 34.22 2.60 255 255 255
-3.67 13.72 2.06 255 255 255
-3.68 13.72 2.43 255 255 255
-0.77 23.88 0.69 255 255 255
-11.23 -3.74 1.38 255 255 255
-11.09 -3.76 2.12 255 255 255
-10.91 -3.68 1.42 255 255 255
-2.00 24.29 0.84 255 255 255
-6.23 7.70 2.46 255 255 255
-10.93 -3.72 1.88 255 255 255
-11.07 -3.71 1.34 255 255 255
2.01 23.62 0.99 255 255 255
-10.78 -3.69 1.37 255 255 255
-11.08 -3.75 1.77 255 255 255
-0.55 24.45 1.31 255 255 255
-10.93 -3.71 1.68 255 255 255
-11.23 -3.74 1.32 255 255 255
-11.08 -3.74 1.64 255 255 255
-10.92 -3.70 1.35 255 255 255
-11.07 -3.71 1.27 255 255 255
-10.78 -3.69 1.59 255 255 255
-10.78 -3.68 1.31 255 255 255
-11.08 -3.72 1.53 255 255 255
-10.92 -3.69 1.56 255 255 255
-11.22 -3.72 1.25 255 255 255
-10.93 -3.71 1.29 255 255 255
-11.24 -3.75 1.52 255 255 255
-10.79 -3.70 1.49 255 255 255
-11.07 -3.70 1.18 255 255 255
-11.08 -3.72 1.47 255 255 255
-10.93 -3.70 1.23 255 255 255
-10.93 -3.71 1.48 255 255 255
-11.07 -3.70 1.00 255 255 255
0.90 33.34 1.44 255 255 255
-8.76 1.73 0.11 255 255 255
-11.24 -3.74 1.45 255 255 255
-10.92 -3.69 1.12 255 255 255
-3.65 13.70 1.30 255 255 255
-8.86 1.91 0.66 255 255 255
-10.79 -3.69 1.43 255 255 255
-11.07 -3.70 0.60 255 255 255
2.89 33.59 2.09 255 255 255
-8.54 2.23 0.84 255 255 255
-10.91 -3.67 0.85 255 255 255
-11.08 -3.72 1.40 255 255 255
7.23 34.22 1.68 255 255 255
-8.78 2.11 1.03 255 255 255
-8.44 2.47 1.08 255 255 255
0.92 33.33 2.28 255 255 255
-3.62 13.73 1.68 255 255 255
7.25 34.21 2.60 255 255 255
-3.62 13.72 2.06 255 255 255
-3.61 13.72 2.44 255 255 255
-0.68 23.87 0.69 255 255 255
-11.24 -3.74 1.39 255 255 255
-10.92 -3.68 1.42 255 255 255
-11.10 -3.77 2.12 255 255 255
-1.92 24.22 0.84 255 255 255
-10.94 -3.72 1.88 255 255 255
-11.08 -3.71 1.34 255 255 255
2.13 23.65 0.99 255 255 255
-10.79 -3.69 1.37 255 255 255
-11.09 -3.75 1.77 255 255 255
-0.49 24.33 1.31 255 255 255
-10.94 -3.71 1.68 255 255 255
-11.24 -3.73 1.32 255 255 255
-10.93 -3.70 1.35 255 255 255
-11.09 -3.74 1.64 255 255 255
-11.08 -3.71 1.27 255 255 255
-10.79 -3.70 1.59 255 255 255
-10.79 -3.67 1.31 255 255 255
-11.09 -3.73 1.53 255 255 255
-11.24 -3.72 1.25 255 255 255
-10.93 -3.69 1.56 255 255 255
-11.25 -3.76 1.52 255 255 255
-10.94 -3.72 1.29 255 255 255
-11.08 -3.70 1.18 255 255 255
-10.80 -3.70 1.49 255 255 255
-10.94 -3.70 1.23 255 255 255
-11.09 -3.73 1.47 255 255 255
-10.94 -3.71 1.48 255 255 255
-11.08 -3.71 1.00 255 255 255
1.04 33.36 1.44 255 255 255
-8.75 1.72 0.11 255 255 255
-10.93 -3.69 1.12 255 255 255
-11.25 -3.74 1.45 255 255 255
-3.57 13.74 1.30 255 255 255
-8.84 1.91 0.65 255 255 255
-10.79 -3.68 1.43 255 255 255
-11.08 -3.70 0.60 255 255 255
-8.53 2.22 0.84 255 255 255
3.04 33.64 2.10 255 255 255
-10.92 -3.67 0.85 255 255 255
-11.09 -3.72 1.40 255 255 255
7.41 34.27 1.69 255 255 255
-8.77 2.11 1.03 255 255 255
1.06 33.35 2.29 255 255 255
-8.43 2.46 1.08 255 255 255
-3.54 13.78 1.68 255 255 255
7.43 34.27 2.60 255 255 255
-3.54 13.75 2.06 255 255 255
-3.55 13.74 2.44 255 255 255
-0.58 23.83 0.69 255 255 255
-11.25 -3.74 1.38 255 255 255
-10.93 -3.68 1.42 255 255 255
-11.11 -3.77 2.12 255 255 255
-1.85 24.15 0.84 255 255 255
-10.96 -3.73 1.88 255 255 255
-11.09 -3.72 1.34 255 255 255
2.28 23.71 0.99 255 255 255
-10.80 -3.70 1.37 255 255 255
-11.10 -3.74 1.77 255 255 255
-0.45 24.16 1.31 255 255 255
-10.95 -3.71 1.68 255 255 255
-11.25 -3.73 1.32 255 255 255
-11.10 -3.74 1.64 255 255 255
-10.94 -3.69 1.35 255 255 255
-11.09 -3.72 1.27 255 255 255
-10.80 -3.69 1.59 255 255 255
-11.10 -3.73 1.53 255 255 255
-10.80 -3.68 1.31 255 255 255
-10.94 -3.70 1.56 255 255 255
-11.24 -3.72 1.25 255 255 255
-10.95 -3.71 1.29 255 255 255
-11.26 -3.75 1.52 255 255 255
-10.81 -3.70 1.49 255 255 255
-11.09 -3.70 1.18 255 255 255
-11.10 -3.73 1.47 255 255 255
-10.95 -3.71 1.23 255 255 255
-11.09 -3.71 1.00 255 255 255
-10.95 -3.71 1.48 255 255 255
-8.73 1.72 0.11 255 255 255
1.19 33.38 1.44 255 255 255
-11.26 -3.75 1.45 255 255 255
-10.94 -3.70 1.12 255 255 255
-8.84 1.87 0.66 255 255 255
-11.09 -3.71 0.59 255 255 255
-10.80 -3.69 1.43 255 255 255
3.20 33.66 2.10 255 255 255
-8.52 2.22 0.84 255 255 255
-11.10 -3.72 1.40 255 255 255
-10.93 -3.67 0.85 255 255 255
7.58 34.27 1.69 255 255 255
-8.75 2.11 1.03 255 255 255
-8.41 2.46 1.08 255 255 255
1.20 33.37 2.29 255 255 255
-0.91 19.65 1.74 255 255 255
-6.58 7.85 1.00 255 255 255
-0.91 19.61 2.27 255 255 255
-0.48 23.82 0.69 255 255 255
-11.26 -3.74 1.38 255 255 255
-11.12 -3.76 2.12 255 255 255
-10.94 -3.67 1.42 255 255 255
-1.76 24.12 0.84 255 255 255
-11.10 -3.72 1.34 255 255 255
-10.96 -3.73 1.88 255 255 255
-11.12 -3.74 1.77 255 255 255
-10.81 -3.70 1.37 255 255 255
-0.38 24.08 1.31 255 255 255
-10.96 -3.72 1.68 255 255 255
-11.26 -3.74 1.32 255 255 255
-11.11 -3.74 1.64 255 255 255
-10.95 -3.69 1.35 255 255 255
-11.10 -3.71 1.27 255 255 255
-10.81 -3.69 1.59 255 255 255
-10.81 -3.68 1.31 255 255 255
-11.11 -3.73 1.53 255 255 255
-11.26 -3.73 1.25 255 255 255
-10.96 -3.70 1.56 255 255 255
-11.27 -3.75 1.52 255 255 255
-10.96 -3.71 1.29 255 255 255
-10.82 -3.70 1.49 255 255 255
-11.10 -3.71 1.18 255 255 255
-10.96 -3.70 1.23 255 255 255
-11.11 -3.73 1.47 255 255 255
-11.10 -3.72 1.00 255 255 255
-10.96 -3.71 1.48 255 255 255
-8.72 1.73 0.10 255 255 255
1.33 33.40 1.44 255 255 255
-11.27 -3.75 1.45 255 255 255
-10.95 -3.70 1.12 255 255 255
-0.84 19.64 1.22 255 255 255
-8.81 1.92 0.65 255 255 255
-11.10 -3.71 0.59 255 255 255
-10.81 -3.68 1.43 255 255 255
3.34 33.65 2.10 255 255 255
-8.50 2.23 0.84 255 255 255
-11.11 -3.72 1.40 255 255 255
-10.94 -3.67 0.85 255 255 255
7.75 34.32 1.69 255 255 255
-8.75 2.09 1.03 255 255 255
-8.40 2.46 1.08 255 255 255
1.35 33.39 2.29 255 255 255
-0.84 19.61 1.74 255 255 255
-6.56 7.78 1.00 255 255 255
7.76 34.28 2.61 255 255 255
-0.83 19.58 2.27 255 255 255
-11.27 -3.73 1.38 255 255 255
-10.95 -3.68 1.42 255 255 255
-11.13 -3.76 2.12 255 255 255
-1.66 24.07 0.84 255 255 255
-10.97 -3.72 1.88 255 255 255
-11.11 -3.72 1.34 255 255 255
-10.82 -3.70 1.37 255 255 255
-11.13 -3.74 1.77 255 255 255
-11.27 -3.74 1.32 255 255 255
-10.97 -3.72 1.68 255 255 255
-11.13 -3.74 1.64 255 255 255
-10.96 -3.69 1.35 255 255 255
-11.11 -3.72 1.27 255 255 255
-10.82 -3.69 1.59 255 255 255
-10.82 -3.68 1.31 255 255 255
-11.12 -3.73 1.53 255 255 255
-10.97 -3.71 1.56 255 255 255
-11.27 -3.73 1.25 255 255 255
-10.97 -3.72 1.29 255 255 255
-11.29 -3.76 1.52 255 255 255
-10.83 -3.70 1.49 255 255 255
-11.11 -3.70 1.18 255 255 255
-10.97 -3.70 1.23 255 255 255
-11.12 -3.73 1.47 255 255 255
-10.97 -3.71 1.48 255 255 255
-11.11 -3.71 1.00 255 255 255
-8.70 1.74 0.09 255 255 255
1.47 33.42 1.44 255 255 255
-10.96 -3.70 1.12 255 255 255
-11.28 -3.75 1.45 255 255 255
-8.80 1.91 0.65 255 255 255
-0.75 19.63 1.22 255 255 255
-10.82 -3.69 1.43 255 255 255
-11.11 -3.71 0.59 255 255 255
-6.53 7.79 1.67 255 255 255
-8.50 2.20 0.84 255 255 255
-11.12 -3.73 1.40 255 255 255
-10.95 -3.67 0.85 255 255 255
7.92 34.32 1.69 255 255 255
-8.74 2.08 1.03 255 255 255
-8.39 2.45 1.08 255 255 255
1.49 33.41 2.29 255 255 255
-0.74 19.63 1.75 255 255 255
7.93 34.31 2.61 255 255 255
-6.54 7.73 1.00 255 255 255
-0.75 19.59 2.27 255 255 255
-6.53 7.76 1.22 255 255 255
-11.28 -3.73 1.38 255 255 255
-10.97 -3.69 1.42 255 255 255
-11.15 -3.77 2.13 255 255 255
-1.59 24.02 0.85 255 255 255
-10.98 -3.73 1.88 255 255 255
-11.12 -3.72 1.34 255 255 255
-11.14 -3.75 1.77 255 255 255
-10.83 -3.70 1.37 255 255 255
-6.52 7.77 1.45 255 255 255
-11.28 -3.74 1.32 255 255 255
-10.98 -3.72 1.68 255 255 255
-11.14 -3.74 1.64 255 255 255
-10.97 -3.70 1.35 255 255 255
-10.83 -3.69 1.59 255 255 255
-11.13 -3.72 1.27 255 255 255
-10.83 -3.68 1.31 255 255 255
-11.14 -3.74 1.53 255 255 255
-10.97 -3.70 1.56 255 255 255
-11.28 -3.73 1.25 255 255 255
-10.98 -3.72 1.29 255 255 255
-11.30 -3.76 1.52 255 255 255
-10.84 -3.71 1.49 255 255 255
-11.12 -3.72 1.17 255 255 255
-10.97 -3.71 1.23 255 255 255
-11.14 -3.74 1.47 255 255 255
-10.98 -3.71 1.48 255 255 255
-11.12 -3.71 0.99 255 255 255
-8.69 1.74 0.09 255 255 255
1.61 33.44 1.44 255 255 255
-10.97 -3.70 1.12 255 255 255
-11.29 -3.74 1.45 255 255 255
-8.79 1.91 0.65 255 255 255
1.20 23.82 1.15 255 255 255
-11.12 -3.72 0.59 255 255 255
-10.83 -3.69 1.43 255 255 255
-8.49 2.20 0.84 255 255 255
-6.52 7.73 1.67 255 255 255
-11.13 -3.73 1.40 255 255 255
-10.96 -3.67 0.85 255 255 255
8.07 34.37 1.69 255 255 255
-8.73 2.07 1.03 255 255 255
-8.38 2.44 1.08 255 255 255
1.62 33.43 2.29 255 255 255
5.81 34.07 1.90 255 255 255
-6.51 7.74 1.89 255 255 255
8.07 34.33 2.61 255 255 255
-6.51 7.73 1.00 255 255 255
-0.66 19.60 2.28 255 255 255
-6.50 7.74 1.22 255 255 255
-11.29 -3.74 1.38 255 255 255
-11.16 -3.77 2.13 255 255 255
-10.98 -3.69 1.42 255 255 255
-1.50 24.00 0.85 255 255 255
-11.00 -3.73 1.89 255 255 255
-11.13 -3.72 1.34 255 255 255
-10.84 -3.71 1.37 255 255 255
-11.15 -3.75 1.77 255 255 255
-6.50 7.73 1.45 255 255 255
-10.99 -3.72 1.69 255 255 255
-11.30 -3.74 1.32 255 255 255
-10.98 -3.70 1.35 255 255 255
-11.15 -3.75 1.64 255 255 255
-10.84 -3.69 1.59 255 255 255
-11.14 -3.73 1.27 255 255 255
-10.84 -3.68 1.31 255 255 255
-11.15 -3.75 1.53 255 255 255
-10.99 -3.71 1.56 255 255 255
-11.30 -3.73 1.25 255 255 255
-10.99 -3.72 1.29 255 255 255
-11.31 -3.76 1.52 255 255 255
-10.84 -3.70 1.49 255 255 255
-11.13 -3.71 1.17 255 255 255
-10.98 -3.70 1.23 255 255 255
-11.15 -3.74 1.47 255 255 255
-10.99 -3.72 1.48 255 255 255
-11.14 -3.72 0.99 255 255 255
1.75 33.46 1.44 255 255 255
-8.68 1.73 0.09 255 255 255
-10.98 -3.70 1.12 255 255 255
-11.30 -3.75 1.45 255 255 255
1.30 23.80 1.15 255 255 255
-8.36 2.96 0.35 255 255 255
-10.84 -3.69 1.43 255 255 255
-11.13 -3.72 0.59 255 255 255
-8.48 2.19 0.84 255 255 255
-6.50 7.69 1.67 255 255 255
-10.97 -3.67 0.85 255 255 255
-11.15 -3.74 1.40 255 255 255
8.24 34.39 1.69 255 255 255
-8.71 2.09 1.03 255 255 255
1.76 33.45 2.29 255 255 255
-8.36 2.44 1.08 255 255 255
5.99 34.10 1.90 255 255 255
-6.49 7.70 1.89 255 255 255
8.25 34.35 2.62 255 255 255
-6.48 7.71 1.00 255 255 255
-6.49 7.69 2.22 255 255 255
-6.48 7.71 1.22 255 255 255
-11.30 -3.74 1.38 255 255 255
-10.99 -3.70 1.42 255 255 255
-11.17 -3.77 2.13 255 255 255
-1.41 23.98 0.85 255 255 255
-11.15 -3.73 1.34 255 255 255
-11.01 -3.74 1.89 255 255 255
-10.85 -3.71 1.37 255 255 255
-11.16 -3.75 1.77 255 255 255
-6.47 7.71 1.45 255 255 255
-11.00 -3.73 1.69 255 255 255
-11.31 -3.74 1.32 255 255 255
-10.99 -3.70 1.35 255 255 255
-11.15 -3.74 1.64 255 255 255
-10.85 -3.70 1.59 255 255 255
-11.15 -3.73 1.27 255 255 255
-11.16 -3.75 1.53 255 255 255
-10.85 -3.69 1.31 255 255 255
-11.00 -3.71 1.56 255 255 255
-11.31 -3.73 1.25 255 255 255
-11.00 -3.72 1.29 255 255 255
-11.32 -3.76 1.52 255 255 255
-10.85 -3.70 1.49 255 255 255
-11.14 -3.71 1.17 255 255 255
-11.00 -3.71 1.23 255 255 255
-11.16 -3.74 1.47 255 255 255
-11.00 -3.72 1.48 255 255 255
-11.15 -3.72 0.99 255 255 255
-8.67 1.73 0.09 255 255 255
1.89 33.48 1.44 255 255 255
-10.99 -3.70 1.12 255 255 255
-11.32 -3.75 1.45 255 255 255
-8.79 1.85 0.66 255 255 255
1.42 23.83 1.15 255 255 255
-10.85 -3.69 1.43 255 255 255
-11.14 -3.71 0.59 255 255 255
-6.47 7.68 1.67 255 255 255
-8.53 2.05 0.87 255 255 255
-10.98 -3.66 0.85 255 255 255
-11.16 -3.73 1.40 255 255 255
-8.70 2.07 1.03 255 255 255
8.41 34.42 1.69 255 255 255
1.91 33.47 2.30 255 255 255
-8.35 2.43 1.08 255 255 255
6.14 34.09 1.91 255 255 255
-6.47 7.67 1.89 255 255 255
-6.45 7.69 1.00 255 255 255
8.42 34.38 2.62 255 255 255
-6.46 7.67 2.22 255 255 255
-6.45 7.70 1.22 255 255 255
-11.32 -3.74 1.38 255 255 255
-11.00 -3.70 1.42 255 255 255
-11.18 -3.78 2.13 255 255 255
-1.33 23.96 0.85 255 255 255
-11.16 -3.73 1.34 255 255 255
-11.02 -3.74 1.89 255 255 255
-10.86 -3.71 1.37 255 255 255
-11.17 -3.76 1.78 255 255 255
-6.44 7.69 1.45 255 255 255
-11.01 -3.72 1.69 255 255 255
-11.32 -3.74 1.32 255 255 255
-11.17 -3.75 1.64 255 255 255
-11.00 -3.70 1.35 255 255 255
-10.86 -3.69 1.59 255 255 255
-11.16 -3.73 1.27 255 255 255
-11.17 -3.75 1.53 255 255 255
-10.86 -3.69 1.31 255 255 255
-11.01 -3.71 1.56 255 255 255
-11.32 -3.74 1.25 255 255 255
-11.01 -3.72 1.29 255 255 255
-11.33 -3.76 1.52 255 255 255
-10.86 -3.70 1.49 255 255 255
-11.15 -3.71 1.17 255 255 255
-11.00 -3.70 1.23 255 255 255
-11.16 -3.73 1.47 255 255 255
-11.16 -3.73 0.99 255 255 255
-11.01 -3.72 1.48 255 255 255
-8.65 1.74 0.08 255 255 255
2.03 33.50 1.44 255 255 255
-11.00 -3.70 1.12 255 255 255
-11.33 -3.75 1.45 255 255 255
-8.77 1.88 0.65 255 255 255
6.28 34.15 1.00 255 255 255
-10.86 -3.69 1.43 255 255 255
-11.16 -3.72 0.58 255 255 255
-6.43 7.67 1.67 255 255 255
-8.54 1.98 0.88 255 255 255
-10.99 -3.67 0.85 255 255 255
-11.17 -3.74 1.40 255 255 255
-8.69 2.06 1.03 255 255 255
2.05 33.49 2.30 255 255 255
-8.33 2.43 1.08 255 255 255
6.30 34.14 1.91 255 255 255
-6.44 7.66 1.89 255 255 255
8.58 34.40 2.62 255 255 255
-6.42 7.68 1.00 255 255 255
-6.44 7.64 2.22 255 255 255
-6.42 7.68 1.22 255 255 255
-11.33 -3.75 1.38 255 255 255
-11.01 -3.69 1.42 255 255 255
-11.19 -3.77 2.13 255 255 255
-1.23 23.94 0.85 255 255 255
-11.03 -3.74 1.89 255 255 255
-11.17 -3.73 1.34 255 255 255
-11.18 -3.75 1.78 255 255 255
-10.87 -3.71 1.37 255 255 255
-6.41 7.67 1.45 255 255 255
-11.03 -3.74 1.69 255 255 255
-11.33 -3.74 1.32 255 255 255
-11.01 -3.71 1.35 255 255 255
-11.18 -3.75 1.64 255 255 255
-11.17 -3.73 1.27 255 255 255
-10.87 -3.69 1.59 255 255 255
-10.87 -3.69 1.31 255 255 255
-11.18 -3.74 1.53 255 255 255
-11.02 -3.72 1.56 255 255 255
-11.33 -3.74 1.25 255 255 255
-11.02 -3.72 1.29 255 255 255
-11.34 -3.76 1.52 255 255 255
-10.87 -3.70 1.49 255 255 255
-11.17 -3.72 1.17 255 255 255
-11.01 -3.71 1.23 255 255 255
-11.18 -3.74 1.47 255 255 255
-11.02 -3.72 1.48 255 255 255
-11.17 -3.73 0.99 255 255 255
-8.64 1.74 0.08 255 255 255
2.17 33.52 1.44 255 255 255
-11.01 -3.70 1.11 255 255 255
-11.34 -3.75 1.45 255 255 255
-8.77 1.85 0.66 255 255 255
6.42 34.14 1.00 255 255 255
-10.87 -3.70 1.43 255 255 255
-11.16 -3.71 0.58 255 255 255
-6.41 7.66 1.67 255 255 255
-8.53 1.99 0.88 255 255 255
-11.18 -3.75 1.40 255 255 255
-11.00 -3.68 0.84 255 255 255
8.75 34.47 1.69 255 255 255
-8.69 2.05 1.03 255 255 255
-8.32 2.43 1.08 255 255 255
2.19 33.51 2.30 255 255 255
6.46 34.17 1.91 255 255 255
-6.40 7.66 1.89 255 255 255
-6.38 7.68 1.00 255 255 255
8.76 34.43 2.63 255 255 255
-6.41 7.63 2.22 255 255 255
-6.38 7.67 1.22 255 255 255
-11.34 -3.74 1.38 255 255 255
-11.02 -3.70 1.42 255 255 255
-11.20 -3.78 2.13 255 255 255
-1.14 23.92 0.85 255 255 255
-11.04 -3.75 1.89 255 255 255
-11.18 -3.73 1.34 255 255 255
-10.88 -3.71 1.37 255 255 255
-11.19 -3.76 1.78 255 255 255
-6.37 7.69 1.45 255 255 255
-11.03 -3.73 1.69 255 255 255
-11.34 -3.75 1.32 255 255 255
-11.19 -3.76 1.64 255 255 255
-11.02 -3.71 1.35 255 255 255
-11.18 -3.73 1.27 255 255 255
-10.88 -3.70 1.59 255 255 255
-11.19 -3.75 1.53 255 255 255
-10.88 -3.69 1.31 255 255 255
-11.34 -3.74 1.25 255 255 255
-11.03 -3.71 1.56 255 255 255
-11.35 -3.76 1.52 255 255 255
-11.03 -3.72 1.29 255 255 255
-10.89 -3.71 1.50 255 255 255
-11.18 -3.73 1.17 255 255 255
-11.19 -3.74 1.47 255 255 255
-11.03 -3.71 1.23 255 255 255
-11.03 -3.72 1.48 255 255 255
-11.18 -3.72 0.99 255 255 255
-8.63 1.74 0.08 255 255 255
2.31 33.54 1.45 255 255 255
-11.02 -3.70 1.12 255 255 255
-11.35 -3.75 1.45 255 255 255
-8.52 2.40 0.50 255 255 255
6.59 34.16 1.00 255 255 255
-11.18 -3.72 0.58 255 255 255
-10.88 -3.69 1.43 255 255 255
-6.37 7.65 1.67 255 255 255
-8.51 2.00 0.88 255 255 255
-11.19 -3.75 1.40 255 255 255
-11.01 -3.68 0.84 255 255 255
-8.68 2.03 1.04 255 255 255
8.92 34.49 1.69 255 255 255
2.33 33.53 2.30 255 255 255
-8.31 2.41 1.08 255 255 255
6.62 34.16 1.91 255 255 255
-6.37 7.66 1.89 255 255 255
-6.35 7.68 1.00 255 255 255
8.95 34.49 2.63 255 255 255
-6.38 7.62 2.22 255 255 255
-6.34 7.70 1.22 255 255 255
-11.35 -3.74 1.38 255 255 255
-11.03 -3.70 1.42 255 255 255
-11.21 -3.78 2.14 255 255 255
-1.05 23.89 0.85 255 255 255
-11.05 -3.75 1.89 255 255 255
-11.19 -3.74 1.34 255 255 255
-10.89 -3.71 1.37 255 255 255
-11.20 -3.76 1.78 255 255 255
-6.34 7.69 1.45 255 255 255
-11.05 -3.74 1.69 255 255 255
-11.35 -3.75 1.32 255 255 255
-11.03 -3.71 1.35 255 255 255
-11.20 -3.76 1.64 255 255 255
-10.89 -3.70 1.59 255 255 255
-11.20 -3.75 1.27 255 255 255
-10.89 -3.69 1.31 255 255 255
-11.20 -3.75 1.53 255 255 255
-11.35 -3.74 1.25 255 255 255
-11.04 -3.72 1.56 255 255 255
-11.04 -3.72 1.29 255 255 255
-11.36 -3.76 1.52 255 255 255
-10.90 -3.71 1.50 255 255 255
-11.19 -3.72 1.17 255 255 255
-11.04 -3.71 1.23 255 255 255
-11.20 -3.74 1.47 255 255 255
-11.05 -3.73 1.48 255 255 255
-11.19 -3.73 0.99 255 255 255
-8.61 1.74 0.08 255 255 255
2.46 33.56 1.45 255 255 255
-11.36 -3.75 1.45 255 255 255
-11.03 -3.71 1.11 255 255 255
6.75 34.19 1.00 255 255 255
-8.55 2.31 0.53 255 255 255
-10.89 -3.69 1.43 255 255 255
-11.18 -3.71 0.58 255 255 255
-6.32 7.67 1.67 255 255 255
-8.50 1.99 0.88 255 255 255
-11.02 -3.68 0.84 255 255 255
-11.20 -3.74 1.40 255 255 255
9.11 34.52 1.69 255 255 255
-8.66 2.04 1.03 255 255 255
2.48 33.56 2.30 255 255 255
-8.29 2.42 1.08 255 255 255
6.80 34.22 1.91 255 255 255
-6.33 7.66 1.89 255 255 255
-6.28 7.75 1.00 255 255 255
9.13 34.51 2.64 255 255 255
-6.34 7.62 2.22 255 255 255
-6.28 7.74 1.22 255 255 255
-11.36 -3.74 1.38 255 255 255
-11.04 -3.70 1.42 255 255 255
-11.22 -3.78 2.14 255 255 255
-0.94 23.89 0.85 255 255 255
-11.06 -3.76 1.89 255 255 255
-11.20 -3.73 1.34 255 255 255
-10.90 -3.71 1.37 255 255 255
-11.22 -3.76 1.78 255 255 255
-6.28 7.72 1.45 255 255 255
-11.06 -3.74 1.69 255 255 255
-11.37 -3.75 1.32 255 255 255
-11.05 -3.72 1.35 255 255 255
-11.21 -3.75 1.64 255 255 255
-10.90 -3.70 1.59 255 255 255
-11.21 -3.74 1.27 255 255 255
-11.21 -3.75 1.53 255 255 255
-10.90 -3.70 1.31 255 255 255
-11.05 -3.72 1.56 255 255 255
-11.37 -3.75 1.25 255 255 255
-11.38 -3.76 1.52 255 255 255
-11.05 -3.72 1.29 255 255 255
-11.20 -3.72 1.17 255 255 255
-10.90 -3.71 1.50 255 255 255
-11.21 -3.74 1.47 255 255 255
-11.05 -3.71 1.23 255 255 255
-11.20 -3.73 0.99 255 255 255
-11.06 -3.73 1.48 255 255 255
-8.60 1.74 0.08 255 255 255
2.60 33.58 1.45 255 255 255
-11.04 -3.70 1.11 255 255 255
-11.37 -3.75 1.45 255 255 255
6.90 34.21 1.00 255 255 255
-8.56 2.25 0.54 255 255 255
-10.90 -3.69 1.43 255 255 255
-11.20 -3.72 0.58 255 255 255
-8.46 2.05 0.86 255 255 255
-6.27 7.71 1.67 255 255 255
-11.03 -3.68 0.84 255 255 255
-11.21 -3.74 1.40 255 255 255
9.27 34.51 1.69 255 255 255
-8.65 2.04 1.03 255 255 255
-8.28 2.41 1.08 255 255 255
2.62 33.58 2.31 255 255 255
6.94 34.20 1.91 255 255 255
-6.27 7.69 1.89 255 255 255
9.30 34.54 2.64 255 255 255
-6.29 7.64 2.23 255 255 255
-11.38 -3.75 1.38 255 255 255
-11.05 -3.71 1.42 255 255 255
-11.23 -3.78 2.14 255 255 255
-0.86 23.89 0.85 255 255 255
-11.07 -3.75 1.89 255 255 255
-11.21 -3.73 1.34 255 255 255
-10.91 -3.72 1.37 255 255 255
-11.23 -3.77 1.78 255 255 255
-3.72 13.73 1.40 255 255 255
-11.07 -3.74 1.69 255 255 255
-11.38 -3.75 1.32 255 255 255
-11.22 -3.75 1.64 255 255 255
-11.06 -3.71 1.35 255 255 255
-11.21 -3.73 1.27 255 255 255
-10.91 -3.69 1.59 255 255 255
-11.22 -3.75 1.53 255 255 255
-10.91 -3.69 1.31 255 255 255
-11.38 -3.75 1.25 255 255 255
-11.06 -3.72 1.56 255 255 255
-11.06 -3.72 1.29 255 255 255
-11.39 -3.76 1.52 255 255 255
-10.92 -3.71 1.50 255 255 255
-11.21 -3.73 1.17 255 255 255
-11.06 -3.71 1.23 255 255 255
-11.22 -3.74 1.47 255 255 255
-11.22 -3.74 0.99 255 255 255
-11.07 -3.74 1.48 255 255 255
2.74 33.57 1.45 255 255 255
-8.59 1.74 0.07 255 255 255
-11.06 -3.71 1.11 255 255 255
-11.39 -3.76 1.45 255 255 255
7.07 34.23 1.00 255 255 255
-8.56 2.22 0.55 255 255 255
-10.91 -3.69 1.43 255 255 255
-11.21 -3.72 0.58 255 255 255
-8.46 2.00 0.87 255 255 255
-3.69 13.72 1.77 255 255 255
-11.04 -3.68 0.84 255 255 255
-11.22 -3.75 1.40 255 255 255
-8.63 2.04 1.03 255 255 255
9.45 34.57 1.69 255 255 255
-8.27 2.41 1.08 255 255 255
2.76 33.60 2.31 255 255 255
7.11 34.26 1.91 255 255 255
-3.68 13.73 2.15 255 255 255
9.47 34.56 2.64 255 255 255
-11.39 -3.75 1.38 255 255 255
-11.25 -3.78 2.14 255 255 255
-11.06 -3.70 1.42 255 255 255
-0.77 23.84 0.85 255 255 255
-11.22 -3.73 1.34 255 255 255
-11.08 -3.75 1.89 255 255 255
-10.92 -3.72 1.37 255 255 255
-11.24 -3.77 1.78 255 255 255
-3.67 13.69 1.40 255 255 255
-11.08 -3.74 1.69 255 255 255
-11.39 -3.75 1.32 255 255 255
-11.24 -3.76 1.64 255 255 255
-11.07 -3.72 1.35 255 255 255
-11.22 -3.73 1.27 255 255 255
-10.92 -3.70 1.59 255 255 255
-11.23 -3.75 1.53 255 255 255
-10.92 -3.69 1.31 255 255 255
-11.07 -3.73 1.56 255 255 255
-11.40 -3.76 1.25 255 255 255
-11.40 -3.76 1.52 255 255 255
-11.07 -3.73 1.29 255 255 255
-11.22 -3.72 1.17 255 255 255
-10.93 -3.72 1.50 255 255 255
-11.07 -3.71 1.22 255 255 255
-11.23 -3.75 1.47 255 255 255
-11.23 -3.74 0.99 255 255 255
-11.08 -3.73 1.48 255 255 255
-8.57 1.75 0.07 255 255 255
2.89 33.63 1.45 255 255 255
-11.40 -3.76 1.45 255 255 255
-11.06 -3.71 1.11 255 255 255
7.23 34.26 1.00 255 255 255
-8.58 2.13 0.58 255 255 255
-11.23 -3.73 0.57 255 255 255
-10.92 -3.70 1.43 255 255 255
-3.63 13.72 1.77 255 255 255
-8.45 2.01 0.87 255 255 255
-11.23 -3.75 1.40 255 255 255
-11.05 -3.68 0.84 255 255 255
9.62 34.59 1.69 255 255 255
-8.63 2.03 1.03 255 255 255
-8.25 2.41 1.08 255 255 255
2.92 33.62 2.31 255 255 255
7.28 34.28 1.91 255 255 255
-3.62 13.72 2.15 255 255 255
9.63 34.55 2.64 255 255 255
-11.40 -3.75 1.38 255 255 255
-11.07 -3.71 1.42 255 255 255
-11.26 -3.78 2.14 255 255 255
-0.68 23.83 0.85 255 255 255
-11.23 -3.73 1.34 255 255 255
-11.09 -3.75 1.89 255 255 255
4.99 26.04 0.93 255 255 255
-11.25 -3.76 1.78 255 255 255
-10.93 -3.71 1.37 255 255 255
-3.61 13.69 1.40 255 255 255
-11.09 -3.74 1.69 255 255 255
-11.40 -3.75 1.32 255 255 255
-11.08 -3.72 1.35 255 255 255
-11.25 -3.77 1.64 255 255 255
-11.23 -3.73 1.27 255 255 255
-10.93 -3.70 1.59 255 255 255
-11.25 -3.76 1.54 255 255 255
-10.93 -3.70 1.31 255 255 255
-11.09 -3.73 1.56 255 255 255
-11.41 -3.76 1.25 255 255 255
-11.08 -3.73 1.29 255 255 255
-11.41 -3.76 1.52 255 255 255
-10.94 -3.72 1.50 255 255 255
-11.24 -3.74 1.17 255 255 255
-11.08 -3.72 1.22 255 255 255
-11.25 -3.75 1.47 255 255 255
-11.09 -3.74 1.48 255 255 255
-11.24 -3.74 0.98 255 255 255
-0.26 24.80 1.47 255 255 255
-8.56 1.75 0.07 255 255 255
-11.07 -3.71 1.11 255 255 255
-11.41 -3.76 1.45 255 255 255
-8.56 2.15 0.57 255 255 255
7.43 34.29 1.00 255 255 255
-10.93 -3.69 1.43 255 255 255
-11.23 -3.71 0.58 255 255 255
-3.56 13.74 1.77 255 255 255
-8.44 1.98 0.87 255 255 255
-11.07 -3.70 0.83 255 255 255
-11.25 -3.75 1.40 255 255 255
-8.61 2.03 1.03 255 255 255
9.80 34.62 1.70 255 255 255
3.06 33.64 2.31 255 255 255
-8.24 2.41 1.08 255 255 255
7.45 34.31 1.92 255 255 255
-3.54 13.75 2.15 255 255 255
9.83 34.61 2.65 255 255 255
-11.41 -3.76 1.38 255 255 255
-11.08 -3.71 1.42 255 255 255
-11.27 -3.79 2.15 255 255 255
-0.58 23.82 0.85 255 255 255
-11.11 -3.76 1.90 255 255 255
-11.24 -3.73 1.34 255 255 255
5.08 25.96 0.93 255 255 255
-10.94 -3.72 1.37 255 255 255
-11.26 -3.77 1.78 255 255 255
-3.52 13.75 1.40 255 255 255
-11.10 -3.75 1.69 255 255 255
-11.41 -3.75 1.32 255 255 255
-11.09 -3.73 1.35 255 255 255
-11.26 -3.77 1.65 255 255 255
-10.94 -3.70 1.59 255 255 255
-11.25 -3.74 1.27 255 255 255
-11.26 -3.75 1.54 255 255 255
-10.93 -3.69 1.31 255 255 255
-11.42 -3.75 1.25 255 255 255
-11.10 -3.73 1.56 255 255 255
-11.09 -3.73 1.29 255 255 255
-11.42 -3.76 1.52 255 255 255
-10.95 -3.72 1.50 255 255 255
-11.25 -3.73 1.17 255 255 255
-11.09 -3.72 1.22 255 255 255
-11.25 -3.75 1.47 255 255 255
-11.10 -3.75 1.48 255 255 255
-11.25 -3.75 0.98 255 255 255
-0.26 24.55 1.47 255 255 255
-8.55 1.75 0.06 255 255 255
-11.08 -3.70 1.11 255 255 255
-11.42 -3.76 1.45 255 255 255
7.57 34.27 0.99 255 255 255
-8.58 2.07 0.59 255 255 255
-11.24 -3.72 0.57 255 255 255
-10.94 -3.70 1.43 255 255 255
-8.41 2.03 0.86 255 255 255
-11.08 -3.69 0.84 255 255 255
-11.26 -3.75 1.40 255 255 255
9.99 34.65 1.70 255 255 255
-8.60 2.04 1.03 255 255 255
-8.22 2.40 1.08 255 255 255
3.21 33.66 2.31 255 255 255
7.61 34.30 1.92 255 255 255
-0.91 19.64 2.41 255 255 255
10.04 34.67 2.65 255 255 255
-6.58 7.80 1.05 255 255 255
-11.43 -3.76 1.38 255 255 255
-11.09 -3.71 1.42 255 255 255
-11.28 -3.78 2.14 255 255 255
-6.57 7.84 1.28 255 255 255
-11.12 -3.77 1.90 255 255 255
-11.26 -3.74 1.34 255 255 255
5.10 25.79 0.93 255 255 255
-10.95 -3.72 1.37 255 255 255
-11.28 -3.77 1.78 255 255 255
-0.87 19.65 1.35 255 255 255
-11.11 -3.75 1.69 255 255 255
-11.43 -3.76 1.32 255 255 255
-11.10 -3.72 1.35 255 255 255
-11.27 -3.77 1.65 255 255 255
-10.95 -3.71 1.59 255 255 255
-11.26 -3.74 1.27 255 255 255
-11.27 -3.76 1.54 255 255 255
-10.95 -3.71 1.31 255 255 255
-11.43 -3.76 1.25 255 255 255
-11.11 -3.74 1.56 255 255 255
-11.11 -3.74 1.29 255 255 255
-11.44 -3.77 1.52 255 255 255
-10.95 -3.71 1.50 255 255 255
-11.26 -3.74 1.17 255 255 255
-11.10 -3.72 1.22 255 255 255
-11.27 -3.74 1.47 255 255 255
-11.12 -3.76 1.48 255 255 255
-11.27 -3.75 0.98 255 255 255
-8.53 1.75 0.06 255 255 255
-6.55 7.84 1.50 255 255 255
-11.44 -3.77 1.45 255 255 255
-11.10 -3.71 1.11 255 255 255
7.74 34.33 0.99 255 255 255
-8.60 1.99 0.61 255 255 255
-11.25 -3.72 0.57 255 255 255
-10.95 -3.70 1.43 255 255 255
-8.38 2.05 0.86 255 255 255
-0.86 19.59 1.88 255 255 255
-11.09 -3.69 0.84 255 255 255
-11.27 -3.75 1.40 255 255 255
10.16 34.67 1.70 255 255 255
-8.58 2.04 1.03 255 255 255
-8.21 2.40 1.08 255 255 255
3.34 33.65 2.32 255 255 255
7.77 34.36 1.92 255 255 255
-0.85 19.59 2.41 255 255 255
-6.57 7.74 1.06 255 255 255
-11.44 -3.76 1.38 255 255 255
-11.29 -3.78 2.15 255 255 255
-11.10 -3.71 1.42 255 255 255
-6.55 7.78 1.28 255 255 255
-11.27 -3.74 1.33 255 255 255
-11.13 -3.77 1.90 255 255 255
5.06 25.51 0.94 255 255 255
-11.29 -3.78 1.79 255 255 255
-10.96 -3.72 1.37 255 255 255
-0.80 19.63 1.35 255 255 255
-11.44 -3.75 1.32 255 255 255
-11.12 -3.75 1.69 255 255 255
-11.29 -3.77 1.65 255 255 255
-11.11 -3.73 1.35 255 255 255
-11.27 -3.74 1.27 255 255 255
-10.96 -3.70 1.59 255 255 255
-11.28 -3.76 1.54 255 255 255
-10.96 -3.70 1.31 255 255 255
-11.44 -3.76 1.25 255 255 255
-11.12 -3.74 1.56 255 255 255
-11.45 -3.77 1.52 255 255 255
-11.11 -3.73 1.29 255 255 255
-10.97 -3.72 1.50 255 255 255
-11.27 -3.73 1.17 255 255 255
-11.11 -3.72 1.22 255 255 255
-11.28 -3.75 1.47 255 255 255
-11.13 -3.75 1.48 255 255 255
-11.28 -3.75 0.98 255 255 255
-6.53 7.79 1.50 255 255 255
-8.51 1.76 0.05 255 255 255
-11.11 -3.71 1.11 255 255 255
-11.45 -3.77 1.45 255 255 255
7.91 34.35 0.99 255 255 255
-8.61 1.94 0.62 255 255 255
-11.27 -3.73 0.57 255 255 255
-10.96 -3.70 1.43 255 255 255
-8.37 2.05 0.86 255 255 255
-0.78 19.59 1.88 255 255 255
-11.10 -3.70 0.83 255 255 255
-11.28 -3.75 1.40 255 255 255
10.35 34.70 1.70 255 255 255
-8.57 2.04 1.03 255 255 255
-8.19 2.40 1.07 255 255 255
-6.54 7.76 1.72 255 255 255
7.94 34.38 1.92 255 255 255
-0.77 19.59 2.41 255 255 255
10.35 34.69 2.66 255 255 255
-6.53 7.75 1.95 255 255 255
-6.54 7.72 1.06 255 255 255
-11.45 -3.76 1.38 255 255 255
-11.12 -3.71 1.42 255 255 255
-11.30 -3.78 2.15 255 255 255
-6.53 7.74 1.28 255 255 255
-11.14 -3.76 1.90 255 255 255
-11.28 -3.74 1.33 255 255 255
5.14 25.41 0.94 255 255 255
-10.97 -3.72 1.37 255 255 255
-11.30 -3.77 1.79 255 255 255
-0.70 19.62 1.35 255 255 255
-11.13 -3.75 1.69 255 255 255
-11.45 -3.76 1.32 255 255 255
-11.12 -3.73 1.35 255 255 255
-11.30 -3.77 1.65 255 255 255
-10.97 -3.71 1.59 255 255 255
-11.28 -3.74 1.27 255 255 255
-11.29 -3.76 1.54 255 255 255
-10.97 -3.71 1.31 255 255 255
-11.13 -3.74 1.56 255 255 255
-11.45 -3.76 1.25 255 255 255
-11.13 -3.73 1.29 255 255 255
-11.47 -3.78 1.52 255 255 255
-10.98 -3.72 1.50 255 255 255
-11.28 -3.74 1.17 255 255 255
-11.12 -3.72 1.22 255 255 255
-11.29 -3.75 1.47 255 255 255
-11.29 -3.75 0.98 255 255 255
-11.13 -3.75 1.48 255 255 255
-6.52 7.73 1.50 255 255 255
-8.50 1.76 0.05 255 255 255
-11.12 -3.71 1.11 255 255 255
-11.46 -3.77 1.45 255 255 255
-8.60 1.93 0.63 255 255 255
8.08 34.38 0.99 255 255 255
-11.27 -3.72 0.57 255 255 255
-10.97 -3.70 1.43 255 255 255
-0.68 19.62 1.88 255 255 255
-8.37 2.02 0.86 255 255 255
-11.11 -3.70 0.83 255 255 255
-11.29 -3.75 1.40 255 255 255
10.53 34.73 1.70 255 255 255
-8.55 2.04 1.03 255 255 255
-6.52 7.71 1.72 255 255 255
-8.18 2.39 1.08 255 255 255
8.10 34.40 1.92 255 255 255
-0.67 19.60 2.41 255 255 255
10.54 34.72 2.66 255 255 255
-6.52 7.70 1.95 255 255 255
-6.51 7.70 1.06 255 255 255
-11.47 -3.77 1.38 255 255 255
-11.31 -3.78 2.15 255 255 255
-11.13 -3.71 1.42 255 255 255
-6.51 7.69 1.28 255 255 255
-11.29 -3.74 1.33 255 255 255
-11.15 -3.77 1.90 255 255 255
5.14 25.21 0.94 255 255 255
-11.31 -3.77 1.79 255 255 255
-10.98 -3.72 1.37 255 255 255
1.27 23.81 1.31 255 255 255
-11.46 -3.76 1.32 255 255 255
-11.14 -3.75 1.69 255 255 255
-11.31 -3.78 1.65 255 255 255
-11.14 -3.73 1.35 255 255 255
-10.98 -3.71 1.59 255 255 255
-11.29 -3.74 1.27 255 255 255
-10.98 -3.71 1.31 255 255 255
-11.30 -3.76 1.54 255 255 255
-11.47 -3.76 1.25 255 255 255
-11.14 -3.73 1.56 255 255 255
-11.48 -3.78 1.52 255 255 255
-11.14 -3.74 1.29 255 255 255
-11.29 -3.74 1.17 255 255 255
-10.99 -3.72 1.50 255 255 255
-11.30 -3.75 1.47 255 255 255
-11.13 -3.72 1.22 255 255 255
-11.30 -3.75 0.98 255 255 255
-11.15 -3.75 1.48 255 255 255
-6.50 7.69 1.50 255 255 255
-8.49 1.76 0.05 255 255 255
-11.48 -3.77 1.45 255 255 255
-11.13 -3.71 1.11 255 255 255
-8.60 1.91 0.63 255 255 255
8.25 34.40 0.99 255 255 255
-11.28 -3.72 0.57 255 255 255
-10.98 -3.70 1.43 255 255 255
-8.34 2.06 0.85 255 255 255
5.94 34.03 2.13 255 255 255
-11.30 -3.75 1.40 255 255 255
-11.12 -3.70 0.83 255 255 255
10.72 34.75 1.70 255 255 255
-8.54 2.03 1.03 255 255 255
-8.17 2.38 1.08 255 255 255
-6.50 7.67 1.72 255 255 255
8.27 34.43 1.92 255 255 255
10.72 34.74 2.66 255 255 255
-6.50 7.66 1.95 255 255 255
-6.48 7.69 1.06 255 255 255
1.29 23.66 0.68 255 255 255
-11.48 -3.78 1.38 255 255 255
-11.14 -3.71 1.42 255 255 255
-11.33 -3.79 2.15 255 255 255
-6.48 7.68 1.28 255 255 255
-11.16 -3.77 1.90 255 255 255
-11.30 -3.74 1.33 255 255 255
5.18 25.06 0.95 255 255 255
-11.32 -3.78 1.79 255 255 255
-10.99 -3.72 1.37 255 255 255
1.40 23.86 1.31 255 255 255
-11.48 -3.76 1.32 255 255 255
-11.16 -3.76 1.70 255 255 255
-11.32 -3.78 1.65 255 255 255
-11.15 -3.74 1.35 255 255 255
-11.30 -3.74 1.27 255 255 255
-10.99 -3.72 1.59 255 255 255
-11.32 -3.76 1.54 255 255 255
-10.99 -3.70 1.31 255 255 255
-11.48 -3.77 1.25 255 255 255
-11.15 -3.74 1.57 255 255 255
-11.15 -3.74 1.29 255 255 255
-11.49 -3.78 1.52 255 255 255
-11.00 -3.72 1.50 255 255 255
-11.30 -3.74 1.17 255 255 255
-11.15 -3.73 1.22 255 255 255
-11.31 -3.75 1.47 255 255 255
-11.16 -3.75 1.48 255 255 255
-11.31 -3.75 0.98 255 255 255
-6.47 7.67 1.50 255 255 255
-8.48 1.76 0.04 255 255 255
-11.14 -3.71 1.11 255 255 255
-11.49 -3.78 1.45 255 255 255
8.42 34.43 0.99 255 255 255
-8.61 1.85 0.64 255 255 255
-11.30 -3.73 0.56 255 255 255
-10.99 -3.70 1.43 255 255 255
6.09 34.05 2.13 255 255 255
-8.33 2.04 0.86 255 255 255
-11.14 -3.71 0.83 255 255 255
-11.32 -3.76 1.40 255 255 255
10.89 34.78 1.70 255 255 255
-8.52 2.04 1.03 255 255 255
-8.15 2.39 1.07 255 255 255
-6.47 7.66 1.72 255 255 255
8.44 34.42 1.92 255 255 255
10.91 34.77 2.67 255 255 255
-6.47 7.64 1.94 255 255 255
-6.45 7.68 1.06 255 255 255
1.38 23.64 0.68 255 255 255
-11.50 -3.78 1.38 255 255 255
-11.15 -3.72 1.42 255 255 255
-11.34 -3.79 2.15 255 255 255
-6.45 7.67 1.28 255 255 255
-11.17 -3.77 1.90 255 255 255
-11.32 -3.75 1.33 255 255 255
5.25 24.97 0.95 255 255 255
-11.01 -3.73 1.37 255 255 255
-11.34 -3.78 1.79 255 255 255
6.21 34.11 1.23 255 255 255
-11.17 -3.76 1.70 255 255 255
-11.49 -3.77 1.32 255 255 255
-11.16 -3.74 1.35 255 255 255
-11.33 -3.78 1.65 255 255 255
-11.00 -3.72 1.59 255 255 255
-11.32 -3.75 1.27 255 255 255
-11.00 -3.72 1.31 255 255 255
-11.33 -3.76 1.54 255 255 255
-11.16 -3.74 1.57 255 255 255
-11.49 -3.77 1.24 255 255 255
-11.50 -3.78 1.52 255 255 255
-11.16 -3.75 1.29 255 255 255
-11.00 -3.72 1.50 255 255 255
-11.31 -3.74 1.17 255 255 255
-11.15 -3.72 1.22 255 255 255
-11.32 -3.75 1.47 255 255 255
-11.17 -3.75 1.48 255 255 255
-11.32 -3.75 0.98 255 255 255
-6.44 7.66 1.50 255 255 255
-8.46 1.77 0.04 255 255 255
-11.50 -3.78 1.45 255 255 255
-11.15 -3.71 1.11 255 255 255
-8.59 1.87 0.64 255 255 255
8.57 34.45 0.99 255 255 255
-11.31 -3.73 0.56 255 255 255
-11.00 -3.71 1.43 255 255 255
6.26 34.07 2.13 255 255 255
-8.28 2.11 0.84 255 255 255
-11.14 -3.70 0.83 255 255 255
-11.32 -3.75 1.40 255 255 255
-8.51 2.05 1.03 255 255 255
11.09 34.81 1.70 255 255 255
-8.12 2.41 1.07 255 255 255
-6.43 7.66 1.72 255 255 255
8.62 34.48 1.92 255 255 255
11.09 34.80 2.67 255 255 255
-6.44 7.63 1.94 255 255 255
-6.42 7.67 1.06 255 255 255
1.47 23.61 0.68 255 255 255
-11.51 -3.78 1.38 255 255 255
-11.35 -3.78 2.15 255 255 255
-11.15 -3.71 1.42 255 255 255
-6.41 7.67 1.28 255 255 255
-11.19 -3.77 1.90 255 255 255
-11.33 -3.75 1.33 255 255 255
5.30 24.84 0.95 255 255 255
-11.02 -3.73 1.37 255 255 255
-11.35 -3.78 1.79 255 255 255
-11.18 -3.75 1.70 255 255 255
-11.50 -3.76 1.31 255 255 255
-11.35 -3.78 1.65 255 255 255
-11.17 -3.74 1.35 255 255 255
-11.01 -3.71 1.59 255 255 255
-11.33 -3.74 1.27 255 255 255
-11.34 -3.76 1.54 255 255 255
-11.01 -3.71 1.31 255 255 255
-11.17 -3.75 1.57 255 255 255
-11.51 -3.77 1.24 255 255 255
-11.52 -3.78 1.53 255 255 255
-11.17 -3.75 1.29 255 255 255
-11.33 -3.74 1.17 255 255 255
-11.02 -3.73 1.50 255 255 255
-11.33 -3.75 1.47 255 255 255
-11.17 -3.73 1.22 255 255 255
-8.44 1.77 0.03 255 255 255
-6.40 7.66 1.50 255 255 255
-11.18 -3.75 1.48 255 255 255
-11.33 -3.74 0.98 255 255 255
-8.58 1.87 0.64 255 255 255
8.74 34.48 0.99 255 255 255
-11.52 -3.78 1.45 255 255 255
-11.16 -3.72 1.11 255 255 255
-8.28 2.08 0.85 255 255 255
6.40 34.09 2.13 255 255 255
-11.32 -3.73 0.56 255 255 255
-11.01 -3.71 1.43 255 255 255
-8.50 2.04 1.03 255 255 255
11.27 34.86 1.70 255 255 255
-11.16 -3.71 0.83 255 255 255
-11.33 -3.75 1.40 255 255 255
-8.11 2.40 1.07 255 255 255
-6.41 7.65 1.72 255 255 255
8.79 34.50 1.93 255 255 255
11.26 34.82 2.67 255 255 255
-6.40 7.63 1.95 255 255 255
-6.38 7.68 1.06 255 255 255
1.58 23.62 0.68 255 255 255
-11.52 -3.78 1.38 255 255 255
-6.38 7.68 1.28 255 255 255
-11.17 -3.72 1.42 255 255 255
-11.36 -3.79 2.16 255 255 255
5.36 24.75 0.95 255 255 255
-11.19 -3.76 1.90 255 255 255
-11.33 -3.74 1.33 255 255 255
6.49 34.12 1.23 255 255 255
-11.03 -3.72 1.37 255 255 255
-11.36 -3.78 1.79 255 255 255
-11.52 -3.77 1.31 255 255 255
-11.19 -3.75 1.70 255 255 255
-11.35 -3.77 1.65 255 255 255
-11.18 -3.75 1.35 255 255 255
-11.02 -3.72 1.59 255 255 255
-11.34 -3.74 1.27 255 255 255
-11.02 -3.71 1.31 255 255 255
-11.35 -3.76 1.54 255 255 255
-11.52 -3.77 1.24 255 255 255
-11.18 -3.74 1.57 255 255 255
-11.19 -3.75 1.29 255 255 255
-11.53 -3.79 1.53 255 255 255
-11.34 -3.74 1.17 255 255 255
-11.03 -3.73 1.50 255 255 255
-11.35 -3.75 1.47 255 255 255
-11.18 -3.74 1.22 255 255 255
-6.35 7.69 1.50 255 255 255
-11.19 -3.75 1.48 255 255 255
-11.34 -3.75 0.98 255 255 255
-8.56 1.87 0.63 255 255 255
8.93 34.50 0.99 255 255 255
-11.53 -3.78 1.46 255 255 255
-11.18 -3.72 1.11 255 255 255
6.57 34.12 2.13 255 255 255
-8.28 2.05 0.85 255 255 255
-11.02 -3.71 1.43 255 255 255
-11.33 -3.73 0.56 255 255 255
-8.48 2.04 1.02 255 255 255
6.35 26.31 1.66 255 255 255
-11.35 -3.75 1.40 255 255 255
-11.17 -3.71 0.83 255 255 255
-8.10 2.40 1.07 255 255 255
-6.36 7.66 1.72 255 255 255
8.95 34.53 1.93 255 255 255
11.48 34.88 2.68 255 255 255
-6.37 7.64 1.95 255 255 255
-6.33 7.72 1.05 255 255 255
1.70 23.67 0.67 255 255 255
-11.53 -3.78 1.38 255 255 255
-6.33 7.70 1.28 255 255 255
-11.38 -3.79 2.16 255 255 255
-11.18 -3.71 1.42 255 255 255
5.43 24.65 0.95 255 255 255
-11.21 -3.78 1.91 255 255 255
-11.35 -3.74 1.33 255 255 255
6.67 34.14 1.23 255 255 255
-11.37 -3.79 1.79 255 255 255
-11.04 -3.73 1.37 255 255 255
-11.53 -3.77 1.31 255 255 255
-11.20 -3.76 1.70 255 255 255
-11.19 -3.74 1.35 255 255 255
-11.37 -3.78 1.65 255 255 255
-11.04 -3.73 1.59 255 255 255
-11.35 -3.74 1.27 255 255 255
-11.03 -3.71 1.31 255 255 255
-11.36 -3.77 1.54 255 255 255
-11.19 -3.74 1.57 255 255 255
-11.53 -3.76 1.24 255 255 255
-11.20 -3.76 1.29 255 255 255
-11.55 -3.79 1.53 255 255 255
-11.35 -3.74 1.17 255 255 255
-11.04 -3.73 1.50 255 255 255
-11.19 -3.74 1.22 255 255 255
-11.36 -3.76 1.47 255 255 255
-6.31 7.70 1.50 255 255 255
-11.20 -3.75 1.48 255 255 255
-11.35 -3.75 0.98 255 255 255
-8.55 1.86 0.64 255 255 255
9.10 34.53 0.99 255 255 255
-11.18 -3.72 1.11 255 255 255
-11.54 -3.78 1.45 255 255 255
6.74 34.14 2.14 255 255 255
-11.03 -3.71 1.43 255 255 255
-11.35 -3.73 0.56 255 255 255
6.45 26.26 1.66 255 255 255
-8.47 2.05 1.02 255 255 255
-11.18 -3.71 0.82 255 255 255
-11.36 -3.76 1.40 255 255 255
-6.32 7.67 1.73 255 255 255
-8.08 2.40 1.07 255 255 255
9.13 34.55 1.93 255 255 255
11.68 34.91 2.68 255 255 255
-6.32 7.66 1.95 255 255 255
-11.54 -3.78 1.38 255 255 255
-11.39 -3.79 2.16 255 255 255
-11.19 -3.72 1.42 255 255 255
-6.27 7.75 1.28 255 255 255
-11.36 -3.74 1.33 255 255 255
-11.22 -3.78 1.91 255 255 255
5.51 24.60 0.95 255 255 255
-11.05 -3.73 1.37 255 255 255
-11.38 -3.78 1.79 255 255 255
6.83 34.16 1.23 255 255 255
-11.21 -3.76 1.70 255 255 255
-11.54 -3.77 1.31 255 255 255
-11.20 -3.74 1.35 255 255 255
-11.38 -3.78 1.65 255 255 255
-11.36 -3.75 1.27 255 255 255
-11.05 -3.72 1.59 255 255 255
-11.37 -3.77 1.54 255 255 255
-11.04 -3.72 1.31 255 255 255
-11.20 -3.74 1.57 255 255 255
-11.54 -3.77 1.24 255 255 255
-11.21 -3.75 1.29 255 255 255
-11.56 -3.79 1.53 255 255 255
-11.05 -3.73 1.50 255 255 255
-11.36 -3.74 1.16 255 255 255
-11.21 -3.75 1.22 255 255 255
-11.37 -3.76 1.47 255 255 255
-11.36 -3.75 0.97 255 255 255
-11.21 -3.75 1.48 255 255 255
-3.75 13.74 1.49 255 255 255
-11.56 -3.79 1.45 255 255 255
-11.20 -3.72 1.11 255 255 255
9.27 34.55 0.98 255 255 255
-8.54 1.88 0.63 255 255 255
-11.36 -3.74 0.55 255 255 255
-11.04 -3.71 1.43 255 255 255
-8.25 2.06 0.84 255 255 255
6.90 34.16 2.14 255 255 255
-11.19 -3.71 0.82 255 255 255
-11.37 -3.75 1.40 255 255 255
-8.45 2.04 1.02 255 255 255
6.50 26.12 1.66 255 255 255
-8.07 2.39 1.07 255 255 255
-3.74 13.73 1.87 255 255 255
9.30 34.58 1.93 255 255 255
11.85 34.94 2.69 255 255 255
-11.56 -3.78 1.38 255 255 255
-11.20 -3.71 1.42 255 255 255
-11.40 -3.80 2.16 255 255 255
-3.73 13.70 1.12 255 255 255
-11.23 -3.78 1.91 255 255 255
-11.37 -3.75 1.33 255 255 255
5.64 24.59 0.95 255 255 255
-11.06 -3.73 1.37 255 255 255
-11.39 -3.79 1.79 255 255 255
6.98 34.19 1.23 255 255 255
-11.22 -3.76 1.70 255 255 255
-11.56 -3.78 1.31 255 255 255
-11.22 -3.75 1.35 255 255 255
-11.39 -3.78 1.65 255 255 255
-11.06 -3.73 1.59 255 255 255
-11.37 -3.74 1.27 255 255 255
-11.05 -3.72 1.31 255 255 255
-11.39 -3.77 1.54 255 255 255
-11.21 -3.74 1.57 255 255 255
-11.55 -3.77 1.24 255 255 255
-11.57 -3.80 1.53 255 255 255
-11.22 -3.75 1.29 255 255 255
-11.37 -3.74 1.16 255 255 255
-11.06 -3.73 1.50 255 255 255
-11.38 -3.76 1.47 255 255 255
-11.21 -3.74 1.22 255 255 255
-11.38 -3.75 0.97 255 255 255
-11.22 -3.76 1.48 255 255 255
-3.70 13.70 1.49 255 255 255
-11.57 -3.79 1.46 255 255 255
-11.21 -3.73 1.10 255 255 255
9.44 34.58 0.98 255 255 255
-8.53 1.85 0.64 255 255 255
-11.38 -3.76 0.54 255 255 255
-11.06 -3.72 1.43 255 255 255
7.05 34.19 2.14 255 255 255
-11.20 -3.71 0.82 255 255 255
-11.38 -3.76 1.40 255 255 255
-8.44 2.05 1.02 255 255 255
-3.69 13.72 1.87 255 255 255
-8.04 2.41 1.07 255 255 255
9.49 34.60 1.93 255 255 255
12.06 34.97 2.69 255 255 255
