ply
format ascii 1.0
element vertex 1639
property float x
property float y
property float z
property uchar red
property uchar green
property uchar blue
end_header
-6.89 -3.14 1.36 255 255 255
-7.22 -3.20 1.58 255 255 255
-7.06 -3.17 1.62 255 255 255
-7.37 -3.21 1.31 255 255 255
-7.37 -3.22 1.56 255 255 255
-7.03 -3.19 1.34 255 255 255
-7.23 -3.17 1.23 255 255 255
-6.89 -3.14 1.57 255 255 255
-7.04 -3.18 1.27 255 255 255
-7.21 -3.20 1.52 255 255 255
-7.05 -3.18 1.54 255 255 255
-7.22 -3.18 1.05 255 255 255
-36.83 27.91 0.91 255 255 255
-7.37 -3.21 1.50 255 255 255
-7.05 -3.17 1.16 255 255 255
-22.80 16.51 0.96 255 255 255
-11.38 1.78 0.51 255 255 255
-6.89 -3.14 1.50 255 255 255
-7.22 -3.17 0.65 255 255 255
-34.51 28.23 1.63 255 255 255
-11.61 2.36 0.69 255 255 255
-7.22 -3.19 1.45 255 255 255
-7.07 -3.15 0.87 255 255 255
-36.78 27.88 1.84 255 255 255
-22.83 16.56 1.48 255 255 255
-22.82 16.56 2.00 255 255 255
-27.34 20.13 0.30 255 255 255
-7.38 -3.21 1.43 255 255 255
-7.08 -3.15 1.47 255 255 255
-7.23 -3.20 2.17 255 255 255
-7.05 -3.19 1.97 255 255 255
-7.23 -3.18 1.39 255 255 255
-24.29 20.56 0.72 255 255 255
-6.89 -3.15 1.43 255 255 255
-7.23 -3.20 1.82 255 255 255
-27.46 20.26 0.95 255 255 255
-7.38 -3.21 1.37 255 255 255
-7.06 -3.18 1.76 255 255 255
-7.06 -3.18 1.41 255 255 255
-7.23 -3.20 1.69 255 255 255
-7.24 -3.18 1.32 255 255 255
-6.90 -3.14 1.67 255 255 255
-7.23 -3.20 1.58 255 255 255
-6.90 -3.14 1.36 255 255 255
-7.38 -3.21 1.31 255 255 255
-7.07 -3.17 1.62 255 255 255
-7.38 -3.22 1.56 255 255 255
-7.05 -3.19 1.34 255 255 255
-7.23 -3.18 1.23 255 255 255
-6.90 -3.15 1.57 255 255 255
-7.06 -3.17 1.27 255 255 255
-7.23 -3.19 1.52 255 255 255
-7.23 -3.18 1.05 255 255 255
-7.06 -3.18 1.54 255 255 255
-36.69 27.96 0.91 255 255 255
-7.38 -3.21 1.50 255 255 255
-7.06 -3.18 1.16 255 255 255
-11.46 1.90 0.47 255 255 255
-22.76 16.58 0.96 255 255 255
-7.23 -3.17 0.65 255 255 255
-6.91 -3.14 1.50 255 255 255
-11.62 2.40 0.68 255 255 255
-34.36 28.25 1.64 255 255 255
-7.07 -3.15 0.87 255 255 255
-7.24 -3.18 1.45 255 255 255
-36.63 27.93 1.84 255 255 255
-30.14 28.88 2.11 255 255 255
-32.15 28.56 2.32 255 255 255
-27.22 20.13 0.31 255 255 255
-7.39 -3.20 1.43 255 255 255
-7.09 -3.15 1.47 255 255 255
-7.24 -3.21 2.17 255 255 255
-28.78 19.80 0.42 255 255 255
-7.24 -3.18 1.39 255 255 255
-7.06 -3.20 1.97 255 255 255
-24.32 20.76 0.71 255 255 255
-7.24 -3.20 1.82 255 255 255
-6.90 -3.15 1.43 255 255 255
-27.42 20.36 0.95 255 255 255
-7.07 -3.18 1.76 255 255 255
-7.38 -3.22 1.37 255 255 255
-7.07 -3.18 1.41 255 255 255
-7.24 -3.20 1.69 255 255 255
-7.24 -3.18 1.32 255 255 255
-6.91 -3.15 1.67 255 255 255
-7.24 -3.20 1.58 255 255 255
-6.91 -3.14 1.36 255 255 255
-7.39 -3.21 1.31 255 255 255
-7.08 -3.17 1.62 255 255 255
-7.39 -3.23 1.56 255 255 255
-7.06 -3.19 1.34 255 255 255
-6.91 -3.15 1.56 255 255 255
-7.25 -3.18 1.23 255 255 255
-7.24 -3.20 1.52 255 255 255
-7.07 -3.18 1.27 255 255 255
-7.24 -3.18 1.05 255 255 255
-7.07 -3.18 1.54 255 255 255
-36.51 27.99 0.91 255 255 255
-7.39 -3.21 1.50 255 255 255
-7.08 -3.17 1.16 255 255 255
-11.47 1.93 0.46 255 255 255
-6.92 -3.14 1.49 255 255 255
-7.24 -3.17 0.65 255 255 255
-11.61 2.41 0.68 255 255 255
-34.20 28.28 1.64 255 255 255
-7.08 -3.16 0.87 255 255 255
-7.24 -3.19 1.45 255 255 255
-36.46 27.92 1.84 255 255 255
-29.99 28.90 2.11 255 255 255
-32.01 28.58 2.32 255 255 255
-27.09 20.13 0.31 255 255 255
-7.40 -3.21 1.43 255 255 255
-7.10 -3.16 1.47 255 255 255
-7.25 -3.21 2.17 255 255 255
-28.70 19.84 0.42 255 255 255
-7.25 -3.18 1.39 255 255 255
-7.08 -3.20 1.97 255 255 255
-7.25 -3.20 1.82 255 255 255
-6.91 -3.15 1.43 255 255 255
-27.40 20.49 0.95 255 255 255
-7.40 -3.21 1.37 255 255 255
-7.08 -3.18 1.75 255 255 255
-7.25 -3.20 1.69 255 255 255
-7.08 -3.18 1.41 255 255 255
-6.92 -3.15 1.67 255 255 255
-7.26 -3.18 1.32 255 255 255
-7.24 -3.20 1.58 255 255 255
-6.92 -3.14 1.36 255 255 255
-7.40 -3.21 1.31 255 255 255
-7.09 -3.17 1.62 255 255 255
-7.07 -3.19 1.34 255 255 255
-7.40 -3.22 1.56 255 255 255
-7.25 -3.19 1.23 255 255 255
-6.92 -3.15 1.56 255 255 255
-7.25 -3.19 1.52 255 255 255
-7.08 -3.18 1.27 255 255 255
-7.25 -3.18 1.05 255 255 255
-7.08 -3.18 1.54 255 255 255
-36.33 27.98 0.92 255 255 255
-7.41 -3.21 1.50 255 255 255
-7.09 -3.17 1.16 255 255 255
-25.48 20.36 0.84 255 255 255
-11.47 1.95 0.46 255 255 255
-6.93 -3.14 1.49 255 255 255
-7.25 -3.17 0.65 255 255 255
-11.61 2.44 0.68 255 255 255
-34.03 28.30 1.64 255 255 255
-7.25 -3.20 1.45 255 255 255
-7.09 -3.16 0.87 255 255 255
-36.29 27.98 1.85 255 255 255
-29.86 28.92 2.11 255 255 255
-14.76 6.53 0.79 255 255 255
-31.84 28.61 2.32 255 255 255
-27.01 20.18 0.31 255 255 255
-7.41 -3.21 1.43 255 255 255
-7.11 -3.16 1.47 255 255 255
-7.26 -3.21 2.16 255 255 255
-28.43 19.72 0.43 255 255 255
-7.26 -3.19 1.39 255 255 255
-7.08 -3.20 1.97 255 255 255
-24.40 21.21 0.70 255 255 255
-7.25 -3.21 1.82 255 255 255
-6.92 -3.16 1.43 255 255 255
-27.39 20.64 0.95 255 255 255
-7.09 -3.19 1.75 255 255 255
-7.41 -3.22 1.37 255 255 255
-7.09 -3.18 1.41 255 255 255
-7.26 -3.20 1.69 255 255 255
-6.93 -3.15 1.67 255 255 255
-7.26 -3.19 1.32 255 255 255
-6.94 -3.14 1.36 255 255 255
-7.26 -3.20 1.58 255 255 255
-7.41 -3.21 1.31 255 255 255
-7.11 -3.17 1.62 255 255 255
-7.41 -3.22 1.56 255 255 255
-7.08 -3.20 1.34 255 255 255
-7.27 -3.18 1.23 255 255 255
-6.93 -3.15 1.56 255 255 255
-7.09 -3.18 1.27 255 255 255
-7.26 -3.20 1.52 255 255 255
-7.09 -3.19 1.54 255 255 255
-7.26 -3.18 1.05 255 255 255
-36.18 28.00 0.92 255 255 255
-7.10 -3.17 1.16 255 255 255
-7.41 -3.21 1.50 255 255 255
-11.39 1.88 0.49 255 255 255
-7.26 -3.17 0.65 255 255 255
-6.94 -3.14 1.49 255 255 255
-11.62 2.47 0.67 255 255 255
-33.89 28.32 1.64 255 255 255
-7.11 -3.16 0.87 255 255 255
-7.27 -3.19 1.45 255 255 255
-24.38 21.25 1.33 255 255 255
-36.13 27.97 1.85 255 255 255
-14.79 6.59 1.51 255 255 255
-29.71 28.94 2.11 255 255 255
-14.72 6.52 0.79 255 255 255
-31.72 28.65 2.32 255 255 255
-26.91 20.21 0.32 255 255 255
-7.41 -3.22 1.43 255 255 255
-7.12 -3.16 1.47 255 255 255
-7.27 -3.21 2.16 255 255 255
-7.09 -3.21 1.96 255 255 255
-7.27 -3.19 1.39 255 255 255
-24.36 21.31 0.70 255 255 255
-6.93 -3.16 1.43 255 255 255
-7.27 -3.21 1.82 255 255 255
-7.11 -3.19 1.75 255 255 255
-7.42 -3.22 1.37 255 255 255
-7.10 -3.18 1.41 255 255 255
-7.27 -3.20 1.69 255 255 255
-6.95 -3.15 1.67 255 255 255
-7.27 -3.19 1.32 255 255 255
-6.95 -3.14 1.36 255 255 255
-7.27 -3.20 1.58 255 255 255
-7.42 -3.21 1.31 255 255 255
-7.11 -3.18 1.62 255 255 255
-7.10 -3.19 1.34 255 255 255
-7.42 -3.23 1.56 255 255 255
-7.28 -3.18 1.23 255 255 255
-6.95 -3.15 1.56 255 255 255
-7.27 -3.20 1.52 255 255 255
-7.11 -3.18 1.27 255 255 255
-7.27 -3.19 1.05 255 255 255
-7.10 -3.19 1.54 255 255 255
-36.01 28.03 0.92 255 255 255
-7.11 -3.18 1.16 255 255 255
-7.42 -3.22 1.50 255 255 255
-11.37 1.88 0.49 255 255 255
-14.67 6.49 1.29 255 255 255
-7.28 -3.17 0.66 255 255 255
-6.96 -3.14 1.49 255 255 255
-11.61 2.50 0.67 255 255 255
-33.72 28.34 1.64 255 255 255
-7.28 -3.19 1.45 255 255 255
-7.11 -3.16 0.87 255 255 255
-24.36 21.38 1.33 255 255 255
-35.96 27.99 1.85 255 255 255
-29.57 28.96 2.11 255 255 255
-14.69 6.54 0.79 255 255 255
-14.68 6.50 1.73 255 255 255
-26.76 20.18 0.32 255 255 255
-14.68 6.51 1.95 255 255 255
-7.43 -3.22 1.43 255 255 255
-14.67 6.51 1.07 255 255 255
-7.14 -3.16 1.47 255 255 255
-7.28 -3.21 2.16 255 255 255
-14.66 6.48 2.34 255 255 255
-28.28 19.84 0.44 255 255 255
-7.29 -3.19 1.39 255 255 255
-7.10 -3.21 1.96 255 255 255
-24.34 21.44 0.70 255 255 255
-7.28 -3.21 1.82 255 255 255
-6.94 -3.16 1.43 255 255 255
-27.01 20.48 0.96 255 255 255
-7.43 -3.22 1.37 255 255 255
-7.11 -3.19 1.75 255 255 255
-7.28 -3.20 1.68 255 255 255
-7.11 -3.19 1.41 255 255 255
-7.29 -3.18 1.32 255 255 255
-6.97 -3.15 1.66 255 255 255
-7.28 -3.20 1.58 255 255 255
-6.95 -3.15 1.36 255 255 255
-7.43 -3.21 1.31 255 255 255
-7.12 -3.18 1.62 255 255 255
-7.43 -3.23 1.56 255 255 255
-7.10 -3.20 1.34 255 255 255
-7.29 -3.19 1.23 255 255 255
-6.96 -3.16 1.56 255 255 255
-7.12 -3.18 1.27 255 255 255
-7.29 -3.19 1.52 255 255 255
-7.28 -3.19 1.05 255 255 255
-7.12 -3.19 1.54 255 255 255
-7.43 -3.22 1.50 255 255 255
-7.12 -3.18 1.16 255 255 255
-14.64 6.50 1.30 255 255 255
-11.39 1.92 0.48 255 255 255
-7.28 -3.18 0.66 255 255 255
-6.97 -3.14 1.49 255 255 255
-33.57 28.40 1.64 255 255 255
-11.63 2.54 0.66 255 255 255
-7.29 -3.19 1.45 255 255 255
-7.12 -3.17 0.88 255 255 255
-29.47 29.02 1.27 255 255 255
-35.80 28.05 1.85 255 255 255
-14.65 6.52 1.51 255 255 255
-29.44 29.01 2.11 255 255 255
-14.66 6.56 0.80 255 255 255
-14.64 6.50 1.73 255 255 255
-26.67 20.22 0.33 255 255 255
-14.64 6.51 1.96 255 255 255
-7.44 -3.22 1.43 255 255 255
-14.66 6.55 1.07 255 255 255
-7.29 -3.21 2.16 255 255 255
-7.14 -3.16 1.47 255 255 255
-27.39 19.02 0.48 255 255 255
-7.30 -3.19 1.39 255 255 255
-7.12 -3.21 1.96 255 255 255
-24.39 21.70 0.69 255 255 255
-7.29 -3.21 1.82 255 255 255
-6.95 -3.16 1.43 255 255 255
-7.44 -3.22 1.37 255 255 255
-7.13 -3.19 1.75 255 255 255
-7.29 -3.21 1.68 255 255 255
-7.12 -3.19 1.41 255 255 255
-7.30 -3.19 1.32 255 255 255
-6.97 -3.15 1.66 255 255 255
-6.97 -3.15 1.36 255 255 255
-7.29 -3.20 1.58 255 255 255
-7.13 -3.18 1.62 255 255 255
-7.44 -3.22 1.31 255 255 255
-7.12 -3.19 1.34 255 255 255
-7.44 -3.23 1.56 255 255 255
-7.30 -3.19 1.23 255 255 255
-6.97 -3.16 1.56 255 255 255
-7.30 -3.20 1.52 255 255 255
-7.13 -3.18 1.27 255 255 255
-7.29 -3.19 1.05 255 255 255
-7.13 -3.19 1.54 255 255 255
-35.69 28.10 0.93 255 255 255
-7.44 -3.22 1.50 255 255 255
-7.13 -3.18 1.16 255 255 255
-14.63 6.54 1.29 255 255 255
-11.37 1.92 0.48 255 255 255
-6.98 -3.15 1.49 255 255 255
-7.30 -3.18 0.66 255 255 255
-33.43 28.42 1.65 255 255 255
-7.14 -3.17 0.88 255 255 255
-7.30 -3.20 1.45 255 255 255
-35.62 28.04 1.85 255 255 255
-14.63 6.54 1.52 255 255 255
-29.29 29.00 2.11 255 255 255
-14.64 6.58 0.80 255 255 255
-14.61 6.51 1.74 255 255 255
-14.60 6.51 1.95 255 255 255
-26.43 20.08 0.34 255 255 255
-7.45 -3.22 1.43 255 255 255
-14.63 6.57 1.07 255 255 255
-7.16 -3.16 1.47 255 255 255
-7.30 -3.22 2.16 255 255 255
-14.58 6.47 2.33 255 255 255
-27.34 19.10 0.49 255 255 255
-7.13 -3.21 1.96 255 255 255
-7.30 -3.20 1.39 255 255 255
-6.97 -3.16 1.43 255 255 255
-7.30 -3.21 1.81 255 255 255
-26.45 20.12 0.98 255 255 255
-7.44 -3.22 1.37 255 255 255
-7.14 -3.19 1.75 255 255 255
-7.13 -3.20 1.41 255 255 255
-7.29 -3.22 1.68 255 255 255
-6.99 -3.15 1.66 255 255 255
-7.31 -3.19 1.32 255 255 255
-6.98 -3.15 1.36 255 255 255
-7.30 -3.21 1.58 255 255 255
-7.14 -3.19 1.62 255 255 255
-7.46 -3.21 1.31 255 255 255
-7.45 -3.23 1.56 255 255 255
-7.13 -3.20 1.34 255 255 255
-7.31 -3.19 1.23 255 255 255
-6.98 -3.16 1.56 255 255 255
-7.31 -3.20 1.51 255 255 255
-7.14 -3.18 1.27 255 255 255
-7.30 -3.19 1.05 255 255 255
-7.14 -3.19 1.54 255 255 255
-27.25 19.06 1.12 255 255 255
-7.45 -3.23 1.49 255 255 255
-7.15 -3.18 1.16 255 255 255
-14.61 6.57 1.30 255 255 255
-11.36 1.93 0.48 255 255 255
-7.31 -3.18 0.66 255 255 255
-6.99 -3.15 1.49 255 255 255
-33.28 28.44 1.65 255 255 255
-7.15 -3.17 0.88 255 255 255
-7.30 -3.20 1.45 255 255 255
-29.17 29.03 1.27 255 255 255
-35.45 28.06 1.85 255 255 255
-14.60 6.56 1.52 255 255 255
-29.15 29.02 2.12 255 255 255
-14.60 6.59 0.80 255 255 255
-14.59 6.54 1.74 255 255 255
-14.58 6.53 1.95 255 255 255
-26.30 20.07 0.35 255 255 255
-7.46 -3.23 1.43 255 255 255
-14.61 6.59 1.07 255 255 255
-7.17 -3.17 1.47 255 255 255
-7.31 -3.22 2.16 255 255 255
-14.55 6.49 2.33 255 255 255
-27.29 19.19 0.49 255 255 255
-7.14 -3.21 1.96 255 255 255
-7.32 -3.19 1.39 255 255 255
-7.30 -3.22 1.82 255 255 255
-6.98 -3.17 1.43 255 255 255
-26.40 20.21 0.98 255 255 255
-7.15 -3.19 1.75 255 255 255
-7.46 -3.22 1.37 255 255 255
-7.15 -3.19 1.41 255 255 255
-7.31 -3.21 1.68 255 255 255
-6.99 -3.16 1.66 255 255 255
-7.32 -3.20 1.32 255 255 255
-7.31 -3.21 1.58 255 255 255
-6.99 -3.16 1.36 255 255 255
-7.15 -3.19 1.62 255 255 255
-7.46 -3.22 1.31 255 255 255
-7.15 -3.19 1.34 255 255 255
-7.46 -3.22 1.56 255 255 255
-6.99 -3.17 1.56 255 255 255
-7.32 -3.19 1.23 255 255 255
-7.15 -3.18 1.28 255 255 255
-7.32 -3.20 1.51 255 255 255
-7.15 -3.20 1.54 255 255 255
-7.31 -3.20 1.05 255 255 255
-27.65 19.63 1.11 255 255 255
-7.16 -3.18 1.16 255 255 255
-7.46 -3.23 1.49 255 255 255
-14.57 6.56 1.30 255 255 255
-7.32 -3.18 0.66 255 255 255
-7.01 -3.15 1.49 255 255 255
-26.57 20.48 1.62 255 255 255
-7.16 -3.17 0.88 255 255 255
-7.32 -3.20 1.45 255 255 255
-29.03 29.05 1.27 255 255 255
-35.30 28.12 1.85 255 255 255
-14.57 6.57 1.52 255 255 255
-29.02 29.04 2.12 255 255 255
-14.57 6.61 0.80 255 255 255
-14.55 6.55 1.73 255 255 255
-14.54 6.54 1.95 255 255 255
-26.22 20.13 0.35 255 255 255
-7.47 -3.22 1.43 255 255 255
-14.56 6.59 1.08 255 255 255
-7.32 -3.22 2.15 255 255 255
-7.18 -3.17 1.47 255 255 255
-14.51 6.49 2.33 255 255 255
-27.26 19.30 0.48 255 255 255
-7.14 -3.22 1.96 255 255 255
-7.32 -3.20 1.39 255 255 255
-6.99 -3.17 1.43 255 255 255
-7.31 -3.22 1.81 255 255 255
-26.24 20.17 0.98 255 255 255
-7.16 -3.20 1.75 255 255 255
-7.47 -3.22 1.37 255 255 255
-7.16 -3.19 1.41 255 255 255
-7.32 -3.21 1.68 255 255 255
-7.01 -3.16 1.66 255 255 255
-7.33 -3.19 1.32 255 255 255
-7.00 -3.16 1.36 255 255 255
-7.32 -3.21 1.58 255 255 255
-7.47 -3.22 1.31 255 255 255
-7.16 -3.20 1.62 255 255 255
-7.15 -3.20 1.34 255 255 255
-7.47 -3.23 1.56 255 255 255
-7.33 -3.19 1.23 255 255 255
-6.99 -3.17 1.56 255 255 255
-7.17 -3.18 1.27 255 255 255
-7.33 -3.20 1.51 255 255 255
-7.16 -3.20 1.54 255 255 255
-7.32 -3.20 1.05 255 255 255
-7.17 -3.18 1.16 255 255 255
-7.47 -3.22 1.49 255 255 255
-14.52 6.56 1.30 255 255 255
-11.37 1.98 0.47 255 255 255
-7.01 -3.16 1.49 255 255 255
-7.33 -3.18 0.66 255 255 255
-26.42 20.45 1.62 255 255 255
-7.33 -3.20 1.45 255 255 255
-7.17 -3.17 0.88 255 255 255
-28.89 29.07 1.28 255 255 255
-35.13 28.11 1.85 255 255 255
-14.52 6.57 1.52 255 255 255
-28.87 29.06 2.12 255 255 255
-14.55 6.63 0.80 255 255 255
-14.51 6.55 1.74 255 255 255
-14.50 6.54 1.95 255 255 255
-26.33 20.41 0.33 255 255 255
-7.48 -3.22 1.43 255 255 255
-14.53 6.61 1.08 255 255 255
-7.19 -3.16 1.47 255 255 255
-7.33 -3.22 2.15 255 255 255
-27.31 19.50 0.48 255 255 255
-14.47 6.50 2.33 255 255 255
-7.16 -3.22 1.96 255 255 255
-7.33 -3.20 1.39 255 255 255
-7.33 -3.22 1.81 255 255 255
-7.00 -3.17 1.43 255 255 255
-26.16 20.23 0.98 255 255 255
-7.48 -3.23 1.37 255 255 255
-7.17 -3.20 1.75 255 255 255
-7.16 -3.20 1.41 255 255 255
-7.33 -3.22 1.68 255 255 255
-7.02 -3.16 1.66 255 255 255
-7.34 -3.19 1.33 255 255 255
-7.02 -3.16 1.36 255 255 255
-7.33 -3.21 1.58 255 255 255
-7.48 -3.22 1.31 255 255 255
-7.18 -3.19 1.62 255 255 255
-7.17 -3.19 1.34 255 255 255
-7.48 -3.23 1.56 255 255 255
-7.34 -3.19 1.23 255 255 255
-7.01 -3.17 1.56 255 255 255
-7.34 -3.20 1.51 255 255 255
-7.18 -3.18 1.27 255 255 255
-7.33 -3.20 1.05 255 255 255
-7.17 -3.21 1.54 255 255 255
-27.52 19.78 1.12 255 255 255
-7.48 -3.23 1.49 255 255 255
-7.18 -3.18 1.16 255 255 255
-14.50 6.58 1.30 255 255 255
-11.37 2.00 0.46 255 255 255
-7.03 -3.15 1.49 255 255 255
-7.34 -3.18 0.66 255 255 255
-26.33 20.48 1.62 255 255 255
-7.18 -3.17 0.88 255 255 255
-7.34 -3.20 1.45 255 255 255
-28.75 29.09 1.28 255 255 255
-34.98 28.16 1.86 255 255 255
-14.50 6.59 1.52 255 255 255
-25.75 19.77 2.24 255 255 255
-28.74 29.08 2.12 255 255 255
-14.54 6.68 0.80 255 255 255
-14.49 6.57 1.74 255 255 255
-14.47 6.56 1.95 255 255 255
-7.49 -3.22 1.43 255 255 255
-14.51 6.64 1.08 255 255 255
-7.20 -3.17 1.47 255 255 255
-7.34 -3.22 2.15 255 255 255
-27.42 19.77 0.47 255 255 255
-14.45 6.53 2.33 255 255 255
-7.17 -3.21 1.95 255 255 255
-7.35 -3.20 1.39 255 255 255
-7.02 -3.17 1.42 255 255 255
-7.34 -3.22 1.81 255 255 255
-23.03 16.49 1.08 255 255 255
-7.49 -3.22 1.37 255 255 255
-7.18 -3.20 1.75 255 255 255
-7.34 -3.21 1.68 255 255 255
-7.18 -3.20 1.41 255 255 255
-7.34 -3.20 1.32 255 255 255
-7.04 -3.16 1.66 255 255 255
-7.03 -3.16 1.36 255 255 255
-7.34 -3.21 1.58 255 255 255
-7.49 -3.22 1.31 255 255 255
-7.19 -3.20 1.62 255 255 255
-7.49 -3.24 1.56 255 255 255
-7.18 -3.20 1.34 255 255 255
-7.02 -3.17 1.56 255 255 255
-7.35 -3.19 1.23 255 255 255
-7.19 -3.18 1.28 255 255 255
-7.35 -3.20 1.51 255 255 255
-7.19 -3.20 1.54 255 255 255
-7.35 -3.20 1.06 255 255 255
-27.63 20.06 1.11 255 255 255
-7.19 -3.18 1.16 255 255 255
-7.49 -3.23 1.49 255 255 255
-11.40 2.07 0.45 255 255 255
-14.48 6.62 1.30 255 255 255
-7.03 -3.16 1.49 255 255 255
-7.35 -3.19 0.66 255 255 255
-7.20 -3.17 0.88 255 255 255
-7.35 -3.20 1.45 255 255 255
-28.61 29.11 1.28 255 255 255
-34.81 28.19 1.86 255 255 255
-14.49 6.63 1.52 255 255 255
-22.97 16.46 2.13 255 255 255
-28.60 29.10 2.12 255 255 255
-14.46 6.61 1.74 255 255 255
-14.45 6.59 1.95 255 255 255
-7.50 -3.23 1.43 255 255 255
-14.52 6.71 1.07 255 255 255
-7.20 -3.18 1.47 255 255 255
-7.35 -3.23 2.15 255 255 255
-27.89 20.44 0.44 255 255 255
-14.43 6.55 2.34 255 255 255
-7.19 -3.21 1.95 255 255 255
-7.36 -3.20 1.39 255 255 255
-7.03 -3.17 1.42 255 255 255
-7.35 -3.22 1.81 255 255 255
-22.91 16.46 1.09 255 255 255
-7.19 -3.21 1.75 255 255 255
-7.50 -3.23 1.37 255 255 255
-7.19 -3.20 1.41 255 255 255
-7.35 -3.22 1.68 255 255 255
-7.04 -3.16 1.66 255 255 255
-7.36 -3.20 1.32 255 255 255
-7.05 -3.15 1.36 255 255 255
-7.35 -3.21 1.58 255 255 255
-7.20 -3.19 1.62 255 255 255
-7.50 -3.22 1.31 255 255 255
-7.50 -3.24 1.56 255 255 255
-7.19 -3.20 1.34 255 255 255
-7.36 -3.20 1.23 255 255 255
-7.03 -3.17 1.56 255 255 255
-7.36 -3.21 1.51 255 255 255
-7.20 -3.19 1.28 255 255 255
-7.36 -3.20 1.06 255 255 255
-7.19 -3.21 1.54 255 255 255
-27.58 20.15 1.11 255 255 255
-7.50 -3.23 1.49 255 255 255
-7.20 -3.18 1.16 255 255 255
-24.44 20.52 0.87 255 255 255
-11.42 2.11 0.44 255 255 255
-7.05 -3.16 1.49 255 255 255
-7.36 -3.18 0.67 255 255 255
-22.89 16.47 1.61 255 255 255
-7.36 -3.21 1.45 255 255 255
-7.20 -3.17 0.88 255 255 255
-28.48 29.13 1.28 255 255 255
-34.65 28.21 1.86 255 255 255
-22.89 16.48 2.13 255 255 255
-28.48 29.15 2.12 255 255 255
-14.44 6.63 1.96 255 255 255
-7.51 -3.23 1.43 255 255 255
-7.22 -3.18 1.47 255 255 255
-7.36 -3.22 2.15 255 255 255
-14.43 6.60 2.34 255 255 255
-27.89 20.60 0.44 255 255 255
-7.37 -3.20 1.39 255 255 255
-7.19 -3.22 1.95 255 255 255
-7.04 -3.17 1.42 255 255 255
-7.36 -3.22 1.81 255 255 255
-22.84 16.48 1.09 255 255 255
-7.51 -3.22 1.37 255 255 255
-7.20 -3.20 1.75 255 255 255
-7.20 -3.20 1.41 255 255 255
-7.36 -3.22 1.68 255 255 255
-7.06 -3.17 1.66 255 255 255
-7.36 -3.21 1.32 255 255 255
-7.36 -3.21 1.58 255 255 255
-7.06 -3.16 1.36 255 255 255
-7.51 -3.22 1.31 255 255 255
-7.21 -3.19 1.62 255 255 255
-7.21 -3.19 1.34 255 255 255
-7.51 -3.23 1.55 255 255 255
-7.37 -3.20 1.23 255 255 255
-7.05 -3.17 1.56 255 255 255
-7.36 -3.21 1.51 255 255 255
-7.21 -3.19 1.28 255 255 255
-7.36 -3.20 1.06 255 255 255
-7.20 -3.20 1.54 255 255 255
-27.59 20.31 1.11 255 255 255
-7.51 -3.23 1.49 255 255 255
-7.22 -3.18 1.16 255 255 255
-11.41 2.12 0.43 255 255 255
-7.06 -3.16 1.49 255 255 255
-7.37 -3.19 0.67 255 255 255
-22.81 16.51 1.61 255 255 255
-7.22 -3.17 0.88 255 255 255
-7.37 -3.21 1.45 255 255 255
-28.34 29.15 1.29 255 255 255
-34.50 28.23 1.86 255 255 255
-22.83 16.54 2.13 255 255 255
-28.33 29.14 2.12 255 255 255
-7.52 -3.23 1.43 255 255 255
-7.22 -3.19 1.47 255 255 255
-7.37 -3.23 2.15 255 255 255
-7.20 -3.22 1.95 255 255 255
-7.38 -3.20 1.39 255 255 255
-7.37 -3.23 1.81 255 255 255
-7.04 -3.18 1.42 255 255 255
-22.77 16.53 1.09 255 255 255
-7.21 -3.21 1.74 255 255 255
-7.52 -3.23 1.37 255 255 255
-7.21 -3.20 1.41 255 255 255
-7.37 -3.22 1.68 255 255 255
-7.07 -3.17 1.66 255 255 255
-7.37 -3.21 1.32 255 255 255
-7.37 -3.22 1.58 255 255 255
-7.07 -3.16 1.36 255 255 255
-7.52 -3.22 1.31 255 255 255
-7.22 -3.20 1.62 255 255 255
-7.22 -3.19 1.34 255 255 255
-7.52 -3.23 1.55 255 255 255
-7.37 -3.20 1.23 255 255 255
-7.06 -3.18 1.56 255 255 255
-7.37 -3.21 1.51 255 255 255
-7.22 -3.19 1.28 255 255 255
-7.21 -3.20 1.54 255 255 255
-7.37 -3.21 1.06 255 255 255
-27.59 20.46 1.11 255 255 255
-7.22 -3.18 1.16 255 255 255
-7.52 -3.23 1.49 255 255 255
-24.37 20.74 0.87 255 255 255
-11.41 2.15 0.43 255 255 255
-7.38 -3.18 0.67 255 255 255
-7.07 -3.16 1.49 255 255 255
-22.79 16.60 1.61 255 255 255
-7.23 -3.17 0.89 255 255 255
-7.38 -3.21 1.45 255 255 255
-28.21 29.17 1.29 255 255 255
-34.33 28.26 1.86 255 255 255
-25.46 20.00 2.25 255 255 255
-28.19 29.16 2.12 255 255 255
-25.76 18.38 2.35 255 255 255
-30.11 28.85 2.32 255 255 255
-7.52 -3.23 1.43 255 255 255
-7.38 -3.23 2.15 255 255 255
-7.24 -3.18 1.47 255 255 255
-27.42 20.35 0.46 255 255 255
-7.39 -3.20 1.39 255 255 255
-7.21 -3.23 1.95 255 255 255
-7.38 -3.23 1.81 255 255 255
-7.06 -3.18 1.42 255 255 255
-22.74 16.62 1.09 255 255 255
-7.53 -3.22 1.37 255 255 255
-7.22 -3.21 1.74 255 255 255
-7.23 -3.20 1.41 255 255 255
-7.38 -3.22 1.68 255 255 255
-7.08 -3.16 1.66 255 255 255
-7.38 -3.21 1.32 255 255 255
-7.08 -3.16 1.36 255 255 255
-7.38 -3.22 1.58 255 255 255
-7.53 -3.23 1.31 255 255 255
-7.23 -3.20 1.62 255 255 255
-7.53 -3.24 1.55 255 255 255
-7.23 -3.20 1.34 255 255 255
-7.07 -3.18 1.56 255 255 255
-7.38 -3.21 1.23 255 255 255
-7.39 -3.21 1.51 255 255 255
-7.23 -3.19 1.28 255 255 255
-7.38 -3.21 1.06 255 255 255
-7.22 -3.21 1.53 255 255 255
-27.58 20.61 1.11 255 255 255
-7.53 -3.24 1.49 255 255 255
-7.23 -3.19 1.16 255 255 255
-11.41 2.17 0.42 255 255 255
-24.32 20.82 0.87 255 255 255
-7.08 -3.17 1.49 255 255 255
-7.38 -3.20 0.67 255 255 255
-7.24 -3.17 0.89 255 255 255
-7.39 -3.21 1.45 255 255 255
-28.08 29.21 1.29 255 255 255
-34.17 28.28 1.86 255 255 255
-24.62 21.26 1.49 255 255 255
-25.37 20.04 2.25 255 255 255
-28.05 29.18 2.12 255 255 255
-29.97 28.90 2.32 255 255 255
-25.55 20.35 0.37 255 255 255
-7.53 -3.23 1.43 255 255 255
-7.39 -3.23 2.14 255 255 255
-7.25 -3.18 1.47 255 255 255
-27.24 20.30 0.47 255 255 255
-7.40 -3.20 1.39 255 255 255
-7.23 -3.22 1.95 255 255 255
-7.07 -3.18 1.42 255 255 255
-7.39 -3.23 1.81 255 255 255
-25.45 20.23 1.00 255 255 255
-7.24 -3.21 1.74 255 255 255
-7.54 -3.23 1.37 255 255 255
-7.23 -3.20 1.41 255 255 255
-7.39 -3.23 1.68 255 255 255
-7.09 -3.17 1.66 255 255 255
-7.40 -3.21 1.32 255 255 255
-7.10 -3.15 1.36 255 255 255
-7.39 -3.22 1.58 255 255 255
-7.24 -3.20 1.61 255 255 255
-7.54 -3.22 1.31 255 255 255
-7.24 -3.20 1.34 255 255 255
-7.53 -3.24 1.55 255 255 255
-7.08 -3.18 1.56 255 255 255
-7.40 -3.21 1.23 255 255 255
-7.39 -3.22 1.51 255 255 255
-7.25 -3.19 1.28 255 255 255
-7.24 -3.20 1.53 255 255 255
-7.39 -3.21 1.06 255 255 255
-27.29 20.41 1.12 255 255 255
-7.54 -3.24 1.49 255 255 255
-7.25 -3.19 1.16 255 255 255
-11.40 2.18 0.42 255 255 255
-7.40 -3.19 0.67 255 255 255
-7.09 -3.17 1.49 255 255 255
-7.40 -3.21 1.45 255 255 255
-7.26 -3.17 0.89 255 255 255
-27.94 29.20 1.29 255 255 255
-34.02 28.30 1.86 255 255 255
-24.56 21.33 1.49 255 255 255
-14.76 6.51 0.54 255 255 255
-14.78 6.55 0.90 255 255 255
-27.92 29.20 2.12 255 255 255
-14.75 6.51 1.13 255 255 255
-7.54 -3.24 1.43 255 255 255
-7.40 -3.23 2.14 255 255 255
-7.26 -3.18 1.47 255 255 255
-27.15 20.36 0.47 255 255 255
-7.41 -3.20 1.39 255 255 255
-7.24 -3.22 1.95 255 255 255
-7.09 -3.18 1.42 255 255 255
-7.40 -3.23 1.81 255 255 255
-25.36 20.28 1.00 255 255 255
-7.55 -3.23 1.37 255 255 255
-7.25 -3.21 1.74 255 255 255
-7.25 -3.20 1.40 255 255 255
-7.40 -3.22 1.68 255 255 255
-7.10 -3.17 1.66 255 255 255
-7.40 -3.21 1.32 255 255 255
-7.11 -3.16 1.36 255 255 255
-7.40 -3.23 1.58 255 255 255
-7.26 -3.20 1.61 255 255 255
-7.55 -3.22 1.31 255 255 255
-7.55 -3.24 1.55 255 255 255
-7.25 -3.20 1.34 255 255 255
-7.09 -3.18 1.56 255 255 255
-7.40 -3.21 1.23 255 255 255
-7.25 -3.19 1.28 255 255 255
-7.40 -3.22 1.51 255 255 255
-7.41 -3.21 1.06 255 255 255
-7.25 -3.21 1.53 255 255 255
-27.38 20.67 1.12 255 255 255
-7.55 -3.24 1.49 255 255 255
-7.26 -3.19 1.16 255 255 255
-24.35 21.20 0.86 255 255 255
-11.42 2.23 0.41 255 255 255
-7.41 -3.19 0.67 255 255 255
-7.10 -3.17 1.49 255 255 255
-7.26 -3.17 0.89 255 255 255
-7.40 -3.22 1.45 255 255 255
-27.81 29.25 1.29 255 255 255
-33.86 28.32 1.86 255 255 255
-14.71 6.51 0.55 255 255 255
-27.80 29.25 2.12 255 255 255
-14.72 6.52 0.91 255 255 255
-25.44 18.41 2.35 255 255 255
-29.68 28.91 2.32 255 255 255
-7.55 -3.24 1.43 255 255 255
-7.27 -3.19 1.47 255 255 255
-7.41 -3.24 2.14 255 255 255
-26.98 20.29 0.48 255 255 255
-7.25 -3.22 1.94 255 255 255
-7.42 -3.21 1.39 255 255 255
-7.10 -3.18 1.42 255 255 255
-7.41 -3.23 1.81 255 255 255
-7.26 -3.21 1.74 255 255 255
-7.56 -3.22 1.37 255 255 255
-7.41 -3.23 1.68 255 255 255
-7.26 -3.20 1.40 255 255 255
-7.41 -3.22 1.32 255 255 255
-7.11 -3.18 1.65 255 255 255
-7.41 -3.23 1.57 255 255 255
-7.12 -3.16 1.36 255 255 255
-7.56 -3.23 1.31 255 255 255
-7.26 -3.21 1.61 255 255 255
-7.56 -3.24 1.55 255 255 255
-7.26 -3.20 1.34 255 255 255
-7.42 -3.21 1.23 255 255 255
-7.10 -3.18 1.56 255 255 255
-7.41 -3.22 1.51 255 255 255
-7.26 -3.20 1.28 255 255 255
-7.26 -3.21 1.53 255 255 255
-7.41 -3.21 1.06 255 255 255
-27.48 20.95 1.11 255 255 255
-7.27 -3.19 1.16 255 255 255
-7.56 -3.24 1.49 255 255 255
-11.47 2.31 0.38 255 255 255
-24.33 21.33 0.86 255 255 255
-7.42 -3.19 0.67 255 255 255
-7.11 -3.17 1.49 255 255 255
-7.42 -3.22 1.45 255 255 255
-7.28 -3.17 0.89 255 255 255
-27.67 29.24 1.30 255 255 255
-33.71 28.34 1.87 255 255 255
-14.68 6.52 0.55 255 255 255
-29.57 28.97 1.48 255 255 255
-14.70 6.52 1.79 255 255 255
-14.69 6.54 0.91 255 255 255
-27.66 29.27 2.13 255 255 255
-29.54 28.93 2.32 255 255 255
-14.68 6.53 1.13 255 255 255
-7.56 -3.24 1.43 255 255 255
-7.28 -3.18 1.47 255 255 255
-7.42 -3.24 2.14 255 255 255
-26.83 20.28 0.48 255 255 255
-7.26 -3.23 1.94 255 255 255
-7.43 -3.21 1.39 255 255 255
-7.11 -3.18 1.42 255 255 255
-7.43 -3.22 1.80 255 255 255
-14.66 6.50 1.35 255 255 255
-7.57 -3.22 1.37 255 255 255
-7.27 -3.21 1.74 255 255 255
-7.42 -3.23 1.68 255 255 255
-7.28 -3.20 1.40 255 255 255
-7.42 -3.22 1.32 255 255 255
-7.12 -3.18 1.65 255 255 255
-7.42 -3.23 1.57 255 255 255
-7.13 -3.16 1.36 255 255 255
-7.57 -3.23 1.31 255 255 255
-7.27 -3.21 1.61 255 255 255
-7.27 -3.20 1.34 255 255 255
-7.56 -3.25 1.55 255 255 255
-7.12 -3.18 1.55 255 255 255
-7.43 -3.21 1.23 255 255 255
-7.42 -3.23 1.51 255 255 255
-7.27 -3.20 1.28 255 255 255
-7.27 -3.21 1.53 255 255 255
-7.42 -3.22 1.06 255 255 255
-7.27 -3.20 1.16 255 255 255
-7.57 -3.25 1.49 255 255 255
-11.47 2.34 0.38 255 255 255
-24.34 21.51 0.86 255 255 255
-7.43 -3.19 0.68 255 255 255
-7.13 -3.17 1.49 255 255 255
-14.64 6.50 1.57 255 255 255
-7.43 -3.22 1.45 255 255 255
-7.28 -3.18 0.89 255 255 255
-27.54 29.29 1.30 255 255 255
-33.55 28.37 1.87 255 255 255
-14.65 6.55 0.55 255 255 255
-29.42 28.96 1.48 255 255 255
-14.63 6.50 1.79 255 255 255
-14.67 6.56 0.91 255 255 255
-27.51 29.26 2.12 255 255 255
-29.41 28.95 2.32 255 255 255
-14.64 6.51 2.12 255 255 255
-14.66 6.56 1.13 255 255 255
-7.57 -3.24 1.43 255 255 255
-7.43 -3.24 2.14 255 255 255
-7.30 -3.18 1.47 255 255 255
-26.61 20.17 0.49 255 255 255
-7.43 -3.21 1.39 255 255 255
-7.27 -3.22 1.94 255 255 255
-7.43 -3.23 1.80 255 255 255
-7.12 -3.19 1.42 255 255 255
-14.65 6.54 1.35 255 255 255
-7.28 -3.21 1.74 255 255 255
-7.58 -3.23 1.37 255 255 255
-7.28 -3.20 1.40 255 255 255
-7.43 -3.23 1.68 255 255 255
-7.43 -3.22 1.32 255 255 255
-7.13 -3.18 1.65 255 255 255
-7.43 -3.24 1.57 255 255 255
-7.14 -3.17 1.36 255 255 255
-7.28 -3.21 1.61 255 255 255
-7.58 -3.23 1.31 255 255 255
-7.28 -3.21 1.34 255 255 255
-7.57 -3.25 1.55 255 255 255
-7.43 -3.22 1.23 255 255 255
-7.13 -3.18 1.55 255 255 255
-7.43 -3.23 1.51 255 255 255
-7.29 -3.20 1.28 255 255 255
-7.43 -3.21 1.06 255 255 255
-7.28 -3.21 1.53 255 255 255
-26.60 20.21 1.13 255 255 255
-7.57 -3.25 1.49 255 255 255
-7.28 -3.20 1.16 255 255 255
-11.46 2.35 0.38 255 255 255
-7.44 -3.19 0.68 255 255 255
-7.14 -3.17 1.49 255 255 255
-14.62 6.53 1.57 255 255 255
-7.30 -3.17 0.89 255 255 255
-7.44 -3.22 1.45 255 255 255
-27.39 29.28 1.30 255 255 255
-33.38 28.39 1.87 255 255 255
-14.62 6.56 0.55 255 255 255
-29.28 28.98 1.48 255 255 255
-14.61 6.51 1.79 255 255 255
-14.63 6.57 0.91 255 255 255
-27.38 29.27 2.13 255 255 255
-25.59 19.01 2.37 255 255 255
-29.26 28.97 2.32 255 255 255
-14.60 6.50 2.12 255 255 255
-14.62 6.57 1.13 255 255 255
-7.58 -3.25 1.43 255 255 255
-7.44 -3.24 2.14 255 255 255
-7.30 -3.19 1.47 255 255 255
-26.47 20.14 0.50 255 255 255
-7.45 -3.21 1.39 255 255 255
-7.29 -3.22 1.94 255 255 255
-7.13 -3.19 1.42 255 255 255
-7.44 -3.24 1.80 255 255 255
-14.63 6.57 1.35 255 255 255
-7.29 -3.21 1.74 255 255 255
-7.59 -3.23 1.37 255 255 255
-7.29 -3.20 1.40 255 255 255
-7.44 -3.23 1.67 255 255 255
-7.44 -3.22 1.32 255 255 255
-7.14 -3.18 1.65 255 255 255
-7.15 -3.16 1.36 255 255 255
-7.44 -3.23 1.57 255 255 255
-7.30 -3.21 1.61 255 255 255
-7.58 -3.24 1.31 255 255 255
-7.29 -3.21 1.34 255 255 255
-7.58 -3.25 1.55 255 255 255
-7.14 -3.19 1.55 255 255 255
-7.44 -3.22 1.23 255 255 255
-7.29 -3.20 1.28 255 255 255
-7.45 -3.22 1.51 255 255 255
-7.30 -3.20 1.53 255 255 255
-7.45 -3.21 1.06 255 255 255
-26.49 20.22 1.14 255 255 255
-7.59 -3.25 1.49 255 255 255
-7.30 -3.20 1.17 255 255 255
-11.45 2.37 0.37 255 255 255
-7.45 -3.20 0.68 255 255 255
-7.15 -3.17 1.49 255 255 255
-14.59 6.55 1.57 255 255 255
-7.45 -3.22 1.45 255 255 255
-7.31 -3.18 0.89 255 255 255
-27.27 29.30 1.30 255 255 255
-33.23 28.41 1.87 255 255 255
-29.14 29.00 1.48 255 255 255
-14.58 6.56 0.55 255 255 255
-14.59 6.54 1.79 255 255 255
-14.61 6.59 0.91 255 255 255
-27.24 29.29 2.13 255 255 255
-25.54 19.10 2.37 255 255 255
-29.12 28.99 2.33 255 255 255
-14.57 6.52 2.12 255 255 255
-14.60 6.59 1.13 255 255 255
-7.59 -3.25 1.43 255 255 255
-7.31 -3.20 1.47 255 255 255
-7.45 -3.25 2.14 255 255 255
-26.27 20.06 0.51 255 255 255
-7.30 -3.22 1.94 255 255 255
-7.46 -3.21 1.39 255 255 255
-7.15 -3.18 1.42 255 255 255
-7.45 -3.23 1.80 255 255 255
-14.59 6.58 1.35 255 255 255
-7.60 -3.23 1.37 255 255 255
-7.30 -3.21 1.74 255 255 255
-7.45 -3.23 1.67 255 255 255
-7.31 -3.20 1.40 255 255 255
-7.45 -3.22 1.32 255 255 255
-7.15 -3.18 1.65 255 255 255
-7.45 -3.23 1.57 255 255 255
-7.16 -3.17 1.36 255 255 255
-7.60 -3.23 1.31 255 255 255
-7.31 -3.21 1.61 255 255 255
-7.59 -3.25 1.55 255 255 255
-7.30 -3.21 1.34 255 255 255
-7.46 -3.21 1.23 255 255 255
-7.15 -3.19 1.55 255 255 255
-7.46 -3.22 1.51 255 255 255
-7.30 -3.20 1.28 255 255 255
-7.45 -3.22 1.06 255 255 255
-7.31 -3.21 1.53 255 255 255
-26.36 20.21 1.14 255 255 255
-7.60 -3.24 1.49 255 255 255
-7.31 -3.19 1.17 255 255 255
-7.46 -3.20 0.68 255 255 255
-7.16 -3.18 1.49 255 255 255
-14.56 6.56 1.57 255 255 255
-7.32 -3.17 0.89 255 255 255
-7.45 -3.23 1.45 255 255 255
-27.13 29.32 1.30 255 255 255
-33.09 28.43 1.87 255 255 255
-29.01 29.05 1.49 255 255 255
-14.55 6.57 0.55 255 255 255
-14.56 6.56 1.79 255 255 255
-14.57 6.60 0.91 255 255 255
-27.13 29.34 2.13 255 255 255
-25.49 19.19 2.37 255 255 255
-28.99 29.01 2.32 255 255 255
-14.55 6.54 2.12 255 255 255
-14.57 6.60 1.13 255 255 255
-7.60 -3.24 1.43 255 255 255
-7.46 -3.24 2.13 255 255 255
-7.32 -3.20 1.47 255 255 255
-26.23 20.16 0.50 255 255 255
-7.31 -3.22 1.94 255 255 255
-7.46 -3.22 1.39 255 255 255
-7.16 -3.18 1.42 255 255 255
-7.46 -3.23 1.80 255 255 255
-14.55 6.58 1.35 255 255 255
-7.32 -3.21 1.74 255 255 255
-7.61 -3.23 1.37 255 255 255
-7.32 -3.20 1.40 255 255 255
-7.47 -3.23 1.67 255 255 255
-7.16 -3.19 1.65 255 255 255
-7.46 -3.22 1.32 255 255 255
-7.17 -3.17 1.36 255 255 255
-7.46 -3.24 1.57 255 255 255
-7.32 -3.21 1.61 255 255 255
-7.60 -3.25 1.31 255 255 255
-7.31 -3.21 1.34 255 255 255
-7.60 -3.25 1.55 255 255 255
-7.16 -3.19 1.55 255 255 255
-7.47 -3.22 1.23 255 255 255
-7.31 -3.21 1.28 255 255 255
-7.47 -3.23 1.51 255 255 255
-7.46 -3.22 1.06 255 255 255
-7.32 -3.21 1.53 255 255 255
-26.24 20.23 1.14 255 255 255
-7.61 -3.24 1.49 255 255 255
-7.32 -3.20 1.16 255 255 255
-11.44 2.40 0.37 255 255 255
-7.17 -3.18 1.49 255 255 255
-7.47 -3.20 0.68 255 255 255
-14.52 6.56 1.57 255 255 255
-7.33 -3.18 0.90 255 255 255
-7.46 -3.23 1.45 255 255 255
-26.99 29.34 1.31 255 255 255
-32.94 28.45 1.87 255 255 255
-14.53 6.61 0.55 255 255 255
-28.86 29.04 1.49 255 255 255
-14.51 6.54 1.79 255 255 255
-27.00 29.36 2.13 255 255 255
-14.54 6.62 0.91 255 255 255
-25.52 19.36 2.38 255 255 255
-28.85 29.03 2.33 255 255 255
-14.49 6.52 2.12 255 255 255
-14.52 6.60 1.13 255 255 255
-7.61 -3.24 1.43 255 255 255
-7.33 -3.19 1.47 255 255 255
-7.47 -3.25 2.13 255 255 255
-7.32 -3.23 1.94 255 255 255
-7.48 -3.22 1.39 255 255 255
-7.17 -3.18 1.42 255 255 255
-7.47 -3.24 1.80 255 255 255
-14.51 6.59 1.35 255 255 255
-7.33 -3.21 1.73 255 255 255
-7.62 -3.23 1.37 255 255 255
-7.33 -3.20 1.40 255 255 255
-7.48 -3.22 1.67 255 255 255
-7.47 -3.22 1.32 255 255 255
-7.18 -3.19 1.65 255 255 255
-7.18 -3.17 1.36 255 255 255
-7.47 -3.24 1.57 255 255 255
-7.33 -3.21 1.61 255 255 255
-7.61 -3.24 1.31 255 255 255
-7.32 -3.22 1.34 255 255 255
-7.61 -3.25 1.55 255 255 255
-7.17 -3.19 1.55 255 255 255
-7.48 -3.22 1.23 255 255 255
-7.47 -3.23 1.51 255 255 255
-7.32 -3.21 1.28 255 255 255
-7.32 -3.22 1.53 255 255 255
-7.47 -3.22 1.06 255 255 255
-26.15 20.24 1.14 255 255 255
-7.33 -3.20 1.17 255 255 255
-7.62 -3.24 1.49 255 255 255
-11.47 2.47 0.35 255 255 255
-7.48 -3.20 0.68 255 255 255
-7.18 -3.18 1.49 255 255 255
-14.49 6.57 1.57 255 255 255
-7.34 -3.18 0.90 255 255 255
-7.47 -3.23 1.45 255 255 255
-26.88 29.35 1.31 255 255 255
-32.80 28.50 1.87 255 255 255
-28.73 29.06 1.49 255 255 255
-14.54 6.66 0.55 255 255 255
-14.48 6.56 1.79 255 255 255
-14.52 6.64 0.91 255 255 255
-26.86 29.35 2.13 255 255 255
-25.52 19.48 2.39 255 255 255
-28.72 29.05 2.33 255 255 255
-14.46 6.54 2.12 255 255 255
-14.50 6.62 1.13 255 255 255
-7.62 -3.24 1.43 255 255 255
-7.48 -3.25 2.13 255 255 255
-7.35 -3.19 1.47 255 255 255
-7.33 -3.23 1.94 255 255 255
-7.49 -3.22 1.39 255 255 255
-7.18 -3.19 1.42 255 255 255
-7.48 -3.24 1.80 255 255 255
-14.49 6.61 1.35 255 255 255
-7.33 -3.22 1.73 255 255 255
-7.62 -3.24 1.37 255 255 255
-7.33 -3.21 1.40 255 255 255
-7.48 -3.23 1.67 255 255 255
-7.19 -3.19 1.65 255 255 255
-7.48 -3.22 1.32 255 255 255
-7.19 -3.18 1.36 255 255 255
-7.48 -3.24 1.57 255 255 255
-7.62 -3.24 1.31 255 255 255
-7.34 -3.21 1.61 255 255 255
-7.33 -3.22 1.34 255 255 255
-7.62 -3.25 1.55 255 255 255
-7.19 -3.19 1.55 255 255 255
-7.48 -3.22 1.23 255 255 255
-7.33 -3.21 1.28 255 255 255
-7.48 -3.23 1.51 255 255 255
-7.34 -3.21 1.53 255 255 255
-7.48 -3.22 1.06 255 255 255
-7.33 -3.21 1.17 255 255 255
-7.62 -3.25 1.49 255 255 255
-11.55 2.61 0.30 255 255 255
-7.19 -3.18 1.49 255 255 255
-6.52 -4.65 0.20 255 255 255
-14.47 6.60 1.57 255 255 255
-7.48 -3.23 1.45 255 255 255
-7.35 -3.18 0.90 255 255 255
-26.74 29.37 1.31 255 255 255
-22.96 16.44 1.74 255 255 255
-28.60 29.08 1.49 255 255 255
-14.46 6.59 1.79 255 255 255
-26.72 29.37 2.13 255 255 255
-22.95 16.44 2.26 255 255 255
-28.59 29.07 2.33 255 255 255
-14.44 6.57 2.12 255 255 255
-14.50 6.67 1.13 255 255 255
-7.62 -3.25 1.43 255 255 255
-7.49 -3.25 2.13 255 255 255
-7.36 -3.19 1.47 255 255 255
-7.34 -3.23 1.93 255 255 255
-7.49 -3.22 1.39 255 255 255
-7.19 -3.19 1.42 255 255 255
-7.49 -3.24 1.80 255 255 255
-14.48 6.65 1.35 255 255 255
-7.34 -3.22 1.73 255 255 255
-7.63 -3.24 1.37 255 255 255
-7.35 -3.21 1.40 255 255 255
-7.49 -3.24 1.67 255 255 255
-7.19 -3.19 1.65 255 255 255
-7.49 -3.23 1.32 255 255 255
-7.20 -3.18 1.36 255 255 255
-7.49 -3.24 1.57 255 255 255
-7.35 -3.21 1.61 255 255 255
-7.63 -3.24 1.31 255 255 255
-7.63 -3.25 1.55 255 255 255
-7.34 -3.22 1.34 255 255 255
-7.20 -3.19 1.55 255 255 255
-7.49 -3.22 1.23 255 255 255
-7.34 -3.21 1.28 255 255 255
-7.49 -3.23 1.51 255 255 255
-7.49 -3.22 1.06 255 255 255
-7.35 -3.21 1.53 255 255 255
-22.87 16.45 1.22 255 255 255
-7.35 -3.21 1.17 255 255 255
-7.64 -3.24 1.49 255 255 255
-11.55 2.63 0.30 255 255 255
-7.20 -3.19 1.49 255 255 255
-6.54 -4.65 0.21 255 255 255
-14.47 6.65 1.57 255 255 255
-7.49 -3.23 1.45 255 255 255
-7.36 -3.18 0.90 255 255 255
-26.62 29.42 1.31 255 255 255
-22.87 16.46 1.74 255 255 255
-28.47 29.13 1.49 255 255 255
-14.45 6.63 1.79 255 255 255
-26.59 29.39 2.13 255 255 255
-22.88 16.48 2.26 255 255 255
-28.45 29.12 2.33 255 255 255
-14.43 6.61 2.12 255 255 255
-7.64 -3.25 1.43 255 255 255
-7.36 -3.20 1.47 255 255 255
-7.50 -3.25 2.13 255 255 255
-7.35 -3.23 1.93 255 255 255
-7.50 -3.22 1.39 255 255 255
-7.20 -3.19 1.42 255 255 255
-7.50 -3.23 1.80 255 255 255
-24.42 20.57 1.02 255 255 255
-7.35 -3.22 1.73 255 255 255
-7.64 -3.24 1.37 255 255 255
-7.36 -3.21 1.40 255 255 255
-7.50 -3.23 1.67 255 255 255
-7.21 -3.19 1.65 255 255 255
-7.50 -3.23 1.32 255 255 255
-7.21 -3.18 1.36 255 255 255
-7.50 -3.24 1.57 255 255 255
-7.64 -3.25 1.31 255 255 255
-7.37 -3.21 1.61 255 255 255
-7.64 -3.25 1.55 255 255 255
-7.35 -3.22 1.34 255 255 255
-7.50 -3.23 1.23 255 255 255
-7.21 -3.19 1.55 255 255 255
-7.50 -3.23 1.51 255 255 255
-7.35 -3.21 1.28 255 255 255
-7.36 -3.21 1.53 255 255 255
-7.51 -3.22 1.06 255 255 255
-22.81 16.50 1.22 255 255 255
-7.36 -3.20 1.17 255 255 255
-7.65 -3.24 1.49 255 255 255
-11.54 2.64 0.30 255 255 255
-7.21 -3.19 1.49 255 255 255
-7.50 -3.21 0.68 255 255 255
-7.37 -3.18 0.90 255 255 255
-7.51 -3.23 1.45 255 255 255
-26.49 29.44 1.31 255 255 255
-22.82 16.53 1.74 255 255 255
-28.33 29.15 1.49 255 255 255
-26.47 29.44 2.13 255 255 255
-22.82 16.54 2.26 255 255 255
-28.30 29.11 2.33 255 255 255
-24.33 20.59 0.41 255 255 255
-7.65 -3.25 1.43 255 255 255
-7.51 -3.25 2.13 255 255 255
-7.37 -3.20 1.47 255 255 255
-7.36 -3.23 1.93 255 255 255
-7.51 -3.23 1.39 255 255 255
-7.21 -3.19 1.42 255 255 255
-7.52 -3.23 1.80 255 255 255
-7.66 -3.24 1.37 255 255 255
-7.36 -3.22 1.73 255 255 255
-7.51 -3.23 1.67 255 255 255
-7.37 -3.21 1.40 255 255 255
-7.22 -3.19 1.65 255 255 255
-7.51 -3.23 1.32 255 255 255
-7.22 -3.18 1.36 255 255 255
-7.51 -3.24 1.57 255 255 255
-7.65 -3.24 1.31 255 255 255
-7.37 -3.21 1.61 255 255 255
-7.65 -3.25 1.55 255 255 255
-7.36 -3.22 1.34 255 255 255
-7.22 -3.19 1.55 255 255 255
-7.51 -3.22 1.23 255 255 255
-7.36 -3.22 1.28 255 255 255
-7.51 -3.24 1.51 255 255 255
-7.37 -3.21 1.53 255 255 255
-7.51 -3.22 1.06 255 255 255
-22.77 16.57 1.22 255 255 255
-7.37 -3.21 1.17 255 255 255
-7.65 -3.25 1.49 255 255 255
-7.23 -3.18 1.49 255 255 255
-7.51 -3.21 0.68 255 255 255
-7.51 -3.23 1.45 255 255 255
-7.38 -3.18 0.90 255 255 255
-26.35 29.43 1.32 255 255 255
-32.16 28.53 1.88 255 255 255
-28.19 29.17 1.50 255 255 255
-30.15 28.88 2.53 255 255 255
-26.34 29.42 2.13 255 255 255
-25.34 19.87 2.40 255 255 255
-28.17 29.13 2.33 255 255 255
-24.36 20.79 0.40 255 255 255
-7.66 -3.25 1.43 255 255 255
-7.39 -3.20 1.47 255 255 255
-7.52 -3.25 2.13 255 255 255
-7.53 -3.22 1.39 255 255 255
-7.37 -3.24 1.93 255 255 255
-7.22 -3.20 1.42 255 255 255
-7.52 -3.24 1.80 255 255 255
-24.31 20.74 1.02 255 255 255
-7.38 -3.22 1.73 255 255 255
-7.67 -3.24 1.37 255 255 255
-7.53 -3.23 1.67 255 255 255
-7.38 -3.21 1.40 255 255 255
-7.52 -3.23 1.32 255 255 255
-7.23 -3.19 1.65 255 255 255
-7.52 -3.24 1.57 255 255 255
-7.23 -3.19 1.36 255 255 255
-7.66 -3.24 1.31 255 255 255
-7.38 -3.21 1.61 255 255 255
-7.66 -3.25 1.55 255 255 255
-7.37 -3.23 1.34 255 255 255
-7.53 -3.22 1.23 255 255 255
-7.23 -3.19 1.55 255 255 255
-7.37 -3.22 1.28 255 255 255
-7.52 -3.23 1.51 255 255 255
-7.38 -3.22 1.53 255 255 255
-7.52 -3.23 1.06 255 255 255
-7.37 -3.22 1.17 255 255 255
-7.66 -3.25 1.49 255 255 255
-7.24 -3.18 1.49 255 255 255
-7.53 -3.21 0.68 255 255 255
-24.58 21.17 1.65 255 255 255
-7.39 -3.19 0.90 255 255 255
-7.53 -3.23 1.45 255 255 255
-26.23 29.48 1.32 255 255 255
-32.04 28.58 1.88 255 255 255
-28.07 29.18 1.50 255 255 255
-30.01 28.90 2.53 255 255 255
-26.21 29.44 2.13 255 255 255
-25.31 19.97 2.40 255 255 255
-28.05 29.18 2.33 255 255 255
-24.29 20.85 0.40 255 255 255
-7.67 -3.25 1.43 255 255 255
-7.40 -3.20 1.47 255 255 255
-7.53 -3.26 2.13 255 255 255
-25.50 20.29 0.53 255 255 255
-7.38 -3.24 1.93 255 255 255
-7.53 -3.22 1.39 255 255 255
-7.23 -3.20 1.42 255 255 255
-7.53 -3.24 1.80 255 255 255
-24.31 20.89 1.02 255 255 255
-7.39 -3.22 1.73 255 255 255
-7.67 -3.24 1.37 255 255 255
-7.39 -3.21 1.40 255 255 255
-7.53 -3.24 1.67 255 255 255
-7.53 -3.22 1.32 255 255 255
-7.25 -3.19 1.65 255 255 255
-7.24 -3.18 1.36 255 255 255
-7.53 -3.25 1.57 255 255 255
-7.39 -3.21 1.61 255 255 255
-7.67 -3.25 1.31 255 255 255
-7.37 -3.23 1.34 255 255 255
-7.67 -3.26 1.55 255 255 255
-7.24 -3.20 1.55 255 255 255
-7.54 -3.22 1.23 255 255 255
-7.53 -3.24 1.51 255 255 255
-7.38 -3.22 1.28 255 255 255
-7.53 -3.23 1.06 255 255 255
-7.39 -3.22 1.53 255 255 255
-7.39 -3.21 1.17 255 255 255
-7.68 -3.25 1.49 255 255 255
-7.24 -3.19 1.49 255 255 255
-7.54 -3.21 0.69 255 255 255
-24.64 21.43 1.65 255 255 255
-7.40 -3.19 0.90 255 255 255
-7.53 -3.24 1.45 255 255 255
-26.09 29.50 1.32 255 255 255
-31.88 28.60 1.88 255 255 255
-27.92 29.20 1.50 255 255 255
-29.87 28.92 2.54 255 255 255
-26.07 29.46 2.13 255 255 255
-14.75 6.51 0.96 255 255 255
-27.91 29.20 2.33 255 255 255
-24.32 21.06 0.39 255 255 255
-7.68 -3.25 1.43 255 255 255
-7.41 -3.20 1.46 255 255 255
-7.54 -3.26 2.13 255 255 255
-7.55 -3.23 1.39 255 255 255
-7.39 -3.24 1.93 255 255 255
-7.24 -3.20 1.42 255 255 255
-7.54 -3.24 1.79 255 255 255
-7.40 -3.22 1.73 255 255 255
-7.68 -3.24 1.37 255 255 255
-7.39 -3.22 1.40 255 255 255
-7.54 -3.24 1.67 255 255 255
-7.25 -3.19 1.65 255 255 255
-7.54 -3.23 1.32 255 255 255
-7.25 -3.19 1.36 255 255 255
-7.54 -3.25 1.57 255 255 255
-7.40 -3.22 1.61 255 255 255
-7.68 -3.25 1.31 255 255 255
-7.38 -3.24 1.34 255 255 255
-7.68 -3.26 1.55 255 255 255
-7.25 -3.20 1.55 255 255 255
-7.55 -3.22 1.23 255 255 255
-7.39 -3.22 1.28 255 255 255
-7.54 -3.24 1.51 255 255 255
-7.40 -3.22 1.53 255 255 255
-7.54 -3.22 1.06 255 255 255
-14.74 6.52 1.40 255 255 255
-7.40 -3.22 1.17 255 255 255
-7.69 -3.25 1.49 255 255 255
-7.26 -3.19 1.49 255 255 255
-7.54 -3.22 0.69 255 255 255
-29.72 28.91 1.69 255 255 255
-7.41 -3.19 0.90 255 255 255
-7.55 -3.23 1.45 255 255 255
-25.96 29.49 1.32 255 255 255
-31.75 28.65 1.88 255 255 255
-27.79 29.22 1.50 255 255 255
-29.73 28.94 2.54 255 255 255
-25.94 29.48 2.14 255 255 255
-27.77 29.22 2.33 255 255 255
-14.70 6.51 0.96 255 255 255
-24.29 21.19 0.39 255 255 255
-7.68 -3.26 1.43 255 255 255
-7.42 -3.20 1.46 255 255 255
-7.55 -3.26 2.12 255 255 255
-14.70 6.50 1.18 255 255 255
-7.40 -3.24 1.93 255 255 255
-7.55 -3.23 1.39 255 255 255
-7.55 -3.24 1.79 255 255 255
-7.25 -3.20 1.42 255 255 255
-7.41 -3.23 1.73 255 255 255
-7.69 -3.25 1.37 255 255 255
-7.41 -3.22 1.40 255 255 255
-7.55 -3.25 1.67 255 255 255
-7.26 -3.20 1.65 255 255 255
-7.55 -3.23 1.32 255 255 255
-7.26 -3.19 1.36 255 255 255
-7.54 -3.25 1.57 255 255 255
-7.42 -3.21 1.61 255 255 255
-7.69 -3.25 1.31 255 255 255
-7.39 -3.24 1.34 255 255 255
-7.69 -3.26 1.55 255 255 255
-7.26 -3.20 1.55 255 255 255
-7.55 -3.23 1.23 255 255 255
-7.40 -3.22 1.28 255 255 255
-7.55 -3.24 1.51 255 255 255
-7.41 -3.22 1.53 255 255 255
-7.55 -3.23 1.06 255 255 255
-7.69 -3.25 1.49 255 255 255
-7.41 -3.21 1.17 255 255 255
-7.55 -3.22 0.69 255 255 255
-7.27 -3.19 1.48 255 255 255
-29.61 28.96 1.69 255 255 255
-7.42 -3.19 0.90 255 255 255
-7.55 -3.24 1.45 255 255 255
-25.85 29.53 1.32 255 255 255
-14.67 6.50 1.62 255 255 255
-27.66 29.24 1.50 255 255 255
-29.59 28.96 2.54 255 255 255
-25.82 29.50 2.14 255 255 255
-14.67 6.52 0.96 255 255 255
-27.63 29.20 2.33 255 255 255
-24.38 21.48 0.38 255 255 255
-7.70 -3.25 1.43 255 255 255
-7.43 -3.20 1.46 255 255 255
-7.56 -3.26 2.12 255 255 255
-14.67 6.52 1.18 255 255 255
-7.41 -3.24 1.93 255 255 255
-7.56 -3.23 1.39 255 255 255
-7.26 -3.20 1.42 255 255 255
-7.56 -3.25 1.79 255 255 255
-24.33 21.42 1.02 255 255 255
-7.70 -3.24 1.37 255 255 255
-7.42 -3.23 1.73 255 255 255
-7.56 -3.24 1.67 255 255 255
-7.41 -3.22 1.40 255 255 255
-7.56 -3.24 1.32 255 255 255
-7.27 -3.20 1.64 255 255 255
-7.56 -3.25 1.57 255 255 255
-7.27 -3.19 1.36 255 255 255
-7.42 -3.22 1.61 255 255 255
-7.70 -3.25 1.31 255 255 255
-7.40 -3.24 1.34 255 255 255
-7.70 -3.26 1.55 255 255 255
-7.27 -3.20 1.55 255 255 255
-7.57 -3.23 1.23 255 255 255
-7.41 -3.23 1.28 255 255 255
-7.56 -3.24 1.51 255 255 255
-7.42 -3.23 1.53 255 255 255
-7.56 -3.23 1.06 255 255 255
-14.65 6.51 1.40 255 255 255
-7.42 -3.22 1.17 255 255 255
-7.70 -3.25 1.49 255 255 255
-7.57 -3.21 0.69 255 255 255
-7.28 -3.18 1.48 255 255 255
-29.46 28.98 1.69 255 255 255
-7.57 -3.24 1.45 255 255 255
-7.43 -3.19 0.90 255 255 255
-25.71 29.55 1.33 255 255 255
-14.63 6.49 1.62 255 255 255
-27.53 29.26 1.50 255 255 255
-29.45 28.98 2.53 255 255 255
-25.69 29.52 2.14 255 255 255
-14.62 6.49 1.84 255 255 255
-14.65 6.55 0.96 255 255 255
-27.51 29.25 2.33 255 255 255
-7.71 -3.25 1.43 255 255 255
-7.56 -3.26 2.12 255 255 255
-7.44 -3.20 1.46 255 255 255
-14.65 6.55 1.18 255 255 255
-7.57 -3.23 1.38 255 255 255
-7.42 -3.25 1.93 255 255 255
-7.57 -3.25 1.79 255 255 255
-7.27 -3.20 1.42 255 255 255
-7.71 -3.25 1.37 255 255 255
-7.43 -3.23 1.73 255 255 255
-7.43 -3.22 1.40 255 255 255
-7.57 -3.24 1.67 255 255 255
-7.28 -3.20 1.64 255 255 255
-7.57 -3.24 1.32 255 255 255
-7.28 -3.19 1.36 255 255 255
-7.56 -3.25 1.57 255 255 255
-7.43 -3.22 1.60 255 255 255
-7.71 -3.25 1.31 255 255 255
-7.42 -3.23 1.34 255 255 255
-7.71 -3.26 1.55 255 255 255
-7.58 -3.23 1.23 255 255 255
-7.28 -3.20 1.55 255 255 255
-7.57 -3.24 1.51 255 255 255
-7.42 -3.23 1.28 255 255 255
-7.57 -3.23 1.07 255 255 255
-7.43 -3.23 1.53 255 255 255
-14.62 6.53 1.40 255 255 255
-7.43 -3.22 1.17 255 255 255
-7.71 -3.25 1.49 255 255 255
-7.57 -3.21 0.69 255 255 255
-7.30 -3.18 1.48 255 255 255
-29.33 29.00 1.69 255 255 255
-7.57 -3.24 1.45 255 255 255
-7.44 -3.20 0.90 255 255 255
-25.57 29.54 1.33 255 255 255
-14.61 6.52 1.62 255 255 255
-27.39 29.28 1.51 255 255 255
-29.31 29.00 2.54 255 255 255
-25.56 29.53 2.14 255 255 255
-14.59 6.50 1.84 255 255 255
-27.36 29.24 2.33 255 255 255
-14.62 6.56 0.96 255 255 255
-7.72 -3.25 1.43 255 255 255
-7.45 -3.20 1.46 255 255 255
-7.58 -3.26 2.12 255 255 255
-14.62 6.56 1.18 255 255 255
-7.43 -3.25 1.93 255 255 255
-7.58 -3.23 1.38 255 255 255
-7.28 -3.21 1.42 255 255 255
-7.58 -3.25 1.79 255 255 255
-7.43 -3.24 1.73 255 255 255
-7.71 -3.25 1.37 255 255 255
-7.58 -3.25 1.67 255 255 255
-7.44 -3.22 1.40 255 255 255
-7.58 -3.23 1.32 255 255 255
-7.30 -3.20 1.64 255 255 255
-7.29 -3.20 1.36 255 255 255
-7.58 -3.25 1.57 255 255 255
-7.44 -3.22 1.60 255 255 255
-7.71 -3.26 1.31 255 255 255
-7.42 -3.24 1.34 255 255 255
-7.72 -3.26 1.55 255 255 255
-7.29 -3.20 1.55 255 255 255
-7.58 -3.23 1.23 255 255 255
-7.58 -3.25 1.51 255 255 255
-7.43 -3.23 1.28 255 255 255
-7.44 -3.23 1.53 255 255 255
-7.58 -3.23 1.07 255 255 255
-14.59 6.54 1.41 255 255 255
-7.44 -3.22 1.17 255 255 255
-7.72 -3.25 1.49 255 255 255
-7.30 -3.19 1.48 255 255 255
-7.58 -3.22 0.69 255 255 255
-29.17 29.02 1.69 255 255 255
-7.44 -3.20 0.90 255 255 255
-7.58 -3.24 1.45 255 255 255
-25.44 29.56 1.33 255 255 255
-14.58 6.54 1.63 255 255 255
-27.25 29.30 1.51 255 255 255
-29.16 29.02 2.54 255 255 255
-25.42 29.55 2.14 255 255 255
-14.57 6.53 1.84 255 255 255
-14.59 6.58 0.96 255 255 255
-27.24 29.29 2.33 255 255 255
-7.72 -3.26 1.43 255 255 255
-7.46 -3.20 1.46 255 255 255
-7.59 -3.25 2.12 255 255 255
-14.59 6.59 1.19 255 255 255
-7.44 -3.24 1.92 255 255 255
-7.59 -3.23 1.38 255 255 255
-20.77 21.01 0.81 255 255 255
-7.29 -3.21 1.42 255 255 255
-7.59 -3.25 1.79 255 255 255
-29.11 29.07 0.85 255 255 255
-7.44 -3.24 1.73 255 255 255
-7.72 -3.25 1.37 255 255 255
-7.59 -3.24 1.66 255 255 255
-7.45 -3.22 1.40 255 255 255
-7.59 -3.24 1.32 255 255 255
-7.31 -3.20 1.64 255 255 255
-7.59 -3.24 1.57 255 255 255
-7.30 -3.20 1.36 255 255 255
-7.72 -3.26 1.31 255 255 255
-7.45 -3.22 1.60 255 255 255
-7.73 -3.26 1.55 255 255 255
-7.43 -3.25 1.34 255 255 255
-7.59 -3.23 1.23 255 255 255
-7.30 -3.20 1.55 255 255 255
-7.59 -3.24 1.51 255 255 255
-7.44 -3.23 1.28 255 255 255
-7.45 -3.23 1.53 255 255 255
-7.59 -3.23 1.07 255 255 255
-14.57 6.57 1.41 255 255 255
-7.44 -3.23 1.17 255 255 255
-7.73 -3.26 1.49 255 255 255
-7.31 -3.20 1.48 255 255 255
-7.59 -3.22 0.69 255 255 255
-29.04 29.04 1.69 255 255 255
-7.59 -3.24 1.45 255 255 255
