ply
format ascii 1.0
element vertex 1651
property float x
property float y
property float z
property uchar red
property uchar green
property uchar blue
end_header
-8.01 -3.31 1.72 255 255 255
-8.28 18.57 1.63 255 255 255
-8.13 -3.32 1.44 255 255 255
-7.90 -3.30 2.17 255 255 255
-11.62 31.49 2.12 255 255 255
-8.02 -3.32 1.97 255 255 255
-7.90 -3.29 1.47 255 255 255
-6.82 32.20 1.60 255 255 255
-8.26 18.57 1.17 255 255 255
-10.64 22.86 1.37 255 255 255
-7.14 22.98 0.99 255 255 255
-10.00 31.69 1.19 255 255 255
-8.26 18.51 2.53 255 255 255
-8.06 2.44 1.04 255 255 255
-7.78 -3.27 1.48 255 255 255
-7.90 -3.25 0.86 255 255 255
-8.02 -3.30 1.45 255 255 255
-8.01 -3.28 1.04 255 255 255
-7.90 -3.29 1.52 255 255 255
-8.20 2.05 0.91 255 255 255
-8.25 18.54 2.08 255 255 255
-8.14 -3.32 1.49 255 255 255
-7.90 -3.27 1.15 255 255 255
-8.01 -3.29 1.22 255 255 255
-7.78 -3.26 1.54 255 255 255
-8.02 -3.31 1.51 255 255 255
-7.90 -3.27 1.27 255 255 255
-7.90 -3.30 1.58 255 255 255
-8.14 -3.33 1.29 255 255 255
-7.90 -3.29 1.36 255 255 255
-8.14 -3.32 1.55 255 255 255
-7.79 -3.27 1.59 255 255 255
-8.02 -3.31 1.32 255 255 255
-7.79 -3.26 1.37 255 255 255
-8.02 -3.32 1.57 255 255 255
-7.90 -3.30 1.66 255 255 255
-8.14 -3.31 1.38 255 255 255
-7.90 -3.30 1.41 255 255 255
-8.02 -3.32 1.62 255 255 255
-6.73 32.24 2.37 255 255 255
-7.91 -3.30 1.82 255 255 255
-8.02 -3.32 1.39 255 255 255
-7.79 -3.26 1.43 255 255 255
-8.02 -3.31 1.72 255 255 255
-8.21 18.55 1.63 255 255 255
-7.91 -3.30 2.17 255 255 255
-8.14 -3.32 1.44 255 255 255
-11.50 31.47 2.12 255 255 255
-7.90 -3.29 1.47 255 255 255
-8.03 -3.33 1.97 255 255 255
-6.70 32.22 1.60 255 255 255
-9.90 31.70 1.95 255 255 255
-8.19 18.55 1.17 255 255 255
-10.56 22.87 1.37 255 255 255
-7.05 22.94 0.99 255 255 255
-9.88 31.74 1.19 255 255 255
-8.19 18.52 2.53 255 255 255
-8.05 2.45 1.04 255 255 255
-7.79 -3.27 1.48 255 255 255
-8.02 -3.30 1.45 255 255 255
-7.90 -3.25 0.86 255 255 255
-8.05 3.46 0.30 255 255 255
-8.02 -3.29 1.04 255 255 255
-7.91 -3.30 1.52 255 255 255
-8.17 18.53 2.08 255 255 255
-8.19 2.07 0.90 255 255 255
-7.91 -3.27 1.15 255 255 255
-8.15 -3.32 1.49 255 255 255
-7.79 -3.26 1.54 255 255 255
-8.02 -3.30 1.21 255 255 255
-7.91 -3.27 1.27 255 255 255
-8.03 -3.31 1.51 255 255 255
-8.14 -3.33 1.29 255 255 255
-7.91 -3.30 1.58 255 255 255
-8.15 -3.31 1.55 255 255 255
-7.91 -3.29 1.36 255 255 255
-8.03 -3.32 1.32 255 255 255
-7.79 -3.27 1.59 255 255 255
-8.03 -3.31 1.57 255 255 255
-7.79 -3.26 1.37 255 255 255
-8.15 -3.31 1.38 255 255 255
-7.91 -3.30 1.66 255 255 255
-8.03 -3.32 1.62 255 255 255
-7.91 -3.29 1.41 255 255 255
-6.62 32.26 2.37 255 255 255
-8.03 -3.32 1.39 255 255 255
-7.91 -3.30 1.82 255 255 255
-8.03 -3.32 1.72 255 255 255
-7.79 -3.26 1.43 255 255 255
-8.14 18.55 1.63 255 255 255
-8.15 -3.33 1.44 255 255 255
-7.92 -3.30 2.17 255 255 255
-11.39 31.52 2.12 255 255 255
-7.91 -3.29 1.47 255 255 255
-8.03 -3.32 1.97 255 255 255
-6.59 32.24 1.60 255 255 255
-9.80 31.71 1.95 255 255 255
-8.12 18.56 1.17 255 255 255
-10.48 22.90 1.37 255 255 255
-6.98 22.95 0.99 255 255 255
-9.77 31.76 1.19 255 255 255
-8.13 18.55 2.53 255 255 255
-8.04 2.45 1.04 255 255 255
-7.80 -3.27 1.48 255 255 255
-8.03 -3.30 1.45 255 255 255
-7.91 -3.24 0.86 255 255 255
-8.04 3.45 0.30 255 255 255
-8.03 -3.29 1.04 255 255 255
-7.92 -3.29 1.52 255 255 255
-8.18 2.06 0.90 255 255 255
-8.11 18.55 2.08 255 255 255
-7.91 -3.28 1.15 255 255 255
-8.15 -3.33 1.49 255 255 255
-8.03 -3.30 1.21 255 255 255
-7.80 -3.27 1.54 255 255 255
-7.92 -3.28 1.27 255 255 255
-8.03 -3.31 1.51 255 255 255
-7.92 -3.30 1.58 255 255 255
-8.15 -3.32 1.29 255 255 255
-7.92 -3.29 1.36 255 255 255
-8.15 -3.32 1.55 255 255 255
-8.03 -3.32 1.32 255 255 255
-7.80 -3.27 1.60 255 255 255
-7.80 -3.26 1.37 255 255 255
-8.04 -3.32 1.57 255 255 255
-8.15 -3.31 1.38 255 255 255
-7.92 -3.29 1.66 255 255 255
-8.04 -3.32 1.62 255 255 255
-7.92 -3.29 1.41 255 255 255
-6.50 32.27 2.38 255 255 255
-8.04 -3.31 1.40 255 255 255
-7.92 -3.30 1.82 255 255 255
-8.04 -3.32 1.72 255 255 255
-7.80 -3.27 1.43 255 255 255
-8.08 18.60 1.63 255 255 255
-8.16 -3.33 1.44 255 255 255
-7.92 -3.31 2.17 255 255 255
-11.28 31.54 2.12 255 255 255
-7.92 -3.29 1.47 255 255 255
-8.04 -3.33 1.97 255 255 255
-6.47 32.25 1.60 255 255 255
-9.68 31.73 1.95 255 255 255
-8.06 18.60 1.17 255 255 255
-10.40 22.92 1.37 255 255 255
-6.89 22.90 0.99 255 255 255
-9.66 31.77 1.19 255 255 255
-8.03 2.46 1.04 255 255 255
-7.81 -3.27 1.48 255 255 255
-7.92 -3.25 0.86 255 255 255
-8.04 -3.30 1.45 255 255 255
-8.02 3.47 0.30 255 255 255
-7.92 -3.29 1.52 255 255 255
-8.04 -3.29 1.04 255 255 255
-8.17 2.05 0.91 255 255 255
-8.05 32.02 2.54 255 255 255
-7.92 -3.28 1.15 255 255 255
-8.16 -3.33 1.49 255 255 255
-8.04 -3.31 1.21 255 255 255
-7.81 -3.27 1.54 255 255 255
-7.92 -3.27 1.27 255 255 255
-8.04 -3.31 1.51 255 255 255
-8.16 -3.33 1.29 255 255 255
-7.93 -3.30 1.58 255 255 255
-7.92 -3.29 1.36 255 255 255
-8.16 -3.32 1.55 255 255 255
-8.04 -3.32 1.32 255 255 255
-7.81 -3.27 1.60 255 255 255
-7.81 -3.26 1.37 255 255 255
-8.04 -3.32 1.56 255 255 255
-8.16 -3.31 1.38 255 255 255
-7.93 -3.30 1.66 255 255 255
-8.05 -3.32 1.62 255 255 255
-7.93 -3.29 1.41 255 255 255
-6.38 32.29 2.38 255 255 255
-8.04 -3.31 1.40 255 255 255
-7.93 -3.30 1.82 255 255 255
-8.05 -3.32 1.72 255 255 255
-7.81 -3.27 1.43 255 255 255
-7.99 32.01 1.78 255 255 255
-7.93 -3.31 2.17 255 255 255
-8.16 -3.32 1.44 255 255 255
-11.17 31.55 2.12 255 255 255
-7.93 -3.30 1.47 255 255 255
-8.05 -3.33 1.97 255 255 255
-6.35 32.27 1.60 255 255 255
-9.57 31.75 1.95 255 255 255
-7.96 32.02 1.01 255 255 255
-10.31 22.94 1.38 255 255 255
-6.82 22.80 1.00 255 255 255
-9.55 31.76 1.19 255 255 255
-8.02 2.46 1.04 255 255 255
-7.81 -3.28 1.48 255 255 255
-7.93 -3.25 0.86 255 255 255
-8.05 -3.30 1.45 255 255 255
-8.01 3.46 0.30 255 255 255
-7.93 -3.29 1.52 255 255 255
-8.05 -3.30 1.04 255 255 255
-8.16 2.06 0.91 255 255 255
-7.93 32.04 2.55 255 255 255
-7.93 -3.27 1.15 255 255 255
-8.17 -3.33 1.49 255 255 255
-7.82 -3.27 1.54 255 255 255
-8.05 -3.30 1.21 255 255 255
-7.93 -3.28 1.27 255 255 255
-8.05 -3.32 1.51 255 255 255
-8.17 -3.33 1.29 255 255 255
-7.93 -3.30 1.58 255 255 255
-7.93 -3.29 1.36 255 255 255
-8.17 -3.32 1.55 255 255 255
-7.82 -3.27 1.59 255 255 255
-8.05 -3.32 1.32 255 255 255
-7.82 -3.26 1.37 255 255 255
-8.05 -3.32 1.56 255 255 255
-7.94 -3.30 1.66 255 255 255
-8.17 -3.32 1.38 255 255 255
-7.93 -3.30 1.41 255 255 255
-8.05 -3.32 1.62 255 255 255
-6.26 32.31 2.38 255 255 255
-8.05 -3.33 1.39 255 255 255
-7.94 -3.31 1.82 255 255 255
-8.06 -3.32 1.72 255 255 255
-7.82 -3.26 1.43 255 255 255
-7.87 32.05 1.78 255 255 255
-7.94 -3.31 2.17 255 255 255
-8.17 -3.33 1.44 255 255 255
-11.05 31.54 2.12 255 255 255
-7.94 -3.30 1.47 255 255 255
-8.06 -3.33 1.97 255 255 255
-6.24 32.32 1.61 255 255 255
-9.46 31.76 1.95 255 255 255
-7.85 32.03 1.01 255 255 255
-10.24 22.98 1.38 255 255 255
-6.73 22.91 1.00 255 255 255
-9.43 31.77 1.19 255 255 255
-8.01 2.48 1.04 255 255 255
-7.82 -3.27 1.48 255 255 255
-8.06 -3.31 1.45 255 255 255
-7.93 -3.26 0.86 255 255 255
-7.99 3.47 0.30 255 255 255
-8.05 -3.30 1.04 255 255 255
-7.94 -3.30 1.52 255 255 255
-7.82 32.05 2.55 255 255 255
-8.15 2.06 0.91 255 255 255
-7.94 -3.28 1.15 255 255 255
-8.18 -3.32 1.49 255 255 255
-8.06 -3.29 1.22 255 255 255
-7.82 -3.27 1.54 255 255 255
-7.94 -3.27 1.27 255 255 255
-8.06 -3.31 1.51 255 255 255
-7.94 -3.31 1.58 255 255 255
-8.18 -3.33 1.29 255 255 255
-7.94 -3.29 1.36 255 255 255
-8.18 -3.32 1.55 255 255 255
-7.83 -3.28 1.59 255 255 255
-8.06 -3.32 1.32 255 255 255
-8.06 -3.31 1.56 255 255 255
-7.83 -3.26 1.37 255 255 255
-7.94 -3.30 1.66 255 255 255
-8.18 -3.32 1.38 255 255 255
-8.06 -3.33 1.62 255 255 255
-7.94 -3.30 1.41 255 255 255
-6.14 32.32 2.38 255 255 255
-8.06 -3.31 1.39 255 255 255
-7.95 -3.31 1.82 255 255 255
-8.06 -3.32 1.72 255 255 255
-7.83 -3.27 1.43 255 255 255
-7.75 32.07 1.78 255 255 255
-8.18 -3.33 1.44 255 255 255
-7.95 -3.31 2.17 255 255 255
-10.93 31.55 2.12 255 255 255
-7.94 -3.29 1.47 255 255 255
-8.07 -3.33 1.97 255 255 255
-9.34 31.78 1.95 255 255 255
-7.72 32.05 1.01 255 255 255
-10.15 23.01 1.38 255 255 255
-6.63 23.05 0.99 255 255 255
-9.31 31.79 1.19 255 255 255
-7.99 2.48 1.03 255 255 255
-7.83 -3.27 1.48 255 255 255
-8.07 -3.30 1.45 255 255 255
-7.94 -3.26 0.86 255 255 255
-7.97 3.46 0.30 255 255 255
-8.06 -3.29 1.04 255 255 255
-7.95 -3.29 1.52 255 255 255
-8.14 2.08 0.90 255 255 255
-7.70 32.07 2.55 255 255 255
-7.95 -3.28 1.15 255 255 255
-8.19 -3.33 1.49 255 255 255
-8.06 -3.30 1.21 255 255 255
-7.83 -3.26 1.54 255 255 255
-8.07 -3.31 1.51 255 255 255
-7.95 -3.28 1.27 255 255 255
-8.19 -3.34 1.29 255 255 255
-7.95 -3.31 1.58 255 255 255
-8.19 -3.33 1.55 255 255 255
-7.95 -3.30 1.35 255 255 255
-8.07 -3.32 1.32 255 255 255
-7.83 -3.28 1.59 255 255 255
-8.07 -3.32 1.56 255 255 255
-7.83 -3.26 1.37 255 255 255
-8.19 -3.31 1.38 255 255 255
-7.95 -3.29 1.66 255 255 255
-8.07 -3.32 1.62 255 255 255
-7.95 -3.30 1.41 255 255 255
-6.02 32.34 2.38 255 255 255
-8.07 -3.33 1.39 255 255 255
-7.95 -3.31 1.82 255 255 255
-7.84 -3.26 1.43 255 255 255
-8.07 -3.32 1.72 255 255 255
-7.63 32.09 1.78 255 255 255
-7.96 -3.31 2.17 255 255 255
-8.19 -3.33 1.44 255 255 255
-10.82 31.60 2.13 255 255 255
-7.95 -3.30 1.47 255 255 255
-8.07 -3.33 1.97 255 255 255
-6.53 23.60 1.56 255 255 255
-9.22 31.80 1.95 255 255 255
-7.72 23.73 1.12 255 255 255
-10.79 31.58 1.37 255 255 255
-6.55 23.02 1.00 255 255 255
-9.20 31.81 1.19 255 255 255
-7.98 2.50 1.03 255 255 255
-7.84 -3.28 1.48 255 255 255
-8.07 -3.30 1.45 255 255 255
-7.95 -3.25 0.86 255 255 255
-7.96 3.47 0.30 255 255 255
-7.96 -3.29 1.52 255 255 255
-8.07 -3.30 1.04 255 255 255
-8.13 2.07 0.90 255 255 255
-7.58 32.09 2.55 255 255 255
-7.95 -3.28 1.15 255 255 255
-8.19 -3.33 1.49 255 255 255
-7.84 -3.27 1.54 255 255 255
-8.07 -3.31 1.21 255 255 255
-8.08 -3.32 1.51 255 255 255
-7.96 -3.28 1.27 255 255 255
-8.19 -3.33 1.29 255 255 255
-7.96 -3.31 1.58 255 255 255
-7.96 -3.30 1.35 255 255 255
-8.20 -3.33 1.55 255 255 255
-8.08 -3.32 1.32 255 255 255
-7.84 -3.27 1.59 255 255 255
-8.08 -3.32 1.56 255 255 255
-7.84 -3.26 1.37 255 255 255
-8.20 -3.31 1.38 255 255 255
-7.96 -3.31 1.66 255 255 255
-8.08 -3.33 1.62 255 255 255
-7.96 -3.29 1.41 255 255 255
-5.91 32.36 2.38 255 255 255
-8.08 -3.33 1.39 255 255 255
-7.96 -3.31 1.82 255 255 255
-8.08 -3.32 1.72 255 255 255
-7.84 -3.27 1.43 255 255 255
-7.52 32.10 1.78 255 255 255
-8.20 -3.33 1.44 255 255 255
-7.97 -3.31 2.17 255 255 255
-10.71 31.62 2.13 255 255 255
-8.08 -3.33 1.97 255 255 255
-7.96 -3.30 1.47 255 255 255
-6.45 23.50 1.56 255 255 255
-9.11 31.81 1.96 255 255 255
-7.63 23.57 1.12 255 255 255
-6.46 23.04 1.00 255 255 255
-9.09 31.85 1.19 255 255 255
-7.97 2.51 1.03 255 255 255
-7.85 -3.28 1.48 255 255 255
-7.96 -3.26 0.86 255 255 255
-8.08 -3.31 1.45 255 255 255
-7.94 3.46 0.30 255 255 255
-7.96 -3.30 1.52 255 255 255
-8.08 -3.30 1.04 255 255 255
-8.12 2.09 0.90 255 255 255
-7.47 32.13 2.55 255 255 255
-7.96 -3.28 1.15 255 255 255
-8.20 -3.33 1.49 255 255 255
-7.85 -3.28 1.54 255 255 255
-8.08 -3.31 1.21 255 255 255
-8.08 -3.32 1.51 255 255 255
-7.96 -3.28 1.27 255 255 255
-8.20 -3.33 1.29 255 255 255
-7.97 -3.31 1.58 255 255 255
-7.96 -3.30 1.35 255 255 255
-8.20 -3.32 1.55 255 255 255
-7.85 -3.28 1.59 255 255 255
-8.08 -3.32 1.32 255 255 255
-8.08 -3.33 1.56 255 255 255
-7.85 -3.27 1.37 255 255 255
-7.97 -3.29 1.66 255 255 255
-8.20 -3.32 1.38 255 255 255
-8.09 -3.32 1.62 255 255 255
-7.97 -3.30 1.41 255 255 255
-5.79 32.37 2.39 255 255 255
-7.97 -3.31 1.82 255 255 255
-8.08 -3.32 1.39 255 255 255
-7.85 -3.27 1.43 255 255 255
-8.09 -3.33 1.72 255 255 255
-7.41 32.12 1.79 255 255 255
-7.97 -3.32 2.17 255 255 255
-8.21 -3.34 1.43 255 255 255
-10.60 31.63 2.13 255 255 255
-8.09 -3.34 1.97 255 255 255
-7.97 -3.30 1.47 255 255 255
-6.38 23.33 1.56 255 255 255
-9.00 31.86 1.96 255 255 255
-7.55 23.47 1.12 255 255 255
-10.57 31.61 1.37 255 255 255
-6.38 23.02 1.00 255 255 255
-8.98 31.87 1.20 255 255 255
-7.96 2.51 1.03 255 255 255
-7.85 -3.29 1.48 255 255 255
-8.09 -3.31 1.45 255 255 255
-7.97 -3.26 0.86 255 255 255
-7.93 3.46 0.30 255 255 255
-8.09 -3.30 1.04 255 255 255
-7.97 -3.30 1.52 255 255 255
-8.11 2.08 0.90 255 255 255
-7.36 32.15 2.55 255 255 255
-7.97 -3.28 1.15 255 255 255
-8.21 -3.33 1.49 255 255 255
-8.09 -3.30 1.21 255 255 255
-7.86 -3.28 1.54 255 255 255
-8.09 -3.33 1.51 255 255 255
-7.97 -3.29 1.26 255 255 255
-8.21 -3.34 1.29 255 255 255
-7.97 -3.31 1.58 255 255 255
-8.21 -3.32 1.55 255 255 255
-7.97 -3.30 1.35 255 255 255
-8.09 -3.32 1.32 255 255 255
-7.86 -3.27 1.59 255 255 255
-7.86 -3.27 1.37 255 255 255
-8.09 -3.33 1.56 255 255 255
-8.21 -3.32 1.38 255 255 255
-7.98 -3.31 1.66 255 255 255
-8.10 -3.32 1.62 255 255 255
-7.97 -3.30 1.41 255 255 255
-5.68 32.39 2.39 255 255 255
-8.09 -3.32 1.39 255 255 255
-7.98 -3.31 1.82 255 255 255
-7.86 -3.27 1.43 255 255 255
-8.10 -3.32 1.72 255 255 255
-7.29 32.13 1.79 255 255 255
-8.21 -3.34 1.43 255 255 255
-7.98 -3.32 2.17 255 255 255
-10.48 31.62 2.13 255 255 255
-8.10 -3.34 1.97 255 255 255
-7.98 -3.31 1.47 255 255 255
-6.30 23.31 1.56 255 255 255
-8.89 31.88 1.96 255 255 255
-7.47 23.39 1.12 255 255 255
-10.46 31.63 1.37 255 255 255
-6.30 23.04 1.00 255 255 255
-8.86 31.89 1.20 255 255 255
-7.94 2.52 1.03 255 255 255
-7.86 -3.29 1.48 255 255 255
-7.97 -3.26 0.86 255 255 255
-8.10 -3.31 1.45 255 255 255
-7.91 3.47 0.30 255 255 255
-8.09 -3.30 1.04 255 255 255
-7.98 -3.31 1.52 255 255 255
-8.10 2.07 0.90 255 255 255
-7.24 32.17 2.56 255 255 255
-8.22 -3.34 1.49 255 255 255
-7.98 -3.28 1.15 255 255 255
-8.10 -3.30 1.21 255 255 255
-7.86 -3.27 1.54 255 255 255
-8.10 -3.33 1.51 255 255 255
-7.98 -3.28 1.26 255 255 255
-8.22 -3.34 1.29 255 255 255
-7.98 -3.32 1.58 255 255 255
-8.22 -3.33 1.55 255 255 255
-7.98 -3.30 1.35 255 255 255
-8.10 -3.33 1.32 255 255 255
-7.87 -3.27 1.59 255 255 255
-8.10 -3.32 1.56 255 255 255
-7.86 -3.27 1.37 255 255 255
-8.22 -3.32 1.38 255 255 255
-7.98 -3.31 1.66 255 255 255
-7.98 -3.31 1.41 255 255 255
-8.10 -3.33 1.62 255 255 255
-5.55 32.41 2.39 255 255 255
-8.10 -3.32 1.39 255 255 255
-7.99 -3.31 1.82 255 255 255
-8.10 -3.32 1.72 255 255 255
-7.87 -3.27 1.43 255 255 255
-7.18 32.15 1.79 255 255 255
-7.99 -3.32 2.17 255 255 255
-8.22 -3.33 1.44 255 255 255
-10.37 31.63 2.13 255 255 255
-7.98 -3.30 1.47 255 255 255
-8.11 -3.33 1.97 255 255 255
-6.21 23.31 1.56 255 255 255
-8.78 31.89 1.96 255 255 255
-7.38 23.37 1.12 255 255 255
-10.35 31.64 1.37 255 255 255
-6.21 23.05 1.00 255 255 255
-8.75 31.90 1.20 255 255 255
-7.93 2.54 1.03 255 255 255
-7.87 -3.28 1.48 255 255 255
-7.98 -3.26 0.86 255 255 255
-8.11 -3.30 1.45 255 255 255
-7.90 3.46 0.30 255 255 255
-7.99 -3.30 1.52 255 255 255
-8.10 -3.30 1.04 255 255 255
-8.09 2.09 0.90 255 255 255
-7.12 32.18 2.56 255 255 255
-7.99 -3.29 1.15 255 255 255
-8.23 -3.34 1.49 255 255 255
-7.87 -3.27 1.54 255 255 255
-8.10 -3.31 1.21 255 255 255
-7.99 -3.28 1.27 255 255 255
-8.11 -3.32 1.51 255 255 255
-7.99 -3.31 1.58 255 255 255
-8.23 -3.34 1.29 255 255 255
-7.99 -3.31 1.35 255 255 255
-8.23 -3.33 1.55 255 255 255
-7.87 -3.28 1.59 255 255 255
-8.11 -3.33 1.32 255 255 255
-7.87 -3.27 1.37 255 255 255
-8.11 -3.33 1.56 255 255 255
-8.23 -3.32 1.38 255 255 255
-7.99 -3.31 1.66 255 255 255
-7.99 -3.30 1.41 255 255 255
-8.11 -3.33 1.62 255 255 255
-5.44 32.42 2.39 255 255 255
-8.11 -3.34 1.39 255 255 255
-7.99 -3.32 1.82 255 255 255
-7.87 -3.28 1.43 255 255 255
-8.11 -3.33 1.72 255 255 255
-7.06 32.17 1.79 255 255 255
-8.23 -3.34 1.43 255 255 255
-8.00 -3.32 2.17 255 255 255
-10.26 31.65 2.13 255 255 255
-7.99 -3.30 1.47 255 255 255
-8.12 -3.33 1.97 255 255 255
-6.13 23.29 1.56 255 255 255
-8.66 31.91 1.96 255 255 255
-7.30 23.32 1.12 255 255 255
-10.23 31.66 1.37 255 255 255
-8.63 31.92 1.20 255 255 255
-8.46 23.39 0.69 255 255 255
-7.92 2.55 1.03 255 255 255
-7.88 -3.28 1.48 255 255 255
-7.99 -3.26 0.86 255 255 255
-8.11 -3.31 1.45 255 255 255
-7.88 3.47 0.30 255 255 255
-8.00 -3.30 1.52 255 255 255
-8.11 -3.30 1.04 255 255 255
-8.08 2.09 0.90 255 255 255
-7.01 32.20 2.56 255 255 255
-8.24 -3.34 1.49 255 255 255
-7.99 -3.29 1.15 255 255 255
-8.11 -3.30 1.21 255 255 255
-7.88 -3.27 1.54 255 255 255
-8.12 -3.33 1.51 255 255 255
-8.00 -3.28 1.26 255 255 255
-8.00 -3.31 1.58 255 255 255
-8.24 -3.33 1.29 255 255 255
-8.00 -3.30 1.35 255 255 255
-8.24 -3.33 1.55 255 255 255
-8.12 -3.33 1.32 255 255 255
-7.88 -3.28 1.59 255 255 255
-8.12 -3.32 1.56 255 255 255
-7.88 -3.27 1.37 255 255 255
-8.24 -3.32 1.38 255 255 255
-8.00 -3.30 1.66 255 255 255
-8.12 -3.33 1.62 255 255 255
-8.00 -3.30 1.41 255 255 255
-5.32 32.44 2.39 255 255 255
-8.12 -3.33 1.39 255 255 255
-8.00 -3.31 1.82 255 255 255
-7.88 -3.28 1.43 255 255 255
-8.12 -3.33 1.72 255 255 255
-6.94 32.18 1.79 255 255 255
-8.24 -3.34 1.43 255 255 255
-8.01 -3.33 2.18 255 255 255
-10.15 31.66 2.13 255 255 255
-8.12 -3.34 1.97 255 255 255
-8.00 -3.30 1.47 255 255 255
-8.54 31.92 1.96 255 255 255
-7.22 23.20 1.13 255 255 255
-10.12 31.68 1.37 255 255 255
-6.22 20.90 1.04 255 255 255
-8.52 31.94 1.20 255 255 255
-7.91 2.56 1.03 255 255 255
-7.89 -3.29 1.48 255 255 255
-6.21 20.96 2.57 255 255 255
-8.00 -3.26 0.86 255 255 255
-8.12 -3.31 1.45 255 255 255
-7.87 3.48 0.29 255 255 255
-8.12 -3.30 1.04 255 255 255
-8.00 -3.30 1.52 255 255 255
-8.07 2.09 0.90 255 255 255
-6.89 32.22 2.56 255 255 255
-8.00 -3.28 1.15 255 255 255
-8.24 -3.34 1.49 255 255 255
-7.89 -3.29 1.54 255 255 255
-8.12 -3.31 1.21 255 255 255
-8.00 -3.29 1.26 255 255 255
-8.12 -3.33 1.51 255 255 255
-8.01 -3.31 1.58 255 255 255
-8.24 -3.34 1.29 255 255 255
-8.00 -3.31 1.35 255 255 255
-8.24 -3.32 1.55 255 255 255
-8.12 -3.33 1.32 255 255 255
-7.89 -3.28 1.59 255 255 255
-7.89 -3.28 1.37 255 255 255
-8.13 -3.33 1.56 255 255 255
-8.24 -3.32 1.38 255 255 255
-8.01 -3.31 1.66 255 255 255
-8.13 -3.33 1.62 255 255 255
-8.01 -3.31 1.41 255 255 255
-6.17 20.93 2.06 255 255 255
-8.01 -3.31 1.82 255 255 255
-8.12 -3.33 1.39 255 255 255
-8.28 18.51 2.19 255 255 255
-7.89 -3.28 1.43 255 255 255
-8.13 -3.33 1.72 255 255 255
-6.83 32.20 1.79 255 255 255
-8.01 -3.33 2.18 255 255 255
-8.25 -3.34 1.43 255 255 255
-10.03 31.71 2.14 255 255 255
-8.13 -3.34 1.97 255 255 255
-8.01 -3.30 1.47 255 255 255
-6.16 20.89 1.54 255 255 255
-8.26 18.58 1.74 255 255 255
-7.13 23.10 1.13 255 255 255
-10.00 31.69 1.38 255 255 255
-6.14 20.86 1.04 255 255 255
-8.25 18.62 1.29 255 255 255
-7.89 2.58 1.03 255 255 255
-7.89 -3.29 1.48 255 255 255
-6.14 20.93 2.57 255 255 255
-8.13 -3.31 1.45 255 255 255
-8.01 -3.26 0.86 255 255 255
-7.85 3.48 0.29 255 255 255
-8.13 -3.30 1.04 255 255 255
-8.01 -3.31 1.52 255 255 255
-8.05 2.10 0.90 255 255 255
-6.77 32.23 2.57 255 255 255
-8.25 -3.34 1.49 255 255 255
-8.01 -3.28 1.15 255 255 255
-8.13 -3.31 1.21 255 255 255
-7.90 -3.28 1.54 255 255 255
-8.13 -3.34 1.51 255 255 255
-8.01 -3.29 1.26 255 255 255
-8.25 -3.34 1.29 255 255 255
-8.01 -3.31 1.58 255 255 255
-8.01 -3.31 1.35 255 255 255
-8.25 -3.34 1.55 255 255 255
-8.13 -3.32 1.32 255 255 255
-7.90 -3.28 1.59 255 255 255
-8.13 -3.33 1.56 255 255 255
-7.90 -3.28 1.37 255 255 255
-8.25 -3.32 1.38 255 255 255
-8.02 -3.31 1.66 255 255 255
-8.14 -3.33 1.62 255 255 255
-8.01 -3.30 1.41 255 255 255
-6.11 20.91 2.05 255 255 255
-8.02 -3.32 1.82 255 255 255
-8.13 -3.33 1.39 255 255 255
-8.22 18.51 2.19 255 255 255
-7.90 -3.27 1.43 255 255 255
-8.14 -3.33 1.72 255 255 255
-6.72 32.22 1.79 255 255 255
-8.26 -3.35 1.43 255 255 255
-8.02 -3.33 2.18 255 255 255
-9.93 31.70 2.14 255 255 255
-8.14 -3.34 1.97 255 255 255
-8.02 -3.31 1.47 255 255 255
-6.09 20.88 1.55 255 255 255
-8.20 18.56 1.74 255 255 255
-7.06 23.00 1.13 255 255 255
-9.90 31.71 1.38 255 255 255
-6.08 20.84 1.04 255 255 255
-8.19 18.57 1.29 255 255 255
-7.88 2.60 1.02 255 255 255
-7.90 -3.29 1.48 255 255 255
-6.07 20.91 2.57 255 255 255
-8.14 -3.32 1.45 255 255 255
-8.01 -3.27 0.85 255 255 255
-7.84 3.48 0.29 255 255 255
-8.02 -3.31 1.52 255 255 255
-8.13 -3.32 1.03 255 255 255
-8.04 2.08 0.90 255 255 255
-6.66 32.28 2.57 255 255 255
-8.02 -3.29 1.15 255 255 255
-8.26 -3.35 1.49 255 255 255
-7.90 -3.27 1.54 255 255 255
-8.14 -3.30 1.21 255 255 255
-8.14 -3.33 1.51 255 255 255
-8.02 -3.29 1.26 255 255 255
-8.26 -3.34 1.29 255 255 255
-8.02 -3.32 1.58 255 255 255
-8.26 -3.35 1.55 255 255 255
-8.02 -3.31 1.35 255 255 255
-7.91 -3.28 1.59 255 255 255
-8.14 -3.33 1.32 255 255 255
-8.14 -3.33 1.56 255 255 255
-7.90 -3.27 1.37 255 255 255
-8.26 -3.32 1.38 255 255 255
-8.02 -3.30 1.66 255 255 255
-8.14 -3.33 1.62 255 255 255
-8.02 -3.31 1.41 255 255 255
-6.03 20.89 2.06 255 255 255
-8.03 -3.32 1.82 255 255 255
-8.14 -3.33 1.39 255 255 255
-8.15 18.53 2.19 255 255 255
-7.91 -3.28 1.43 255 255 255
-8.15 -3.33 1.72 255 255 255
-6.60 32.23 1.79 255 255 255
-8.03 -3.32 2.17 255 255 255
-8.26 -3.34 1.43 255 255 255
-9.81 31.71 2.14 255 255 255
-8.15 -3.35 1.97 255 255 255
-8.02 -3.30 1.47 255 255 255
-6.02 20.86 1.55 255 255 255
-8.13 18.54 1.74 255 255 255
-6.98 23.02 1.13 255 255 255
-9.78 31.72 1.38 255 255 255
-6.00 20.85 1.04 255 255 255
-8.12 18.56 1.29 255 255 255
-7.87 2.61 1.02 255 255 255
-7.91 -3.29 1.48 255 255 255
-5.99 20.92 2.57 255 255 255
-8.15 -3.31 1.45 255 255 255
-8.02 -3.26 0.86 255 255 255
-7.82 3.48 0.29 255 255 255
-8.14 -3.31 1.04 255 255 255
-8.03 -3.31 1.52 255 255 255
-6.54 32.30 2.57 255 255 255
-8.03 2.10 0.90 255 255 255
-8.27 -3.34 1.49 255 255 255
-8.03 -3.29 1.15 255 255 255
-8.15 -3.31 1.21 255 255 255
-7.91 -3.28 1.54 255 255 255
-8.03 -3.29 1.26 255 255 255
-8.15 -3.33 1.51 255 255 255
-8.27 -3.34 1.29 255 255 255
-8.03 -3.31 1.58 255 255 255
-8.03 -3.32 1.35 255 255 255
-8.27 -3.34 1.55 255 255 255
-8.15 -3.34 1.32 255 255 255
-7.91 -3.28 1.59 255 255 255
-8.15 -3.33 1.56 255 255 255
-7.91 -3.27 1.37 255 255 255
-8.27 -3.32 1.38 255 255 255
-8.03 -3.30 1.66 255 255 255
-8.03 -3.31 1.41 255 255 255
-8.15 -3.34 1.62 255 255 255
-4.84 32.54 2.40 255 255 255
-8.03 -3.32 1.82 255 255 255
-8.15 -3.34 1.39 255 255 255
-8.08 18.53 2.19 255 255 255
-8.15 -3.34 1.72 255 255 255
-7.91 -3.28 1.43 255 255 255
-6.48 32.28 1.80 255 255 255
-8.27 -3.35 1.43 255 255 255
-8.04 -3.33 2.18 255 255 255
-9.70 31.76 2.14 255 255 255
-8.03 -3.30 1.47 255 255 255
-8.16 -3.35 1.97 255 255 255
-5.93 20.94 1.55 255 255 255
-8.06 18.56 1.74 255 255 255
-6.90 22.90 1.13 255 255 255
-9.67 31.74 1.38 255 255 255
-5.92 20.89 1.04 255 255 255
-8.05 18.60 1.29 255 255 255
-7.85 2.64 1.02 255 255 255
-7.92 -3.29 1.48 255 255 255
-8.15 -3.32 1.45 255 255 255
-8.03 -3.27 0.85 255 255 255
-7.80 3.48 0.29 255 255 255
-8.15 -3.31 1.03 255 255 255
-8.04 -3.30 1.52 255 255 255
-6.43 32.31 2.57 255 255 255
-8.02 2.10 0.90 255 255 255
-8.28 -3.35 1.49 255 255 255
-8.03 -3.29 1.15 255 255 255
-7.92 -3.28 1.54 255 255 255
-8.15 -3.31 1.21 255 255 255
-8.16 -3.33 1.51 255 255 255
-8.04 -3.29 1.26 255 255 255
-8.04 -3.31 1.58 255 255 255
-8.28 -3.34 1.29 255 255 255
-8.04 -3.30 1.35 255 255 255
-8.28 -3.34 1.55 255 255 255
-8.16 -3.34 1.32 255 255 255
-7.92 -3.29 1.59 255 255 255
-8.16 -3.33 1.56 255 255 255
-7.92 -3.28 1.37 255 255 255
-8.28 -3.33 1.38 255 255 255
-8.04 -3.31 1.66 255 255 255
-8.04 -3.30 1.41 255 255 255
-8.16 -3.33 1.62 255 255 255
-8.04 -3.31 1.82 255 255 255
-8.16 -3.33 1.39 255 255 255
-7.92 -3.28 1.43 255 255 255
-8.16 -3.34 1.72 255 255 255
-6.36 32.30 1.80 255 255 255
-8.28 -3.34 1.43 255 255 255
-8.05 -3.33 2.18 255 255 255
-9.58 31.78 2.14 255 255 255
-8.17 -3.35 1.97 255 255 255
-8.04 -3.31 1.47 255 255 255
-5.61 23.33 1.56 255 255 255
-8.00 18.64 1.74 255 255 255
-6.82 22.68 1.14 255 255 255
-9.55 31.76 1.38 255 255 255
-5.83 20.99 1.04 255 255 255
-7.98 18.66 1.29 255 255 255
-7.84 2.66 1.02 255 255 255
-7.93 -3.29 1.48 255 255 255
-8.04 -3.27 0.85 255 255 255
-8.16 -3.32 1.45 255 255 255
-7.79 3.49 0.29 255 255 255
-8.16 -3.30 1.04 255 255 255
-8.05 -3.31 1.52 255 255 255
-8.01 2.08 0.90 255 255 255
-6.31 32.33 2.57 255 255 255
-8.29 -3.35 1.49 255 255 255
-8.04 -3.28 1.15 255 255 255
-8.16 -3.31 1.21 255 255 255
-7.93 -3.29 1.54 255 255 255
-8.17 -3.33 1.51 255 255 255
-8.04 -3.29 1.26 255 255 255
-8.29 -3.35 1.29 255 255 255
-8.05 -3.31 1.58 255 255 255
-8.29 -3.34 1.55 255 255 255
-8.05 -3.31 1.35 255 255 255
-7.93 -3.29 1.59 255 255 255
-8.17 -3.33 1.32 255 255 255
-8.17 -3.34 1.56 255 255 255
-7.93 -3.28 1.37 255 255 255
-8.05 -3.31 1.66 255 255 255
-8.29 -3.33 1.38 255 255 255
-8.05 -3.31 1.41 255 255 255
-8.17 -3.34 1.62 255 255 255
-4.61 32.54 2.40 255 255 255
-8.05 -3.32 1.82 255 255 255
-8.17 -3.34 1.39 255 255 255
-8.17 -3.33 1.72 255 255 255
-7.93 -3.28 1.43 255 255 255
-6.25 32.31 1.80 255 255 255
-8.29 -3.34 1.43 255 255 255
-8.06 -3.33 2.18 255 255 255
-9.47 31.79 2.14 255 255 255
-8.05 -3.31 1.47 255 255 255
-8.17 -3.35 1.97 255 255 255
-5.54 23.30 1.56 255 255 255
-7.86 32.05 1.97 255 255 255
-6.72 23.26 1.13 255 255 255
-9.44 31.77 1.38 255 255 255
-5.53 23.08 1.00 255 255 255
-7.84 32.06 1.21 255 255 255
-7.87 23.32 0.70 255 255 255
-7.83 2.67 1.02 255 255 255
-7.93 -3.30 1.48 255 255 255
-8.17 -3.32 1.45 255 255 255
-8.05 -3.27 0.85 255 255 255
-7.77 3.50 0.29 255 255 255
-8.17 -3.31 1.03 255 255 255
-8.05 -3.31 1.52 255 255 255
-8.00 2.09 0.90 255 255 255
-6.19 32.35 2.57 255 255 255
-8.05 -3.29 1.15 255 255 255
-8.29 -3.35 1.49 255 255 255
-7.94 -3.28 1.54 255 255 255
-8.17 -3.31 1.21 255 255 255
-8.05 -3.30 1.26 255 255 255
-8.17 -3.34 1.51 255 255 255
-8.06 -3.32 1.58 255 255 255
-8.29 -3.35 1.29 255 255 255
-8.30 -3.33 1.55 255 255 255
-8.05 -3.31 1.35 255 255 255
-7.94 -3.28 1.59 255 255 255
-8.17 -3.33 1.32 255 255 255
-7.94 -3.28 1.37 255 255 255
-8.18 -3.34 1.56 255 255 255
-8.30 -3.33 1.38 255 255 255
-8.06 -3.32 1.66 255 255 255
-8.05 -3.31 1.41 255 255 255
-8.18 -3.34 1.62 255 255 255
-4.49 32.56 2.40 255 255 255
-8.06 -3.32 1.82 255 255 255
-8.18 -3.34 1.39 255 255 255
-7.94 -3.28 1.43 255 255 255
-8.18 -3.34 1.72 255 255 255
-6.13 32.33 1.80 255 255 255
-8.30 -3.35 1.43 255 255 255
-8.06 -3.33 2.18 255 255 255
-9.35 31.78 2.14 255 255 255
-8.18 -3.35 1.97 255 255 255
-8.06 -3.32 1.47 255 255 255
-5.44 23.34 1.56 255 255 255
-7.74 32.07 1.97 255 255 255
-6.55 24.58 1.12 255 255 255
-9.33 31.79 1.38 255 255 255
-5.45 23.09 1.00 255 255 255
-7.72 32.05 1.21 255 255 255
-7.79 23.32 0.70 255 255 255
-7.81 2.69 1.01 255 255 255
-7.94 -3.29 1.48 255 255 255
-8.05 -3.28 0.85 255 255 255
-8.18 -3.32 1.45 255 255 255
-7.76 3.50 0.29 255 255 255
-8.06 -3.32 1.52 255 255 255
-8.18 -3.31 1.03 255 255 255
-6.08 32.36 2.58 255 255 255
-7.99 2.08 0.90 255 255 255
-8.30 -3.35 1.49 255 255 255
-8.06 -3.29 1.15 255 255 255
-7.94 -3.28 1.54 255 255 255
-8.18 -3.31 1.21 255 255 255
-8.18 -3.34 1.51 255 255 255
-8.06 -3.29 1.26 255 255 255
-8.30 -3.35 1.29 255 255 255
-8.06 -3.32 1.58 255 255 255
-8.30 -3.35 1.55 255 255 255
-8.06 -3.31 1.35 255 255 255
-8.18 -3.33 1.32 255 255 255
-7.95 -3.28 1.59 255 255 255
-8.18 -3.34 1.56 255 255 255
-7.94 -3.28 1.37 255 255 255
-8.30 -3.33 1.38 255 255 255
-8.06 -3.32 1.66 255 255 255
-8.06 -3.31 1.41 255 255 255
-8.19 -3.35 1.62 255 255 255
-4.37 32.57 2.41 255 255 255
-8.18 -3.33 1.39 255 255 255
-8.07 -3.32 1.82 255 255 255
-8.19 -3.34 1.72 255 255 255
-7.95 -3.28 1.43 255 255 255
-6.01 32.35 1.80 255 255 255
-8.31 -3.34 1.43 255 255 255
-8.07 -3.33 2.18 255 255 255
-9.25 31.82 2.15 255 255 255
-8.06 -3.32 1.47 255 255 255
-8.19 -3.35 1.97 255 255 255
-5.36 23.34 1.57 255 255 255
-7.63 32.08 1.97 255 255 255
-6.47 24.49 1.12 255 255 255
-9.21 31.80 1.38 255 255 255
-5.36 23.10 1.00 255 255 255
-7.60 32.06 1.21 255 255 255
-7.71 23.17 0.70 255 255 255
-7.80 2.73 1.01 255 255 255
-7.95 -3.29 1.48 255 255 255
-8.19 -3.31 1.45 255 255 255
-8.06 -3.27 0.85 255 255 255
-7.74 3.50 0.29 255 255 255
-8.07 -3.32 1.52 255 255 255
-8.18 -3.32 1.03 255 255 255
-7.98 2.11 0.90 255 255 255
-5.95 32.38 2.58 255 255 255
-8.07 -3.29 1.15 255 255 255
-8.31 -3.35 1.49 255 255 255
-8.19 -3.32 1.21 255 255 255
-7.95 -3.29 1.54 255 255 255
-8.19 -3.33 1.51 255 255 255
-8.07 -3.29 1.26 255 255 255
-8.31 -3.34 1.29 255 255 255
-8.07 -3.32 1.58 255 255 255
-8.31 -3.35 1.55 255 255 255
-8.07 -3.31 1.35 255 255 255
-8.19 -3.34 1.32 255 255 255
-7.95 -3.29 1.59 255 255 255
-7.95 -3.28 1.37 255 255 255
-8.19 -3.35 1.56 255 255 255
-8.31 -3.33 1.38 255 255 255
-8.07 -3.31 1.66 255 255 255
-8.07 -3.31 1.41 255 255 255
-8.19 -3.34 1.62 255 255 255
-4.24 32.56 2.41 255 255 255
-8.08 -3.33 1.82 255 255 255
-8.19 -3.34 1.39 255 255 255
-8.20 -3.34 1.72 255 255 255
-7.95 -3.29 1.43 255 255 255
-5.89 32.37 1.80 255 255 255
-8.32 -3.35 1.43 255 255 255
-8.08 -3.33 2.18 255 255 255
-9.12 31.84 2.15 255 255 255
-8.20 -3.35 1.97 255 255 255
-8.07 -3.31 1.47 255 255 255
-5.26 23.35 1.57 255 255 255
-7.50 32.10 1.98 255 255 255
-6.36 24.56 1.12 255 255 255
-9.09 31.85 1.38 255 255 255
-5.27 23.10 1.00 255 255 255
-7.48 32.11 1.21 255 255 255
-7.61 23.20 0.70 255 255 255
-7.78 2.77 1.00 255 255 255
-7.96 -3.30 1.48 255 255 255
-8.07 -3.27 0.85 255 255 255
-8.19 -3.31 1.45 255 255 255
-7.72 3.50 0.29 255 255 255
-8.08 -3.32 1.52 255 255 255
-8.19 -3.32 1.03 255 255 255
-7.97 2.11 0.90 255 255 255
-5.82 32.37 2.58 255 255 255
-8.32 -3.35 1.49 255 255 255
-8.07 -3.30 1.15 255 255 255
-8.19 -3.31 1.21 255 255 255
-7.96 -3.28 1.54 255 255 255
-8.20 -3.34 1.51 255 255 255
-8.08 -3.29 1.26 255 255 255
-8.32 -3.35 1.29 255 255 255
-8.08 -3.32 1.58 255 255 255
-8.32 -3.34 1.55 255 255 255
-8.08 -3.31 1.35 255 255 255
-8.20 -3.34 1.32 255 255 255
-7.96 -3.29 1.59 255 255 255
-7.96 -3.29 1.37 255 255 255
-8.20 -3.33 1.56 255 255 255
-8.08 -3.31 1.66 255 255 255
-8.32 -3.33 1.38 255 255 255
-8.20 -3.34 1.62 255 255 255
-8.08 -3.31 1.41 255 255 255
-4.12 32.61 2.41 255 255 255
-8.20 -3.33 1.39 255 255 255
-8.08 -3.32 1.82 255 255 255
-8.20 -3.34 1.72 255 255 255
-7.96 -3.29 1.43 255 255 255
-5.76 32.38 1.80 255 255 255
-8.09 -3.33 2.18 255 255 255
-8.32 -3.35 1.43 255 255 255
-9.00 31.86 2.15 255 255 255
-8.08 -3.31 1.47 255 255 255
-8.21 -3.36 1.97 255 255 255
-5.17 23.36 1.57 255 255 255
-7.39 32.12 1.98 255 255 255
-6.27 24.63 1.12 255 255 255
-8.98 31.84 1.39 255 255 255
-5.18 23.13 1.00 255 255 255
-7.36 32.13 1.21 255 255 255
-7.53 23.29 0.70 255 255 255
-7.76 2.83 1.00 255 255 255
-7.97 -3.30 1.48 255 255 255
-8.20 -3.31 1.45 255 255 255
-8.08 -3.27 0.85 255 255 255
-7.82 2.01 0.67 255 255 255
-8.20 -3.31 1.03 255 255 255
-8.09 -3.31 1.52 255 255 255
-5.71 32.38 2.58 255 255 255
-7.96 2.13 0.90 255 255 255
-8.33 -3.35 1.49 255 255 255
-8.08 -3.28 1.15 255 255 255
-7.97 -3.29 1.54 255 255 255
-8.20 -3.32 1.21 255 255 255
-8.08 -3.29 1.26 255 255 255
-8.21 -3.34 1.51 255 255 255
-8.09 -3.32 1.58 255 255 255
-8.33 -3.36 1.29 255 255 255
-8.09 -3.31 1.35 255 255 255
-8.33 -3.34 1.55 255 255 255
-7.97 -3.29 1.59 255 255 255
-8.21 -3.34 1.32 255 255 255
-8.21 -3.33 1.56 255 255 255
-7.97 -3.29 1.37 255 255 255
-8.09 -3.32 1.66 255 255 255
-8.33 -3.33 1.38 255 255 255
-8.09 -3.31 1.41 255 255 255
-8.21 -3.34 1.62 255 255 255
-4.00 32.63 2.41 255 255 255
-8.21 -3.33 1.39 255 255 255
-8.09 -3.32 1.82 255 255 255
-8.21 -3.34 1.72 255 255 255
-7.97 -3.29 1.43 255 255 255
-5.65 32.40 1.81 255 255 255
-8.33 -3.35 1.43 255 255 255
-8.10 -3.34 2.18 255 255 255
-8.90 31.87 2.15 255 255 255
-8.22 -3.35 1.97 255 255 255
-8.09 -3.31 1.47 255 255 255
-5.09 23.39 1.57 255 255 255
-7.28 32.13 1.98 255 255 255
-8.87 31.85 1.39 255 255 255
-5.10 23.13 1.00 255 255 255
-7.25 32.15 1.21 255 255 255
-7.45 23.33 0.70 255 255 255
-7.75 2.86 0.99 255 255 255
-7.97 -3.30 1.48 255 255 255
-8.09 -3.27 0.85 255 255 255
-8.21 -3.32 1.45 255 255 255
-7.81 2.00 0.67 255 255 255
-8.21 -3.32 1.03 255 255 255
-8.09 -3.32 1.52 255 255 255
-7.95 2.14 0.89 255 255 255
-5.60 32.43 2.58 255 255 255
-8.34 -3.36 1.49 255 255 255
-8.09 -3.29 1.15 255 255 255
-8.21 -3.32 1.21 255 255 255
-7.98 -3.29 1.54 255 255 255
-8.09 -3.30 1.26 255 255 255
-8.22 -3.35 1.51 255 255 255
-8.10 -3.32 1.58 255 255 255
-8.34 -3.35 1.29 255 255 255
-8.34 -3.35 1.55 255 255 255
-8.09 -3.32 1.35 255 255 255
-7.98 -3.29 1.59 255 255 255
-8.21 -3.34 1.32 255 255 255
-7.98 -3.28 1.37 255 255 255
-8.22 -3.34 1.56 255 255 255
-8.34 -3.33 1.38 255 255 255
-8.10 -3.32 1.66 255 255 255
-8.22 -3.34 1.62 255 255 255
-8.10 -3.31 1.41 255 255 255
-3.88 32.64 2.42 255 255 255
-8.22 -3.34 1.39 255 255 255
-8.10 -3.32 1.82 255 255 255
-7.98 -3.28 1.43 255 255 255
-8.22 -3.34 1.72 255 255 255
-5.54 32.41 1.81 255 255 255
-8.34 -3.35 1.43 255 255 255
-8.10 -3.33 2.18 255 255 255
-8.79 31.89 2.15 255 255 255
-8.23 -3.36 1.97 255 255 255
-8.10 -3.32 1.46 255 255 255
-5.01 23.35 1.57 255 255 255
-7.16 32.15 1.98 255 255 255
-6.12 24.38 1.12 255 255 255
-8.76 31.87 1.39 255 255 255
-5.02 23.14 1.00 255 255 255
-7.14 32.16 1.21 255 255 255
-7.36 23.31 0.70 255 255 255
-7.73 2.88 0.99 255 255 255
-7.98 -3.30 1.48 255 255 255
-8.09 -3.29 0.85 255 255 255
-8.22 -3.32 1.45 255 255 255
-7.79 2.03 0.66 255 255 255
-8.22 -3.32 1.03 255 255 255
-8.10 -3.32 1.52 255 255 255
-7.94 2.13 0.90 255 255 255
-5.48 32.45 2.59 255 255 255
-8.35 -3.35 1.49 255 255 255
-8.10 -3.29 1.15 255 255 255
-8.22 -3.31 1.21 255 255 255
-7.98 -3.29 1.54 255 255 255
-8.22 -3.35 1.51 255 255 255
-8.10 -3.30 1.26 255 255 255
-8.35 -3.35 1.29 255 255 255
-8.10 -3.32 1.58 255 255 255
-8.35 -3.35 1.55 255 255 255
-8.10 -3.32 1.35 255 255 255
-7.99 -3.29 1.59 255 255 255
-8.22 -3.34 1.32 255 255 255
-8.23 -3.34 1.56 255 255 255
-7.98 -3.29 1.37 255 255 255
-8.35 -3.34 1.38 255 255 255
-8.11 -3.32 1.66 255 255 255
-8.23 -3.35 1.62 255 255 255
-8.10 -3.32 1.41 255 255 255
-3.76 32.66 2.42 255 255 255
-8.23 -3.35 1.39 255 255 255
-8.11 -3.33 1.82 255 255 255
-7.99 -3.29 1.43 255 255 255
-8.23 -3.35 1.72 255 255 255
-5.41 32.43 1.81 255 255 255
-8.11 -3.34 2.18 255 255 255
-8.35 -3.35 1.43 255 255 255
-8.67 31.91 2.15 255 255 255
-8.11 -3.32 1.46 255 255 255
-8.23 -3.36 1.97 255 255 255
-4.92 23.38 1.57 255 255 255
-7.04 32.17 1.98 255 255 255
-6.29 20.98 1.16 255 255 255
-8.64 31.88 1.39 255 255 255
-4.93 23.15 1.00 255 255 255
-7.02 32.18 1.21 255 255 255
-7.29 22.85 0.72 255 255 255
-7.99 -3.29 1.48 255 255 255
-8.10 -3.27 0.85 255 255 255
-8.23 -3.32 1.45 255 255 255
-7.78 2.03 0.66 255 255 255
-8.23 -3.32 1.03 255 255 255
-8.11 -3.32 1.52 255 255 255
-7.92 2.13 0.90 255 255 255
-5.36 32.46 2.59 255 255 255
-8.36 -3.36 1.49 255 255 255
-8.11 -3.29 1.15 255 255 255
-8.23 -3.32 1.21 255 255 255
-7.99 -3.29 1.54 255 255 255
-8.23 -3.34 1.51 255 255 255
-8.11 -3.29 1.26 255 255 255
-8.11 -3.32 1.58 255 255 255
-8.35 -3.36 1.29 255 255 255
-8.11 -3.32 1.35 255 255 255
-8.36 -3.35 1.55 255 255 255
-8.23 -3.34 1.32 255 255 255
-7.99 -3.30 1.59 255 255 255
-8.23 -3.35 1.56 255 255 255
-7.99 -3.29 1.37 255 255 255
-8.11 -3.31 1.66 255 255 255
-8.35 -3.33 1.38 255 255 255
-8.11 -3.32 1.41 255 255 255
-8.24 -3.35 1.62 255 255 255
-3.64 32.68 2.42 255 255 255
-8.23 -3.35 1.39 255 255 255
-8.12 -3.34 1.82 255 255 255
-7.99 -3.29 1.43 255 255 255
-8.24 -3.35 1.72 255 255 255
-6.24 20.94 1.67 255 255 255
-8.12 -3.34 2.18 255 255 255
-8.36 -3.35 1.43 255 255 255
-8.56 31.92 2.15 255 255 255
-8.11 -3.32 1.46 255 255 255
-8.24 -3.36 1.97 255 255 255
-4.83 23.41 1.57 255 255 255
-6.94 32.18 1.98 255 255 255
-6.23 20.93 1.16 255 255 255
-8.53 31.90 1.39 255 255 255
-4.84 23.16 1.00 255 255 255
-7.19 23.71 1.26 255 255 255
-7.21 22.88 0.72 255 255 255
-8.00 -3.31 1.48 255 255 255
-8.11 -3.28 0.85 255 255 255
-8.24 -3.32 1.45 255 255 255
-7.77 2.04 0.66 255 255 255
-8.31 18.54 2.30 255 255 255
-8.23 -3.31 1.03 255 255 255
-8.12 -3.32 1.52 255 255 255
-6.20 20.94 2.18 255 255 255
-7.91 2.13 0.90 255 255 255
-8.11 -3.29 1.15 255 255 255
-8.37 -3.37 1.49 255 255 255
-8.24 -3.33 1.21 255 255 255
-8.00 -3.29 1.54 255 255 255
-8.12 -3.30 1.26 255 255 255
-8.24 -3.34 1.51 255 255 255
-8.12 -3.33 1.58 255 255 255
-8.36 -3.35 1.29 255 255 255
-8.36 -3.35 1.55 255 255 255
-8.12 -3.32 1.35 255 255 255
-8.00 -3.30 1.59 255 255 255
-8.24 -3.35 1.32 255 255 255
-8.24 -3.35 1.56 255 255 255
-8.00 -3.29 1.37 255 255 255
-8.12 -3.32 1.66 255 255 255
-8.36 -3.33 1.38 255 255 255
-8.24 -3.35 1.62 255 255 255
-8.12 -3.32 1.41 255 255 255
-3.52 32.66 2.42 255 255 255
-8.24 -3.34 1.39 255 255 255
-8.12 -3.33 1.82 255 255 255
-8.00 -3.30 1.43 255 255 255
-8.25 -3.35 1.72 255 255 255
-6.17 20.90 1.67 255 255 255
-8.13 -3.34 2.18 255 255 255
-8.37 -3.35 1.43 255 255 255
-8.27 18.60 1.85 255 255 255
-8.25 -3.36 1.97 255 255 255
-8.12 -3.32 1.46 255 255 255
-4.74 23.44 1.57 255 255 255
-6.82 32.20 1.98 255 255 255
-6.15 20.89 1.16 255 255 255
-8.25 18.57 1.40 255 255 255
-4.75 23.19 1.00 255 255 255
-7.12 23.44 1.27 255 255 255
-7.12 22.90 0.72 255 255 255
-8.01 -3.30 1.48 255 255 255
-8.12 -3.28 0.85 255 255 255
-8.24 -3.32 1.45 255 255 255
-7.76 2.02 0.67 255 255 255
-8.25 18.52 2.30 255 255 255
-8.13 -3.32 1.52 255 255 255
-8.24 -3.31 1.03 255 255 255
-6.13 20.92 2.18 255 255 255
-7.90 2.16 0.89 255 255 255
-8.12 -3.30 1.15 255 255 255
-8.37 -3.36 1.49 255 255 255
-8.01 -3.29 1.54 255 255 255
-8.24 -3.33 1.21 255 255 255
-8.12 -3.30 1.26 255 255 255
-8.25 -3.34 1.51 255 255 255
-8.37 -3.35 1.29 255 255 255
-8.13 -3.32 1.58 255 255 255
-8.37 -3.35 1.55 255 255 255
-8.13 -3.32 1.35 255 255 255
-8.25 -3.34 1.32 255 255 255
-8.01 -3.29 1.59 255 255 255
-8.01 -3.30 1.37 255 255 255
-8.25 -3.35 1.56 255 255 255
-8.13 -3.32 1.66 255 255 255
-8.37 -3.33 1.38 255 255 255
-8.13 -3.31 1.41 255 255 255
-8.25 -3.35 1.62 255 255 255
-3.41 32.71 2.42 255 255 255
-8.13 -3.33 1.82 255 255 255
-8.25 -3.34 1.39 255 255 255
-8.25 -3.35 1.72 255 255 255
-8.01 -3.29 1.42 255 255 255
-6.10 20.89 1.67 255 255 255
-8.37 -3.36 1.43 255 255 255
-8.14 -3.35 2.18 255 255 255
-8.21 18.56 1.85 255 255 255
-8.26 -3.36 1.97 255 255 255
-8.13 -3.33 1.46 255 255 255
-4.65 23.45 1.57 255 255 255
-6.70 32.22 1.99 255 255 255
-6.08 20.90 1.16 255 255 255
-8.19 18.53 1.40 255 255 255
-4.67 23.22 1.00 255 255 255
-7.04 23.29 1.27 255 255 255
-7.04 22.92 0.72 255 255 255
-8.01 -3.31 1.48 255 255 255
-8.25 -3.33 1.45 255 255 255
-8.13 -3.28 0.85 255 255 255
-8.18 18.53 2.30 255 255 255
-7.61 3.63 0.25 255 255 255
-8.25 -3.32 1.03 255 255 255
-8.13 -3.31 1.52 255 255 255
-7.89 2.15 0.89 255 255 255
-6.06 20.91 2.18 255 255 255
-8.38 -3.36 1.49 255 255 255
-8.13 -3.30 1.15 255 255 255
-8.02 -3.29 1.54 255 255 255
-8.25 -3.33 1.21 255 255 255
-8.26 -3.35 1.51 255 255 255
-8.13 -3.30 1.26 255 255 255
-8.38 -3.36 1.28 255 255 255
-8.14 -3.33 1.58 255 255 255
-8.38 -3.35 1.55 255 255 255
-8.13 -3.32 1.35 255 255 255
-8.26 -3.34 1.32 255 255 255
-8.02 -3.29 1.59 255 255 255
-8.02 -3.29 1.37 255 255 255
-8.26 -3.35 1.56 255 255 255
-8.14 -3.32 1.66 255 255 255
-8.38 -3.34 1.37 255 255 255
-8.14 -3.31 1.41 255 255 255
-8.26 -3.35 1.62 255 255 255
-3.28 32.73 2.42 255 255 255
-8.14 -3.33 1.82 255 255 255
-8.26 -3.34 1.39 255 255 255
-8.26 -3.35 1.72 255 255 255
-8.02 -3.29 1.42 255 255 255
-6.01 20.91 1.67 255 255 255
-8.38 -3.35 1.43 255 255 255
-8.15 -3.35 2.18 255 255 255
-8.14 18.54 1.85 255 255 255
-8.27 -3.37 1.97 255 255 255
-8.14 -3.32 1.46 255 255 255
-4.56 23.48 1.57 255 255 255
-6.58 32.23 1.99 255 255 255
-5.99 20.93 1.16 255 255 255
-8.12 18.54 1.40 255 255 255
-4.58 23.21 1.01 255 255 255
-6.96 23.13 1.27 255 255 255
-6.96 22.91 0.72 255 255 255
-8.02 -3.31 1.48 255 255 255
-8.26 -3.33 1.45 255 255 255
-8.13 -3.28 0.85 255 255 255
-8.11 18.54 2.31 255 255 255
-7.60 3.53 0.28 255 255 255
-8.26 -3.31 1.03 255 255 255
-8.14 -3.31 1.52 255 255 255
-7.88 2.11 0.90 255 255 255
-4.88 32.53 2.60 255 255 255
-8.39 -3.36 1.49 255 255 255
-8.14 -3.30 1.15 255 255 255
-8.02 -3.30 1.54 255 255 255
-8.26 -3.33 1.21 255 255 255
-8.14 -3.30 1.26 255 255 255
-8.27 -3.35 1.51 255 255 255
-8.15 -3.33 1.58 255 255 255
-8.39 -3.36 1.28 255 255 255
-8.39 -3.35 1.55 255 255 255
-8.14 -3.32 1.35 255 255 255
-8.27 -3.34 1.32 255 255 255
-8.03 -3.30 1.59 255 255 255
-8.27 -3.35 1.56 255 255 255
-8.02 -3.29 1.37 255 255 255
-8.39 -3.34 1.37 255 255 255
-8.15 -3.32 1.66 255 255 255
-8.27 -3.36 1.62 255 255 255
-8.14 -3.32 1.41 255 255 255
-3.15 32.75 2.43 255 255 255
-8.15 -3.33 1.82 255 255 255
-8.27 -3.34 1.39 255 255 255
-8.27 -3.35 1.72 255 255 255
-8.03 -3.29 1.42 255 255 255
-5.59 24.45 1.72 255 255 255
-8.15 -3.34 2.18 255 255 255
-8.39 -3.35 1.43 255 255 255
-8.07 18.56 1.85 255 255 255
-8.27 -3.36 1.97 255 255 255
-8.15 -3.32 1.46 255 255 255
-4.47 23.49 1.57 255 255 255
-6.46 32.28 1.99 255 255 255
-8.05 18.57 1.40 255 255 255
-4.49 23.23 1.01 255 255 255
-6.88 23.06 1.27 255 255 255
-6.86 22.94 0.72 255 255 255
-8.03 -3.31 1.48 255 255 255
-8.14 -3.29 0.85 255 255 255
-8.27 -3.33 1.45 255 255 255
-7.58 3.54 0.28 255 255 255
-8.27 -3.33 1.03 255 255 255
-8.15 -3.33 1.52 255 255 255
-7.87 2.14 0.89 255 255 255
-4.76 32.55 2.60 255 255 255
-8.15 -3.30 1.14 255 255 255
-8.40 -3.36 1.49 255 255 255
-8.27 -3.33 1.21 255 255 255
-8.03 -3.30 1.54 255 255 255
-8.27 -3.34 1.51 255 255 255
-8.15 -3.30 1.26 255 255 255
-8.40 -3.35 1.28 255 255 255
-8.15 -3.33 1.58 255 255 255
-8.40 -3.36 1.55 255 255 255
-8.15 -3.33 1.35 255 255 255
-8.27 -3.34 1.32 255 255 255
-8.03 -3.30 1.59 255 255 255
-8.03 -3.30 1.37 255 255 255
-8.28 -3.36 1.56 255 255 255
-8.16 -3.32 1.66 255 255 255
-8.39 -3.33 1.37 255 255 255
-8.28 -3.36 1.62 255 255 255
-8.15 -3.31 1.41 255 255 255
-3.03 32.73 2.43 255 255 255
-8.16 -3.33 1.82 255 255 255
-8.28 -3.35 1.39 255 255 255
-8.28 -3.35 1.72 255 255 255
-8.03 -3.30 1.42 255 255 255
-5.51 24.42 1.72 255 255 255
-8.16 -3.35 2.18 255 255 255
-8.40 -3.35 1.43 255 255 255
-7.98 32.03 2.16 255 255 255
-8.15 -3.32 1.46 255 255 255
-8.28 -3.36 1.97 255 255 255
-6.34 32.30 1.99 255 255 255
-7.95 32.01 1.40 255 255 255
-4.39 23.26 1.01 255 255 255
-6.79 23.06 1.27 255 255 255
-6.78 22.95 0.72 255 255 255
-8.04 -3.31 1.48 255 255 255
-8.28 -3.32 1.45 255 255 255
-8.15 -3.28 0.85 255 255 255
-7.72 2.04 0.66 255 255 255
-8.28 -3.32 1.03 255 255 255
-8.16 -3.32 1.52 255 255 255
-7.86 2.15 0.89 255 255 255
-4.64 32.53 2.60 255 255 255
-8.15 -3.30 1.14 255 255 255
-8.41 -3.37 1.49 255 255 255
-8.04 -3.30 1.54 255 255 255
-8.28 -3.33 1.21 255 255 255
-8.16 -3.30 1.26 255 255 255
-8.28 -3.36 1.51 255 255 255
-8.40 -3.35 1.29 255 255 255
-8.16 -3.33 1.58 255 255 255
-8.41 -3.36 1.55 255 255 255
-8.16 -3.32 1.35 255 255 255
-8.28 -3.35 1.32 255 255 255
-8.04 -3.30 1.59 255 255 255
-8.04 -3.29 1.37 255 255 255
-8.29 -3.36 1.56 255 255 255
-8.16 -3.33 1.66 255 255 255
-8.40 -3.34 1.37 255 255 255
-8.16 -3.32 1.41 255 255 255
-8.29 -3.35 1.62 255 255 255
-8.17 -3.33 1.82 255 255 255
-8.29 -3.36 1.39 255 255 255
-8.04 -3.30 1.42 255 255 255
-8.29 -3.36 1.72 255 255 255
-5.42 24.45 1.72 255 255 255
-8.17 -3.35 2.18 255 255 255
-8.41 -3.35 1.43 255 255 255
-7.86 32.05 2.16 255 255 255
-8.16 -3.32 1.46 255 255 255
-8.29 -3.37 1.97 255 255 255
-2.88 32.76 1.64 255 255 255
-6.22 32.28 1.99 255 255 255
-5.38 24.63 1.12 255 255 255
-7.83 32.03 1.40 255 255 255
-6.20 32.33 1.22 255 255 255
-6.70 22.95 0.72 255 255 255
-8.05 -3.31 1.48 255 255 255
-8.29 -3.33 1.45 255 255 255
-8.16 -3.28 0.85 255 255 255
-7.71 2.02 0.67 255 255 255
-8.17 -3.32 1.52 255 255 255
-8.28 -3.32 1.03 255 255 255
-4.52 32.55 2.60 255 255 255
-7.85 2.14 0.89 255 255 255
-8.42 -3.37 1.49 255 255 255
-8.16 -3.30 1.14 255 255 255
-8.29 -3.34 1.20 255 255 255
-8.05 -3.30 1.54 255 255 255
-8.29 -3.35 1.51 255 255 255
-8.16 -3.30 1.26 255 255 255
-8.41 -3.36 1.28 255 255 255
-8.17 -3.34 1.58 255 255 255
-8.42 -3.36 1.55 255 255 255
-8.17 -3.34 1.35 255 255 255
-8.29 -3.35 1.32 255 255 255
-8.05 -3.31 1.59 255 255 255
-8.29 -3.35 1.56 255 255 255
-8.05 -3.29 1.37 255 255 255
-8.41 -3.34 1.37 255 255 255
-8.17 -3.33 1.66 255 255 255
-8.29 -3.36 1.62 255 255 255
-8.17 -3.32 1.41 255 255 255
-2.79 32.77 2.43 255 255 255
-8.29 -3.34 1.39 255 255 255
-8.17 -3.33 1.82 255 255 255
-8.30 -3.36 1.72 255 255 255
-8.05 -3.30 1.42 255 255 255
-5.34 24.41 1.72 255 255 255
-8.18 -3.35 2.18 255 255 255
-8.42 -3.35 1.43 255 255 255
-7.76 32.07 2.16 255 255 255
-8.30 -3.36 1.97 255 255 255
-8.17 -3.33 1.46 255 255 255
-2.77 32.81 1.64 255 255 255
-6.12 32.33 1.99 255 255 255
-5.45 23.15 1.14 255 255 255
-7.73 32.08 1.40 255 255 255
-6.09 32.34 1.22 255 255 255
-6.63 22.98 0.72 255 255 255
-8.06 -3.31 1.48 255 255 255
-8.30 -3.33 1.45 255 255 255
-8.17 -3.28 0.85 255 255 255
-7.70 2.03 0.66 255 255 255
-8.29 -3.32 1.03 255 255 255
-8.18 -3.33 1.52 255 255 255
-7.84 2.13 0.90 255 255 255
-4.41 32.57 2.60 255 255 255
-8.17 -3.30 1.14 255 255 255
-8.42 -3.36 1.49 255 255 255
-8.06 -3.30 1.54 255 255 255
-8.29 -3.33 1.21 255 255 255
-8.30 -3.36 1.51 255 255 255
-8.17 -3.30 1.26 255 255 255
-8.42 -3.35 1.28 255 255 255
-8.18 -3.34 1.58 255 255 255
-8.42 -3.36 1.55 255 255 255
-8.18 -3.32 1.35 255 255 255
-8.06 -3.30 1.59 255 255 255
-8.30 -3.35 1.32 255 255 255
-8.06 -3.30 1.37 255 255 255
-8.30 -3.36 1.56 255 255 255
-8.18 -3.34 1.66 255 255 255
-8.42 -3.34 1.37 255 255 255
-8.18 -3.33 1.41 255 255 255
-8.30 -3.36 1.62 255 255 255
-2.66 32.82 2.44 255 255 255
-8.18 -3.34 1.82 255 255 255
-8.30 -3.35 1.39 255 255 255
-8.06 -3.29 1.42 255 255 255
-8.30 -3.35 1.72 255 255 255
-5.24 24.44 1.72 255 255 255
-8.42 -3.35 1.43 255 255 255
-8.19 -3.35 2.18 255 255 255
-7.64 32.08 2.17 255 255 255
-8.18 -3.32 1.46 255 255 255
-8.31 -3.37 1.98 255 255 255
-2.63 32.80 1.64 255 255 255
-5.99 32.32 1.99 255 255 255
-5.35 23.26 1.14 255 255 255
-7.61 32.09 1.40 255 255 255
-4.14 23.29 1.01 255 255 255
-5.97 32.42 1.22 255 255 255
-6.54 22.96 0.72 255 255 255
-8.06 -3.31 1.48 255 255 255
-8.30 -3.33 1.45 255 255 255
-8.17 -3.29 0.85 255 255 255
-7.69 2.02 0.67 255 255 255
-8.30 -3.33 1.03 255 255 255
-8.18 -3.33 1.52 255 255 255
-7.83 2.11 0.90 255 255 255
-4.28 32.58 2.60 255 255 255
-8.43 -3.36 1.49 255 255 255
-8.18 -3.30 1.14 255 255 255
-8.30 -3.34 1.20 255 255 255
-8.06 -3.31 1.54 255 255 255
-8.18 -3.30 1.26 255 255 255
-8.31 -3.36 1.51 255 255 255
-8.43 -3.36 1.28 255 255 255
-8.19 -3.33 1.58 255 255 255
-8.18 -3.33 1.35 255 255 255
-8.44 -3.37 1.55 255 255 255
-8.07 -3.30 1.59 255 255 255
-8.31 -3.35 1.32 255 255 255
-8.31 -3.36 1.56 255 255 255
-8.06 -3.29 1.37 255 255 255
-8.19 -3.33 1.66 255 255 255
-8.43 -3.34 1.37 255 255 255
-8.19 -3.33 1.41 255 255 255
-8.31 -3.37 1.62 255 255 255
-2.54 32.83 2.44 255 255 255
-8.31 -3.36 1.39 255 255 255
-8.19 -3.34 1.82 255 255 255
-8.31 -3.36 1.72 255 255 255
-8.07 -3.30 1.42 255 255 255
-5.15 24.44 1.72 255 255 255
-8.43 -3.35 1.43 255 255 255
-8.19 -3.35 2.18 255 255 255
-7.53 32.10 2.17 255 255 255
-8.32 -3.37 1.97 255 255 255
-8.19 -3.33 1.46 255 255 255
-2.52 32.81 1.64 255 255 255
-5.88 32.33 2.00 255 255 255
-5.27 23.23 1.14 255 255 255
-7.50 32.11 1.40 255 255 255
-6.31 25.40 1.26 255 255 255
-6.45 22.97 0.72 255 255 255
-8.07 -3.31 1.48 255 255 255
-8.18 -3.29 0.85 255 255 255
-8.31 -3.34 1.45 255 255 255
-7.68 2.04 0.66 255 255 255
-8.19 -3.33 1.52 255 255 255
-8.31 -3.33 1.03 255 255 255
-4.17 32.63 2.61 255 255 255
-7.82 2.13 0.90 255 255 255
-8.19 -3.30 1.14 255 255 255
-8.44 -3.37 1.49 255 255 255
-8.31 -3.34 1.20 255 255 255
-8.07 -3.30 1.54 255 255 255
-8.32 -3.35 1.51 255 255 255
-8.19 -3.31 1.26 255 255 255
-8.44 -3.36 1.28 255 255 255
-8.19 -3.34 1.58 255 255 255
-8.19 -3.34 1.35 255 255 255
-8.44 -3.37 1.55 255 255 255
-8.07 -3.30 1.59 255 255 255
-8.32 -3.35 1.32 255 255 255
-8.32 -3.36 1.56 255 255 255
-8.07 -3.30 1.37 255 255 255
-8.44 -3.34 1.37 255 255 255
-8.20 -3.33 1.66 255 255 255
-8.32 -3.37 1.62 255 255 255
-8.19 -3.32 1.41 255 255 255
-2.41 32.82 2.44 255 255 255
-8.20 -3.35 1.82 255 255 255
-8.32 -3.36 1.39 255 255 255
-8.32 -3.36 1.72 255 255 255
-8.07 -3.30 1.42 255 255 255
-4.11 32.58 1.82 255 255 255
-8.44 -3.36 1.43 255 255 255
-8.20 -3.35 2.18 255 255 255
-7.41 32.11 2.17 255 255 255
-8.33 -3.37 1.97 255 255 255
-8.20 -3.33 1.46 255 255 255
-2.39 32.83 1.64 255 255 255
-5.76 32.35 2.00 255 255 255
-5.19 23.17 1.14 255 255 255
-7.38 32.13 1.40 255 255 255
-6.26 24.76 1.27 255 255 255
-6.37 22.98 0.72 255 255 255
-8.08 -3.31 1.48 255 255 255
-8.19 -3.28 0.85 255 255 255
