ply
format ascii 1.0
element vertex 1594
property float x
property float y
property float z
property uchar red
property uchar green
property uchar blue
end_header
-6.02 4.23 -4.42 173 173 168
-6.03 4.13 -4.41 173 173 168
-6.03 4.04 -4.41 173 173 168
-6.03 3.95 -4.41 173 173 168
-6.01 3.86 -4.43 173 173 168
-6.01 3.77 -4.43 173 173 168
-6.01 3.67 -4.43 173 173 168
-6.01 3.58 -4.43 173 173 168
-6.02 3.49 -4.42 173 173 168
-6.02 3.39 -4.42 173 173 168
-6.01 3.30 -4.43 173 173 168
-6.02 3.21 -4.42 173 173 168
-6.03 3.11 -4.41 173 173 168
-6.03 3.02 -4.41 173 174 166
-6.03 2.93 -4.41 173 174 166
-6.03 2.83 -4.41 173 174 166
-6.03 2.74 -4.41 173 174 166
-6.03 2.65 -4.41 173 174 166
-6.03 2.55 -4.40 173 174 166
-6.03 2.46 -4.40 173 174 166
-6.04 2.37 -4.40 173 174 166
-6.04 2.27 -4.40 171 172 164
-6.04 2.18 -4.39 171 172 164
-6.04 2.09 -4.39 171 172 164
-6.04 1.99 -4.39 171 172 164
-6.04 1.90 -4.39 171 172 164
-6.04 1.81 -4.40 171 172 164
-6.05 1.71 -4.39 171 172 164
-6.04 1.62 -4.40 171 172 164
-6.05 1.53 -4.38 171 173 168
-6.04 1.44 -4.39 171 173 168
-6.05 1.34 -4.38 171 173 168
-6.06 1.25 -4.38 171 173 168
-6.06 1.15 -4.38 171 173 168
-6.06 1.06 -4.37 171 173 168
-6.06 0.97 -4.37 171 173 168
-6.06 0.88 -4.37 171 173 168
-6.06 0.78 -4.37 171 173 168
-6.06 0.69 -4.38 171 173 168
-6.06 0.60 -4.38 171 173 168
-6.06 0.51 -4.38 171 173 168
-6.06 0.41 -4.38 171 173 168
-6.06 0.32 -4.37 171 173 168
-6.05 0.23 -4.38 171 173 168
-6.05 0.13 -4.38 171 173 168
-6.05 0.04 -4.38 169 174 168
-6.06 -0.05 -4.37 169 174 168
-6.06 -0.14 -4.38 169 174 168
-6.06 -0.24 -4.37 169 174 168
-6.06 -0.33 -4.37 169 174 168
-6.06 -0.42 -4.37 169 174 168
-6.07 -0.52 -4.36 169 174 168
-6.07 -0.61 -4.36 169 174 168
-6.06 -0.70 -4.37 169 174 168
-6.06 -0.80 -4.37 169 174 168
-6.06 -0.89 -4.37 169 174 168
-6.07 -0.98 -4.36 169 174 168
-6.07 -1.07 -4.36 169 174 168
-6.07 -1.17 -4.36 169 174 168
-6.07 -1.26 -4.36 169 174 168
-6.06 -1.35 -4.37 169 174 168
-6.06 -1.44 -4.37 172 177 173
-6.05 -1.54 -4.38 172 177 173
-6.06 -1.63 -4.38 172 177 173
-6.05 -1.72 -4.39 172 177 173
-6.05 -1.81 -4.39 172 177 173
-6.04 -1.91 -4.39 172 177 173
-6.04 -2.00 -4.39 172 177 173
-6.03 -2.09 -4.40 172 177 173
-6.04 -2.18 -4.40 174 179 175
-6.03 -2.28 -4.41 174 179 175
-6.03 -2.37 -4.41 174 179 175
-6.03 -2.46 -4.41 174 179 175
-6.03 -2.55 -4.41 174 179 175
-6.03 -2.65 -4.40 174 179 175
-6.03 -2.74 -4.41 174 179 175
-6.03 -2.83 -4.41 174 179 175
-6.03 -2.93 -4.41 172 177 173
-6.03 -3.02 -4.41 172 177 173
-6.03 -3.11 -4.41 172 177 173
-6.03 -3.20 -4.41 172 177 173
-6.03 -3.30 -4.41 172 177 173
-6.02 -3.39 -4.42 172 177 173
-6.02 -3.48 -4.42 172 177 173
-6.02 -3.58 -4.42 172 177 173
-6.02 -3.67 -4.42 174 179 175
-6.03 -3.76 -4.41 174 179 175
-6.02 -3.85 -4.42 174 179 175
-6.02 -3.95 -4.42 174 179 175
-6.02 -4.04 -4.42 174 179 175
-6.01 -4.13 -4.43 174 179 175
-6.02 -4.23 -4.42 174 179 175
-6.02 -4.32 -4.42 174 179 175
-6.02 -4.41 -4.42 175 182 175
-6.01 -4.50 -4.43 175 182 175
-6.01 -4.60 -4.44 175 182 175
-6.01 -4.69 -4.44 175 182 175
-6.01 -4.78 -4.44 175 182 175
-6.00 -4.87 -4.45 175 182 175
-6.00 -4.97 -4.45 175 182 175
-6.00 -5.06 -4.45 175 182 175
-5.99 -5.15 -4.46 175 182 175
-6.00 -5.25 -4.45 175 182 175
-5.98 -5.34 -4.46 175 182 175
-5.98 -5.43 -4.47 175 182 175
-5.99 -5.52 -4.46 175 182 175
-5.99 -5.62 -4.46 175 182 175
-5.98 -5.71 -4.46 175 182 175
-5.98 -5.80 -4.46 175 182 175
-5.98 -5.90 -4.47 176 183 176
-5.98 -5.99 -4.47 176 183 176
-5.98 -6.08 -4.47 176 183 176
-5.98 -6.18 -4.47 176 183 176
-5.98 -6.27 -4.47 176 183 176
-5.96 -6.36 -4.49 176 183 176
-5.96 -6.45 -4.50 176 183 176
-5.95 -6.55 -4.51 176 183 176
-5.95 -6.64 -4.51 178 185 178
-5.94 -6.73 -4.52 178 185 178
-5.93 -6.83 -4.53 178 185 178
-5.92 -6.92 -4.54 178 185 178
-5.92 -7.01 -4.55 178 185 178
-5.92 -7.11 -4.55 178 185 178
-5.91 -7.20 -4.55 178 185 178
-5.91 -7.29 -4.55 178 185 178
-5.90 -7.39 -4.56 178 185 180
-5.89 -7.48 -4.57 178 185 180
-5.89 -7.57 -4.58 178 185 180
-5.89 -7.66 -4.58 178 185 180
-5.88 -7.76 -4.58 178 185 180
-5.88 -7.85 -4.58 178 185 180
-5.88 -7.94 -4.59 178 185 180
-5.87 -8.04 -4.60 178 185 180
-5.87 -8.13 -4.61 180 187 182
-5.86 -8.23 -4.62 180 187 182
-5.84 -8.32 -4.63 180 187 182
-5.85 -8.41 -4.63 180 187 182
-5.85 -8.51 -4.63 180 187 182
-5.83 -8.60 -4.65 180 187 182
-5.83 -8.69 -4.65 180 187 182
-5.82 -8.79 -4.66 180 187 182
-5.82 -8.88 -4.66 176 183 181
-5.82 -8.97 -4.66 176 183 181
-5.82 -9.07 -4.66 176 183 181
-5.82 -9.16 -4.66 176 183 181
-5.81 -9.25 -4.67 176 183 181
-5.81 -9.35 -4.68 176 183 181
-5.81 -9.44 -4.68 176 183 181
-5.81 -9.54 -4.68 176 183 181
-5.81 -9.63 -4.68 176 183 181
-5.81 -9.72 -4.67 176 183 181
-5.82 -9.82 -4.66 176 183 181
-5.82 -9.91 -4.66 176 183 181
-5.84 -10.00 -4.63 176 183 181
-5.85 -10.09 -4.63 176 183 181
-5.85 -10.19 -4.62 176 183 181
-5.86 -10.28 -4.61 176 183 181
-5.86 -10.37 -4.61 178 185 183
-5.88 -10.46 -4.59 178 185 183
-5.88 -10.56 -4.59 178 185 183
-5.89 -10.65 -4.58 178 185 183
-5.88 -10.74 -4.59 178 185 183
-5.89 -10.84 -4.57 178 185 183
-5.88 -10.93 -4.58 178 185 183
-5.88 -11.02 -4.60 178 185 183
-5.88 -11.12 -4.58 182 189 187
-5.88 -11.21 -4.59 182 189 187
-5.88 -11.30 -4.59 182 189 187
-5.88 -11.40 -4.59 182 189 187
-5.88 -11.49 -4.59 182 189 187
-5.87 -11.59 -4.60 182 189 187
-5.87 -11.68 -4.60 182 189 187
-5.86 -11.77 -4.62 182 189 187
-5.85 -11.87 -4.62 187 194 192
-5.85 -11.96 -4.62 187 194 192
-5.84 -12.06 -4.63 187 194 192
-5.84 -12.15 -4.64 187 194 192
-5.83 -12.24 -4.65 187 194 192
-5.83 -12.34 -4.65 187 194 192
-5.82 -12.43 -4.66 187 194 192
-5.81 -12.53 -4.67 187 194 192
-5.80 -12.62 -4.68 192 199 197
-5.79 -12.72 -4.70 192 199 197
-5.79 -12.81 -4.70 192 199 197
-5.78 -12.91 -4.71 192 199 197
-5.78 -13.00 -4.71 192 199 197
-5.78 -13.09 -4.71 192 199 197
-5.77 -13.19 -4.72 192 199 197
-5.77 -13.28 -4.72 192 199 197
-5.75 -13.38 -4.75 192 199 192
-5.75 -13.47 -4.75 192 199 192
-5.73 -13.57 -4.77 192 199 194
-5.72 -13.67 -4.78 192 199 194
-5.72 -13.76 -4.78 192 199 197
-5.72 -13.85 -4.78 192 199 197
-5.72 -13.95 -4.78 192 198 199
-5.72 -14.04 -4.78 192 198 199
-5.73 -14.13 -4.77 196 202 205
-5.75 -14.22 -4.75 190 196 199
-5.76 -14.31 -4.74 194 199 205
-5.78 -14.40 -4.71 188 193 199
-5.82 -14.49 -4.66 184 189 197
-5.81 -14.59 -4.68 183 188 196
-5.78 -14.68 -4.71 177 182 190
-5.85 -14.76 -4.62 187 192 200
-6.27 -14.76 -4.11 184 204 230
-6.69 -14.76 -3.60 97 117 143
-6.76 -14.84 -3.52 20 37 82
-6.75 -14.93 -3.54 25 42 87
-6.74 -15.03 -3.55 37 50 119
-6.73 -15.12 -3.56 40 53 122
-6.75 -15.20 -3.53 42 52 140
-6.74 -15.30 -3.54 44 54 142
-6.74 -15.39 -3.54 46 55 146
-6.75 -15.48 -3.54 43 52 143
-6.78 -15.56 -3.50 42 54 128
-6.82 -15.64 -3.45 43 55 129
-6.84 -15.73 -3.42 44 60 110
-6.88 -15.81 -3.38 40 56 106
-6.92 -15.89 -3.33 30 49 82
-7.00 -15.96 -3.24 23 42 75
-7.08 -16.03 -3.14 56 47 43
-7.24 -16.07 -2.94 25 16 12
-7.39 -16.12 -2.75 31 25 0
-7.57 -16.16 -2.55 181 175 150
-7.65 -16.23 -2.45 196 193 149
-7.68 -16.31 -2.40 178 175 131
-7.70 -16.39 -2.39 167 164 124
-7.71 -16.48 -2.37 177 174 134
-7.75 -16.56 -2.33 171 164 144
-7.76 -16.64 -2.31 171 164 144
-7.79 -16.72 -2.28 171 163 152
-7.81 -16.80 -2.26 171 163 152
-7.82 -16.89 -2.24 171 164 146
-7.84 -16.97 -2.22 171 164 146
-7.86 -17.05 -2.19 171 166 134
-7.88 -17.13 -2.17 171 166 134
-7.90 -17.21 -2.14 175 176 157
-7.92 -17.29 -2.11 174 175 156
-7.94 -17.38 -2.10 167 168 149
-7.96 -17.46 -2.07 148 149 130
-7.97 -17.54 -2.05 123 124 105
-7.98 -17.63 -2.04 98 99 80
-7.99 -17.71 -2.03 84 85 66
-8.00 -17.80 -2.02 79 80 61
-8.02 -17.88 -2.00 66 67 48
-8.03 -17.96 -1.98 74 75 56
-8.05 -18.04 -1.96 61 62 43
-8.08 -18.12 -1.93 77 78 59
-8.10 -18.20 -1.89 81 82 63
-8.14 -18.27 -1.84 77 78 59
-8.17 -18.35 -1.82 115 116 97
-8.21 -18.42 -1.77 125 126 107
-8.23 -18.50 -1.74 130 131 123
-8.27 -18.58 -1.70 126 127 119
-8.30 -18.65 -1.65 122 123 115
-8.34 -18.72 -1.61 110 111 103
-8.37 -18.80 -1.57 94 95 87
-8.40 -18.88 -1.54 78 79 71
-8.43 -18.95 -1.50 69 70 62
-8.46 -19.02 -1.46 67 68 60
-8.49 -19.10 -1.43 112 113 105
-8.53 -19.17 -1.37 122 123 115
-8.58 -19.24 -1.32 79 80 72
-8.62 -19.31 -1.27 121 122 114
-8.68 -19.37 -1.20 105 106 98
-8.74 -19.44 -1.13 30 31 23
-8.78 -19.50 -1.07 57 58 50
-8.82 -19.57 -1.03 67 68 60
-8.83 -19.65 -1.01 50 52 49
-8.85 -19.73 -0.98 52 54 51
-8.88 -19.81 -0.96 55 57 54
-8.90 -19.88 -0.93 58 60 57
-8.93 -19.96 -0.90 60 62 59
-8.94 -20.03 -0.88 60 62 59
-8.95 -20.12 -0.87 60 62 59
-8.96 -20.20 -0.85 59 61 58
-8.96 -20.28 -0.86 46 48 45
-8.96 -20.37 -0.86 36 38 35
-8.97 -20.45 -0.85 21 23 20
-8.98 -20.53 -0.83 8 10 7
-9.00 -20.60 -0.80 4 6 3
-9.02 -20.68 -0.78 9 11 8
-9.04 -20.75 -0.76 17 19 16
-9.06 -20.83 -0.74 24 26 23
-9.10 -20.90 -0.69 22 17 16
-9.14 -20.97 -0.64 35 30 29
-9.17 -21.04 -0.60 54 49 51
-9.21 -21.10 -0.55 51 46 48
-9.21 -21.19 -0.56 58 55 61
-9.18 -21.28 -0.58 165 162 168
-7.66 -22.06 -2.44 255 255 255
-6.66 -22.61 -3.64 218 217 222
-6.96 -22.56 -3.29 218 220 220
-6.91 -22.67 -3.34 218 220 220
-6.87 -22.79 -3.39 216 221 215
-6.87 -22.88 -3.39 216 221 215
-6.86 -22.97 -3.41 215 222 215
-6.84 -23.07 -3.43 215 222 215
-6.81 -23.18 -3.46 215 222 215
-6.79 -23.28 -3.49 215 222 215
-6.78 -23.37 -3.50 220 222 219
-6.76 -23.47 -3.52 220 222 219
-6.75 -23.57 -3.54 220 222 219
-6.75 -23.66 -3.54 220 222 219
-6.74 -23.75 -3.55 220 222 219
-6.74 -23.85 -3.55 220 222 219
-6.75 -23.93 -3.54 220 222 219
-6.74 -24.03 -3.54 220 222 219
-6.75 -24.11 -3.54 221 223 220
-6.74 -24.21 -3.55 221 223 220
-6.74 -24.30 -3.55 221 223 220
-6.74 -24.39 -3.55 221 223 220
-6.73 -24.49 -3.56 221 223 220
-6.72 -24.58 -3.57 221 223 220
-6.72 -24.68 -3.57 221 223 220
-6.72 -24.77 -3.58 221 223 220
-6.71 -24.86 -3.58 221 223 220
-6.71 -24.95 -3.58 221 223 220
-6.71 -25.05 -3.59 221 223 220
-6.71 -25.14 -3.59 221 223 220
-6.71 -25.23 -3.58 221 223 220
-6.71 -25.32 -3.59 221 223 220
-6.71 -25.41 -3.59 221 223 220
-6.71 -25.50 -3.59 221 223 220
-6.71 -25.59 -3.59 221 223 220
-6.71 -25.68 -3.58 221 223 220
-6.72 -25.77 -3.58 221 223 220
-6.72 -25.86 -3.57 221 223 220
-6.73 -25.95 -3.56 221 223 220
-6.74 -26.03 -3.55 221 223 220
-6.73 -26.12 -3.56 221 223 220
-6.74 -26.21 -3.55 221 223 220
-6.74 -26.30 -3.54 221 223 220
-6.74 -26.39 -3.55 221 223 220
-6.75 -26.48 -3.54 221 223 220
-6.75 -26.57 -3.53 221 223 220
-6.75 -26.66 -3.53 221 223 220
-6.75 -26.75 -3.53 221 223 220
-6.75 -26.84 -3.53 221 223 220
-6.76 -26.93 -3.52 221 223 220
-6.76 -27.02 -3.52 223 225 222
-6.76 -27.11 -3.52 223 225 222
-6.77 -27.20 -3.52 223 225 222
-6.77 -27.28 -3.51 223 225 222
-6.77 -27.37 -3.51 223 225 222
-6.77 -27.47 -3.51 223 225 222
-6.78 -27.55 -3.50 223 225 222
-6.77 -27.64 -3.51 223 225 222
-6.77 -27.74 -3.51 223 223 223
-6.78 -27.82 -3.50 223 223 223
-6.77 -27.92 -3.51 223 223 223
-6.77 -28.01 -3.51 223 223 223
-6.78 -28.10 -3.50 223 223 223
-6.79 -28.18 -3.49 223 223 223
-6.79 -28.27 -3.49 223 223 223
-6.79 -28.36 -3.48 223 223 223
-6.80 -28.45 -3.48 223 223 223
-6.80 -28.54 -3.48 223 223 223
-6.80 -28.63 -3.47 223 223 223
-6.80 -28.72 -3.47 223 223 223
-6.81 -28.80 -3.47 223 223 223
-6.81 -28.89 -3.46 223 223 223
-6.82 -28.98 -3.45 223 223 223
-6.81 -29.07 -3.46 223 223 223
-6.81 -29.16 -3.46 228 226 227
-6.82 -29.25 -3.45 228 226 227
-6.82 -29.34 -3.45 228 226 227
-6.82 -29.43 -3.45 228 226 227
-6.83 -29.51 -3.44 228 226 227
-6.83 -29.61 -3.44 228 226 227
-6.83 -29.69 -3.43 228 226 227
-6.84 -29.78 -3.43 228 226 227
-6.84 -29.87 -3.43 230 228 229
-6.84 -29.96 -3.43 230 228 229
-6.84 -30.05 -3.43 230 228 229
-6.84 -30.14 -3.43 230 228 229
-6.84 -30.23 -3.43 230 228 229
-6.84 -30.32 -3.43 230 228 229
-6.84 -30.42 -3.43 230 228 229
-6.84 -30.51 -3.43 230 228 229
-6.84 -30.60 -3.43 230 230 230
-6.84 -30.69 -3.42 230 230 230
-6.84 -30.77 -3.42 230 230 230
-6.85 -30.86 -3.41 230 230 230
-6.85 -30.95 -3.41 230 230 230
-6.86 -31.04 -3.40 230 230 230
-6.87 -31.12 -3.39 230 230 230
-6.87 -31.21 -3.39 230 230 230
-6.88 -31.29 -3.38 232 232 232
-6.87 -31.39 -3.39 232 232 232
-6.88 -31.48 -3.38 232 232 232
-6.88 -31.56 -3.38 232 232 232
-6.88 -31.65 -3.37 232 232 232
-6.89 -31.74 -3.37 232 232 232
-6.89 -31.83 -3.36 232 232 232
-6.90 -31.91 -3.36 232 232 232
-6.90 -32.00 -3.36 235 233 234
-6.89 -32.10 -3.36 235 233 234
-6.90 -32.19 -3.36 235 233 234
-6.90 -32.28 -3.36 235 233 234
-6.90 -32.37 -3.36 235 233 234
-6.90 -32.45 -3.35 235 233 234
-6.90 -32.55 -3.36 235 233 234
-6.89 -32.64 -3.36 235 233 234
-6.89 -32.73 -3.36 237 235 236
-6.89 -32.83 -3.37 237 235 236
-6.88 -32.92 -3.38 237 235 236
-6.88 -33.01 -3.38 237 235 236
-6.88 -33.10 -3.38 237 235 236
-6.88 -33.19 -3.38 237 235 236
-6.88 -33.28 -3.37 237 235 236
-6.88 -33.37 -3.38 237 235 236
-6.88 -33.46 -3.37 238 236 234
-6.89 -33.55 -3.37 238 236 234
-6.90 -33.63 -3.35 238 236 234
-6.90 -33.72 -3.35 238 236 234
-6.91 -33.80 -3.34 238 236 234
-6.91 -33.89 -3.34 238 236 234
-6.92 -33.97 -3.32 238 236 234
-6.93 -34.06 -3.32 238 236 234
-6.93 -34.15 -3.32 238 236 234
-6.93 -34.24 -3.31 238 236 234
-6.94 -34.32 -3.31 238 236 234
-6.95 -34.41 -3.30 238 236 234
-6.95 -34.50 -3.29 238 236 234
-6.96 -34.58 -3.29 238 236 234
-6.96 -34.67 -3.28 238 236 234
-6.98 -34.74 -3.26 238 236 234
-7.00 -34.82 -3.24 237 237 232
-7.01 -34.90 -3.22 237 237 232
-7.03 -34.97 -3.20 237 237 232
-7.03 -35.06 -3.19 237 237 232
-7.01 -35.17 -3.22 238 236 232
-6.97 -35.29 -3.27 238 236 232
-6.93 -35.42 -3.32 240 235 232
-6.98 -35.47 -3.26 240 235 232
-6.77 -35.74 -3.51 222 215 213
-6.72 21.78 -3.71 142 133 125
-6.71 21.70 -3.72 142 133 125
-6.70 21.61 -3.73 142 133 125
-6.69 21.53 -3.74 142 133 125
-6.70 21.43 -3.73 142 133 125
-6.70 21.34 -3.73 142 133 125
-6.68 21.26 -3.76 142 133 125
-6.67 21.18 -3.77 142 133 125
-6.68 21.08 -3.76 142 133 125
-6.67 20.99 -3.76 142 133 125
-6.67 20.91 -3.77 142 133 125
-6.66 20.83 -3.78 142 133 125
-6.65 20.74 -3.80 142 133 125
-6.64 20.65 -3.80 142 133 125
-6.64 20.56 -3.80 142 133 125
-6.63 20.48 -3.81 142 133 125
-6.63 20.39 -3.82 144 135 127
-6.62 20.31 -3.82 144 135 127
-6.61 20.22 -3.83 144 135 127
-6.61 20.14 -3.84 144 135 127
-6.61 20.04 -3.84 144 135 127
-6.60 19.96 -3.86 144 135 127
-6.59 19.87 -3.86 144 135 127
-6.59 19.79 -3.87 144 135 127
-6.57 19.71 -3.88 145 136 128
-6.57 19.62 -3.88 145 136 128
-6.57 19.53 -3.89 145 136 128
-6.56 19.44 -3.90 145 136 128
-6.55 19.36 -3.91 145 136 128
-6.55 19.27 -3.91 145 136 128
-6.54 19.19 -3.93 145 136 128
-6.53 19.10 -3.93 145 136 128
-6.53 19.01 -3.93 146 142 134
-6.53 18.92 -3.94 146 142 134
-6.52 18.83 -3.94 146 142 134
-6.51 18.75 -3.96 146 142 134
-6.51 18.66 -3.96 146 142 134
-6.50 18.57 -3.97 146 142 134
-6.50 18.48 -3.97 146 142 134
-6.49 18.40 -3.99 146 142 134
-6.49 18.31 -3.99 148 144 136
-6.48 18.22 -3.99 148 144 136
-6.48 18.13 -4.00 148 144 136
-6.47 18.04 -4.00 148 144 136
-6.47 17.95 -4.00 148 144 136
-6.48 17.86 -4.00 148 144 136
-6.47 17.77 -4.01 148 144 136
-6.47 17.68 -4.01 148 144 136
-6.47 17.59 -4.01 148 144 136
-6.47 17.50 -4.01 148 144 136
-6.46 17.41 -4.02 148 144 136
-6.45 17.32 -4.03 148 144 136
-6.46 17.23 -4.03 148 144 136
-6.45 17.15 -4.04 148 144 136
-6.44 17.06 -4.04 148 144 136
-6.44 16.97 -4.04 148 144 136
-6.44 16.88 -4.05 152 148 140
-6.43 16.79 -4.06 152 148 140
-6.43 16.70 -4.06 152 148 140
-6.42 16.61 -4.06 152 148 140
-6.42 16.52 -4.06 152 148 140
-6.42 16.43 -4.06 152 148 140
-6.42 16.34 -4.07 152 148 140
-6.41 16.25 -4.08 152 148 140
-6.40 16.17 -4.10 153 149 141
-6.40 16.08 -4.10 153 149 141
-6.39 15.99 -4.10 153 149 141
-6.38 15.90 -4.11 153 149 141
-6.38 15.81 -4.12 153 149 141
-6.37 15.73 -4.13 153 149 141
-6.37 15.64 -4.13 153 149 141
-6.37 15.55 -4.14 153 149 141
-6.36 15.46 -4.14 155 151 143
-6.36 15.37 -4.14 155 151 143
-6.35 15.28 -4.16 155 151 143
-6.34 15.19 -4.16 155 151 143
-6.34 15.11 -4.17 155 151 143
-6.34 15.01 -4.17 155 151 143
-6.33 14.93 -4.18 155 151 143
-6.33 14.83 -4.18 155 151 143
-6.32 14.75 -4.19 157 156 147
-6.32 14.66 -4.19 157 156 147
-6.32 14.57 -4.19 157 156 147
-6.32 14.48 -4.20 157 156 147
-6.32 14.38 -4.19 157 156 147
-6.31 14.29 -4.20 157 156 147
-6.32 14.20 -4.20 157 156 147
-6.32 14.11 -4.20 157 156 147
-6.31 14.02 -4.20 158 157 148
-6.31 13.93 -4.20 158 157 148
-6.32 13.83 -4.20 158 157 148
-6.32 13.74 -4.20 158 157 148
-6.32 13.64 -4.20 158 157 148
-6.31 13.55 -4.20 158 157 148
-6.31 13.46 -4.20 158 157 148
-6.32 13.37 -4.19 158 157 148
-6.31 13.28 -4.20 160 159 150
-6.31 13.19 -4.20 160 159 150
-6.31 13.09 -4.20 160 159 150
-6.31 13.00 -4.20 160 159 150
-6.31 12.91 -4.20 160 159 150
-6.31 12.82 -4.20 160 159 150
-6.31 12.73 -4.20 160 159 150
-6.31 12.63 -4.20 160 159 150
-6.31 12.54 -4.20 164 163 154
-6.30 12.45 -4.21 164 163 154
-6.31 12.36 -4.21 164 163 154
-6.30 12.27 -4.21 164 163 154
-6.30 12.18 -4.21 164 163 154
-6.30 12.08 -4.21 164 163 154
-6.30 12.00 -4.22 164 163 154
-6.30 11.90 -4.22 164 163 154
-6.29 11.81 -4.22 167 163 155
-6.29 11.72 -4.22 167 163 155
-6.29 11.63 -4.22 167 163 155
-6.28 11.54 -4.24 167 163 155
-6.28 11.45 -4.24 167 163 155
-6.27 11.36 -4.25 167 163 155
-6.27 11.27 -4.26 167 163 155
-6.26 11.19 -4.27 167 163 155
-6.26 11.09 -4.27 167 163 155
-6.25 11.01 -4.28 167 163 155
-6.25 10.92 -4.28 167 163 155
-6.24 10.83 -4.29 167 163 155
-6.24 10.73 -4.28 167 163 155
-6.25 10.64 -4.28 167 163 155
-6.24 10.55 -4.29 167 163 155
-6.24 10.46 -4.29 167 163 155
-6.23 10.37 -4.30 166 167 157
-6.23 10.28 -4.30 166 167 157
-6.23 10.19 -4.30 166 167 157
-6.23 10.09 -4.30 166 167 157
-6.23 10.00 -4.30 166 167 157
-6.22 9.91 -4.32 166 167 157
-6.22 9.82 -4.32 166 167 157
-6.20 9.74 -4.33 166 167 157
-6.20 9.64 -4.33 167 168 158
-6.20 9.55 -4.34 167 168 158
-6.19 9.46 -4.35 167 168 158
-6.19 9.37 -4.35 167 168 158
-6.18 9.28 -4.36 167 168 158
-6.19 9.19 -4.35 167 168 158
-6.19 9.10 -4.35 167 168 158
-6.19 9.00 -4.35 167 168 158
-6.19 8.91 -4.35 170 171 163
-6.18 8.82 -4.36 170 171 163
-6.19 8.72 -4.35 170 171 163
-6.19 8.63 -4.35 170 171 163
-6.19 8.54 -4.35 170 171 163
-6.18 8.45 -4.36 170 171 163
-6.18 8.36 -4.36 170 171 163
-6.18 8.26 -4.36 170 171 163
-6.17 8.18 -4.37 170 171 163
-6.17 8.08 -4.37 170 171 163
-6.17 7.99 -4.38 170 171 163
-6.17 7.90 -4.38 170 171 163
-6.17 7.81 -4.38 170 171 163
-6.17 7.72 -4.38 170 171 163
-6.16 7.63 -4.38 170 171 163
-6.16 7.53 -4.38 170 171 163
-6.16 7.44 -4.39 171 172 164
-6.16 7.35 -4.39 171 172 164
-6.16 7.26 -4.39 171 172 164
-6.16 7.16 -4.39 171 172 164
-6.16 7.07 -4.38 171 172 164
-6.16 6.98 -4.39 171 172 164
-6.16 6.89 -4.39 171 172 164
-6.16 6.79 -4.39 171 172 164
-6.15 6.70 -4.39 173 174 166
-6.16 6.61 -4.39 173 174 166
-6.15 6.52 -4.39 173 174 166
-6.16 6.42 -4.39 173 174 166
-6.16 6.33 -4.39 173 174 166
-6.15 6.24 -4.40 173 174 166
-6.16 6.14 -4.39 173 174 166
-6.15 6.05 -4.40 173 174 166
-6.15 5.96 -4.39 173 174 166
-6.16 5.87 -4.38 173 174 166
-6.16 5.77 -4.39 173 174 166
-6.16 5.68 -4.39 173 174 166
-6.15 5.59 -4.39 173 174 166
-6.16 5.50 -4.38 173 174 166
-6.16 5.40 -4.38 173 174 166
-6.16 5.31 -4.38 173 174 166
-6.17 5.21 -4.38 173 174 166
-6.17 5.12 -4.38 173 174 166
-6.17 5.03 -4.38 173 174 166
-6.17 4.94 -4.38 173 174 166
-6.17 4.84 -4.37 173 174 166
-6.17 4.75 -4.37 173 174 166
-6.17 4.66 -4.37 173 174 166
-6.18 4.56 -4.36 173 174 166
-6.18 4.47 -4.36 173 173 168
-6.17 4.38 -4.37 173 173 168
-6.18 4.28 -4.36 173 173 168
-6.18 4.19 -4.37 173 173 168
-6.18 4.10 -4.36 173 173 168
-6.19 4.00 -4.35 173 173 168
-6.17 3.92 -4.37 173 173 168
-6.18 3.82 -4.36 173 173 168
-6.17 3.73 -4.37 173 173 168
-6.17 3.64 -4.37 173 173 168
-6.17 3.55 -4.37 173 173 168
-6.17 3.45 -4.37 173 173 168
-6.17 3.36 -4.37 173 173 168
-6.17 3.27 -4.37 173 173 168
-6.18 3.17 -4.37 173 173 168
-6.17 3.08 -4.37 173 173 168
-6.17 2.99 -4.37 173 174 166
-6.17 2.90 -4.37 173 174 166
-6.17 2.80 -4.37 173 174 166
-6.18 2.71 -4.37 173 174 166
-6.18 2.62 -4.37 173 174 166
-6.18 2.52 -4.36 173 174 166
-6.18 2.43 -4.36 173 174 166
-6.18 2.34 -4.36 173 174 166
-6.19 2.24 -4.35 171 172 164
-6.19 2.15 -4.35 171 172 164
-6.19 2.06 -4.35 171 172 164
-6.19 1.97 -4.35 171 172 164
-6.20 1.87 -4.34 171 172 164
-6.20 1.78 -4.34 171 172 164
-6.20 1.68 -4.33 171 172 164
-6.20 1.59 -4.34 171 172 164
-6.20 1.50 -4.33 171 173 168
-6.20 1.41 -4.33 171 173 168
-6.21 1.31 -4.32 171 173 168
-6.21 1.22 -4.32 171 173 168
-6.21 1.13 -4.32 171 173 168
-6.21 1.04 -4.33 171 173 168
-6.21 0.94 -4.32 171 173 168
-6.22 0.85 -4.32 171 173 168
-6.22 0.76 -4.32 171 173 168
-6.21 0.66 -4.32 171 173 168
-6.21 0.57 -4.32 171 173 168
-6.21 0.48 -4.33 171 173 168
-6.21 0.39 -4.33 171 173 168
-6.21 0.29 -4.33 171 173 168
-6.20 0.20 -4.33 171 173 168
-6.21 0.11 -4.32 171 173 168
-6.21 0.02 -4.33 169 174 168
-6.21 -0.08 -4.32 169 174 168
-6.21 -0.17 -4.33 169 174 168
-6.21 -0.26 -4.32 169 174 168
-6.22 -0.35 -4.32 169 174 168
-6.21 -0.45 -4.32 169 174 168
-6.22 -0.54 -4.31 169 174 168
-6.22 -0.63 -4.32 169 174 168
-6.22 -0.72 -4.32 169 174 168
-6.23 -0.82 -4.31 169 174 168
-6.22 -0.91 -4.32 169 174 168
-6.22 -1.00 -4.31 169 174 168
-6.21 -1.09 -4.32 169 174 168
-6.21 -1.19 -4.32 169 174 168
-6.22 -1.28 -4.32 169 174 168
-6.21 -1.37 -4.32 169 174 168
-6.21 -1.46 -4.32 172 177 173
-6.20 -1.55 -4.33 172 177 173
-6.21 -1.65 -4.32 172 177 173
-6.20 -1.74 -4.34 172 177 173
-6.20 -1.83 -4.33 172 177 173
-6.20 -1.92 -4.34 172 177 173
-6.19 -2.02 -4.35 172 177 173
-6.19 -2.11 -4.35 172 177 173
-6.19 -2.20 -4.35 174 179 175
-6.19 -2.29 -4.35 174 179 175
-6.18 -2.38 -4.37 174 179 175
-6.18 -2.48 -4.36 174 179 175
-6.17 -2.57 -4.37 174 179 175
-6.18 -2.66 -4.36 174 179 175
-6.18 -2.75 -4.36 174 179 175
-6.18 -2.85 -4.36 174 179 175
-6.17 -2.94 -4.37 172 177 173
-6.17 -3.03 -4.37 172 177 173
-6.17 -3.12 -4.37 172 177 173
-6.17 -3.22 -4.37 172 177 173
-6.17 -3.31 -4.37 172 177 173
-6.17 -3.40 -4.37 172 177 173
-6.17 -3.49 -4.38 172 177 173
-6.17 -3.59 -4.37 172 177 173
-6.17 -3.68 -4.38 174 179 175
-6.17 -3.77 -4.37 174 179 175
-6.17 -3.86 -4.37 174 179 175
-6.17 -3.96 -4.37 174 179 175
-6.17 -4.05 -4.38 174 179 175
-6.17 -4.14 -4.38 174 179 175
-6.17 -4.24 -4.38 174 179 175
-6.17 -4.33 -4.38 174 179 175
-6.17 -4.42 -4.38 175 182 175
-6.17 -4.51 -4.38 175 182 175
-6.16 -4.60 -4.39 175 182 175
-6.17 -4.70 -4.38 175 182 175
-6.16 -4.79 -4.39 175 182 175
-6.16 -4.88 -4.39 175 182 175
-6.16 -4.98 -4.39 175 182 175
-6.15 -5.07 -4.40 175 182 175
-6.15 -5.16 -4.40 175 182 175
-6.15 -5.25 -4.40 175 182 175
-6.15 -5.35 -4.40 175 182 175
-6.14 -5.44 -4.41 175 182 175
-6.15 -5.53 -4.40 175 182 175
-6.15 -5.62 -4.40 175 182 175
-6.15 -5.72 -4.40 175 182 175
-6.15 -5.81 -4.40 175 182 175
-6.14 -5.90 -4.41 176 183 176
-6.14 -5.99 -4.42 176 183 176
-6.14 -6.09 -4.41 176 183 176
-6.13 -6.18 -4.42 176 183 176
-6.13 -6.27 -4.42 176 183 176
-6.13 -6.36 -4.43 176 183 176
-6.12 -6.46 -4.43 176 183 176
-6.12 -6.55 -4.44 176 183 176
-6.11 -6.64 -4.45 178 185 178
-6.10 -6.74 -4.46 178 185 178
-6.09 -6.83 -4.47 178 185 178
-6.09 -6.92 -4.48 178 185 178
-6.08 -7.01 -4.49 178 185 178
-6.08 -7.11 -4.49 178 185 178
-6.07 -7.20 -4.50 178 185 178
-6.07 -7.29 -4.50 178 185 178
-6.06 -7.39 -4.51 178 185 180
-6.06 -7.48 -4.51 178 185 180
-6.05 -7.57 -4.52 178 185 180
-6.05 -7.66 -4.52 178 185 180
-6.05 -7.76 -4.52 178 185 180
-6.04 -7.85 -4.54 178 185 180
-6.04 -7.94 -4.54 178 185 180
-6.03 -8.04 -4.54 178 185 180
-6.01 -8.13 -4.56 180 187 182
-6.01 -8.22 -4.56 180 187 182
-6.00 -8.32 -4.58 180 187 182
-5.99 -8.41 -4.59 180 187 182
-5.99 -8.50 -4.59 180 187 182
-5.98 -8.60 -4.60 180 187 182
-5.98 -8.69 -4.61 180 187 182
-5.97 -8.78 -4.62 180 187 182
-5.97 -8.88 -4.62 176 183 181
-5.97 -8.97 -4.62 176 183 181
-5.96 -9.06 -4.63 176 183 181
-5.96 -9.16 -4.62 176 183 181
-5.96 -9.25 -4.63 176 183 181
-5.95 -9.34 -4.64 176 183 181
-5.95 -9.44 -4.64 176 183 181
-5.95 -9.53 -4.65 176 183 181
-5.96 -9.62 -4.63 176 183 181
-5.95 -9.72 -4.64 176 183 181
-5.96 -9.81 -4.62 176 183 181
-5.96 -9.90 -4.63 176 183 181
-5.97 -9.99 -4.62 176 183 181
-5.98 -10.09 -4.61 176 183 181
-5.99 -10.18 -4.59 176 183 181
-6.00 -10.27 -4.58 176 183 181
-6.01 -10.36 -4.57 178 185 183
-6.02 -10.46 -4.56 178 185 183
-6.02 -10.55 -4.56 178 185 183
-6.02 -10.64 -4.55 178 185 183
-6.03 -10.73 -4.55 178 185 183
-6.04 -10.83 -4.54 178 185 183
-6.03 -10.92 -4.54 178 185 183
-6.03 -11.01 -4.55 178 185 183
-6.03 -11.11 -4.55 182 189 187
-6.02 -11.20 -4.55 182 189 187
-6.04 -11.29 -4.54 182 189 187
-6.02 -11.39 -4.55 182 189 187
-6.03 -11.48 -4.55 182 189 187
-6.02 -11.57 -4.55 182 189 187
-6.04 -11.66 -4.54 182 189 187
-6.03 -11.76 -4.55 182 189 187
-6.02 -11.85 -4.56 187 194 192
-6.02 -11.95 -4.56 187 194 192
-6.01 -12.04 -4.57 187 194 192
-6.01 -12.13 -4.57 187 194 192
-5.99 -12.23 -4.59 187 194 192
-5.99 -12.32 -4.59 187 194 192
-5.98 -12.42 -4.60 187 194 192
-5.98 -12.51 -4.61 187 194 192
-5.97 -12.60 -4.62 192 199 197
-5.96 -12.70 -4.62 192 199 197
-5.95 -12.79 -4.64 192 199 197
-5.95 -12.89 -4.65 192 199 197
-5.94 -12.98 -4.65 192 199 197
-5.93 -13.08 -4.66 192 199 197
-5.93 -13.17 -4.67 192 199 197
-5.93 -13.26 -4.67 192 199 197
-5.91 -13.36 -4.70 192 199 192
-5.90 -13.46 -4.70 192 199 192
-5.88 -13.55 -4.72 192 199 194
-5.88 -13.65 -4.73 192 199 194
-5.88 -13.74 -4.73 192 199 197
-5.88 -13.83 -4.73 192 199 197
-5.88 -13.93 -4.73 192 198 199
-5.88 -14.02 -4.73 192 198 199
-5.88 -14.11 -4.72 197 203 206
-5.89 -14.20 -4.71 188 194 197
-5.91 -14.29 -4.69 195 200 206
-5.93 -14.38 -4.67 189 194 200
-5.96 -14.47 -4.63 182 187 195
-5.98 -14.56 -4.61 182 187 195
-5.99 -14.65 -4.60 183 188 196
-6.19 -14.70 -4.35 204 209 217
-6.62 -14.70 -3.83 150 166 204
-6.84 -14.74 -3.55 34 50 88
-6.85 -14.83 -3.55 22 35 90
-6.81 -14.93 -3.59 42 55 110
-6.84 -15.01 -3.56 44 54 130
-6.84 -15.10 -3.56 44 54 130
-6.88 -15.18 -3.51 43 50 141
-6.88 -15.27 -3.51 45 52 143
-6.89 -15.36 -3.49 44 52 140
-6.91 -15.45 -3.47 43 51 139
-6.92 -15.54 -3.46 44 55 122
-6.96 -15.62 -3.42 46 57 124
-6.98 -15.70 -3.39 48 63 106
-7.01 -15.79 -3.35 43 58 101
-7.04 -15.87 -3.31 34 52 76
-7.09 -15.94 -3.25 25 43 67
-7.14 -16.02 -3.19 51 42 38
-7.26 -16.08 -3.05 23 14 10
-7.39 -16.13 -2.89 36 30 7
-7.55 -16.18 -2.69 179 173 150
-7.67 -16.24 -2.55 199 196 156
-7.72 -16.31 -2.48 172 169 129
-7.76 -16.39 -2.44 158 154 117
-7.78 -16.47 -2.42 167 163 126
-7.79 -16.55 -2.40 172 165 145
-7.82 -16.64 -2.37 172 165 145
-7.84 -16.72 -2.34 172 164 153
-7.87 -16.80 -2.31 172 164 153
-7.88 -16.88 -2.29 172 165 149
-7.91 -16.96 -2.26 172 165 149
-7.93 -17.04 -2.24 172 167 139
-7.94 -17.13 -2.22 172 167 139
-7.97 -17.21 -2.18 175 176 157
-7.99 -17.29 -2.16 172 173 154
-8.01 -17.37 -2.13 169 170 151
-8.03 -17.45 -2.11 168 169 150
-8.04 -17.53 -2.10 166 167 148
-8.06 -17.62 -2.07 155 156 137
-8.07 -17.70 -2.06 140 141 122
-8.08 -17.78 -2.05 127 128 109
-8.09 -17.87 -2.04 98 99 80
-8.11 -17.95 -2.02 88 89 70
-8.11 -18.03 -2.01 79 80 61
-8.14 -18.11 -1.98 70 71 52
-8.16 -18.19 -1.95 63 64 45
-8.20 -18.27 -1.91 59 60 41
-8.22 -18.35 -1.88 61 62 43
-8.26 -18.42 -1.83 69 70 51
-8.28 -18.50 -1.81 96 97 89
-8.31 -18.58 -1.77 123 124 116
-8.33 -18.66 -1.75 143 144 136
-8.37 -18.73 -1.70 139 140 132
-8.40 -18.80 -1.66 128 129 121
-8.42 -18.88 -1.64 116 117 109
-8.45 -18.96 -1.61 97 98 90
-8.47 -19.04 -1.57 79 80 72
-8.51 -19.11 -1.53 121 122 114
-8.55 -19.18 -1.48 121 122 114
-8.59 -19.25 -1.43 64 65 57
-8.64 -19.32 -1.37 105 106 98
-8.68 -19.39 -1.32 79 80 72
-8.74 -19.45 -1.25 26 27 19
-8.82 -19.51 -1.16 39 40 32
-8.86 -19.57 -1.10 50 51 43
-8.89 -19.65 -1.07 55 57 54
-8.91 -19.72 -1.04 57 59 56
-8.94 -19.80 -1.01 62 64 61
-8.97 -19.87 -0.96 64 66 63
-9.00 -19.94 -0.93 64 66 63
-9.02 -20.02 -0.91 60 62 59
-9.04 -20.10 -0.88 56 58 55
-9.05 -20.18 -0.87 52 54 51
-9.06 -20.26 -0.86 64 66 63
-9.06 -20.34 -0.85 59 61 58
-9.07 -20.42 -0.85 50 52 49
-9.07 -20.51 -0.84 39 41 38
-9.10 -20.58 -0.81 29 31 28
-9.12 -20.65 -0.78 21 23 20
-9.15 -20.73 -0.75 15 17 14
-9.17 -20.80 -0.72 13 15 12
-9.20 -20.87 -0.69 14 7 5
-9.26 -20.93 -0.62 16 9 7
-9.31 -20.99 -0.56 27 22 21
-9.32 -21.07 -0.54 15 10 9
-9.34 -21.14 -0.51 68 63 65
-9.11 -21.34 -0.80 199 194 196
-7.54 -22.14 -2.70 254 252 253
-6.90 -22.52 -3.49 222 220 221
-7.10 -22.52 -3.25 218 220 217
-7.05 -22.63 -3.30 218 220 217
-7.03 -22.73 -3.32 216 221 215
-7.01 -22.83 -3.35 216 221 215
-7.00 -22.93 -3.37 215 222 215
-6.98 -23.02 -3.38 215 222 215
-6.96 -23.13 -3.42 215 222 215
-6.94 -23.23 -3.44 215 222 215
-6.92 -23.32 -3.46 220 222 219
-6.92 -23.42 -3.47 220 222 219
-6.90 -23.52 -3.49 220 222 219
-6.89 -23.61 -3.50 220 222 219
-6.89 -23.70 -3.50 220 222 219
-6.90 -23.79 -3.48 220 222 219
-6.91 -23.88 -3.48 220 222 219
-6.91 -23.97 -3.48 220 222 219
-6.91 -24.06 -3.48 221 223 220
-6.90 -24.15 -3.48 221 223 220
-6.89 -24.25 -3.49 221 223 220
-6.89 -24.34 -3.50 221 223 220
-6.89 -24.43 -3.50 221 223 220
-6.87 -24.53 -3.52 221 223 220
-6.88 -24.62 -3.51 221 223 220
-6.87 -24.71 -3.52 221 223 220
-6.87 -24.80 -3.52 221 223 220
-6.87 -24.89 -3.53 221 223 220
-6.86 -24.99 -3.53 221 223 220
-6.87 -25.07 -3.52 221 223 220
-6.87 -25.17 -3.52 221 223 220
-6.86 -25.26 -3.53 221 223 220
-6.87 -25.35 -3.53 221 223 220
-6.87 -25.44 -3.52 221 223 220
-6.86 -25.53 -3.53 221 223 220
-6.87 -25.62 -3.52 221 223 220
-6.87 -25.71 -3.52 221 223 220
-6.88 -25.79 -3.51 221 223 220
-6.88 -25.88 -3.51 221 223 220
-6.88 -25.97 -3.51 221 223 220
-6.89 -26.06 -3.50 221 223 220
-6.89 -26.15 -3.50 221 223 220
-6.90 -26.24 -3.49 221 223 220
-6.90 -26.32 -3.48 221 223 220
-6.90 -26.42 -3.48 221 223 220
-6.91 -26.50 -3.48 221 223 220
-6.92 -26.59 -3.46 221 223 220
-6.92 -26.68 -3.46 221 223 220
-6.92 -26.77 -3.47 221 223 220
-6.92 -26.86 -3.46 221 223 220
-6.92 -26.95 -3.46 223 225 222
-6.92 -27.04 -3.46 223 225 222
-6.92 -27.13 -3.46 223 225 222
-6.93 -27.22 -3.45 223 225 222
-6.93 -27.31 -3.45 223 225 222
-6.93 -27.40 -3.45 223 225 222
-6.93 -27.48 -3.45 223 225 222
-6.94 -27.57 -3.44 223 225 222
-6.94 -27.66 -3.44 223 223 223
-6.94 -27.75 -3.44 223 223 223
-6.93 -27.85 -3.45 223 223 223
-6.94 -27.94 -3.44 223 223 223
-6.94 -28.02 -3.44 223 223 223
-6.94 -28.11 -3.43 223 223 223
-6.95 -28.20 -3.42 223 223 223
-6.95 -28.29 -3.42 223 223 223
-6.96 -28.37 -3.41 223 223 223
-6.97 -28.46 -3.41 223 223 223
-6.97 -28.55 -3.41 223 223 223
-6.97 -28.64 -3.40 223 223 223
-6.97 -28.73 -3.40 223 223 223
-6.98 -28.81 -3.39 223 223 223
-6.98 -28.91 -3.39 223 223 223
-6.98 -28.99 -3.39 223 223 223
-6.98 -29.08 -3.39 228 226 227
-6.98 -29.17 -3.39 228 226 227
-6.98 -29.26 -3.39 228 226 227
-6.98 -29.35 -3.38 228 226 227
-6.99 -29.44 -3.37 228 226 227
-6.99 -29.53 -3.38 228 226 227
-6.99 -29.62 -3.37 228 226 227
-6.99 -29.71 -3.37 228 226 227
-6.99 -29.80 -3.38 230 228 229
-6.99 -29.89 -3.38 230 228 229
-7.00 -29.98 -3.37 230 228 229
-6.99 -30.07 -3.38 230 228 229
-7.00 -30.15 -3.36 230 228 229
-6.99 -30.25 -3.37 230 228 229
-6.99 -30.34 -3.37 230 228 229
-7.01 -30.42 -3.36 230 228 229
-7.00 -30.51 -3.36 230 230 230
-7.00 -30.60 -3.36 230 230 230
-7.00 -30.69 -3.36 230 230 230
-7.00 -30.78 -3.36 230 230 230
-7.01 -30.87 -3.35 230 230 230
-7.02 -30.95 -3.34 230 230 230
-7.02 -31.04 -3.34 230 230 230
-7.02 -31.13 -3.34 230 230 230
-7.03 -31.22 -3.33 232 232 232
-7.03 -31.31 -3.33 232 232 232
-7.03 -31.40 -3.33 232 232 232
-7.03 -31.48 -3.32 232 232 232
-7.04 -31.57 -3.31 232 232 232
-7.04 -31.66 -3.32 232 232 232
-7.05 -31.75 -3.31 232 232 232
-7.05 -31.83 -3.30 232 232 232
-7.04 -31.93 -3.31 235 233 234
-7.05 -32.01 -3.30 235 233 234
-7.05 -32.10 -3.30 235 233 234
-7.06 -32.19 -3.29 235 233 234
-7.06 -32.28 -3.30 235 233 234
-7.05 -32.37 -3.30 235 233 234
-7.06 -32.46 -3.29 235 233 234
-7.05 -32.55 -3.30 235 233 234
-7.06 -32.64 -3.30 237 235 236
-7.05 -32.74 -3.30 237 235 236
-7.05 -32.83 -3.30 237 235 236
-7.04 -32.92 -3.31 237 235 236
-7.04 -33.01 -3.31 237 235 236
-7.04 -33.10 -3.31 237 235 236
-7.05 -33.19 -3.31 237 235 236
-7.05 -33.28 -3.30 237 235 236
-7.05 -33.36 -3.30 238 236 234
-7.06 -33.45 -3.30 238 236 234
-7.07 -33.53 -3.28 238 236 234
-7.07 -33.63 -3.28 238 236 234
-7.07 -33.71 -3.28 238 236 234
-7.08 -33.79 -3.27 238 236 234
-7.09 -33.88 -3.26 238 236 234
-7.09 -33.97 -3.26 238 236 234
-7.09 -34.06 -3.26 238 236 234
-7.09 -34.14 -3.25 238 236 234
-7.10 -34.23 -3.25 238 236 234
-7.11 -34.31 -3.24 238 236 234
-7.11 -34.40 -3.24 238 236 234
-7.11 -34.49 -3.23 238 236 234
-7.12 -34.57 -3.22 238 236 234
-7.14 -34.65 -3.20 238 236 234
-7.15 -34.73 -3.18 237 237 232
-7.17 -34.80 -3.16 237 237 232
-7.17 -34.89 -3.16 237 237 232
-7.20 -34.96 -3.13 237 237 232
-7.17 -35.07 -3.16 238 236 232
-7.12 -35.20 -3.21 238 236 232
-7.08 -35.33 -3.27 240 235 232
-7.06 -35.44 -3.29 240 235 232
-7.28 -35.33 -3.02 232 225 223
-6.87 21.68 -3.65 142 133 125
-6.85 21.61 -3.68 142 133 125
-6.84 21.52 -3.69 142 133 125
-6.84 21.43 -3.69 142 133 125
-6.85 21.33 -3.68 142 133 125
-6.85 21.24 -3.68 142 133 125
-6.83 21.17 -3.70 142 133 125
-6.81 21.10 -3.73 142 133 125
-6.81 21.01 -3.73 142 133 125
-6.80 20.93 -3.74 142 133 125
-6.79 20.84 -3.75 142 133 125
-6.79 20.75 -3.75 142 133 125
-6.79 20.66 -3.76 142 133 125
-6.78 20.57 -3.76 142 133 125
-6.77 20.49 -3.77 142 133 125
-6.77 20.41 -3.78 142 133 125
-6.76 20.32 -3.79 144 135 127
-6.76 20.23 -3.79 144 135 127
-6.75 20.15 -3.80 144 135 127
-6.75 20.06 -3.81 144 135 127
-6.75 19.97 -3.81 144 135 127
-6.73 19.89 -3.83 144 135 127
-6.73 19.80 -3.83 144 135 127
-6.72 19.71 -3.83 144 135 127
-6.71 19.63 -3.85 145 136 128
-6.71 19.54 -3.85 145 136 128
-6.70 19.46 -3.86 145 136 128
-6.70 19.37 -3.86 145 136 128
-6.70 19.28 -3.87 145 136 128
-6.68 19.20 -3.88 145 136 128
-6.68 19.11 -3.88 145 136 128
-6.68 19.02 -3.89 145 136 128
-6.67 18.93 -3.90 146 142 134
-6.67 18.85 -3.90 146 142 134
-6.66 18.76 -3.91 146 142 134
-6.65 18.67 -3.92 146 142 134
-6.64 18.59 -3.93 146 142 134
-6.64 18.50 -3.94 146 142 134
-6.63 18.41 -3.94 146 142 134
-6.62 18.33 -3.96 146 142 134
-6.62 18.24 -3.96 148 144 136
-6.62 18.15 -3.96 148 144 136
-6.62 18.06 -3.96 148 144 136
-6.61 17.97 -3.97 148 144 136
-6.61 17.88 -3.97 148 144 136
-6.61 17.79 -3.97 148 144 136
-6.61 17.70 -3.97 148 144 136
-6.61 17.61 -3.97 148 144 136
-6.60 17.52 -3.98 148 144 136
-6.60 17.43 -3.98 148 144 136
-6.60 17.34 -3.99 148 144 136
-6.59 17.26 -4.00 148 144 136
-6.59 17.17 -4.00 148 144 136
-6.58 17.08 -4.01 148 144 136
-6.58 16.99 -4.01 148 144 136
-6.57 16.90 -4.02 148 144 136
-6.57 16.81 -4.02 152 148 140
-6.57 16.72 -4.03 152 148 140
-6.57 16.63 -4.02 152 148 140
-6.56 16.54 -4.03 152 148 140
-6.56 16.45 -4.03 152 148 140
-6.56 16.36 -4.03 152 148 140
-6.55 16.28 -4.05 152 148 140
-6.55 16.19 -4.05 152 148 140
-6.54 16.10 -4.06 153 149 141
-6.53 16.02 -4.07 153 149 141
-6.53 15.93 -4.07 153 149 141
-6.52 15.84 -4.09 153 149 141
-6.51 15.75 -4.09 153 149 141
-6.51 15.67 -4.10 153 149 141
-6.50 15.58 -4.11 153 149 141
-6.50 15.49 -4.11 153 149 141
-6.49 15.40 -4.11 155 151 143
-6.49 15.31 -4.12 155 151 143
-6.48 15.22 -4.13 155 151 143
-6.48 15.13 -4.13 155 151 143
-6.47 15.05 -4.14 155 151 143
-6.47 14.96 -4.14 155 151 143
-6.47 14.86 -4.14 155 151 143
-6.46 14.78 -4.15 155 151 143
-6.46 14.69 -4.16 157 156 147
-6.45 14.60 -4.17 157 156 147
-6.45 14.51 -4.17 157 156 147
-6.45 14.42 -4.17 157 156 147
-6.45 14.33 -4.17 157 156 147
-6.45 14.24 -4.17 157 156 147
-6.45 14.14 -4.17 157 156 147
-6.45 14.05 -4.17 157 156 147
-6.45 13.96 -4.17 158 157 148
-6.45 13.87 -4.17 158 157 148
-6.45 13.77 -4.16 158 157 148
-6.45 13.68 -4.16 158 157 148
-6.46 13.59 -4.16 158 157 148
-6.45 13.50 -4.17 158 157 148
-6.45 13.40 -4.17 158 157 148
-6.46 13.31 -4.15 158 157 148
-6.45 13.22 -4.17 160 159 150
-6.45 13.13 -4.17 160 159 150
-6.45 13.04 -4.17 160 159 150
-6.45 12.95 -4.17 160 159 150
-6.45 12.86 -4.17 160 159 150
-6.45 12.76 -4.17 160 159 150
-6.45 12.67 -4.17 160 159 150
-6.44 12.58 -4.18 160 159 150
-6.45 12.49 -4.17 164 163 154
-6.44 12.40 -4.18 164 163 154
-6.45 12.30 -4.17 164 163 154
-6.44 12.21 -4.18 164 163 154
-6.44 12.13 -4.18 164 163 154
-6.44 12.03 -4.18 164 163 154
-6.43 11.94 -4.19 164 163 154
-6.45 11.84 -4.17 164 163 154
-6.44 11.76 -4.18 167 163 155
-6.44 11.66 -4.18 167 163 155
-6.43 11.57 -4.19 167 163 155
-6.42 11.49 -4.20 167 163 155
-6.43 11.39 -4.19 167 163 155
-6.42 11.30 -4.20 167 163 155
-6.41 11.22 -4.22 167 163 155
-6.40 11.13 -4.23 167 163 155
-6.40 11.04 -4.23 167 163 155
-6.39 10.95 -4.24 167 163 155
-6.39 10.86 -4.25 167 163 155
-6.38 10.77 -4.25 167 163 155
-6.38 10.68 -4.25 167 163 155
-6.39 10.59 -4.25 167 163 155
-6.38 10.50 -4.25 167 163 155
-6.38 10.41 -4.26 167 163 155
-6.37 10.32 -4.26 166 167 157
-6.36 10.23 -4.27 166 167 157
-6.36 10.14 -4.28 166 167 157
-6.36 10.05 -4.28 166 167 157
-6.36 9.96 -4.28 166 167 157
-6.35 9.87 -4.29 166 167 157
-6.35 9.78 -4.30 166 167 157
-6.34 9.69 -4.30 166 167 157
-6.33 9.60 -4.31 167 168 158
-6.33 9.51 -4.31 167 168 158
-6.33 9.42 -4.32 167 168 158
-6.33 9.33 -4.31 167 168 158
-6.33 9.24 -4.32 167 168 158
-6.33 9.14 -4.32 167 168 158
-6.33 9.05 -4.31 167 168 158
-6.33 8.96 -4.31 167 168 158
-6.33 8.86 -4.31 170 171 163
-6.33 8.77 -4.32 170 171 163
-6.33 8.68 -4.32 170 171 163
-6.31 8.59 -4.33 170 171 163
-6.33 8.50 -4.32 170 171 163
-6.32 8.41 -4.32 170 171 163
-6.32 8.31 -4.33 170 171 163
-6.32 8.22 -4.33 170 171 163
-6.31 8.13 -4.34 170 171 163
-6.32 8.04 -4.33 170 171 163
-6.31 7.95 -4.33 170 171 163
-6.32 7.85 -4.33 170 171 163
-6.32 7.76 -4.33 170 171 163
-6.31 7.67 -4.34 170 171 163
-6.31 7.58 -4.34 170 171 163
-6.30 7.49 -4.35 170 171 163
-6.30 7.40 -4.35 171 172 164
-6.30 7.31 -4.35 171 172 164
-6.30 7.21 -4.35 171 172 164
-6.30 7.12 -4.35 171 172 164
-6.30 7.03 -4.35 171 172 164
-6.30 6.94 -4.35 171 172 164
-6.30 6.85 -4.35 171 172 164
-6.30 6.75 -4.35 171 172 164
-6.30 6.66 -4.35 173 174 166
-6.30 6.57 -4.35 173 174 166
-6.30 6.48 -4.35 173 174 166
-6.30 6.38 -4.35 173 174 166
-6.31 6.29 -4.34 173 174 166
-6.30 6.20 -4.35 173 174 166
-6.30 6.11 -4.35 173 174 166
-6.30 6.01 -4.35 173 174 166
-6.30 5.92 -4.35 173 174 166
-6.30 5.83 -4.35 173 174 166
-6.30 5.74 -4.35 173 174 166
-6.31 5.64 -4.34 173 174 166
-6.31 5.55 -4.34 173 174 166
-6.31 5.46 -4.34 173 174 166
-6.30 5.37 -4.35 173 174 166
-6.31 5.27 -4.34 173 174 166
-6.31 5.18 -4.34 173 174 166
-6.31 5.09 -4.34 173 174 166
-6.31 4.99 -4.34 173 174 166
-6.31 4.90 -4.34 173 174 166
-6.31 4.81 -4.34 173 174 166
-6.32 4.71 -4.33 173 174 166
-6.32 4.62 -4.33 173 174 166
-6.32 4.53 -4.33 173 174 166
-6.32 4.44 -4.33 173 173 168
-6.33 4.34 -4.32 173 173 168
-6.32 4.25 -4.32 173 173 168
-6.32 4.16 -4.33 173 173 168
-6.32 4.07 -4.33 173 173 168
-6.32 3.97 -4.32 173 173 168
-6.32 3.88 -4.33 173 173 168
-6.32 3.79 -4.32 173 173 168
-6.32 3.70 -4.32 173 173 168
-6.32 3.60 -4.32 173 173 168
-6.32 3.51 -4.33 173 173 168
-6.32 3.42 -4.32 173 173 168
-6.32 3.33 -4.32 173 173 168
-6.32 3.24 -4.33 173 173 168
-6.32 3.14 -4.32 173 173 168
-6.31 3.05 -4.34 173 173 168
-6.32 2.96 -4.33 173 174 166
-6.32 2.87 -4.33 173 174 166
-6.32 2.77 -4.33 173 174 166
-6.32 2.68 -4.33 173 174 166
-6.32 2.59 -4.33 173 174 166
-6.32 2.50 -4.33 173 174 166
-6.32 2.40 -4.33 173 174 166
-6.33 2.31 -4.32 173 174 166
-6.33 2.22 -4.32 171 172 164
-6.33 2.12 -4.31 171 172 164
-6.33 2.03 -4.32 171 172 164
-6.33 1.94 -4.31 171 172 164
-6.33 1.85 -4.31 171 172 164
-6.33 1.75 -4.31 171 172 164
-6.34 1.66 -4.30 171 172 164
-6.34 1.57 -4.30 171 172 164
-6.35 1.47 -4.29 171 173 168
-6.34 1.38 -4.30 171 173 168
-6.35 1.29 -4.28 171 173 168
-6.35 1.20 -4.29 171 173 168
-6.35 1.10 -4.29 171 173 168
-6.36 1.01 -4.28 171 173 168
-6.35 0.92 -4.29 171 173 168
-6.36 0.82 -4.28 171 173 168
-6.36 0.73 -4.28 171 173 168
-6.35 0.64 -4.28 171 173 168
-6.35 0.55 -4.28 171 173 168
-6.35 0.46 -4.28 171 173 168
-6.35 0.36 -4.28 171 173 168
-6.35 0.27 -4.29 171 173 168
-6.35 0.18 -4.29 171 173 168
-6.35 0.09 -4.29 171 173 168
-6.35 -0.00 -4.29 169 174 168
-6.36 -0.10 -4.28 169 174 168
-6.35 -0.19 -4.28 169 174 168
-6.35 -0.28 -4.28 169 174 168
-6.35 -0.37 -4.28 169 174 168
-6.36 -0.47 -4.28 169 174 168
-6.36 -0.56 -4.28 169 174 168
-6.36 -0.65 -4.28 169 174 168
-6.36 -0.74 -4.28 169 174 168
-6.36 -0.84 -4.28 169 174 168
-6.35 -0.93 -4.29 169 174 168
-6.36 -1.02 -4.28 169 174 168
-6.36 -1.11 -4.28 169 174 168
-6.35 -1.20 -4.29 169 174 168
-6.35 -1.30 -4.29 169 174 168
-6.34 -1.39 -4.30 169 174 168
-6.34 -1.48 -4.30 172 177 173
-6.34 -1.57 -4.30 172 177 173
-6.34 -1.66 -4.30 172 177 173
-6.34 -1.75 -4.30 172 177 173
-6.34 -1.85 -4.31 172 177 173
-6.33 -1.94 -4.31 172 177 173
-6.33 -2.03 -4.31 172 177 173
-6.33 -2.12 -4.31 172 177 173
-6.33 -2.21 -4.31 174 179 175
-6.33 -2.31 -4.32 174 179 175
-6.33 -2.40 -4.31 174 179 175
-6.33 -2.49 -4.32 174 179 175
-6.32 -2.58 -4.33 174 179 175
-6.32 -2.68 -4.33 174 179 175
-6.32 -2.77 -4.33 174 179 175
-6.32 -2.86 -4.33 174 179 175
-6.32 -2.95 -4.33 172 177 173
-6.32 -3.04 -4.33 172 177 173
-6.32 -3.14 -4.33 172 177 173
-6.31 -3.23 -4.34 172 177 173
-6.31 -3.32 -4.34 172 177 173
-6.31 -3.41 -4.33 172 177 173
-6.31 -3.50 -4.34 172 177 173
-6.32 -3.60 -4.33 172 177 173
-6.31 -3.69 -4.34 174 179 175
-6.31 -3.78 -4.33 174 179 175
-6.31 -3.88 -4.33 174 179 175
-6.31 -3.97 -4.34 174 179 175
-6.31 -4.06 -4.34 174 179 175
-6.31 -4.15 -4.34 174 179 175
-6.31 -4.24 -4.34 174 179 175
-6.31 -4.34 -4.34 174 179 175
-6.31 -4.43 -4.34 175 182 175
-6.31 -4.52 -4.34 175 182 175
-6.31 -4.61 -4.34 175 182 175
-6.31 -4.71 -4.34 175 182 175
-6.31 -4.80 -4.34 175 182 175
-6.31 -4.89 -4.34 175 182 175
-6.30 -4.98 -4.35 175 182 175
-6.29 -5.07 -4.36 175 182 175
-6.29 -5.17 -4.36 175 182 175
-6.29 -5.26 -4.36 175 182 175
-6.29 -5.35 -4.36 175 182 175
-6.29 -5.44 -4.36 175 182 175
-6.29 -5.54 -4.36 175 182 175
-6.30 -5.63 -4.36 175 182 175
-6.29 -5.72 -4.36 175 182 175
-6.30 -5.81 -4.36 175 182 175
-6.30 -5.91 -4.36 176 183 176
-6.29 -6.00 -4.36 176 183 176
-6.28 -6.09 -4.37 176 183 176
-6.28 -6.18 -4.38 176 183 176
-6.28 -6.28 -4.38 176 183 176
-6.28 -6.37 -4.38 176 183 176
-6.27 -6.46 -4.38 176 183 176
-6.26 -6.55 -4.40 176 183 176
-6.25 -6.64 -4.41 178 185 178
-6.26 -6.74 -4.41 178 185 178
-6.25 -6.83 -4.41 178 185 178
-6.24 -6.92 -4.43 178 185 178
-6.23 -7.01 -4.43 178 185 178
-6.23 -7.11 -4.44 178 185 178
-6.22 -7.20 -4.45 178 185 178
-6.22 -7.29 -4.44 178 185 178
-6.21 -7.39 -4.46 178 185 180
-6.21 -7.48 -4.46 178 185 180
-6.20 -7.57 -4.47 178 185 180
-6.19 -7.66 -4.48 178 185 180
-6.19 -7.76 -4.49 178 185 180
-6.18 -7.85 -4.49 178 185 180
-6.18 -7.94 -4.50 178 185 180
-6.18 -8.03 -4.50 178 185 180
-6.17 -8.13 -4.51 180 187 182
-6.16 -8.22 -4.52 180 187 182
-6.16 -8.31 -4.53 180 187 182
-6.15 -8.41 -4.54 180 187 182
-6.13 -8.50 -4.56 180 187 182
-6.12 -8.59 -4.56 180 187 182
-6.12 -8.69 -4.57 180 187 182
-6.12 -8.78 -4.57 180 187 182
-6.12 -8.87 -4.57 176 183 181
-6.12 -8.96 -4.57 176 183 181
-6.12 -9.06 -4.56 176 183 181
-6.12 -9.15 -4.56 176 183 181
-6.12 -9.24 -4.56 176 183 181
-6.13 -9.34 -4.56 176 183 181
-6.11 -9.43 -4.58 176 183 181
-6.10 -9.52 -4.59 176 183 181
-6.11 -9.62 -4.58 176 183 181
-6.10 -9.71 -4.59 176 183 181
-6.10 -9.80 -4.59 176 183 181
-6.10 -9.89 -4.59 176 183 181
-6.11 -9.99 -4.58 176 183 181
-6.12 -10.08 -4.57 176 183 181
-6.13 -10.17 -4.56 176 183 181
-6.14 -10.26 -4.55 176 183 181
-6.16 -10.35 -4.53 178 185 183
-6.17 -10.45 -4.51 178 185 183
-6.17 -10.54 -4.51 178 185 183
-6.18 -10.63 -4.49 178 185 183
-6.18 -10.72 -4.50 178 185 183
-6.18 -10.82 -4.49 178 185 183
-6.18 -10.91 -4.49 178 185 183
-6.19 -11.00 -4.48 178 185 183
-6.19 -11.09 -4.49 182 189 187
-6.18 -11.19 -4.49 182 189 187
-6.18 -11.28 -4.49 182 189 187
-6.18 -11.37 -4.50 182 189 187
-6.19 -11.46 -4.49 182 189 187
-6.17 -11.56 -4.51 182 189 187
-6.17 -11.65 -4.51 182 189 187
-6.16 -11.75 -4.52 182 189 187
-6.16 -11.84 -4.52 187 194 192
-6.16 -11.93 -4.52 187 194 192
-6.16 -12.03 -4.53 187 194 192
-6.15 -12.12 -4.53 187 194 192
-6.15 -12.21 -4.54 187 194 192
-6.14 -12.31 -4.55 187 194 192
-6.12 -12.40 -4.56 187 194 192
-6.12 -12.50 -4.57 187 194 192
-6.12 -12.59 -4.58 192 199 197
-6.11 -12.68 -4.58 192 199 197
-6.10 -12.78 -4.60 192 199 197
-6.10 -12.87 -4.60 192 199 197
-6.09 -12.96 -4.61 192 199 197
-6.09 -13.06 -4.61 192 199 197
-6.08 -13.15 -4.62 192 199 197
-6.08 -13.25 -4.62 192 199 197
-6.06 -13.34 -4.64 192 199 192
-6.06 -13.44 -4.65 192 199 192
-6.04 -13.53 -4.66 192 199 194
-6.04 -13.62 -4.67 192 199 194
-6.02 -13.72 -4.69 192 199 197
-6.02 -13.81 -4.69 192 199 197
-6.02 -13.91 -4.69 192 198 199
-6.03 -14.00 -4.68 192 198 199
-6.02 -14.09 -4.70 191 197 200
-6.04 -14.18 -4.67 192 198 201
-6.05 -14.27 -4.66 187 192 198
-6.07 -14.36 -4.63 183 188 194
-6.11 -14.45 -4.58 182 187 195
-6.15 -14.53 -4.53 182 187 195
-6.29 -14.59 -4.36 198 203 211
-6.61 -14.62 -3.97 217 222 230
-6.84 -14.66 -3.69 82 98 136
-6.90 -14.74 -3.62 8 24 62
-6.90 -14.83 -3.62 39 52 107
-6.92 -14.91 -3.59 46 59 114
-6.96 -14.99 -3.54 38 48 124
-6.97 -15.08 -3.53 43 53 129
-7.00 -15.17 -3.50 46 53 144
-7.02 -15.25 -3.48 45 52 143
-7.03 -15.34 -3.46 44 52 140
-7.04 -15.43 -3.45 42 50 138
-7.05 -15.52 -3.43 41 52 119
-7.08 -15.60 -3.40 41 52 119
-7.10 -15.68 -3.38 41 56 99
-7.13 -15.77 -3.34 34 49 92
-7.16 -15.85 -3.30 23 41 65
-7.19 -15.93 -3.26 14 32 56
-7.23 -16.01 -3.21 88 79 75
-7.33 -16.07 -3.10 57 48 44
-7.42 -16.14 -2.99 58 52 29
-7.54 -16.20 -2.84 164 158 135
-7.65 -16.25 -2.70 185 182 142
-7.74 -16.32 -2.59 171 168 128
-7.80 -16.39 -2.52 167 163 126
-7.82 -16.47 -2.49 180 176 139
-7.85 -16.55 -2.46 173 166 146
-7.87 -16.63 -2.43 173 166 146
-7.90 -16.71 -2.40 173 165 154
-7.92 -16.80 -2.38 173 165 154
-7.94 -16.88 -2.35 173 166 150
-7.96 -16.96 -2.32 173 166 150
-7.99 -17.04 -2.29 173 168 140
-8.00 -17.12 -2.27 173 168 140
-8.02 -17.20 -2.25 162 163 144
-8.04 -17.28 -2.22 164 165 146
-8.07 -17.36 -2.19 165 166 147
-8.09 -17.44 -2.16 164 165 146
-8.11 -17.53 -2.14 161 162 143
-8.12 -17.61 -2.13 161 162 143
-8.14 -17.69 -2.11 162 163 144
-8.15 -17.78 -2.10 165 166 147
-8.16 -17.86 -2.09 160 161 142
-8.17 -17.94 -2.07 139 140 121
-8.18 -18.03 -2.06 119 120 101
-8.21 -18.10 -2.02 92 93 74
-8.22 -18.19 -2.00 73 74 55
-8.25 -18.26 -1.97 58 59 40
-8.28 -18.34 -1.94 37 38 19
-8.31 -18.42 -1.90 32 33 14
-8.33 -18.50 -1.87 38 39 31
-8.36 -18.57 -1.83 48 49 41
-8.38 -18.65 -1.81 59 60 52
-8.41 -18.73 -1.78 76 77 69
-8.44 -18.80 -1.74 108 109 101
-8.46 -18.88 -1.72 133 134 126
-8.48 -18.96 -1.69 126 127 119
-8.50 -19.04 -1.66 103 104 96
-8.53 -19.12 -1.63 115 116 108
-8.57 -19.19 -1.58 124 125 117
-8.62 -19.26 -1.53 72 73 65
-8.65 -19.33 -1.49 100 101 93
-8.69 -19.40 -1.44 50 51 43
-8.73 -19.47 -1.38 17 18 10
-8.81 -19.53 -1.29 18 19 11
-8.89 -19.58 -1.19 29 30 22
-8.92 -19.65 -1.16 35 37 34
-8.95 -19.73 -1.12 38 40 37
-8.98 -19.80 -1.08 45 47 44
-9.02 -19.87 -1.04 52 54 51
-9.04 -19.94 -1.00 56 58 55
-9.07 -20.02 -0.97 56 58 55
-9.09 -20.09 -0.94 53 55 52
-9.11 -20.17 -0.92 51 53 50
-9.13 -20.25 -0.90 57 59 56
-9.14 -20.33 -0.88 62 64 61
-9.15 -20.41 -0.87 69 71 68
-9.17 -20.48 -0.85 70 72 69
-9.20 -20.56 -0.82 64 66 63
-9.23 -20.63 -0.78 50 52 49
-9.25 -20.70 -0.76 35 37 34
-9.27 -20.78 -0.73 24 26 23
-9.29 -20.85 -0.70 35 28 26
-9.35 -20.91 -0.63 16 9 7
-9.39 -20.98 -0.58 15 10 9
-9.40 -21.06 -0.57 8 3 2
-9.41 -21.13 -0.55 97 92 94
-8.89 -21.45 -1.19 224 219 221
-7.33 -22.25 -3.09 237 235 236
-7.07 -22.46 -3.41 223 221 222
-7.24 -22.47 -3.20 218 220 217
-7.18 -22.59 -3.27 218 220 217
-7.16 -22.69 -3.30 216 221 215
-7.16 -22.78 -3.30 216 221 215
-7.15 -22.88 -3.32 215 222 215
-7.12 -22.98 -3.36 215 222 215
-7.09 -23.08 -3.38 215 222 215
-7.08 -23.18 -3.40 215 222 215
-7.07 -23.28 -3.42 220 222 219
-7.07 -23.37 -3.42 220 222 219
-7.05 -23.46 -3.43 220 222 219
-7.04 -23.56 -3.44 220 222 219
-7.04 -23.65 -3.45 220 222 219
-7.04 -23.74 -3.44 220 222 219
-7.05 -23.83 -3.44 220 222 219
-7.05 -23.92 -3.44 220 222 219
-7.05 -24.01 -3.43 221 223 220
-7.05 -24.10 -3.44 221 223 220
-7.04 -24.19 -3.45 221 223 220
-7.04 -24.28 -3.45 221 223 220
-7.04 -24.37 -3.45 221 223 220
-7.03 -24.47 -3.46 221 223 220
-7.02 -24.56 -3.47 221 223 220
-7.02 -24.66 -3.47 221 223 220
-7.02 -24.75 -3.47 221 223 220
-7.02 -24.84 -3.48 221 223 220
-7.02 -24.93 -3.48 221 223 220
-7.03 -25.01 -3.46 221 223 220
-7.03 -25.10 -3.46 221 223 220
-7.02 -25.20 -3.47 221 223 220
-7.02 -25.29 -3.47 221 223 220
-7.02 -25.38 -3.47 221 223 220
-7.02 -25.47 -3.47 221 223 220
-7.03 -25.56 -3.46 221 223 220
-7.02 -25.65 -3.47 221 223 220
