ply
format ascii 1.0
element vertex 1543
property float x
property float y
property float z
property uchar red
property uchar green
property uchar blue
end_header
-12.25 -32.66 -0.81 244 244 244
-10.21 -34.61 -3.58 144 144 144
-11.38 18.89 -2.12 139 130 122
-11.35 18.83 -2.16 139 130 122
-11.35 18.76 -2.17 139 130 122
-11.30 18.72 -2.24 139 130 122
-11.29 18.64 -2.24 139 130 122
-11.30 18.55 -2.24 139 130 122
-11.26 18.51 -2.29 139 130 122
-11.25 18.43 -2.30 139 130 122
-11.24 18.36 -2.31 141 132 124
-11.23 18.28 -2.32 141 132 124
-11.23 18.21 -2.33 141 132 124
-11.21 18.14 -2.35 141 132 124
-11.21 18.05 -2.35 141 132 124
-11.21 17.97 -2.36 141 132 124
-11.20 17.89 -2.36 141 132 124
-11.20 17.82 -2.37 141 132 124
-11.19 17.74 -2.38 142 133 125
-11.19 17.66 -2.38 142 133 125
-11.18 17.59 -2.40 142 133 125
-11.18 17.50 -2.40 142 133 125
-11.18 17.42 -2.40 142 133 125
-11.18 17.34 -2.40 142 133 125
-11.17 17.26 -2.40 142 133 125
-11.17 17.18 -2.41 142 133 125
-11.16 17.10 -2.42 144 135 127
-11.16 17.03 -2.43 144 135 127
-11.15 16.95 -2.44 144 135 127
-11.15 16.87 -2.44 144 135 127
-11.13 16.80 -2.46 144 135 127
-11.13 16.72 -2.46 144 135 127
-11.12 16.64 -2.48 144 135 127
-11.11 16.57 -2.49 144 135 127
-11.11 16.49 -2.49 148 139 133
-11.10 16.41 -2.50 148 139 133
-11.10 16.33 -2.50 148 139 133
-11.09 16.25 -2.52 148 139 133
-11.08 16.18 -2.53 148 139 133
-11.08 16.10 -2.54 148 139 133
-11.07 16.02 -2.55 148 139 133
-11.07 15.94 -2.55 148 139 133
-11.06 15.86 -2.56 149 140 134
-11.05 15.79 -2.57 149 140 134
-11.05 15.71 -2.58 149 140 134
-11.04 15.63 -2.58 149 140 134
-11.04 15.54 -2.58 149 140 134
-11.04 15.46 -2.58 149 140 134
-11.04 15.38 -2.59 149 140 134
-11.04 15.30 -2.59 149 140 134
-11.03 15.22 -2.60 148 144 136
-11.03 15.14 -2.60 148 144 136
-11.03 15.06 -2.60 148 144 136
-11.02 14.98 -2.61 148 144 136
-11.02 14.90 -2.61 148 144 136
-11.02 14.82 -2.62 148 144 136
-11.01 14.74 -2.63 149 145 137
-11.01 14.66 -2.63 152 148 140
-11.01 14.57 -2.63 152 148 140
-11.00 14.50 -2.64 152 148 140
-10.99 14.42 -2.65 152 148 140
-10.99 14.34 -2.66 152 148 140
-10.98 14.26 -2.66 152 148 140
-10.98 14.18 -2.67 152 148 140
-10.98 14.10 -2.67 152 148 140
-10.97 14.02 -2.68 153 149 141
-10.97 13.93 -2.68 153 149 141
-10.97 13.85 -2.68 153 149 141
-10.97 13.77 -2.68 153 149 141
-10.97 13.69 -2.68 153 149 141
-10.97 13.60 -2.68 153 149 141
-10.96 13.53 -2.69 153 149 141
-10.97 13.44 -2.69 153 149 141
-10.97 13.36 -2.68 154 150 142
-10.96 13.28 -2.69 156 152 144
-10.96 13.19 -2.69 156 152 144
-10.96 13.11 -2.69 156 152 144
-10.95 13.03 -2.70 156 152 144
-10.95 12.95 -2.70 156 152 144
-10.96 12.86 -2.70 156 152 144
-10.95 12.78 -2.70 154 153 144
-10.95 12.70 -2.71 155 154 145
-10.94 12.62 -2.72 160 154 147
-10.94 12.54 -2.72 160 154 147
-10.94 12.46 -2.72 159 155 147
-10.94 12.38 -2.73 159 155 147
-10.94 12.29 -2.72 159 155 147
-10.94 12.21 -2.73 159 155 147
-10.94 12.12 -2.72 157 156 147
-10.94 12.04 -2.73 157 156 147
-10.94 11.96 -2.72 158 157 148
-10.93 11.88 -2.74 158 157 148
-10.92 11.80 -2.74 157 158 148
-10.92 11.72 -2.74 157 158 148
-10.92 11.63 -2.74 157 158 148
-10.92 11.55 -2.75 157 158 148
-10.91 11.47 -2.76 155 158 148
-10.91 11.39 -2.76 155 158 148
-10.91 11.31 -2.76 162 158 152
-10.91 11.23 -2.76 163 159 153
-10.91 11.14 -2.76 163 159 153
-10.90 11.06 -2.77 164 160 154
-10.91 10.98 -2.77 164 160 154
-10.90 10.90 -2.78 166 162 156
-10.90 10.82 -2.77 166 162 156
-10.89 10.74 -2.79 166 162 156
-10.89 10.65 -2.79 167 163 157
-10.89 10.57 -2.79 167 163 157
-10.89 10.49 -2.79 167 163 157
-10.89 10.40 -2.79 167 163 157
-10.89 10.32 -2.79 167 163 157
-10.89 10.24 -2.79 167 163 157
-10.89 10.16 -2.80 167 163 157
-10.88 10.07 -2.80 167 163 157
-10.88 9.99 -2.80 167 163 157
-10.88 9.91 -2.81 167 163 157
-10.88 9.83 -2.81 167 163 157
-10.88 9.74 -2.81 167 163 157
-10.87 9.66 -2.81 167 163 157
-10.87 9.58 -2.82 167 163 157
-10.87 9.50 -2.82 168 164 158
-10.87 9.42 -2.82 169 165 159
-10.86 9.33 -2.83 169 165 159
-10.87 9.25 -2.82 170 166 160
-10.87 9.16 -2.82 173 169 163
-10.87 9.08 -2.82 174 170 164
-10.87 9.00 -2.82 175 171 165
-10.87 8.91 -2.82 175 171 165
-10.87 8.83 -2.82 173 172 163
-10.88 8.74 -2.81 172 171 162
-10.87 8.66 -2.81 172 173 163
-10.87 8.58 -2.81 172 173 163
-10.87 8.49 -2.82 172 173 163
-10.87 8.41 -2.82 172 173 163
-10.88 8.32 -2.81 172 173 163
-10.88 8.24 -2.81 172 173 163
-10.88 8.16 -2.81 172 173 163
-10.87 8.08 -2.82 172 173 163
-10.87 7.99 -2.82 174 175 165
-10.87 7.91 -2.82 174 175 165
-10.87 7.83 -2.82 174 175 165
-10.88 7.74 -2.81 174 175 165
-10.88 7.66 -2.81 174 175 165
-10.88 7.57 -2.81 174 175 165
-10.88 7.49 -2.81 174 175 165
-10.87 7.41 -2.81 174 175 165
-10.87 7.32 -2.81 176 176 171
-10.87 7.24 -2.82 176 176 171
-10.87 7.16 -2.82 176 176 171
-10.87 7.07 -2.82 176 176 171
-10.87 6.99 -2.82 176 176 171
-10.86 6.91 -2.82 176 176 171
-10.86 6.83 -2.83 176 176 171
-10.85 6.75 -2.84 176 176 171
-10.85 6.66 -2.84 178 178 173
-10.85 6.58 -2.84 178 178 173
-10.85 6.50 -2.84 178 178 173
-10.85 6.41 -2.84 178 178 173
-10.85 6.33 -2.84 178 178 173
-10.85 6.25 -2.85 178 178 173
-10.85 6.16 -2.85 178 178 173
-10.85 6.08 -2.85 178 178 173
-10.84 6.00 -2.85 180 181 173
-10.84 5.92 -2.85 180 181 173
-10.84 5.83 -2.85 180 181 173
-10.85 5.74 -2.84 180 181 173
-10.85 5.66 -2.84 180 181 173
-10.85 5.58 -2.84 180 181 173
-10.86 5.49 -2.84 180 181 173
-10.86 5.41 -2.83 180 181 173
-10.86 5.32 -2.83 178 179 171
-10.86 5.24 -2.83 178 179 171
-10.86 5.16 -2.83 178 179 171
-10.86 5.07 -2.83 178 179 171
-10.86 4.99 -2.83 178 179 171
-10.85 4.91 -2.84 178 179 171
-10.84 4.83 -2.85 178 179 171
-10.85 4.74 -2.84 178 179 171
-10.85 4.66 -2.85 178 178 173
-10.85 4.57 -2.84 178 178 173
-10.85 4.49 -2.85 178 178 173
-10.86 4.41 -2.84 178 178 173
-10.85 4.32 -2.84 178 178 173
-10.85 4.24 -2.84 178 178 173
-10.85 4.16 -2.85 178 178 173
-10.85 4.07 -2.84 178 178 173
-10.85 3.99 -2.84 176 176 171
-10.86 3.90 -2.84 176 176 171
-10.85 3.82 -2.84 176 176 171
-10.85 3.74 -2.84 176 176 171
-10.86 3.65 -2.84 176 176 171
-10.86 3.57 -2.84 176 176 171
-10.86 3.49 -2.84 176 176 171
-10.86 3.40 -2.84 176 176 171
-10.86 3.32 -2.84 172 174 171
-10.86 3.23 -2.84 172 174 171
-10.86 3.15 -2.84 172 174 171
-10.86 3.07 -2.83 172 174 171
-10.87 2.98 -2.82 172 174 171
-10.87 2.90 -2.82 172 174 171
-10.87 2.81 -2.82 172 174 171
-10.88 2.73 -2.81 172 174 171
-10.88 2.64 -2.81 171 173 170
-10.88 2.56 -2.81 171 173 170
-10.88 2.47 -2.80 171 173 170
-10.88 2.39 -2.80 171 173 170
-10.88 2.31 -2.80 171 173 170
-10.88 2.22 -2.80 171 173 170
-10.88 2.14 -2.80 171 173 170
-10.88 2.06 -2.81 171 173 170
-10.88 1.97 -2.81 172 173 163
-10.88 1.89 -2.80 172 173 163
-10.88 1.80 -2.80 172 173 163
-10.88 1.72 -2.81 172 173 163
-10.88 1.64 -2.80 172 173 163
-10.88 1.55 -2.80 172 173 163
-10.88 1.47 -2.80 172 173 163
-10.89 1.38 -2.79 172 173 163
-10.89 1.30 -2.80 173 174 164
-10.89 1.22 -2.79 173 174 164
-10.89 1.13 -2.79 173 174 164
-10.89 1.05 -2.79 173 174 164
-10.89 0.97 -2.78 173 174 164
-10.90 0.88 -2.78 173 174 164
-10.90 0.80 -2.77 173 174 164
-10.90 0.71 -2.78 173 174 164
-10.91 0.63 -2.77 173 174 164
-10.91 0.54 -2.77 173 174 164
-10.91 0.46 -2.76 173 174 164
-10.91 0.38 -2.76 173 174 164
-10.92 0.29 -2.75 173 174 164
-10.91 0.21 -2.76 173 174 164
-10.92 0.12 -2.75 173 174 164
-10.92 0.04 -2.75 173 174 164
-10.92 -0.04 -2.75 172 173 163
-10.92 -0.13 -2.75 172 173 163
-10.92 -0.21 -2.74 172 173 163
-10.93 -0.30 -2.74 172 173 163
-10.93 -0.38 -2.74 172 173 163
-10.93 -0.46 -2.74 172 173 163
-10.93 -0.55 -2.73 172 173 163
-10.93 -0.63 -2.73 172 173 163
-10.94 -0.71 -2.73 167 172 166
-10.94 -0.80 -2.73 167 172 166
-10.94 -0.88 -2.73 167 172 166
-10.94 -0.97 -2.73 167 172 166
-10.94 -1.05 -2.72 167 172 166
-10.94 -1.13 -2.72 167 172 166
-10.95 -1.22 -2.71 167 172 166
-10.95 -1.30 -2.71 167 172 166
-10.95 -1.38 -2.71 169 174 168
-10.95 -1.47 -2.70 169 174 168
-10.95 -1.55 -2.71 169 174 168
-10.95 -1.63 -2.71 169 174 168
-10.95 -1.72 -2.71 169 174 168
-10.96 -1.80 -2.70 169 174 168
-10.95 -1.89 -2.70 169 174 168
-10.95 -1.97 -2.70 169 174 168
-10.96 -2.05 -2.70 171 173 168
-10.96 -2.14 -2.70 171 173 168
-10.96 -2.22 -2.69 171 173 168
-10.97 -2.30 -2.69 171 173 168
-10.96 -2.39 -2.69 171 173 168
-10.96 -2.47 -2.69 171 173 168
-10.96 -2.55 -2.69 171 173 168
-10.96 -2.64 -2.69 171 173 168
-10.97 -2.72 -2.69 173 175 170
-10.97 -2.80 -2.69 173 175 170
-10.96 -2.89 -2.69 173 175 170
-10.96 -2.97 -2.69 173 175 170
-10.96 -3.05 -2.69 173 175 170
-10.96 -3.14 -2.69 173 175 170
-10.97 -3.22 -2.68 173 175 170
-10.97 -3.30 -2.69 173 175 170
-10.97 -3.39 -2.69 170 175 174
-10.97 -3.47 -2.69 170 175 174
-10.97 -3.55 -2.68 170 175 174
-10.97 -3.64 -2.69 171 176 175
-10.97 -3.72 -2.68 171 176 175
-10.97 -3.80 -2.68 172 177 176
-10.97 -3.89 -2.69 172 177 176
-10.97 -3.97 -2.68 174 179 178
-10.97 -4.05 -2.68 174 179 178
-10.96 -4.14 -2.69 174 179 178
-10.97 -4.22 -2.69 174 179 178
-10.97 -4.30 -2.68 174 179 178
-10.97 -4.39 -2.68 174 179 178
-10.97 -4.47 -2.68 174 179 178
-10.97 -4.55 -2.68 174 179 178
-10.97 -4.64 -2.68 174 179 178
-10.97 -4.72 -2.69 174 179 178
-10.96 -4.80 -2.69 174 179 178
-10.97 -4.89 -2.69 174 179 178
-10.96 -4.97 -2.69 174 179 178
-10.96 -5.05 -2.69 174 179 178
-10.96 -5.14 -2.69 174 179 178
-10.96 -5.22 -2.69 174 179 178
-10.95 -5.30 -2.70 174 179 178
-10.95 -5.39 -2.71 174 179 178
-10.95 -5.47 -2.71 174 179 178
-10.93 -5.55 -2.73 174 179 178
-10.93 -5.63 -2.73 174 179 178
-10.93 -5.72 -2.74 174 179 178
-10.92 -5.80 -2.75 174 179 178
-10.92 -5.88 -2.75 174 179 178
-10.91 -5.97 -2.76 174 179 178
-10.91 -6.05 -2.76 174 179 173
-10.89 -6.13 -2.78 174 179 173
-10.89 -6.22 -2.79 174 179 173
-10.88 -6.30 -2.81 174 179 173
-10.88 -6.38 -2.81 174 179 173
-10.86 -6.47 -2.83 174 179 173
-10.84 -6.55 -2.85 174 179 173
-10.84 -6.63 -2.86 174 179 173
-10.84 -6.72 -2.86 171 176 170
-10.83 -6.80 -2.87 185 190 184
-10.83 -6.88 -2.88 170 175 169
-10.81 -6.97 -2.89 181 186 180
-10.76 -7.05 -2.97 185 190 184
-10.75 -7.13 -2.99 170 175 169
-11.02 -7.22 -2.61 163 168 162
-11.47 -7.30 -2.00 214 219 213
-11.61 -7.39 -1.81 244 251 246
-11.62 -7.47 -1.80 244 251 246
-11.61 -7.55 -1.81 245 252 247
-11.63 -7.63 -1.78 250 255 252
-11.64 -7.71 -1.77 246 253 248
-11.63 -7.79 -1.79 240 247 242
-11.62 -7.87 -1.80 244 251 246
-11.61 -7.96 -1.81 245 252 247
-11.60 -8.04 -1.82 246 253 248
-11.60 -8.12 -1.83 246 253 248
-11.58 -8.20 -1.85 246 253 248
-11.58 -8.28 -1.86 246 253 248
-11.56 -8.37 -1.87 246 253 248
-11.55 -8.45 -1.89 246 253 248
-11.55 -8.53 -1.90 246 253 248
-11.54 -8.61 -1.91 246 253 248
-11.53 -8.69 -1.92 246 253 251
-11.53 -8.77 -1.92 246 253 251
-11.52 -8.86 -1.93 246 253 251
-11.51 -8.94 -1.94 246 253 251
-11.51 -9.02 -1.95 246 253 251
-11.50 -9.10 -1.96 246 253 251
-11.50 -9.19 -1.96 246 253 251
-11.50 -9.27 -1.96 246 253 251
-11.50 -9.35 -1.96 246 253 251
-11.50 -9.43 -1.96 246 253 251
-11.50 -9.51 -1.96 246 253 251
-11.50 -9.59 -1.96 246 253 251
-11.50 -9.68 -1.96 246 253 251
-11.49 -9.76 -1.97 246 253 251
-11.49 -9.84 -1.97 246 253 251
-11.49 -9.92 -1.97 246 253 251
-11.49 -10.00 -1.98 246 253 251
-11.49 -10.09 -1.97 246 253 251
-11.49 -10.17 -1.98 246 253 251
-11.49 -10.25 -1.98 246 253 251
-11.49 -10.33 -1.98 246 253 251
-11.49 -10.41 -1.98 246 253 251
-11.49 -10.49 -1.98 246 253 251
-11.48 -10.58 -1.98 246 253 251
-11.48 -10.66 -1.99 246 253 251
-11.49 -10.74 -1.98 246 253 251
-11.49 -10.82 -1.97 246 253 251
-11.50 -10.90 -1.97 246 253 251
-11.50 -10.98 -1.97 246 253 251
-11.50 -11.07 -1.96 246 253 251
-11.51 -11.15 -1.95 246 253 251
-11.51 -11.23 -1.95 246 253 251
-11.51 -11.31 -1.95 246 253 251
-11.51 -11.39 -1.95 246 253 251
-11.51 -11.47 -1.94 246 253 251
-11.52 -11.55 -1.94 246 253 251
-11.52 -11.63 -1.93 246 253 251
-11.53 -11.72 -1.92 246 253 251
-11.53 -11.80 -1.92 246 253 251
-11.52 -11.88 -1.93 246 253 251
-11.53 -11.96 -1.92 246 253 251
-11.53 -12.04 -1.92 246 253 251
-11.53 -12.12 -1.92 246 253 251
-11.54 -12.20 -1.90 246 253 251
-11.54 -12.29 -1.91 246 253 251
-11.54 -12.37 -1.90 246 253 251
-11.55 -12.45 -1.90 246 253 251
-11.55 -12.53 -1.89 246 253 251
-11.55 -12.61 -1.89 250 255 255
-11.55 -12.69 -1.89 248 255 253
-11.55 -12.77 -1.89 246 253 251
-11.55 -12.86 -1.90 244 251 249
-11.55 -12.94 -1.89 243 250 248
-11.55 -13.02 -1.90 244 251 249
-11.54 -13.10 -1.91 245 252 250
-11.52 -13.19 -1.93 245 252 250
-11.52 -13.27 -1.94 245 252 250
-11.49 -13.36 -1.97 244 251 249
-11.45 -13.45 -2.02 244 251 249
-11.37 -13.55 -2.14 240 247 245
-11.20 -13.66 -2.36 225 232 230
-11.05 -13.78 -2.57 202 209 207
-10.93 -13.89 -2.74 188 195 193
-10.88 -13.99 -2.80 185 192 190
-10.88 -14.07 -2.80 179 184 180
-10.90 -14.15 -2.78 182 187 183
-10.94 -14.22 -2.72 185 190 186
-10.95 -14.30 -2.71 188 193 189
-10.97 -14.38 -2.69 189 194 190
-10.97 -14.47 -2.68 190 195 191
-10.98 -14.55 -2.67 191 196 192
-10.99 -14.63 -2.65 192 197 193
-10.99 -14.71 -2.65 192 197 193
-11.00 -14.79 -2.64 192 197 193
-10.99 -14.88 -2.66 192 197 193
-10.98 -14.96 -2.67 192 197 193
-10.98 -15.05 -2.67 192 197 193
-10.97 -15.13 -2.68 192 197 193
-10.97 -15.22 -2.68 192 197 193
-10.96 -15.30 -2.69 192 197 193
-10.96 -15.38 -2.69 193 195 192
-10.96 -15.47 -2.69 194 196 193
-10.96 -15.55 -2.70 194 196 193
-10.95 -15.64 -2.71 195 197 194
-10.95 -15.72 -2.71 195 197 194
-10.95 -15.81 -2.71 197 199 196
-10.95 -15.89 -2.71 197 199 196
-10.95 -15.97 -2.71 198 200 197
-10.95 -16.05 -2.71 195 197 194
-10.95 -16.14 -2.71 195 197 194
-10.94 -16.22 -2.72 194 196 193
-10.94 -16.31 -2.72 195 197 194
-10.93 -16.39 -2.73 194 196 193
-10.92 -16.48 -2.75 193 195 192
-10.92 -16.56 -2.75 193 195 192
-10.91 -16.65 -2.76 193 195 192
-10.90 -16.74 -2.78 198 200 197
-10.90 -16.82 -2.78 198 200 197
-10.89 -16.91 -2.80 197 199 196
-10.88 -17.00 -2.81 195 197 194
-10.87 -17.08 -2.81 193 195 192
-10.86 -17.17 -2.83 192 194 191
-10.85 -17.25 -2.84 192 194 191
-10.86 -17.34 -2.84 191 193 190
-10.86 -17.42 -2.84 178 180 177
-10.85 -17.51 -2.84 177 179 176
-10.84 -17.59 -2.86 173 175 172
-10.84 -17.68 -2.86 172 174 171
-10.83 -17.77 -2.88 171 173 170
-10.82 -17.85 -2.88 170 172 169
-10.82 -17.94 -2.89 169 171 168
-10.81 -18.02 -2.90 169 171 168
-10.81 -18.11 -2.90 169 171 168
-10.80 -18.19 -2.91 168 170 167
-10.79 -18.28 -2.92 165 167 164
-10.79 -18.37 -2.93 163 165 162
-10.79 -18.45 -2.93 163 165 162
-10.77 -18.54 -2.95 164 166 163
-10.77 -18.62 -2.95 165 167 164
-10.76 -18.71 -2.97 164 166 163
-10.75 -18.80 -2.97 163 165 162
-10.75 -18.89 -2.98 158 160 157
-10.75 -18.97 -2.98 159 161 158
-10.76 -19.05 -2.97 168 170 167
-10.75 -19.13 -2.97 174 176 173
-10.74 -19.22 -2.99 173 175 172
-10.74 -19.31 -2.99 176 178 175
-10.75 -19.39 -2.98 180 182 179
-10.75 -19.47 -2.98 183 185 185
-10.75 -19.56 -2.98 168 170 170
-10.74 -19.65 -3.00 151 153 153
-10.73 -19.73 -3.01 142 144 144
-10.73 -19.82 -3.01 133 135 135
-10.73 -19.90 -3.01 128 130 130
-10.73 -19.98 -3.00 134 136 136
-10.74 -20.06 -2.99 143 145 145
-10.76 -20.14 -2.96 145 147 147
-10.79 -20.21 -2.92 140 142 142
-10.83 -20.28 -2.87 128 130 130
-10.88 -20.34 -2.81 103 105 105
-10.91 -20.41 -2.76 72 74 74
-10.97 -20.47 -2.69 48 50 50
-11.01 -20.53 -2.63 41 43 43
-11.08 -20.58 -2.54 44 46 46
-11.13 -20.64 -2.46 49 51 46
-11.21 -20.68 -2.35 52 54 49
-11.29 -20.73 -2.24 59 62 52
-11.37 -20.77 -2.14 57 60 50
-11.53 -20.78 -1.92 45 48 40
-11.83 -20.72 -1.51 38 41 33
-12.18 -20.63 -1.03 37 38 43
-12.61 -20.50 -0.45 34 35 40
-12.88 -20.45 -0.08 32 30 54
-13.18 -20.38 0.33 31 29 53
-13.33 -20.39 0.53 64 60 94
-13.42 -20.42 0.65 73 69 103
-13.47 -20.47 0.72 28 24 56
-13.50 -20.53 0.76 22 18 50
-13.53 -20.59 0.80 66 64 88
-13.54 -20.67 0.81 43 41 65
-13.54 -20.74 0.81 37 30 14
-13.54 -20.82 0.81 35 28 12
-13.53 -20.90 0.81 136 131 101
-13.55 -20.96 0.83 247 242 212
-13.58 -21.02 0.87 208 203 160
-13.60 -21.09 0.90 210 205 162
-13.63 -21.15 0.93 204 200 152
-13.64 -21.22 0.94 204 200 152
-13.66 -21.29 0.97 186 181 138
-13.66 -21.36 0.98 143 138 95
-13.68 -21.42 1.00 90 83 54
-13.70 -21.49 1.03 52 45 16
-13.72 -21.55 1.07 33 22 3
-13.75 -21.61 1.09 40 29 10
-13.77 -21.68 1.12 31 19 7
-13.79 -21.74 1.15 32 20 8
-13.79 -21.81 1.16 36 21 29
-13.76 -21.91 1.11 41 26 34
-13.66 -22.04 0.98 74 60 73
-13.22 -22.36 0.38 143 129 142
-12.56 -22.81 -0.52 195 188 200
-11.98 -23.22 -1.30 230 223 235
-11.71 -23.45 -1.67 235 231 240
-11.79 -23.49 -1.56 204 200 209
-11.79 -23.57 -1.56 203 202 207
-11.77 -23.66 -1.59 207 206 211
-11.78 -23.74 -1.58 207 209 209
-11.79 -23.82 -1.57 207 209 209
-11.79 -23.90 -1.57 209 207 203
-11.80 -23.97 -1.55 210 208 204
-11.80 -24.05 -1.55 211 211 206
-11.80 -24.13 -1.55 215 215 210
-11.81 -24.20 -1.53 212 210 211
-11.82 -24.28 -1.52 212 210 211
-11.82 -24.36 -1.52 212 210 211
-11.83 -24.43 -1.51 212 210 211
-11.83 -24.52 -1.51 212 210 211
-11.82 -24.60 -1.52 212 210 211
-11.82 -24.69 -1.52 212 210 211
-11.82 -24.77 -1.53 212 210 211
-11.81 -24.85 -1.53 214 212 213
-11.81 -24.93 -1.53 214 212 213
-11.81 -25.02 -1.54 214 212 213
-11.80 -25.10 -1.55 214 212 213
-11.80 -25.18 -1.55 214 212 213
-11.79 -25.27 -1.56 214 212 213
-11.79 -25.35 -1.56 214 212 213
-11.79 -25.43 -1.56 214 212 213
-11.79 -25.51 -1.57 214 212 213
-11.79 -25.59 -1.56 214 212 213
-11.78 -25.68 -1.57 214 212 213
-11.78 -25.76 -1.57 214 212 213
-11.79 -25.84 -1.57 214 212 213
-11.79 -25.92 -1.56 214 212 213
-11.79 -26.00 -1.56 214 212 213
-11.79 -26.08 -1.56 214 212 213
-11.79 -26.16 -1.57 214 212 213
-11.79 -26.24 -1.57 214 212 213
-11.79 -26.32 -1.57 214 212 213
-11.79 -26.41 -1.57 214 212 213
-11.79 -26.49 -1.57 214 212 213
-11.79 -26.56 -1.56 214 212 213
-11.79 -26.65 -1.57 214 212 213
-11.79 -26.73 -1.57 214 212 213
-11.78 -26.81 -1.57 216 214 215
-11.79 -26.89 -1.57 216 214 215
-11.80 -26.96 -1.56 216 214 215
-11.80 -27.05 -1.56 216 214 215
-11.80 -27.12 -1.55 216 214 215
-11.80 -27.21 -1.55 216 214 215
-11.81 -27.28 -1.54 216 214 215
-11.81 -27.36 -1.54 216 214 215
-11.81 -27.44 -1.54 216 214 215
-11.80 -27.53 -1.55 216 214 215
-11.81 -27.60 -1.54 216 214 215
-11.81 -27.68 -1.54 216 214 215
-11.81 -27.76 -1.53 216 214 215
-11.81 -27.84 -1.54 216 214 215
-11.81 -27.93 -1.54 216 214 215
-11.81 -28.01 -1.54 216 214 215
-11.81 -28.09 -1.54 218 213 210
-11.81 -28.17 -1.54 218 213 210
-11.81 -28.25 -1.54 218 213 210
-11.81 -28.33 -1.54 218 213 210
-11.80 -28.42 -1.55 218 213 210
-11.80 -28.50 -1.55 218 213 210
-11.81 -28.58 -1.54 218 213 210
-11.80 -28.66 -1.55 218 213 210
-11.80 -28.74 -1.56 219 214 211
-11.81 -28.82 -1.54 219 214 211
-11.80 -28.90 -1.55 219 214 211
-11.80 -28.98 -1.55 219 214 211
-11.81 -29.06 -1.54 219 214 211
-11.81 -29.14 -1.54 219 214 211
-11.81 -29.22 -1.54 219 214 211
-11.81 -29.30 -1.54 219 214 211
-11.81 -29.38 -1.54 222 212 211
-11.81 -29.46 -1.54 222 212 211
-11.81 -29.54 -1.54 222 212 211
-11.82 -29.62 -1.52 222 212 211
-11.82 -29.70 -1.52 222 212 211
-11.82 -29.78 -1.52 222 212 211
-11.82 -29.86 -1.52 222 212 211
-11.82 -29.94 -1.52 222 212 211
-11.82 -30.02 -1.52 224 214 213
-11.83 -30.10 -1.51 224 214 213
-11.83 -30.18 -1.51 224 214 213
-11.83 -30.25 -1.51 224 214 213
-11.83 -30.33 -1.51 224 214 213
-11.83 -30.42 -1.51 224 214 213
-11.83 -30.50 -1.51 224 214 213
-11.83 -30.58 -1.51 224 214 213
-11.83 -30.66 -1.51 222 215 213
-11.83 -30.74 -1.51 224 217 215
-11.83 -30.82 -1.51 223 218 217
-11.83 -30.90 -1.51 223 218 217
-11.83 -30.98 -1.51 223 218 217
-11.82 -31.07 -1.52 223 218 217
-11.83 -31.14 -1.51 223 218 217
-11.84 -31.22 -1.50 223 218 217
-11.84 -31.30 -1.50 224 219 218
-11.85 -31.37 -1.49 225 220 219
-11.84 -31.46 -1.49 225 220 219
-11.85 -31.53 -1.48 225 220 219
-11.86 -31.61 -1.47 225 220 219
-11.88 -31.67 -1.45 225 220 219
-11.90 -31.73 -1.42 225 220 219
-11.92 -31.79 -1.39 225 220 219
-11.93 -31.86 -1.38 225 225 225
-11.96 -31.92 -1.33 224 224 224
-12.02 -31.95 -1.26 236 236 236
-12.05 -32.00 -1.21 253 253 253
-12.17 -31.97 -1.05 252 252 252
-12.58 -31.69 -0.49 251 251 251
-12.89 -31.49 -0.07 253 253 253
-12.97 -31.50 0.03 248 248 248
-13.03 -31.52 0.12 253 253 253
-13.01 -31.61 0.09 251 251 251
-12.92 -31.78 -0.03 244 244 244
-12.81 -31.95 -0.18 224 224 224
-12.47 -32.34 -0.64 239 239 239
-12.37 -32.51 -0.77 250 250 250
-12.28 -32.67 -0.90 246 246 246
-11.01 -33.92 -2.62 153 153 153
-11.49 18.83 -2.11 139 130 122
-11.46 18.77 -2.14 139 130 122
-11.44 18.70 -2.16 139 130 122
-11.40 18.66 -2.22 139 130 122
-11.41 18.57 -2.21 139 130 122
-11.41 18.49 -2.21 139 130 122
-11.37 18.44 -2.26 139 130 122
-11.36 18.37 -2.27 139 130 122
-11.35 18.29 -2.29 141 132 124
-11.34 18.22 -2.31 141 132 124
-11.33 18.15 -2.32 141 132 124
-11.32 18.07 -2.33 141 132 124
-11.32 17.99 -2.33 141 132 124
-11.32 17.91 -2.33 141 132 124
-11.31 17.84 -2.35 141 132 124
-11.30 17.76 -2.35 141 132 124
-11.29 17.69 -2.37 142 133 125
-11.29 17.61 -2.37 142 133 125
-11.29 17.52 -2.37 142 133 125
-11.29 17.45 -2.38 142 133 125
-11.28 17.37 -2.38 142 133 125
-11.28 17.29 -2.39 142 133 125
-11.28 17.20 -2.38 142 133 125
-11.28 17.12 -2.39 142 133 125
-11.27 17.05 -2.40 144 135 127
-11.26 16.97 -2.41 144 135 127
-11.26 16.89 -2.42 144 135 127
-11.25 16.82 -2.43 144 135 127
-11.24 16.74 -2.44 144 135 127
-11.23 16.66 -2.45 144 135 127
-11.24 16.58 -2.44 144 135 127
-11.22 16.51 -2.46 144 135 127
-11.22 16.43 -2.47 148 139 133
-11.21 16.35 -2.48 148 139 133
-11.20 16.28 -2.49 148 139 133
-11.20 16.20 -2.49 148 139 133
-11.20 16.11 -2.49 148 139 133
-11.18 16.05 -2.52 148 139 133
-11.18 15.97 -2.52 148 139 133
-11.17 15.89 -2.53 148 139 133
-11.17 15.81 -2.53 149 140 134
-11.17 15.73 -2.54 149 140 134
-11.17 15.64 -2.54 149 140 134
-11.17 15.56 -2.54 149 140 134
-11.16 15.49 -2.55 149 140 134
-11.15 15.41 -2.56 149 140 134
-11.16 15.32 -2.56 149 140 134
-11.15 15.24 -2.56 149 140 134
-11.15 15.16 -2.57 148 144 136
-11.14 15.08 -2.58 148 144 136
-11.14 15.00 -2.58 148 144 136
-11.13 14.93 -2.59 148 144 136
-11.13 14.84 -2.58 148 144 136
-11.13 14.77 -2.60 148 144 136
-11.12 14.68 -2.60 149 145 137
-11.12 14.61 -2.61 152 148 140
-11.11 14.53 -2.62 152 148 140
-11.11 14.45 -2.62 152 148 140
-11.10 14.37 -2.63 152 148 140
-11.09 14.29 -2.64 152 148 140
-11.09 14.21 -2.65 152 148 140
-11.09 14.13 -2.65 152 148 140
-11.09 14.05 -2.65 152 148 140
-11.09 13.97 -2.65 153 149 141
-11.08 13.88 -2.66 153 149 141
-11.09 13.80 -2.65 153 149 141
-11.08 13.72 -2.66 153 149 141
-11.08 13.64 -2.66 153 149 141
-11.07 13.56 -2.67 153 149 141
-11.07 13.47 -2.67 153 149 141
-11.07 13.39 -2.67 153 149 141
-11.07 13.31 -2.67 154 150 142
-11.07 13.23 -2.67 156 152 144
-11.07 13.14 -2.67 156 152 144
-11.07 13.06 -2.67 156 152 144
-11.07 12.98 -2.68 156 152 144
-11.07 12.90 -2.67 156 152 144
-11.06 12.82 -2.69 156 152 144
-11.06 12.74 -2.69 154 153 144
-11.06 12.65 -2.69 155 154 145
-11.05 12.58 -2.70 160 154 147
-11.05 12.49 -2.70 160 154 147
-11.05 12.41 -2.70 159 155 147
-11.05 12.33 -2.69 159 155 147
-11.04 12.25 -2.71 159 155 147
-11.04 12.17 -2.71 159 155 147
-11.04 12.08 -2.71 157 156 147
-11.05 12.00 -2.71 157 156 147
-11.04 11.92 -2.71 158 157 148
-11.04 11.84 -2.71 158 157 148
-11.04 11.75 -2.71 157 158 148
-11.04 11.67 -2.71 157 158 148
-11.04 11.59 -2.72 157 158 148
-11.03 11.51 -2.72 157 158 148
-11.03 11.42 -2.72 155 158 148
-11.03 11.34 -2.73 155 158 148
-11.03 11.26 -2.73 162 158 152
-11.02 11.18 -2.74 163 159 153
-11.02 11.10 -2.74 163 159 153
-11.02 11.02 -2.75 164 160 154
-11.02 10.93 -2.74 164 160 154
-11.01 10.86 -2.75 166 162 156
-11.01 10.77 -2.75 166 162 156
-11.01 10.69 -2.76 166 162 156
-11.01 10.61 -2.76 167 163 157
-11.00 10.53 -2.76 167 163 157
-11.00 10.45 -2.77 167 163 157
-11.00 10.36 -2.77 167 163 157
-10.99 10.28 -2.78 167 163 157
-10.99 10.20 -2.78 167 163 157
-10.99 10.12 -2.78 167 163 157
-11.00 10.03 -2.77 167 163 157
-11.00 9.95 -2.77 167 163 157
-11.00 9.87 -2.77 167 163 157
-10.99 9.78 -2.78 167 163 157
-10.99 9.70 -2.78 167 163 157
-10.99 9.62 -2.79 167 163 157
-10.99 9.54 -2.79 167 163 157
-10.98 9.46 -2.79 168 164 158
-10.98 9.38 -2.80 169 165 159
-10.98 9.29 -2.79 169 165 159
-10.98 9.21 -2.79 170 166 160
-10.98 9.13 -2.80 173 169 163
-10.98 9.04 -2.79 174 170 164
-10.99 8.95 -2.79 175 171 165
-10.99 8.87 -2.79 175 171 165
-10.99 8.79 -2.78 173 172 163
-10.99 8.70 -2.78 172 171 162
-10.99 8.62 -2.78 172 173 163
-10.99 8.54 -2.78 172 173 163
-10.99 8.45 -2.78 172 173 163
-10.99 8.37 -2.79 172 173 163
-10.99 8.29 -2.79 172 173 163
-10.99 8.20 -2.79 172 173 163
-10.98 8.12 -2.80 172 173 163
-10.99 8.04 -2.79 172 173 163
-10.98 7.96 -2.80 174 175 165
-10.98 7.87 -2.79 174 175 165
-10.98 7.79 -2.79 174 175 165
-10.99 7.70 -2.78 174 175 165
-10.99 7.62 -2.78 174 175 165
-10.99 7.54 -2.78 174 175 165
-10.99 7.45 -2.79 174 175 165
-10.99 7.37 -2.78 174 175 165
-10.99 7.29 -2.79 176 176 171
-10.98 7.20 -2.79 176 176 171
-10.98 7.12 -2.79 176 176 171
-10.98 7.04 -2.79 176 176 171
-10.98 6.96 -2.79 176 176 171
-10.98 6.87 -2.79 176 176 171
-10.98 6.79 -2.80 176 176 171
-10.97 6.71 -2.80 176 176 171
-10.97 6.63 -2.80 178 178 173
-10.97 6.55 -2.81 178 178 173
-10.97 6.46 -2.81 178 178 173
-10.97 6.38 -2.81 178 178 173
-10.97 6.29 -2.81 178 178 173
-10.97 6.21 -2.81 178 178 173
-10.96 6.13 -2.82 178 178 173
-10.97 6.05 -2.81 178 178 173
-10.96 5.96 -2.82 180 181 173
-10.96 5.88 -2.82 180 181 173
-10.97 5.80 -2.81 180 181 173
-10.96 5.71 -2.82 180 181 173
-10.96 5.63 -2.82 180 181 173
-10.97 5.54 -2.81 180 181 173
-10.97 5.46 -2.80 180 181 173
-10.97 5.37 -2.80 180 181 173
-10.97 5.29 -2.80 178 179 171
-10.97 5.21 -2.80 178 179 171
-10.97 5.13 -2.81 178 179 171
-10.97 5.04 -2.81 178 179 171
-10.97 4.96 -2.81 178 179 171
-10.96 4.88 -2.82 178 179 171
-10.96 4.80 -2.83 178 179 171
-10.96 4.71 -2.83 178 179 171
-10.96 4.63 -2.82 178 178 173
-10.96 4.55 -2.82 178 178 173
-10.96 4.46 -2.82 178 178 173
-10.96 4.38 -2.82 178 178 173
-10.96 4.29 -2.82 178 178 173
-10.96 4.21 -2.82 178 178 173
-10.96 4.13 -2.82 178 178 173
-10.96 4.05 -2.82 178 178 173
-10.96 3.96 -2.82 176 176 171
-10.97 3.88 -2.81 176 176 171
-10.96 3.79 -2.82 176 176 171
-10.96 3.71 -2.82 176 176 171
-10.96 3.63 -2.82 176 176 171
-10.96 3.54 -2.82 176 176 171
-10.96 3.46 -2.82 176 176 171
-10.97 3.38 -2.81 176 176 171
-10.97 3.29 -2.81 172 174 171
-10.97 3.21 -2.81 172 174 171
-10.97 3.12 -2.81 172 174 171
-10.97 3.04 -2.81 172 174 171
-10.97 2.96 -2.81 172 174 171
-10.97 2.87 -2.80 172 174 171
-10.97 2.79 -2.80 172 174 171
-10.98 2.70 -2.80 172 174 171
-10.98 2.62 -2.80 171 173 170
-10.98 2.54 -2.79 171 173 170
-10.99 2.45 -2.79 171 173 170
-10.99 2.37 -2.78 171 173 170
-10.99 2.28 -2.78 171 173 170
-10.99 2.20 -2.79 171 173 170
-10.99 2.12 -2.79 171 173 170
-10.99 2.03 -2.79 171 173 170
-10.99 1.95 -2.79 172 173 163
-10.99 1.87 -2.78 172 173 163
-10.99 1.78 -2.78 172 173 163
-10.99 1.70 -2.78 172 173 163
-10.99 1.62 -2.78 172 173 163
-10.99 1.53 -2.78 172 173 163
-10.99 1.45 -2.78 172 173 163
-10.99 1.37 -2.78 172 173 163
-11.00 1.28 -2.77 173 174 164
-11.00 1.20 -2.77 173 174 164
-11.00 1.11 -2.77 173 174 164
-11.00 1.03 -2.77 173 174 164
-11.00 0.95 -2.76 173 174 164
-11.00 0.86 -2.76 173 174 164
-11.00 0.78 -2.77 173 174 164
-11.01 0.69 -2.76 173 174 164
-11.01 0.61 -2.76 173 174 164
-11.02 0.53 -2.75 173 174 164
-11.02 0.44 -2.75 173 174 164
-11.02 0.36 -2.74 173 174 164
-11.03 0.27 -2.73 173 174 164
-11.02 0.19 -2.74 173 174 164
-11.03 0.11 -2.73 173 174 164
-11.03 0.02 -2.73 173 174 164
-11.03 -0.06 -2.73 172 173 163
-11.03 -0.15 -2.72 172 173 163
-11.04 -0.23 -2.72 172 173 163
-11.04 -0.31 -2.72 172 173 163
-11.04 -0.40 -2.71 172 173 163
-11.04 -0.48 -2.71 172 173 163
-11.04 -0.56 -2.71 172 173 163
-11.05 -0.65 -2.71 172 173 163
-11.05 -0.73 -2.70 167 172 166
-11.05 -0.81 -2.70 167 172 166
-11.06 -0.90 -2.69 167 172 166
-11.06 -0.98 -2.69 167 172 166
-11.06 -1.07 -2.69 167 172 166
-11.06 -1.15 -2.69 167 172 166
-11.06 -1.23 -2.68 167 172 166
-11.07 -1.32 -2.68 167 172 166
-11.07 -1.40 -2.67 169 174 168
-11.06 -1.48 -2.68 169 174 168
-11.06 -1.57 -2.68 169 174 168
-11.07 -1.65 -2.68 169 174 168
-11.07 -1.73 -2.67 169 174 168
-11.07 -1.82 -2.67 169 174 168
-11.07 -1.90 -2.67 169 174 168
-11.07 -1.98 -2.67 169 174 168
-11.07 -2.07 -2.67 171 173 168
-11.08 -2.15 -2.66 171 173 168
-11.08 -2.23 -2.66 171 173 168
-11.08 -2.32 -2.66 171 173 168
-11.08 -2.40 -2.66 171 173 168
-11.07 -2.48 -2.67 171 173 168
-11.08 -2.57 -2.66 171 173 168
-11.07 -2.65 -2.67 171 173 168
-11.08 -2.73 -2.66 173 175 170
-11.07 -2.81 -2.67 173 175 170
-11.08 -2.90 -2.66 173 175 170
-11.08 -2.98 -2.66 173 175 170
-11.08 -3.07 -2.66 173 175 170
-11.08 -3.15 -2.66 173 175 170
-11.08 -3.23 -2.66 173 175 170
-11.08 -3.31 -2.66 173 175 170
-11.08 -3.40 -2.65 170 175 174
-11.09 -3.48 -2.65 170 175 174
-11.08 -3.56 -2.65 170 175 174
-11.09 -3.65 -2.65 171 176 175
-11.09 -3.73 -2.65 171 176 175
-11.09 -3.81 -2.65 172 177 176
-11.09 -3.90 -2.65 172 177 176
-11.08 -3.98 -2.65 174 179 178
-11.09 -4.06 -2.65 174 179 178
-11.08 -4.15 -2.65 174 179 178
-11.09 -4.23 -2.65 174 179 178
-11.08 -4.31 -2.65 174 179 178
-11.08 -4.39 -2.65 174 179 178
-11.08 -4.48 -2.66 174 179 178
-11.08 -4.56 -2.66 174 179 178
-11.08 -4.64 -2.66 174 179 178
-11.08 -4.73 -2.66 174 179 178
-11.07 -4.81 -2.67 174 179 178
-11.07 -4.89 -2.67 174 179 178
-11.07 -4.98 -2.67 174 179 178
-11.07 -5.06 -2.67 174 179 178
-11.07 -5.14 -2.68 174 179 178
-11.07 -5.22 -2.67 174 179 178
-11.06 -5.31 -2.69 174 179 178
-11.05 -5.39 -2.69 174 179 178
-11.06 -5.47 -2.69 174 179 178
-11.05 -5.56 -2.70 174 179 178
-11.05 -5.64 -2.71 174 179 178
-11.04 -5.72 -2.71 174 179 178
-11.04 -5.80 -2.72 174 179 178
-11.03 -5.89 -2.73 174 179 178
-11.03 -5.97 -2.73 174 179 178
-11.02 -6.05 -2.74 174 179 173
-11.01 -6.14 -2.76 174 179 173
-11.00 -6.22 -2.77 174 179 173
-10.99 -6.30 -2.78 174 179 173
-10.98 -6.39 -2.80 174 179 173
-10.98 -6.47 -2.80 174 179 173
-10.97 -6.55 -2.81 174 179 173
-10.96 -6.64 -2.82 174 179 173
-10.95 -6.72 -2.83 176 181 175
-10.96 -6.80 -2.82 179 184 178
-10.96 -6.89 -2.82 182 187 181
-10.91 -6.97 -2.88 176 181 175
-10.86 -7.05 -2.95 181 186 180
-10.92 -7.14 -2.87 160 165 159
-11.40 -7.22 -2.22 189 194 188
-11.74 -7.31 -1.76 246 251 245
-11.75 -7.39 -1.74 247 254 249
-11.76 -7.47 -1.73 245 252 247
-11.74 -7.55 -1.76 248 255 250
-11.75 -7.63 -1.75 247 254 249
-11.75 -7.71 -1.75 244 251 246
-11.74 -7.79 -1.76 240 247 242
-11.74 -7.87 -1.76 239 246 241
-11.73 -7.95 -1.77 246 253 248
-11.73 -8.04 -1.77 246 253 248
-11.71 -8.12 -1.80 246 253 248
-11.69 -8.20 -1.83 246 253 248
-11.68 -8.28 -1.84 246 253 248
-11.67 -8.36 -1.85 246 253 248
-11.66 -8.44 -1.86 246 253 248
-11.65 -8.53 -1.88 246 253 248
-11.65 -8.61 -1.88 246 253 248
-11.65 -8.69 -1.88 246 253 251
-11.64 -8.77 -1.89 246 253 251
-11.63 -8.85 -1.91 246 253 251
-11.63 -8.93 -1.91 246 253 251
-11.62 -9.02 -1.92 246 253 251
-11.62 -9.10 -1.93 246 253 251
-11.61 -9.18 -1.93 246 253 251
-11.61 -9.26 -1.93 246 253 251
-11.61 -9.34 -1.94 246 253 251
-11.61 -9.43 -1.94 246 253 251
-11.61 -9.51 -1.93 246 253 251
-11.61 -9.59 -1.93 246 253 251
-11.61 -9.67 -1.94 246 253 251
-11.60 -9.75 -1.94 246 253 251
-11.61 -9.83 -1.93 246 253 251
-11.61 -9.91 -1.93 246 253 251
-11.61 -10.00 -1.93 246 253 251
-11.61 -10.08 -1.93 246 253 251
-11.60 -10.16 -1.94 246 253 251
-11.60 -10.24 -1.94 246 253 251
-11.60 -10.32 -1.94 246 253 251
-11.61 -10.40 -1.94 246 253 251
-11.60 -10.49 -1.95 246 253 251
-11.60 -10.57 -1.95 246 253 251
-11.60 -10.65 -1.95 246 253 251
-11.60 -10.73 -1.95 246 253 251
-11.60 -10.81 -1.95 246 253 251
-11.60 -10.89 -1.94 246 253 251
-11.60 -10.98 -1.94 246 253 251
-11.61 -11.06 -1.93 246 253 251
-11.61 -11.14 -1.94 246 253 251
-11.62 -11.22 -1.93 246 253 251
-11.62 -11.30 -1.92 246 253 251
-11.62 -11.38 -1.92 246 253 251
-11.63 -11.46 -1.91 246 253 251
-11.63 -11.54 -1.90 246 253 251
-11.63 -11.62 -1.90 246 253 251
-11.63 -11.71 -1.90 246 253 251
-11.63 -11.79 -1.90 246 253 251
-11.63 -11.87 -1.90 246 253 251
-11.63 -11.95 -1.91 246 253 251
-11.64 -12.03 -1.90 246 253 251
-11.64 -12.11 -1.89 246 253 251
-11.66 -12.19 -1.87 246 253 251
-11.66 -12.27 -1.87 246 253 251
-11.66 -12.35 -1.86 246 253 251
-11.67 -12.43 -1.86 246 253 251
-11.66 -12.51 -1.86 246 253 251
-11.67 -12.60 -1.86 245 252 250
-11.67 -12.68 -1.86 245 252 250
-11.66 -12.76 -1.87 244 251 249
-11.65 -12.84 -1.88 245 252 250
-11.66 -12.92 -1.87 246 253 251
-11.65 -13.01 -1.88 247 254 252
-11.65 -13.09 -1.88 248 255 253
-11.64 -13.17 -1.89 250 255 255
-11.63 -13.25 -1.90 243 250 248
-11.62 -13.34 -1.92 244 251 249
-11.61 -13.42 -1.93 246 253 251
-11.60 -13.50 -1.94 247 254 252
-11.54 -13.60 -2.04 247 254 252
-11.40 -13.71 -2.22 238 245 243
-11.24 -13.83 -2.44 217 224 222
-11.11 -13.94 -2.62 198 205 203
-11.05 -14.04 -2.70 188 193 189
-11.03 -14.13 -2.73 186 191 187
-11.04 -14.21 -2.72 186 191 187
-11.07 -14.29 -2.68 186 191 187
-11.08 -14.37 -2.65 188 193 189
-11.09 -14.45 -2.64 189 194 190
-11.10 -14.53 -2.64 192 197 193
-11.10 -14.61 -2.63 193 198 194
-11.11 -14.69 -2.62 192 197 193
-11.12 -14.77 -2.61 192 197 193
-11.12 -14.86 -2.61 192 197 193
-11.11 -14.94 -2.62 192 197 193
-11.11 -15.02 -2.62 192 197 193
-11.11 -15.11 -2.62 192 197 193
-11.10 -15.19 -2.63 192 197 193
-11.10 -15.27 -2.63 192 197 193
-11.09 -15.36 -2.64 193 195 192
-11.09 -15.44 -2.64 194 196 193
-11.08 -15.53 -2.66 194 196 193
-11.08 -15.61 -2.66 195 197 194
-11.07 -15.70 -2.67 195 197 194
-11.07 -15.78 -2.67 197 199 196
-11.08 -15.86 -2.66 197 199 196
-11.07 -15.95 -2.67 198 200 197
-11.07 -16.03 -2.67 197 199 196
-11.07 -16.11 -2.67 197 199 196
-11.07 -16.20 -2.68 197 199 196
-11.06 -16.28 -2.69 194 196 193
-11.06 -16.37 -2.69 194 196 193
-11.05 -16.45 -2.70 193 195 192
-11.04 -16.54 -2.71 193 195 192
-11.04 -16.62 -2.72 193 195 192
-11.03 -16.71 -2.73 195 197 194
-11.02 -16.79 -2.74 195 197 194
-11.02 -16.88 -2.74 195 197 194
-11.01 -16.97 -2.75 197 199 196
-11.01 -17.05 -2.76 198 200 197
-11.00 -17.14 -2.77 198 200 197
-10.99 -17.22 -2.78 199 201 198
-10.99 -17.31 -2.78 199 201 198
-10.99 -17.39 -2.78 193 195 192
-10.99 -17.47 -2.79 191 193 190
-10.99 -17.56 -2.79 185 187 184
-10.98 -17.64 -2.80 179 181 178
-10.97 -17.73 -2.81 173 175 172
-10.96 -17.82 -2.82 170 172 169
-10.96 -17.90 -2.83 169 171 168
-10.96 -17.98 -2.83 168 170 167
-10.94 -18.07 -2.84 169 171 168
-10.94 -18.16 -2.85 169 171 168
-10.93 -18.24 -2.86 169 171 168
-10.93 -18.33 -2.87 170 172 169
-10.92 -18.42 -2.88 170 172 169
-10.92 -18.50 -2.88 168 170 167
-10.91 -18.59 -2.90 163 165 162
-10.90 -18.67 -2.90 161 163 160
-10.90 -18.76 -2.91 170 172 169
-10.90 -18.84 -2.91 169 171 168
-10.89 -18.93 -2.92 164 166 163
-10.89 -19.01 -2.91 158 160 157
-10.89 -19.09 -2.91 157 159 156
-10.89 -19.18 -2.92 162 164 161
-10.88 -19.27 -2.93 164 166 163
-10.89 -19.35 -2.92 163 165 162
-10.88 -19.43 -2.93 172 174 174
-10.90 -19.51 -2.91 179 181 181
-10.89 -19.60 -2.92 181 183 183
-10.88 -19.68 -2.93 171 173 173
-10.88 -19.77 -2.94 159 161 161
-10.87 -19.86 -2.94 150 152 152
-10.88 -19.94 -2.94 140 142 142
-10.88 -20.02 -2.93 129 131 131
-10.90 -20.10 -2.91 131 133 133
-10.92 -20.17 -2.88 131 133 133
-10.95 -20.24 -2.84 135 137 137
-10.98 -20.31 -2.80 138 140 140
-11.01 -20.38 -2.75 130 132 132
-11.05 -20.45 -2.70 113 115 115
-11.09 -20.51 -2.64 83 85 85
-11.15 -20.57 -2.56 52 54 54
-11.21 -20.62 -2.48 45 47 42
-11.28 -20.67 -2.39 39 41 36
-11.38 -20.71 -2.25 41 44 34
-11.46 -20.75 -2.14 44 47 37
-11.64 -20.75 -1.89 43 46 38
-11.94 -20.68 -1.48 44 47 39
-12.27 -20.61 -1.04 44 45 50
-12.72 -20.47 -0.43 38 39 44
-12.98 -20.42 -0.07 37 35 59
-13.27 -20.36 0.33 37 35 59
-13.42 -20.36 0.53 63 59 93
-13.50 -20.40 0.64 64 60 94
-13.56 -20.45 0.72 31 27 59
-13.61 -20.50 0.79 13 9 41
-13.64 -20.56 0.84 161 159 183
-13.67 -20.62 0.87 133 131 155
-13.67 -20.69 0.87 108 101 85
-13.68 -20.77 0.88 73 66 50
-13.67 -20.84 0.87 123 118 88
-13.67 -20.92 0.87 201 196 166
-13.68 -20.99 0.89 179 174 131
-13.69 -21.06 0.91 199 194 151
-13.71 -21.12 0.93 197 193 145
-13.72 -21.19 0.95 221 217 169
-13.74 -21.26 0.97 196 191 148
-13.75 -21.33 0.98 209 204 161
-13.75 -21.41 0.99 166 159 130
-13.77 -21.47 1.01 164 157 128
-13.80 -21.53 1.06 114 103 84
-13.84 -21.58 1.11 117 106 87
-13.87 -21.64 1.15 91 79 67
-13.87 -21.71 1.15 46 34 22
-13.87 -21.79 1.15 46 31 39
-13.89 -21.85 1.18 32 17 25
-13.98 -21.88 1.30 30 16 29
-13.98 -21.96 1.30 43 29 42
-13.73 -22.17 0.95 76 69 81
-13.06 -22.63 0.05 160 153 165
-12.22 -23.19 -1.11 226 222 231
-11.96 -23.42 -1.46 230 226 235
-11.97 -23.49 -1.44 213 212 217
-11.98 -23.57 -1.43 213 212 217
-11.93 -23.67 -1.49 208 210 210
-11.94 -23.75 -1.48 205 207 207
-11.94 -23.83 -1.49 207 205 201
-11.94 -23.91 -1.49 208 206 202
-11.94 -23.99 -1.49 211 211 206
-11.94 -24.07 -1.48 214 214 209
-11.94 -24.15 -1.48 212 210 211
-11.95 -24.23 -1.47 212 210 211
-11.94 -24.31 -1.48 212 210 211
-11.94 -24.39 -1.48 212 210 211
-11.94 -24.48 -1.49 212 210 211
-11.94 -24.56 -1.49 212 210 211
-11.93 -24.64 -1.49 212 210 211
-11.93 -24.72 -1.50 212 210 211
-11.93 -24.81 -1.50 214 212 213
-11.92 -24.89 -1.51 214 212 213
-11.92 -24.97 -1.51 214 212 213
-11.92 -25.05 -1.52 214 212 213
-11.91 -25.14 -1.52 214 212 213
-11.91 -25.22 -1.52 214 212 213
-11.91 -25.30 -1.53 214 212 213
-11.90 -25.38 -1.53 214 212 213
-11.90 -25.47 -1.53 214 212 213
-11.90 -25.55 -1.53 214 212 213
-11.90 -25.63 -1.53 214 212 213
-11.90 -25.71 -1.53 214 212 213
-11.90 -25.79 -1.53 214 212 213
-11.90 -25.87 -1.54 214 212 213
-11.91 -25.95 -1.53 214 212 213
-11.90 -26.03 -1.53 214 212 213
-11.90 -26.11 -1.53 214 212 213
-11.90 -26.20 -1.54 214 212 213
-11.90 -26.27 -1.53 214 212 213
-11.90 -26.36 -1.54 214 212 213
-11.90 -26.44 -1.54 214 212 213
-11.90 -26.52 -1.54 214 212 213
-11.89 -26.60 -1.55 214 212 213
-11.90 -26.68 -1.54 214 212 213
-11.90 -26.76 -1.54 216 214 215
-11.90 -26.84 -1.54 216 214 215
-11.90 -26.92 -1.54 216 214 215
-11.91 -27.00 -1.53 216 214 215
-11.91 -27.08 -1.53 216 214 215
-11.92 -27.15 -1.52 216 214 215
-11.91 -27.23 -1.52 216 214 215
-11.91 -27.31 -1.52 216 214 215
-11.92 -27.39 -1.52 216 214 215
-11.92 -27.47 -1.51 216 214 215
-11.92 -27.55 -1.51 216 214 215
-11.92 -27.64 -1.52 216 214 215
-11.92 -27.71 -1.51 216 214 215
-11.92 -27.79 -1.51 216 214 215
-11.92 -27.87 -1.51 216 214 215
-11.92 -27.96 -1.51 216 214 215
-11.92 -28.04 -1.52 218 213 210
-11.92 -28.11 -1.51 218 213 210
-11.92 -28.20 -1.51 218 213 210
-11.92 -28.28 -1.52 218 213 210
-11.92 -28.36 -1.51 218 213 210
-11.92 -28.44 -1.52 218 213 210
-11.92 -28.52 -1.52 218 213 210
-11.92 -28.60 -1.52 218 213 210
-11.92 -28.68 -1.52 219 214 211
-11.92 -28.76 -1.52 219 214 211
-11.92 -28.85 -1.52 219 214 211
-11.92 -28.93 -1.52 219 214 211
-11.91 -29.01 -1.52 219 214 211
-11.91 -29.09 -1.52 219 214 211
-11.92 -29.17 -1.52 219 214 211
-11.92 -29.25 -1.52 219 214 211
-11.92 -29.33 -1.52 222 212 211
-11.92 -29.41 -1.51 222 212 211
-11.92 -29.49 -1.51 222 212 211
-11.92 -29.57 -1.51 222 212 211
-11.93 -29.64 -1.50 222 212 211
-11.93 -29.72 -1.50 222 212 211
-11.93 -29.80 -1.49 222 212 211
-11.93 -29.88 -1.49 222 212 211
-11.93 -29.96 -1.49 223 213 212
-11.94 -30.04 -1.48 223 213 212
-11.94 -30.12 -1.48 223 213 212
-11.94 -30.20 -1.48 223 213 212
-11.94 -30.28 -1.48 223 213 212
-11.94 -30.36 -1.48 223 213 212
-11.94 -30.44 -1.48 223 213 212
-11.95 -30.51 -1.47 223 213 212
-11.95 -30.60 -1.48 222 215 213
-11.95 -30.68 -1.48 224 217 215
-11.94 -30.76 -1.48 223 218 217
-11.95 -30.84 -1.48 223 218 217
-11.95 -30.92 -1.48 223 218 217
-11.94 -31.00 -1.48 223 218 217
-11.94 -31.08 -1.48 223 218 217
-11.95 -31.15 -1.47 223 218 217
-11.96 -31.23 -1.46 224 219 218
-11.97 -31.30 -1.45 225 220 219
-11.97 -31.38 -1.45 225 220 219
-11.97 -31.46 -1.44 225 220 219
-11.98 -31.54 -1.44 225 220 219
-11.99 -31.61 -1.42 225 220 219
-12.01 -31.67 -1.39 225 220 219
-12.02 -31.74 -1.37 225 220 219
-12.03 -31.81 -1.36 223 223 223
-12.06 -31.87 -1.33 223 223 223
-12.08 -31.92 -1.29 230 230 230
-12.13 -31.96 -1.22 255 255 255
-12.24 -31.95 -1.08 253 253 253
-12.61 -31.70 -0.58 252 252 252
-12.96 -31.46 -0.09 255 255 255
-13.07 -31.44 0.05 249 249 249
-13.12 -31.47 0.13 250 250 250
-13.15 -31.52 0.16 252 252 252
-13.10 -31.64 0.10 244 244 244
-12.95 -31.86 -0.11 207 207 207
-12.67 -32.19 -0.49 216 216 216
-12.24 -32.67 -1.08 253 253 253
-12.26 -32.73 -1.05 250 250 250
-11.44 -33.56 -2.16 168 168 168
-11.62 18.74 -2.05 139 130 122
-11.59 18.69 -2.09 139 130 122
-11.58 18.62 -2.11 139 130 122
-11.52 18.59 -2.19 139 130 122
-11.53 18.50 -2.17 139 130 122
-11.53 18.42 -2.17 139 130 122
-11.50 18.37 -2.22 139 130 122
-11.49 18.29 -2.23 139 130 122
-11.48 18.21 -2.24 141 132 124
-11.46 18.15 -2.26 141 132 124
-11.46 18.07 -2.27 141 132 124
-11.45 17.99 -2.28 141 132 124
-11.45 17.91 -2.28 141 132 124
-11.44 17.84 -2.29 141 132 124
-11.44 17.76 -2.30 141 132 124
-11.43 17.68 -2.31 141 132 124
-11.42 17.61 -2.32 142 133 125
-11.42 17.53 -2.33 142 133 125
-11.41 17.46 -2.33 142 133 125
-11.41 17.38 -2.34 142 133 125
-11.40 17.30 -2.34 142 133 125
-11.40 17.22 -2.35 142 133 125
-11.40 17.14 -2.35 142 133 125
-11.40 17.06 -2.35 142 133 125
-11.39 16.98 -2.36 144 135 127
-11.38 16.91 -2.38 144 135 127
-11.38 16.83 -2.38 144 135 127
-11.37 16.75 -2.39 144 135 127
-11.36 16.67 -2.40 144 135 127
-11.35 16.60 -2.41 144 135 127
-11.35 16.52 -2.41 144 135 127
-11.34 16.44 -2.43 144 135 127
-11.33 16.37 -2.44 148 139 133
-11.33 16.29 -2.45 148 139 133
-11.32 16.21 -2.45 148 139 133
-11.32 16.13 -2.45 148 139 133
-11.31 16.06 -2.47 148 139 133
-11.30 15.98 -2.48 148 139 133
-11.29 15.91 -2.49 148 139 133
-11.29 15.82 -2.49 148 139 133
-11.29 15.74 -2.50 149 140 134
-11.28 15.67 -2.51 149 140 134
-11.28 15.59 -2.51 149 140 134
-11.28 15.51 -2.52 149 140 134
-11.27 15.43 -2.52 149 140 134
-11.27 15.35 -2.53 149 140 134
-11.27 15.27 -2.53 149 140 134
-11.27 15.18 -2.53 149 140 134
-11.26 15.11 -2.54 148 144 136
-11.26 15.03 -2.55 148 144 136
-11.25 14.95 -2.55 148 144 136
-11.25 14.87 -2.56 148 144 136
-11.25 14.78 -2.56 148 144 136
-11.24 14.70 -2.56 148 144 136
-11.24 14.62 -2.57 149 145 137
-11.23 14.55 -2.58 152 148 140
-11.23 14.47 -2.58 152 148 140
-11.22 14.39 -2.59 152 148 140
-11.22 14.31 -2.59 152 148 140
-11.22 14.23 -2.60 152 148 140
-11.21 14.15 -2.61 152 148 140
-11.21 14.07 -2.61 152 148 140
-11.21 13.98 -2.61 152 148 140
-11.21 13.90 -2.61 153 149 141
-11.20 13.82 -2.62 153 149 141
-11.20 13.74 -2.62 153 149 141
-11.20 13.66 -2.62 153 149 141
-11.20 13.58 -2.63 153 149 141
-11.20 13.50 -2.63 153 149 141
-11.19 13.42 -2.63 153 149 141
-11.19 13.34 -2.64 153 149 141
-11.19 13.26 -2.64 154 150 142
-11.19 13.17 -2.63 156 152 144
-11.18 13.09 -2.64 156 152 144
-11.18 13.01 -2.65 156 152 144
-11.18 12.93 -2.65 156 152 144
-11.18 12.85 -2.65 156 152 144
-11.18 12.76 -2.65 156 152 144
-11.18 12.68 -2.65 154 153 144
-11.17 12.61 -2.66 155 154 145
-11.17 12.52 -2.66 160 154 147
-11.16 12.44 -2.67 160 154 147
-11.16 12.36 -2.67 159 155 147
-11.16 12.28 -2.68 159 155 147
-11.16 12.20 -2.67 159 155 147
-11.16 12.12 -2.68 159 155 147
-11.16 12.03 -2.68 157 156 147
-11.16 11.95 -2.68 157 156 147
-11.16 11.87 -2.68 158 157 148
-11.16 11.79 -2.68 158 157 148
-11.15 11.70 -2.69 157 158 148
-11.15 11.62 -2.69 157 158 148
-11.15 11.54 -2.68 157 158 148
-11.15 11.45 -2.68 157 158 148
-11.15 11.37 -2.69 155 158 148
-11.14 11.30 -2.70 155 158 148
-11.14 11.22 -2.71 162 158 152
-11.14 11.14 -2.71 163 159 153
-11.14 11.05 -2.71 163 159 153
-11.14 10.97 -2.71 164 160 154
-11.14 10.89 -2.71 164 160 154
-11.14 10.80 -2.71 166 162 156
-11.13 10.72 -2.71 166 162 156
-11.12 10.64 -2.73 166 162 156
-11.13 10.56 -2.72 167 163 157
-11.13 10.47 -2.72 167 163 157
-11.12 10.39 -2.73 167 163 157
-11.12 10.31 -2.73 167 163 157
-11.12 10.23 -2.73 167 163 157
-11.12 10.15 -2.73 167 163 157
-11.12 10.06 -2.73 167 163 157
-11.12 9.98 -2.73 167 163 157
-11.12 9.90 -2.73 167 163 157
-11.11 9.82 -2.74 167 163 157
-11.11 9.74 -2.74 167 163 157
-11.11 9.65 -2.74 167 163 157
-11.11 9.57 -2.74 167 163 157
-11.11 9.49 -2.74 167 163 157
-11.11 9.40 -2.74 168 164 158
-11.11 9.32 -2.74 169 165 159
-11.11 9.24 -2.75 169 165 159
-11.11 9.16 -2.75 170 166 160
-11.11 9.08 -2.75 173 169 163
-11.11 8.99 -2.75 174 170 164
-11.12 8.90 -2.73 175 171 165
-11.12 8.82 -2.74 175 171 165
-11.12 8.74 -2.73 173 172 163
-11.12 8.65 -2.73 172 171 162
-11.12 8.57 -2.74 172 173 163
-11.12 8.49 -2.73 172 173 163
-11.11 8.41 -2.74 172 173 163
-11.11 8.32 -2.74 172 173 163
-11.11 8.24 -2.74 172 173 163
-11.11 8.16 -2.74 172 173 163
-11.11 8.08 -2.74 172 173 163
-11.11 7.99 -2.75 172 173 163
-11.11 7.91 -2.74 174 175 165
-11.11 7.82 -2.74 174 175 165
-11.11 7.74 -2.75 174 175 165
-11.11 7.66 -2.74 174 175 165
-11.11 7.58 -2.75 174 175 165
-11.12 7.49 -2.74 174 175 165
-11.12 7.41 -2.74 174 175 165
-11.11 7.33 -2.74 174 175 165
-11.11 7.25 -2.75 176 176 171
-11.11 7.16 -2.75 176 176 171
-11.10 7.08 -2.75 176 176 171
-11.10 7.00 -2.75 176 176 171
-11.10 6.92 -2.76 176 176 171
-11.10 6.83 -2.76 176 176 171
-11.09 6.75 -2.77 176 176 171
-11.09 6.67 -2.77 176 176 171
-11.09 6.59 -2.77 178 178 173
-11.09 6.51 -2.78 178 178 173
-11.09 6.42 -2.77 178 178 173
-11.09 6.34 -2.77 178 178 173
-11.09 6.25 -2.77 178 178 173
-11.08 6.18 -2.78 178 178 173
-11.08 6.09 -2.78 178 178 173
-11.08 6.01 -2.79 178 178 173
-11.08 5.93 -2.78 180 181 173
-11.08 5.84 -2.78 180 181 173
-11.08 5.76 -2.78 180 181 173
-11.09 5.68 -2.78 180 181 173
-11.09 5.59 -2.78 180 181 173
-11.09 5.51 -2.77 180 181 173
-11.10 5.42 -2.76 180 181 173
-11.09 5.34 -2.77 180 181 173
-11.09 5.26 -2.77 178 179 171
-11.09 5.18 -2.78 178 179 171
-11.09 5.09 -2.78 178 179 171
-11.09 5.01 -2.78 178 179 171
-11.09 4.93 -2.78 178 179 171
-11.08 4.85 -2.78 178 179 171
-11.08 4.76 -2.79 178 179 171
-11.08 4.68 -2.79 178 179 171
-11.08 4.60 -2.79 178 178 173
-11.08 4.51 -2.79 178 178 173
-11.08 4.43 -2.78 178 178 173
-11.08 4.35 -2.79 178 178 173
-11.08 4.26 -2.78 178 178 173
-11.08 4.18 -2.78 178 178 173
-11.08 4.10 -2.79 178 178 173
-11.08 4.01 -2.79 178 178 173
-11.08 3.93 -2.79 176 176 171
-11.08 3.85 -2.79 176 176 171
-11.08 3.76 -2.79 176 176 171
-11.08 3.68 -2.78 176 176 171
-11.08 3.60 -2.79 176 176 171
-11.08 3.51 -2.79 176 176 171
-11.08 3.43 -2.78 176 176 171
-11.09 3.35 -2.78 176 176 171
-11.09 3.26 -2.78 172 174 171
-11.09 3.18 -2.77 172 174 171
-11.10 3.09 -2.77 172 174 171
-11.09 3.01 -2.77 172 174 171
-11.10 2.93 -2.77 172 174 171
-11.10 2.84 -2.76 172 174 171
-11.10 2.76 -2.76 172 174 171
-11.10 2.67 -2.75 172 174 171
-11.10 2.59 -2.75 171 173 170
-11.10 2.51 -2.76 171 173 170
-11.11 2.42 -2.75 171 173 170
-11.11 2.34 -2.75 171 173 170
-11.11 2.26 -2.75 171 173 170
-11.11 2.18 -2.75 171 173 170
-11.11 2.09 -2.75 171 173 170
-11.11 2.01 -2.75 171 173 170
-11.11 1.92 -2.74 172 173 165
-11.11 1.84 -2.74 172 173 165
-11.11 1.76 -2.74 172 173 165
-11.11 1.67 -2.74 172 173 165
-11.12 1.59 -2.74 172 173 165
-11.11 1.51 -2.74 172 173 165
-11.11 1.42 -2.74 172 173 165
-11.12 1.34 -2.73 172 173 165
-11.12 1.26 -2.73 173 174 166
-11.12 1.17 -2.73 173 174 166
-11.12 1.09 -2.73 173 174 166
-11.12 1.01 -2.73 173 174 166
-11.13 0.92 -2.72 173 174 166
-11.13 0.84 -2.72 173 174 166
-11.13 0.76 -2.72 173 174 166
-11.13 0.67 -2.71 173 174 166
-11.13 0.59 -2.71 173 174 166
-11.13 0.50 -2.71 173 174 166
-11.14 0.42 -2.70 173 174 166
-11.15 0.33 -2.69 173 174 166
-11.15 0.25 -2.69 173 174 166
-11.15 0.17 -2.69 173 174 166
-11.15 0.09 -2.69 173 174 166
-11.15 0.00 -2.69 173 174 166
-11.15 -0.08 -2.69 172 173 165
-11.15 -0.17 -2.68 172 173 165
-11.16 -0.25 -2.68 172 173 165
-11.16 -0.33 -2.68 172 173 165
-11.16 -0.42 -2.68 172 173 165
-11.16 -0.50 -2.67 172 173 165
-11.17 -0.58 -2.66 172 173 165
-11.17 -0.67 -2.66 172 173 165
-11.18 -0.75 -2.66 167 172 166
-11.18 -0.83 -2.66 167 172 166
-11.18 -0.92 -2.66 167 172 166
-11.19 -1.00 -2.64 167 172 166
-11.19 -1.09 -2.64 167 172 166
-11.19 -1.17 -2.64 167 172 166
-11.19 -1.25 -2.64 167 172 166
-11.19 -1.33 -2.64 167 172 166
-11.19 -1.42 -2.63 169 174 168
-11.20 -1.50 -2.63 169 174 168
-11.20 -1.58 -2.63 169 174 168
-11.19 -1.67 -2.63 169 174 168
-11.19 -1.75 -2.63 169 174 168
-11.20 -1.83 -2.63 169 174 168
-11.20 -1.92 -2.63 169 174 168
-11.20 -2.00 -2.62 169 174 168
-11.20 -2.08 -2.62 171 173 168
-11.20 -2.17 -2.62 171 173 168
-11.21 -2.25 -2.61 171 173 168
-11.20 -2.33 -2.62 171 173 168
-11.20 -2.41 -2.62 171 173 168
