ply
format ascii 1.0
element vertex 1584
property float x
property float y
property float z
property uchar red
property uchar green
property uchar blue
end_header
-6.92 -7.84 -4.26 178 185 180
-6.92 -7.93 -4.26 178 185 180
-6.92 -8.02 -4.27 178 185 180
-6.91 -8.12 -4.28 176 183 178
-6.91 -8.21 -4.27 178 185 180
-6.90 -8.30 -4.28 175 182 177
-6.89 -8.39 -4.30 183 190 185
-6.90 -8.48 -4.29 183 190 185
-6.90 -8.57 -4.29 178 185 180
-6.90 -8.66 -4.29 181 188 183
-6.90 -8.76 -4.29 176 183 178
-6.91 -8.85 -4.27 177 184 182
-6.90 -8.94 -4.29 178 185 183
-6.89 -9.03 -4.31 170 177 175
-6.93 -9.12 -4.25 160 167 165
-7.23 -9.19 -3.88 171 178 176
-7.74 -9.26 -3.24 176 183 181
-7.89 -9.34 -3.06 208 215 213
-7.87 -9.42 -3.08 245 252 250
-7.75 -9.52 -3.23 229 236 234
-7.47 -9.63 -3.58 212 219 217
-7.24 -9.74 -3.87 190 197 195
-7.00 -9.85 -4.17 175 182 180
-6.91 -9.94 -4.27 171 178 176
-6.92 -10.03 -4.26 174 181 179
-6.94 -10.12 -4.24 178 185 183
-6.94 -10.21 -4.24 180 187 185
-6.93 -10.31 -4.25 184 191 186
-6.91 -10.40 -4.28 181 188 183
-6.94 -10.49 -4.24 176 183 178
-6.95 -10.58 -4.23 175 182 177
-6.96 -10.67 -4.22 176 183 178
-6.97 -10.76 -4.21 178 185 180
-6.96 -10.85 -4.21 178 185 180
-6.96 -10.94 -4.22 176 183 178
-6.96 -11.03 -4.22 182 189 184
-6.96 -11.12 -4.22 180 187 182
-6.96 -11.22 -4.22 178 185 180
-6.95 -11.31 -4.22 176 183 178
-6.95 -11.40 -4.22 176 183 178
-6.96 -11.49 -4.22 178 185 180
-6.95 -11.58 -4.22 180 187 182
-6.95 -11.67 -4.23 182 189 184
-6.96 -11.76 -4.22 182 189 187
-6.95 -11.86 -4.23 182 189 187
-6.95 -11.95 -4.23 182 189 187
-6.95 -12.04 -4.23 182 189 187
-6.94 -12.13 -4.23 182 189 187
-6.94 -12.22 -4.24 182 189 187
-6.94 -12.31 -4.25 182 189 187
-6.93 -12.41 -4.25 182 189 187
-6.92 -12.50 -4.27 184 191 189
-6.92 -12.59 -4.27 187 194 192
-6.91 -12.68 -4.28 187 194 192
-6.90 -12.78 -4.29 187 194 192
-6.90 -12.87 -4.29 187 194 192
-6.89 -12.96 -4.31 187 194 192
-6.89 -13.05 -4.31 187 194 192
-6.88 -13.15 -4.32 187 194 192
-6.87 -13.24 -4.33 189 196 191
-6.86 -13.33 -4.34 190 197 192
-6.85 -13.43 -4.35 190 197 195
-6.85 -13.52 -4.35 191 198 196
-6.85 -13.61 -4.35 190 196 199
-6.84 -13.70 -4.36 189 195 198
-6.84 -13.79 -4.37 187 193 196
-6.83 -13.89 -4.37 185 191 194
-6.83 -13.98 -4.38 187 194 192
-6.83 -14.07 -4.38 184 191 189
-6.85 -14.16 -4.35 173 180 175
-6.87 -14.25 -4.33 170 177 172
-6.93 -14.32 -4.26 189 193 206
-7.04 -14.39 -4.12 24 28 41
-7.21 -14.45 -3.91 19 20 54
-7.29 -14.52 -3.81 47 48 82
-7.29 -14.61 -3.81 43 48 115
-7.29 -14.70 -3.81 46 51 118
-7.31 -14.79 -3.78 46 52 123
-7.33 -14.87 -3.76 48 54 125
-7.34 -14.96 -3.74 49 53 134
-7.35 -15.05 -3.74 48 52 133
-7.36 -15.13 -3.71 44 51 133
-7.37 -15.22 -3.70 44 51 133
-7.39 -15.31 -3.68 51 59 118
-7.41 -15.39 -3.66 52 60 119
-7.43 -15.48 -3.63 50 62 84
-7.45 -15.56 -3.60 63 75 97
-7.48 -15.65 -3.57 104 114 118
-7.51 -15.73 -3.54 141 151 155
-7.53 -15.81 -3.50 150 159 161
-7.56 -15.89 -3.46 136 145 147
-7.61 -15.97 -3.41 157 157 154
-7.65 -16.05 -3.36 165 165 162
-7.69 -16.12 -3.30 169 171 166
-7.74 -16.20 -3.25 174 176 171
-7.78 -16.28 -3.20 171 174 162
-7.83 -16.35 -3.13 168 171 159
-7.87 -16.43 -3.08 165 169 154
-7.93 -16.50 -3.01 177 181 166
-7.99 -16.57 -2.94 168 170 155
-8.05 -16.65 -2.87 170 172 157
-8.10 -16.72 -2.80 172 173 161
-8.13 -16.80 -2.76 172 173 161
-8.18 -16.87 -2.70 172 173 165
-8.22 -16.95 -2.65 171 172 164
-8.25 -17.02 -2.61 169 172 164
-8.28 -17.10 -2.57 169 172 164
-8.31 -17.18 -2.54 177 176 165
-8.34 -17.26 -2.50 175 174 163
-8.37 -17.34 -2.47 175 174 163
-8.40 -17.42 -2.43 176 175 164
-8.43 -17.49 -2.39 179 178 167
-8.46 -17.57 -2.35 175 174 163
-8.49 -17.65 -2.32 172 171 160
-8.51 -17.73 -2.29 169 168 157
-8.54 -17.81 -2.26 172 171 160
-8.56 -17.89 -2.23 171 170 159
-8.58 -17.96 -2.20 168 167 156
-8.60 -18.04 -2.18 165 164 153
-8.63 -18.12 -2.15 161 160 149
-8.65 -18.20 -2.12 159 158 147
-8.66 -18.28 -2.10 157 156 145
-8.69 -18.36 -2.07 155 154 143
-8.71 -18.44 -2.05 151 151 146
-8.73 -18.52 -2.02 152 152 147
-8.74 -18.60 -2.01 151 151 146
-8.76 -18.68 -1.98 151 151 146
-8.77 -18.76 -1.97 151 151 146
-8.78 -18.84 -1.95 146 146 141
-8.80 -18.92 -1.93 138 138 133
-8.82 -19.00 -1.91 132 132 127
-8.84 -19.08 -1.88 100 100 95
-8.86 -19.16 -1.85 81 81 76
-8.88 -19.24 -1.83 75 75 70
-8.91 -19.31 -1.80 85 85 80
-8.95 -19.38 -1.75 81 81 76
-8.98 -19.45 -1.70 61 61 56
-9.01 -19.53 -1.67 51 51 46
-9.03 -19.61 -1.64 54 54 49
-9.06 -19.68 -1.60 56 58 55
-9.11 -19.75 -1.55 57 59 56
-9.14 -19.82 -1.51 56 58 55
-9.19 -19.88 -1.44 46 48 45
-9.24 -19.95 -1.39 39 41 38
-9.28 -20.02 -1.34 35 37 34
-9.32 -20.09 -1.29 27 29 26
-9.36 -20.15 -1.24 17 19 16
-9.40 -20.22 -1.19 16 18 15
-9.45 -20.28 -1.13 16 18 15
-9.50 -20.35 -1.06 16 18 15
-9.53 -20.42 -1.03 18 20 17
-9.57 -20.48 -0.97 24 26 23
-9.62 -20.55 -0.92 30 32 29
-9.67 -20.61 -0.85 39 41 38
-9.74 -20.66 -0.77 44 46 43
-9.78 -20.73 -0.71 67 52 62
-9.82 -20.79 -0.66 70 55 65
-9.82 -20.87 -0.66 31 17 0
-9.78 -20.98 -0.71 210 196 178
-9.33 -21.26 -1.27 255 249 211
-8.28 -21.83 -2.57 226 216 178
-7.65 -22.21 -3.36 227 215 185
-7.74 -22.26 -3.25 225 213 183
-7.81 -22.31 -3.15 224 214 202
-7.83 -22.39 -3.14 224 214 202
-7.80 -22.50 -3.17 218 211 209
-7.80 -22.58 -3.17 217 210 208
-7.80 -22.67 -3.18 222 220 218
-7.79 -22.76 -3.18 222 220 218
-7.79 -22.86 -3.19 213 213 210
-7.78 -22.95 -3.19 224 224 221
-7.78 -23.04 -3.20 218 220 217
-7.79 -23.12 -3.19 218 220 217
-7.79 -23.21 -3.19 218 220 217
-7.79 -23.30 -3.19 218 220 217
-7.79 -23.39 -3.19 218 220 217
-7.79 -23.48 -3.19 218 220 217
-7.79 -23.56 -3.18 218 220 217
-7.80 -23.65 -3.17 218 220 217
-7.80 -23.74 -3.17 218 220 217
-7.80 -23.83 -3.17 218 220 217
-7.80 -23.92 -3.17 218 220 217
-7.81 -24.00 -3.16 218 220 217
-7.81 -24.09 -3.16 218 220 217
-7.81 -24.18 -3.16 218 220 217
-7.81 -24.27 -3.16 218 220 217
-7.80 -24.36 -3.17 218 220 217
-7.80 -24.45 -3.17 220 222 219
-7.80 -24.54 -3.17 220 222 219
-7.81 -24.62 -3.16 220 222 219
-7.81 -24.71 -3.16 220 222 219
-7.82 -24.80 -3.15 220 222 219
-7.82 -24.88 -3.14 220 222 219
-7.83 -24.97 -3.14 220 222 219
-7.83 -25.06 -3.14 220 222 219
-7.83 -25.14 -3.13 220 222 219
-7.83 -25.23 -3.13 220 222 219
-7.84 -25.32 -3.12 220 222 219
-7.84 -25.41 -3.13 220 222 219
-7.84 -25.49 -3.12 220 222 219
-7.85 -25.58 -3.11 220 222 219
-7.85 -25.66 -3.11 220 222 219
-7.85 -25.75 -3.10 220 222 219
-7.85 -25.84 -3.10 220 222 219
-7.86 -25.93 -3.10 220 222 219
-7.86 -26.02 -3.10 220 222 219
-7.86 -26.10 -3.09 220 222 219
-7.86 -26.19 -3.09 220 222 219
-7.86 -26.28 -3.09 220 222 219
-7.86 -26.37 -3.09 220 222 219
-7.87 -26.45 -3.09 220 222 219
-7.86 -26.55 -3.09 221 223 220
-7.87 -26.63 -3.08 222 224 221
-7.87 -26.72 -3.08 222 224 221
-7.88 -26.80 -3.07 222 224 221
-7.88 -26.89 -3.07 222 224 221
-7.89 -26.97 -3.06 222 224 221
-7.89 -27.06 -3.06 222 224 221
-7.89 -27.15 -3.06 222 224 221
-7.90 -27.23 -3.05 224 224 224
-7.89 -27.33 -3.06 224 224 224
-7.90 -27.41 -3.05 224 224 224
-7.89 -27.50 -3.06 224 224 224
-7.89 -27.59 -3.06 224 224 224
-7.90 -27.68 -3.05 224 224 224
-7.89 -27.77 -3.06 224 224 224
-7.90 -27.85 -3.05 224 224 224
-7.91 -27.94 -3.04 222 222 222
-7.91 -28.03 -3.04 222 222 222
-7.90 -28.12 -3.04 222 222 222
-7.90 -28.20 -3.04 222 222 222
-7.91 -28.29 -3.04 222 222 222
-7.91 -28.37 -3.03 222 222 222
-7.91 -28.46 -3.03 222 222 222
-7.91 -28.55 -3.03 222 222 222
-7.91 -28.64 -3.03 224 222 223
-7.92 -28.73 -3.03 224 222 223
-7.92 -28.81 -3.02 224 222 223
-7.92 -28.90 -3.02 224 222 223
-7.93 -28.98 -3.01 224 222 223
-7.94 -29.07 -3.00 224 222 223
-7.94 -29.16 -3.00 224 222 223
-7.94 -29.24 -3.00 225 223 224
-7.94 -29.33 -3.00 226 224 225
-7.94 -29.42 -3.00 226 224 225
-7.94 -29.51 -3.00 226 224 225
-7.94 -29.60 -3.00 226 224 225
-7.95 -29.68 -2.99 226 224 225
-7.94 -29.78 -3.00 226 224 225
-7.94 -29.86 -3.00 225 225 225
-7.94 -29.95 -3.00 225 225 225
-7.94 -30.04 -3.00 230 225 227
-7.95 -30.12 -2.99 230 225 227
-7.95 -30.21 -2.99 230 225 227
-7.95 -30.30 -2.99 231 226 228
-7.95 -30.39 -2.99 231 226 228
-7.95 -30.47 -2.98 230 225 227
-7.96 -30.56 -2.98 230 225 227
-7.96 -30.65 -2.98 230 225 227
-7.96 -30.74 -2.98 230 225 227
-7.96 -30.82 -2.98 230 225 227
-7.96 -30.91 -2.98 231 226 228
-7.96 -31.00 -2.98 232 227 229
-7.96 -31.09 -2.98 232 227 229
-7.96 -31.18 -2.98 232 227 229
-7.96 -31.27 -2.98 230 228 229
-7.96 -31.35 -2.97 230 228 229
-7.96 -31.44 -2.97 233 228 230
-7.96 -31.53 -2.98 232 227 229
-7.95 -31.62 -2.98 230 228 229
-7.96 -31.71 -2.98 230 228 229
-7.97 -31.79 -2.97 230 228 229
-7.96 -31.88 -2.97 230 228 229
-7.96 -31.97 -2.97 230 228 229
-7.97 -32.05 -2.96 230 228 229
-7.97 -32.14 -2.96 232 230 231
-7.97 -32.23 -2.96 233 231 232
-7.98 -32.31 -2.95 233 231 232
-7.98 -32.40 -2.95 235 233 234
-7.98 -32.48 -2.94 236 234 235
-7.99 -32.56 -2.93 236 234 235
-8.00 -32.64 -2.92 237 235 236
-8.00 -32.74 -2.93 237 235 236
-8.01 -32.82 -2.92 237 235 233
-8.00 -32.91 -2.92 237 235 233
-8.01 -32.99 -2.91 237 235 233
-8.01 -33.08 -2.91 237 235 233
-8.01 -33.17 -2.91 237 235 233
-8.02 -33.25 -2.90 237 235 233
-8.02 -33.33 -2.89 237 235 233
-8.03 -33.42 -2.89 238 236 234
-8.02 -33.51 -2.89 239 237 235
-8.03 -33.60 -2.89 239 237 235
-8.03 -33.68 -2.89 239 237 235
-8.03 -33.77 -2.89 239 237 235
-8.03 -33.86 -2.89 239 237 235
-8.04 -33.94 -2.88 239 237 235
-8.04 -34.02 -2.87 239 237 235
-8.06 -34.10 -2.85 237 235 233
-8.07 -34.17 -2.83 232 232 227
-8.09 -34.25 -2.81 232 232 227
-8.12 -34.31 -2.78 232 232 227
-8.13 -34.39 -2.76 232 232 227
-8.14 -34.47 -2.75 233 231 227
-8.14 -34.56 -2.75 233 231 227
-8.10 -34.68 -2.80 235 230 227
-8.13 -34.74 -2.76 235 230 227
-8.08 -34.87 -2.82 232 225 223
-8.33 -34.74 -2.51 242 235 233
-7.73 21.15 -3.39 141 132 124
-7.72 21.08 -3.40 141 132 124
-7.72 20.99 -3.40 141 132 124
-7.69 20.92 -3.44 141 132 124
-7.71 20.82 -3.42 142 133 125
-7.72 20.72 -3.41 142 133 125
-7.69 20.66 -3.44 142 133 125
-7.69 20.57 -3.44 142 133 125
-7.68 20.48 -3.45 142 133 125
-7.67 20.40 -3.46 142 133 125
-7.67 20.32 -3.46 142 133 125
-7.67 20.22 -3.46 142 133 125
-7.67 20.14 -3.46 143 134 126
-7.67 20.05 -3.47 144 135 127
-7.67 19.96 -3.47 144 135 127
-7.66 19.88 -3.48 144 135 127
-7.65 19.80 -3.49 144 135 127
-7.64 19.71 -3.50 144 135 127
-7.64 19.63 -3.50 144 135 127
-7.64 19.54 -3.51 144 135 127
-7.63 19.46 -3.52 144 135 127
-7.62 19.37 -3.52 144 135 127
-7.62 19.29 -3.53 146 137 129
-7.61 19.21 -3.55 148 139 131
-7.60 19.12 -3.55 148 139 131
-7.59 19.04 -3.56 148 139 131
-7.58 18.96 -3.58 148 139 131
-7.57 18.88 -3.59 148 139 131
-7.56 18.80 -3.61 148 139 131
-7.55 18.72 -3.62 148 139 131
-7.54 18.64 -3.63 147 141 134
-7.52 18.56 -3.65 147 141 134
-7.52 18.47 -3.65 146 142 134
-7.50 18.40 -3.68 146 142 134
-7.49 18.31 -3.69 146 142 134
-7.49 18.22 -3.69 146 142 134
-7.49 18.14 -3.69 146 142 134
-7.48 18.06 -3.70 146 142 134
-7.48 17.97 -3.70 146 142 134
-7.47 17.88 -3.71 146 142 134
-7.47 17.79 -3.72 148 144 136
-7.47 17.70 -3.71 148 144 136
-7.47 17.62 -3.72 148 144 136
-7.46 17.53 -3.72 148 144 136
-7.47 17.44 -3.72 148 144 136
-7.46 17.35 -3.73 148 144 136
-7.46 17.26 -3.73 148 144 136
-7.44 17.18 -3.75 148 144 136
-7.45 17.09 -3.74 150 144 137
-7.44 17.01 -3.75 150 144 137
-7.43 16.92 -3.76 150 144 137
-7.43 16.83 -3.76 150 144 137
-7.43 16.74 -3.76 150 144 137
-7.44 16.65 -3.75 150 144 137
-7.43 16.56 -3.77 150 144 137
-7.42 16.48 -3.77 150 144 137
-7.42 16.39 -3.77 153 147 140
-7.42 16.30 -3.77 153 147 140
-7.41 16.22 -3.79 153 147 140
-7.42 16.12 -3.78 153 147 140
-7.42 16.03 -3.78 153 147 140
-7.41 15.94 -3.78 153 147 140
-7.41 15.86 -3.79 153 147 140
-7.40 15.77 -3.80 153 147 140
-7.40 15.68 -3.80 153 147 140
-7.39 15.60 -3.81 153 147 140
-7.39 15.51 -3.81 153 149 141
-7.39 15.42 -3.82 153 149 141
-7.38 15.34 -3.83 153 149 141
-7.38 15.25 -3.83 153 149 141
-7.37 15.16 -3.83 153 149 141
-7.36 15.08 -3.85 153 149 141
-7.36 14.99 -3.85 153 149 141
-7.36 14.90 -3.85 153 149 141
-7.36 14.81 -3.86 153 149 141
-7.36 14.72 -3.86 154 150 142
-7.36 14.63 -3.85 154 150 142
-7.36 14.54 -3.85 155 151 143
-7.36 14.45 -3.85 155 151 143
-7.36 14.36 -3.85 156 152 144
-7.36 14.27 -3.85 157 156 147
-7.35 14.19 -3.86 157 156 147
-7.35 14.10 -3.87 157 156 147
-7.35 14.01 -3.87 157 156 147
-7.34 13.92 -3.88 157 156 147
-7.33 13.83 -3.88 157 156 147
-7.33 13.74 -3.88 157 156 147
-7.32 13.66 -3.90 158 157 148
-7.32 13.57 -3.90 158 157 148
-7.33 13.48 -3.89 158 157 148
-7.33 13.39 -3.89 158 157 148
-7.33 13.30 -3.89 158 157 148
-7.33 13.21 -3.89 158 157 148
-7.33 13.12 -3.89 158 157 148
-7.33 13.03 -3.89 161 157 149
-7.32 12.94 -3.90 162 158 150
-7.31 12.85 -3.91 162 158 150
-7.31 12.77 -3.91 162 158 150
-7.31 12.68 -3.91 163 157 150
-7.31 12.59 -3.92 163 157 150
-7.32 12.49 -3.90 162 158 150
-7.32 12.40 -3.90 162 158 150
-7.32 12.31 -3.90 162 158 150
-7.31 12.22 -3.91 162 158 150
-7.31 12.13 -3.91 162 161 152
-7.31 12.04 -3.91 164 163 154
-7.31 11.95 -3.91 164 163 154
-7.31 11.86 -3.91 164 163 154
-7.31 11.77 -3.91 163 164 154
-7.31 11.68 -3.91 163 164 154
-7.31 11.59 -3.91 163 164 154
-7.31 11.50 -3.92 163 164 154
-7.30 11.42 -3.93 167 163 155
-7.30 11.33 -3.93 167 163 155
-7.30 11.24 -3.93 167 163 155
-7.30 11.14 -3.92 167 163 155
-7.31 11.05 -3.92 167 163 155
-7.30 10.96 -3.92 167 163 155
-7.30 10.87 -3.92 167 163 155
-7.30 10.79 -3.93 168 164 156
-7.29 10.70 -3.93 168 164 156
-7.30 10.60 -3.93 168 164 156
-7.29 10.52 -3.94 168 164 156
-7.30 10.42 -3.93 168 164 156
-7.29 10.34 -3.94 168 164 156
-7.29 10.25 -3.94 168 164 156
-7.30 10.15 -3.93 166 165 156
-7.29 10.06 -3.94 167 166 157
-7.30 9.97 -3.93 167 168 158
-7.29 9.88 -3.93 167 168 158
-7.29 9.79 -3.94 167 168 158
-7.29 9.70 -3.93 167 168 158
-7.29 9.61 -3.94 167 168 158
-7.28 9.53 -3.95 167 168 158
-7.28 9.44 -3.95 168 169 159
-7.28 9.35 -3.96 170 171 161
-7.27 9.26 -3.97 170 171 161
-7.26 9.18 -3.97 170 171 161
-7.26 9.09 -3.98 170 171 161
-7.26 9.00 -3.98 170 171 161
-7.26 8.90 -3.97 170 171 161
-7.26 8.81 -3.97 170 171 161
-7.27 8.72 -3.97 171 172 164
-7.25 8.64 -3.99 171 172 164
-7.25 8.55 -3.99 171 172 164
-7.25 8.46 -3.99 171 172 164
-7.25 8.37 -3.99 171 172 164
-7.25 8.28 -3.99 171 172 164
-7.24 8.19 -4.00 171 172 164
-7.24 8.10 -4.00 171 172 164
-7.25 8.01 -3.99 171 172 164
-7.25 7.92 -3.99 172 173 165
-7.25 7.83 -3.99 172 173 165
-7.24 7.74 -4.00 172 173 165
-7.24 7.65 -4.01 172 173 165
-7.24 7.56 -4.00 172 173 165
-7.24 7.47 -4.00 172 173 165
-7.24 7.38 -4.00 172 173 165
-7.24 7.29 -4.00 172 173 165
-7.23 7.20 -4.01 173 174 166
-7.23 7.11 -4.01 173 174 166
-7.23 7.02 -4.02 173 174 166
-7.22 6.93 -4.03 173 174 166
-7.22 6.84 -4.03 173 174 166
-7.22 6.75 -4.03 173 174 166
-7.22 6.66 -4.02 173 174 166
-7.22 6.57 -4.03 173 174 166
-7.22 6.48 -4.03 173 174 166
-7.21 6.39 -4.03 173 174 166
-7.22 6.30 -4.03 173 174 166
-7.22 6.21 -4.02 173 174 166
-7.22 6.12 -4.03 173 174 166
-7.22 6.02 -4.02 173 174 166
-7.22 5.94 -4.03 173 174 166
-7.22 5.84 -4.02 173 174 166
-7.22 5.76 -4.03 173 174 166
-7.21 5.67 -4.03 173 174 166
-7.21 5.58 -4.03 173 174 166
-7.21 5.49 -4.04 173 174 166
-7.21 5.39 -4.03 173 174 166
-7.22 5.30 -4.02 173 174 166
-7.22 5.21 -4.02 173 174 166
-7.22 5.12 -4.02 173 174 166
-7.23 5.03 -4.02 173 174 166
-7.23 4.94 -4.02 173 174 166
-7.22 4.85 -4.02 173 174 166
-7.23 4.75 -4.01 173 174 166
-7.23 4.66 -4.01 173 174 166
-7.23 4.57 -4.01 173 174 166
-7.23 4.48 -4.01 173 174 166
-7.23 4.39 -4.01 173 174 166
-7.23 4.30 -4.01 173 174 166
-7.24 4.21 -4.01 173 173 168
-7.24 4.12 -4.01 173 173 168
-7.24 4.03 -4.01 173 173 168
-7.24 3.94 -4.01 173 173 168
-7.24 3.85 -4.01 173 173 168
-7.24 3.76 -4.01 173 173 168
-7.23 3.67 -4.02 173 173 168
-7.23 3.58 -4.02 173 173 168
-7.22 3.49 -4.02 173 173 168
-7.21 3.40 -4.03 173 173 168
-7.21 3.31 -4.04 173 173 168
-7.21 3.22 -4.04 173 173 168
-7.21 3.13 -4.04 173 173 168
-7.21 3.04 -4.04 173 173 168
-7.21 2.95 -4.04 173 173 168
-7.21 2.86 -4.04 173 173 168
-7.20 2.77 -4.05 173 174 166
-7.21 2.68 -4.04 173 174 166
-7.21 2.59 -4.04 173 174 166
-7.20 2.50 -4.05 173 174 166
-7.20 2.41 -4.05 173 174 166
-7.20 2.32 -4.05 173 174 166
-7.21 2.22 -4.04 173 174 166
-7.21 2.13 -4.04 173 174 166
-7.21 2.04 -4.04 173 174 166
-7.21 1.95 -4.04 173 174 166
-7.21 1.86 -4.04 173 174 166
-7.22 1.77 -4.03 173 174 166
-7.21 1.68 -4.03 173 174 166
-7.22 1.58 -4.02 173 174 166
-7.22 1.50 -4.03 173 174 166
-7.22 1.40 -4.03 173 174 166
-7.22 1.31 -4.02 172 173 165
-7.22 1.22 -4.03 172 173 165
-7.22 1.13 -4.03 172 173 165
-7.22 1.04 -4.03 172 173 165
-7.22 0.95 -4.03 172 173 165
-7.22 0.86 -4.02 172 173 165
-7.22 0.77 -4.02 172 173 165
-7.22 0.68 -4.02 172 173 165
-7.22 0.59 -4.03 172 173 165
-7.22 0.50 -4.02 172 173 165
-7.22 0.41 -4.02 172 173 165
-7.23 0.32 -4.02 172 173 165
-7.23 0.22 -4.01 172 173 165
-7.23 0.13 -4.01 172 173 165
-7.23 0.04 -4.01 172 173 165
-7.24 -0.05 -4.00 172 173 165
-7.24 -0.14 -4.00 170 172 167
-7.24 -0.23 -4.01 170 172 167
-7.24 -0.32 -4.00 168 173 167
-7.23 -0.41 -4.02 168 173 167
-7.22 -0.50 -4.02 168 173 167
-7.22 -0.59 -4.03 168 173 167
-7.22 -0.68 -4.03 168 173 167
-7.21 -0.77 -4.04 168 173 167
-7.20 -0.86 -4.05 169 174 168
-7.20 -0.95 -4.05 169 174 168
-7.20 -1.04 -4.05 169 174 168
-7.20 -1.13 -4.05 169 174 168
-7.20 -1.22 -4.05 169 174 168
-7.20 -1.31 -4.05 169 174 168
-7.19 -1.40 -4.06 169 174 168
-7.19 -1.49 -4.06 169 174 168
-7.19 -1.58 -4.06 170 175 171
-7.18 -1.67 -4.07 170 175 171
-7.18 -1.76 -4.07 170 175 171
-7.18 -1.85 -4.07 170 175 171
-7.19 -1.94 -4.06 170 175 171
-7.19 -2.03 -4.06 170 175 171
-7.19 -2.13 -4.06 170 175 171
-7.19 -2.22 -4.06 170 175 171
-7.19 -2.31 -4.06 172 177 173
-7.20 -2.40 -4.05 172 177 173
-7.20 -2.49 -4.05 172 177 173
-7.21 -2.58 -4.04 172 177 173
-7.20 -2.67 -4.05 172 177 173
-7.19 -2.76 -4.06 172 177 173
-7.20 -2.85 -4.05 172 177 173
-7.19 -2.94 -4.06 172 177 173
-7.20 -3.03 -4.05 172 177 173
-7.21 -3.12 -4.04 172 177 173
-7.20 -3.21 -4.05 172 177 173
-7.20 -3.30 -4.05 172 177 173
-7.21 -3.40 -4.04 172 177 173
-7.22 -3.49 -4.03 172 177 173
-7.21 -3.58 -4.04 174 179 175
-7.22 -3.67 -4.03 174 179 175
-7.22 -3.76 -4.03 174 179 175
-7.21 -3.85 -4.03 174 179 175
-7.22 -3.94 -4.03 174 179 175
-7.22 -4.03 -4.02 174 179 175
-7.22 -4.12 -4.02 174 179 175
-7.22 -4.21 -4.03 174 179 175
-7.22 -4.30 -4.03 175 180 174
-7.21 -4.39 -4.04 175 180 174
-7.21 -4.48 -4.04 174 181 174
-7.21 -4.58 -4.04 174 181 174
-7.21 -4.67 -4.04 174 181 174
-7.21 -4.76 -4.04 174 181 174
-7.21 -4.85 -4.04 174 181 174
-7.21 -4.94 -4.04 174 181 174
-7.21 -5.03 -4.04 174 181 174
-7.21 -5.12 -4.04 174 181 174
-7.20 -5.21 -4.05 175 182 175
-7.21 -5.30 -4.04 175 182 175
-7.20 -5.39 -4.05 175 182 175
-7.21 -5.48 -4.04 175 182 175
-7.21 -5.57 -4.04 175 182 175
-7.21 -5.66 -4.03 175 182 175
-7.21 -5.75 -4.04 175 182 175
-7.21 -5.84 -4.04 175 182 175
-7.21 -5.93 -4.04 176 183 176
-7.21 -6.03 -4.04 176 183 176
-7.20 -6.12 -4.05 176 183 176
-7.20 -6.21 -4.05 176 183 176
-7.20 -6.30 -4.05 176 183 176
-7.19 -6.39 -4.06 176 183 176
-7.19 -6.48 -4.07 176 183 176
-7.19 -6.57 -4.07 176 183 176
-7.18 -6.66 -4.08 178 185 178
-7.17 -6.75 -4.09 178 185 178
-7.16 -6.84 -4.10 178 185 178
-7.16 -6.93 -4.11 178 185 178
-7.15 -7.02 -4.11 178 185 178
-7.15 -7.11 -4.12 178 185 178
-7.14 -7.20 -4.13 178 185 178
-7.13 -7.29 -4.14 178 185 178
-7.11 -7.39 -4.16 178 185 180
-7.11 -7.48 -4.17 178 185 180
-7.09 -7.57 -4.19 178 185 180
-7.08 -7.66 -4.20 178 185 180
-7.07 -7.75 -4.21 178 185 180
-7.06 -7.84 -4.23 178 185 180
-7.06 -7.93 -4.22 178 185 180
-7.05 -8.02 -4.23 178 185 180
-7.06 -8.11 -4.23 181 188 183
-7.06 -8.20 -4.22 181 188 183
-7.07 -8.30 -4.22 180 187 182
-7.06 -8.39 -4.22 184 191 186
-7.06 -8.48 -4.23 178 185 180
-7.07 -8.57 -4.21 173 180 175
-7.07 -8.66 -4.21 180 187 182
-7.10 -8.75 -4.18 180 187 182
-7.11 -8.84 -4.17 182 189 187
-7.05 -8.93 -4.24 173 180 178
-7.06 -9.02 -4.23 177 184 182
-7.44 -9.10 -3.75 195 202 200
-7.83 -9.16 -3.27 197 204 202
-8.06 -9.24 -2.98 199 206 204
-8.03 -9.33 -3.02 236 243 241
-8.04 -9.42 -3.00 236 243 241
-8.06 -9.50 -2.98 240 247 245
-8.04 -9.59 -3.00 240 247 245
-7.94 -9.69 -3.13 229 236 234
-7.66 -9.80 -3.48 208 215 213
-7.44 -9.91 -3.75 185 192 190
-7.28 -10.01 -3.96 174 181 179
-7.18 -10.11 -4.07 175 182 180
-7.13 -10.20 -4.14 177 184 182
-7.09 -10.30 -4.19 183 190 185
-7.08 -10.39 -4.20 178 185 180
-7.07 -10.48 -4.21 171 178 173
-7.09 -10.57 -4.18 171 178 173
-7.10 -10.66 -4.17 177 184 179
-7.11 -10.75 -4.16 182 189 184
-7.11 -10.84 -4.17 177 184 179
-7.11 -10.93 -4.17 173 180 175
-7.10 -11.02 -4.17 182 189 184
-7.11 -11.11 -4.16 181 188 183
-7.11 -11.20 -4.16 180 187 182
-7.11 -11.30 -4.17 178 185 180
-7.10 -11.39 -4.17 178 185 180
-7.11 -11.48 -4.16 180 187 182
-7.11 -11.57 -4.16 181 188 183
-7.11 -11.66 -4.17 182 189 184
-7.10 -11.75 -4.18 182 189 187
-7.10 -11.84 -4.17 182 189 187
-7.10 -11.93 -4.17 182 189 187
-7.09 -12.02 -4.18 182 189 187
-7.09 -12.12 -4.18 182 189 187
-7.09 -12.21 -4.19 182 189 187
-7.09 -12.30 -4.19 182 189 187
-7.08 -12.39 -4.20 182 189 187
-7.08 -12.48 -4.20 184 191 189
-7.07 -12.57 -4.21 187 194 192
-7.05 -12.67 -4.23 187 194 192
-7.05 -12.76 -4.24 187 194 192
-7.04 -12.85 -4.25 187 194 192
-7.04 -12.94 -4.25 187 194 192
-7.03 -13.04 -4.26 187 194 192
-7.02 -13.13 -4.27 187 194 192
-7.02 -13.22 -4.28 189 196 191
-7.00 -13.31 -4.30 190 197 192
-7.00 -13.41 -4.30 190 197 195
-7.00 -13.50 -4.30 191 198 196
-6.99 -13.59 -4.32 190 196 199
-6.98 -13.68 -4.32 188 194 197
-6.98 -13.77 -4.32 187 193 196
-6.98 -13.87 -4.33 185 191 194
-6.97 -13.96 -4.34 178 185 183
-6.97 -14.05 -4.34 177 184 182
-6.97 -14.14 -4.33 171 178 173
-6.99 -14.23 -4.32 165 172 167
-7.03 -14.31 -4.26 188 192 205
-7.15 -14.38 -4.12 42 46 59
-7.28 -14.44 -3.95 19 20 54
-7.33 -14.52 -3.89 48 49 83
-7.34 -14.61 -3.87 41 46 113
-7.34 -14.70 -3.88 42 47 114
-7.36 -14.78 -3.86 44 50 121
-7.37 -14.87 -3.84 46 52 123
-7.38 -14.96 -3.83 47 51 132
-7.38 -15.05 -3.83 46 50 131
-7.38 -15.14 -3.82 44 51 133
-7.39 -15.23 -3.81 43 50 132
-7.41 -15.31 -3.79 46 54 113
-7.42 -15.40 -3.77 40 48 107
-7.45 -15.48 -3.74 41 53 75
-7.48 -15.57 -3.70 56 68 90
-7.52 -15.65 -3.66 88 98 102
-7.55 -15.73 -3.61 120 130 134
-7.59 -15.81 -3.56 143 152 154
-7.62 -15.89 -3.53 153 162 164
-7.65 -15.97 -3.49 174 174 171
-7.69 -16.05 -3.44 174 174 171
-7.73 -16.13 -3.39 164 166 161
-7.78 -16.20 -3.33 169 171 166
-7.82 -16.28 -3.27 172 175 163
-7.86 -16.36 -3.22 176 179 167
-7.90 -16.43 -3.17 170 174 159
-7.95 -16.51 -3.12 173 177 162
-8.00 -16.58 -3.05 171 173 158
-8.06 -16.66 -2.98 173 175 160
-8.11 -16.73 -2.92 173 174 162
-8.16 -16.80 -2.86 173 174 162
-8.20 -16.88 -2.80 170 171 163
-8.24 -16.95 -2.75 171 172 164
-8.28 -17.03 -2.71 171 174 166
-8.31 -17.11 -2.67 176 179 171
-8.34 -17.18 -2.63 177 176 165
-8.37 -17.26 -2.59 177 176 165
-8.41 -17.34 -2.55 177 176 165
-8.44 -17.41 -2.50 180 179 168
-8.47 -17.49 -2.47 180 179 168
-8.50 -17.57 -2.43 180 179 168
-8.54 -17.65 -2.38 177 176 165
-8.56 -17.73 -2.36 174 173 162
-8.59 -17.80 -2.32 173 172 161
-8.62 -17.88 -2.29 173 172 161
-8.64 -17.96 -2.26 171 170 159
-8.66 -18.04 -2.23 167 166 155
-8.69 -18.12 -2.20 165 164 153
-8.72 -18.19 -2.16 161 160 149
-8.73 -18.27 -2.14 160 159 148
-8.76 -18.35 -2.11 159 158 147
-8.78 -18.43 -2.08 156 156 151
-8.80 -18.51 -2.05 153 153 148
-8.82 -18.59 -2.03 151 151 146
-8.85 -18.66 -2.00 152 152 147
-8.86 -18.74 -1.98 151 151 146
-8.87 -18.83 -1.97 151 151 146
-8.89 -18.91 -1.94 147 147 142
-8.91 -18.98 -1.92 145 145 140
-8.93 -19.06 -1.89 150 150 145
-8.95 -19.14 -1.87 131 131 126
-8.97 -19.22 -1.85 115 115 110
-9.00 -19.29 -1.81 112 112 107
-9.03 -19.37 -1.77 104 104 99
-9.07 -19.44 -1.73 81 81 76
-9.09 -19.51 -1.69 53 53 48
-9.11 -19.59 -1.67 38 38 33
-9.14 -19.67 -1.64 35 37 34
-9.16 -19.74 -1.61 36 38 35
-9.20 -19.81 -1.56 44 46 43
-9.24 -19.88 -1.51 50 52 49
-9.28 -19.95 -1.46 55 57 54
-9.31 -20.02 -1.42 50 52 49
-9.36 -20.09 -1.37 41 43 40
-9.39 -20.16 -1.32 35 37 34
-9.43 -20.22 -1.27 22 24 21
-9.48 -20.29 -1.21 22 24 21
-9.54 -20.35 -1.14 21 23 20
-9.58 -20.42 -1.09 21 23 20
-9.63 -20.48 -1.03 21 23 20
-9.68 -20.54 -0.97 24 26 23
-9.73 -20.60 -0.91 27 29 26
-9.80 -20.65 -0.82 28 30 27
-9.83 -20.72 -0.77 42 27 37
-9.87 -20.79 -0.73 34 19 29
-9.88 -20.87 -0.71 26 12 0
-9.79 -20.99 -0.83 238 224 206
-9.25 -21.32 -1.50 252 242 204
-8.35 -21.82 -2.62 228 218 180
-7.80 -22.16 -3.30 232 220 190
-7.81 -22.24 -3.29 231 219 189
-7.87 -22.31 -3.22 223 213 201
-7.93 -22.37 -3.14 225 215 203
-7.92 -22.46 -3.16 219 212 210
-7.91 -22.55 -3.16 213 206 204
-7.93 -22.63 -3.14 216 214 212
-7.94 -22.72 -3.13 216 214 212
-7.92 -22.81 -3.15 216 216 213
-7.92 -22.90 -3.16 218 218 215
-7.91 -22.99 -3.16 215 217 214
-7.91 -23.08 -3.16 215 217 214
-7.92 -23.17 -3.16 215 217 214
-7.92 -23.26 -3.15 215 217 214
-7.92 -23.34 -3.15 215 217 214
-7.93 -23.43 -3.14 215 217 214
-7.93 -23.52 -3.14 215 217 214
-7.94 -23.60 -3.13 216 218 215
-7.94 -23.69 -3.13 216 218 215
-7.94 -23.78 -3.13 216 218 215
-7.94 -23.87 -3.12 216 218 215
-7.95 -23.95 -3.12 216 218 215
-7.96 -24.03 -3.10 216 218 215
-7.96 -24.12 -3.10 216 218 215
-7.96 -24.21 -3.10 216 218 215
-7.95 -24.30 -3.11 218 220 217
-7.95 -24.39 -3.11 219 221 218
-7.95 -24.48 -3.11 219 221 218
-7.96 -24.57 -3.11 219 221 218
-7.96 -24.65 -3.10 219 221 218
-7.97 -24.74 -3.10 219 221 218
-7.96 -24.83 -3.10 219 221 218
-7.97 -24.91 -3.09 219 221 218
-7.97 -25.00 -3.09 219 221 218
-7.98 -25.09 -3.08 219 221 218
-7.98 -25.17 -3.08 219 221 218
-7.98 -25.26 -3.08 219 221 218
-7.98 -25.35 -3.08 219 221 218
-7.99 -25.43 -3.07 219 221 218
-7.99 -25.52 -3.07 219 221 218
-8.00 -25.61 -3.06 219 221 218
-8.00 -25.69 -3.05 219 221 218
-8.00 -25.78 -3.05 219 221 218
-8.00 -25.87 -3.05 219 221 218
-8.00 -25.96 -3.05 219 221 218
-8.01 -26.04 -3.05 219 221 218
-8.01 -26.13 -3.04 219 221 218
-8.01 -26.22 -3.04 219 221 218
-8.01 -26.31 -3.04 219 221 218
-8.01 -26.39 -3.04 219 221 218
-8.02 -26.48 -3.03 219 221 218
-8.02 -26.56 -3.03 221 223 220
-8.02 -26.66 -3.03 221 223 220
-8.03 -26.74 -3.02 221 223 220
-8.03 -26.83 -3.02 221 223 220
-8.03 -26.91 -3.01 221 223 220
-8.04 -26.99 -3.00 221 223 220
-8.03 -27.09 -3.01 221 223 220
-8.05 -27.17 -3.00 223 223 223
-8.04 -27.26 -3.00 223 223 223
-8.05 -27.34 -2.99 223 223 223
-8.05 -27.43 -2.99 223 223 223
-8.05 -27.52 -2.99 223 223 223
-8.05 -27.61 -2.99 223 223 223
-8.05 -27.69 -2.99 223 223 223
-8.05 -27.78 -2.99 223 223 223
-8.05 -27.87 -2.99 222 222 222
-8.05 -27.96 -2.99 222 222 222
-8.05 -28.05 -2.99 222 222 222
-8.05 -28.14 -2.99 222 222 222
-8.06 -28.22 -2.98 222 222 222
-8.06 -28.31 -2.98 222 222 222
-8.07 -28.39 -2.97 222 222 222
-8.06 -28.48 -2.98 222 222 222
-8.07 -28.57 -2.97 224 222 223
-8.07 -28.65 -2.97 224 222 223
-8.07 -28.74 -2.97 224 222 223
-8.07 -28.83 -2.97 224 222 223
-8.08 -28.92 -2.96 224 222 223
-8.07 -29.00 -2.96 224 222 223
-8.08 -29.09 -2.96 224 222 223
-8.08 -29.18 -2.95 225 223 224
-8.08 -29.26 -2.95 226 224 225
-8.08 -29.35 -2.95 226 224 225
-8.08 -29.44 -2.95 226 224 225
-8.08 -29.53 -2.95 226 224 225
-8.09 -29.61 -2.94 226 224 225
-8.10 -29.69 -2.93 226 224 225
-8.10 -29.78 -2.93 225 225 225
-8.10 -29.87 -2.93 225 225 225
-8.10 -29.96 -2.93 230 225 227
-8.09 -30.05 -2.94 230 225 227
-8.10 -30.14 -2.93 230 225 227
-8.10 -30.22 -2.93 230 225 227
-8.10 -30.31 -2.92 230 225 227
-8.11 -30.39 -2.92 230 225 227
-8.11 -30.48 -2.92 230 225 227
-8.11 -30.57 -2.92 230 225 227
-8.11 -30.66 -2.92 230 225 227
-8.10 -30.75 -2.93 230 225 227
-8.11 -30.83 -2.92 231 226 228
-8.10 -30.92 -2.93 232 227 229
-8.10 -31.01 -2.92 232 227 229
-8.10 -31.10 -2.93 232 227 229
-8.10 -31.19 -2.93 230 228 229
-8.10 -31.28 -2.93 230 228 229
-8.09 -31.37 -2.94 232 227 229
-8.09 -31.46 -2.94 232 227 229
-8.09 -31.55 -2.94 230 228 229
-8.10 -31.63 -2.93 230 228 229
-8.10 -31.72 -2.93 230 228 229
-8.11 -31.80 -2.91 230 228 229
-8.12 -31.88 -2.91 230 228 229
-8.12 -31.97 -2.91 230 228 229
-8.12 -32.06 -2.90 231 229 230
-8.12 -32.15 -2.91 233 231 232
-8.13 -32.23 -2.90 233 231 232
-8.13 -32.31 -2.89 235 233 234
-8.14 -32.40 -2.89 235 233 234
-8.14 -32.48 -2.88 236 234 235
-8.14 -32.57 -2.88 236 234 235
-8.15 -32.65 -2.87 237 235 236
-8.15 -32.74 -2.87 237 235 233
-8.14 -32.83 -2.88 237 235 233
-8.14 -32.92 -2.88 237 235 233
-8.15 -33.00 -2.87 237 235 233
-8.16 -33.09 -2.86 237 235 233
-8.16 -33.17 -2.85 237 235 233
-8.16 -33.26 -2.85 237 235 233
-8.16 -33.34 -2.85 237 235 233
-8.16 -33.43 -2.85 237 235 233
-8.17 -33.51 -2.84 237 235 233
-8.17 -33.60 -2.84 237 235 233
-8.18 -33.68 -2.84 237 235 233
-8.17 -33.78 -2.84 237 235 233
-8.18 -33.86 -2.83 237 235 233
-8.19 -33.93 -2.81 237 235 233
-8.20 -34.02 -2.80 236 234 232
-8.21 -34.09 -2.79 232 232 227
-8.23 -34.16 -2.76 232 232 227
-8.25 -34.24 -2.75 232 232 227
-8.26 -34.31 -2.73 232 232 227
-8.28 -34.39 -2.71 233 231 227
-8.27 -34.49 -2.72 233 231 227
-8.19 -34.64 -2.82 235 230 227
-8.23 -34.69 -2.76 235 230 227
-8.13 -34.87 -2.89 229 222 220
-8.57 -34.57 -2.34 245 238 236
-7.89 21.06 -3.32 141 132 124
-7.87 20.98 -3.35 141 132 124
-7.88 20.89 -3.34 141 132 124
-7.84 20.83 -3.38 141 132 124
-7.86 20.73 -3.36 142 133 125
-7.87 20.63 -3.35 142 133 125
-7.84 20.56 -3.38 142 133 125
-7.84 20.48 -3.38 142 133 125
-7.84 20.39 -3.39 142 133 125
-7.83 20.31 -3.40 142 133 125
-7.82 20.22 -3.41 142 133 125
-7.83 20.13 -3.40 142 133 125
-7.82 20.04 -3.41 143 134 126
-7.82 19.96 -3.41 144 135 127
-7.81 19.88 -3.42 144 135 127
-7.81 19.79 -3.43 144 135 127
-7.80 19.71 -3.43 144 135 127
-7.79 19.63 -3.45 144 135 127
-7.79 19.54 -3.45 144 135 127
-7.79 19.45 -3.45 144 135 127
-7.78 19.37 -3.46 144 135 127
-7.77 19.29 -3.47 144 135 127
-7.77 19.20 -3.48 146 137 129
-7.75 19.12 -3.49 148 139 131
-7.74 19.04 -3.50 148 139 131
-7.73 18.96 -3.52 148 139 131
-7.72 18.88 -3.53 148 139 131
-7.71 18.80 -3.55 148 139 131
-7.70 18.72 -3.56 148 139 131
-7.69 18.64 -3.57 148 139 131
-7.68 18.56 -3.59 147 141 134
-7.67 18.47 -3.59 147 141 134
-7.66 18.39 -3.60 146 142 134
-7.65 18.31 -3.62 146 142 134
-7.65 18.22 -3.62 146 142 134
-7.64 18.14 -3.63 146 142 134
-7.63 18.06 -3.64 146 142 134
-7.63 17.97 -3.64 146 142 134
-7.63 17.88 -3.65 146 142 134
-7.63 17.79 -3.65 146 142 134
-7.62 17.71 -3.67 148 144 136
-7.62 17.62 -3.66 148 144 136
-7.61 17.54 -3.68 148 144 136
-7.61 17.45 -3.68 148 144 136
-7.61 17.36 -3.68 148 144 136
-7.61 17.27 -3.68 148 144 136
-7.60 17.19 -3.68 148 144 136
-7.60 17.10 -3.69 148 144 136
-7.60 17.01 -3.69 150 144 137
-7.59 16.93 -3.70 150 144 137
-7.59 16.84 -3.70 150 144 137
-7.59 16.75 -3.70 150 144 137
-7.58 16.66 -3.71 150 144 137
-7.59 16.57 -3.70 150 144 137
-7.58 16.48 -3.71 150 144 137
-7.58 16.40 -3.71 150 144 137
-7.58 16.31 -3.71 153 147 140
-7.57 16.22 -3.72 153 147 140
-7.57 16.13 -3.72 153 147 140
-7.56 16.05 -3.73 153 147 140
-7.57 15.95 -3.72 153 147 140
-7.56 15.87 -3.73 153 147 140
-7.56 15.78 -3.73 153 147 140
-7.55 15.70 -3.75 153 147 140
-7.55 15.61 -3.75 153 147 140
-7.54 15.53 -3.76 153 147 140
-7.54 15.44 -3.77 153 149 141
-7.53 15.35 -3.77 153 149 141
-7.52 15.27 -3.78 153 149 141
-7.52 15.18 -3.79 153 149 141
-7.52 15.09 -3.79 153 149 141
-7.52 15.00 -3.79 153 149 141
-7.51 14.92 -3.80 153 149 141
-7.51 14.83 -3.79 153 149 141
-7.51 14.74 -3.79 153 149 141
-7.52 14.64 -3.78 154 150 142
-7.51 14.56 -3.79 154 150 142
-7.52 14.46 -3.78 155 151 143
-7.52 14.37 -3.79 155 151 143
-7.52 14.28 -3.79 156 152 144
-7.51 14.20 -3.80 157 156 147
-7.51 14.11 -3.80 157 156 147
-7.50 14.02 -3.81 157 156 147
-7.49 13.94 -3.82 157 156 147
-7.49 13.85 -3.83 157 156 147
-7.49 13.76 -3.83 157 156 147
-7.48 13.68 -3.84 157 156 147
-7.47 13.59 -3.84 158 157 148
-7.48 13.50 -3.84 158 157 148
-7.47 13.42 -3.85 158 157 148
-7.47 13.33 -3.85 158 157 148
-7.47 13.23 -3.85 158 157 148
-7.48 13.14 -3.84 158 157 148
-7.48 13.05 -3.84 158 157 148
-7.48 12.96 -3.84 161 157 149
-7.47 12.88 -3.85 162 158 150
-7.47 12.79 -3.85 162 158 150
-7.46 12.70 -3.86 162 158 150
-7.46 12.61 -3.86 163 157 150
-7.45 12.52 -3.87 163 157 150
-7.46 12.43 -3.86 162 158 150
-7.46 12.34 -3.86 162 158 150
-7.46 12.25 -3.85 162 158 150
-7.46 12.16 -3.86 162 158 150
-7.46 12.07 -3.86 162 161 152
-7.46 11.98 -3.86 164 163 154
-7.46 11.89 -3.86 164 163 154
-7.45 11.80 -3.87 164 163 154
-7.46 11.71 -3.86 163 164 154
-7.46 11.62 -3.86 163 164 154
-7.45 11.54 -3.87 163 164 154
-7.46 11.44 -3.86 163 164 154
-7.45 11.36 -3.87 167 163 155
-7.45 11.27 -3.87 167 163 155
-7.45 11.18 -3.87 167 163 155
-7.45 11.09 -3.87 167 163 155
-7.45 10.99 -3.87 167 163 155
-7.45 10.90 -3.87 167 163 155
-7.45 10.81 -3.87 167 163 155
-7.45 10.72 -3.87 168 164 156
-7.44 10.64 -3.88 168 164 156
-7.44 10.55 -3.88 168 164 156
-7.44 10.46 -3.89 168 164 156
-7.45 10.37 -3.88 168 164 156
-7.44 10.28 -3.88 168 164 156
-7.45 10.19 -3.88 168 164 156
-7.45 10.09 -3.87 166 165 156
-7.44 10.01 -3.88 167 166 157
-7.45 9.91 -3.87 167 168 158
-7.45 9.82 -3.87 167 168 158
-7.45 9.73 -3.87 167 168 158
-7.45 9.64 -3.87 167 168 158
-7.44 9.56 -3.88 167 168 158
-7.44 9.47 -3.88 167 168 158
-7.44 9.38 -3.89 168 169 159
-7.43 9.29 -3.90 170 171 161
-7.42 9.21 -3.91 170 171 161
-7.42 9.12 -3.91 170 171 161
-7.41 9.03 -3.92 170 171 161
-7.41 8.94 -3.92 170 171 161
-7.41 8.85 -3.93 170 171 161
-7.41 8.76 -3.93 170 171 161
-7.41 8.67 -3.93 171 172 164
-7.40 8.59 -3.93 171 172 164
-7.40 8.50 -3.93 171 172 164
-7.40 8.41 -3.94 171 172 164
-7.39 8.32 -3.94 171 172 164
-7.40 8.23 -3.94 171 172 164
-7.39 8.14 -3.95 171 172 164
-7.39 8.05 -3.94 171 172 164
-7.39 7.96 -3.95 171 172 164
-7.40 7.86 -3.93 172 173 165
-7.39 7.78 -3.94 172 173 165
-7.40 7.68 -3.93 172 173 165
-7.40 7.59 -3.93 172 173 165
-7.39 7.51 -3.95 172 173 165
-7.39 7.42 -3.95 172 173 165
-7.40 7.32 -3.93 172 173 165
-7.39 7.24 -3.94 172 173 165
-7.39 7.15 -3.95 173 174 166
-7.39 7.06 -3.95 173 174 166
-7.38 6.97 -3.96 173 174 166
-7.38 6.88 -3.96 173 174 166
-7.38 6.79 -3.96 173 174 166
-7.38 6.70 -3.96 173 174 166
-7.38 6.61 -3.96 173 174 166
-7.38 6.52 -3.96 173 174 166
-7.38 6.43 -3.96 173 174 166
-7.37 6.34 -3.97 173 174 166
-7.37 6.25 -3.97 173 174 166
-7.37 6.16 -3.97 173 174 166
-7.37 6.07 -3.97 173 174 166
-7.38 5.98 -3.96 173 174 166
-7.37 5.89 -3.97 173 174 166
-7.37 5.80 -3.97 173 174 166
-7.38 5.71 -3.97 173 174 166
-7.38 5.62 -3.96 173 174 166
-7.37 5.53 -3.97 173 174 166
-7.37 5.44 -3.97 173 174 166
-7.38 5.35 -3.96 173 174 166
-7.38 5.26 -3.96 173 174 166
-7.38 5.17 -3.96 173 174 166
-7.38 5.08 -3.96 173 174 166
-7.38 4.99 -3.96 173 174 166
-7.38 4.90 -3.97 173 174 166
-7.38 4.80 -3.96 173 174 166
-7.38 4.71 -3.96 173 174 166
-7.38 4.62 -3.96 173 174 166
-7.38 4.53 -3.96 173 174 166
-7.38 4.44 -3.96 173 174 166
-7.38 4.35 -3.96 173 174 166
-7.39 4.26 -3.95 173 174 166
-7.39 4.17 -3.94 173 173 168
-7.39 4.08 -3.94 173 173 168
-7.39 3.99 -3.95 173 173 168
-7.39 3.90 -3.94 173 173 168
-7.39 3.81 -3.95 173 173 168
-7.38 3.72 -3.96 173 173 168
-7.38 3.63 -3.96 173 173 168
-7.38 3.54 -3.96 173 173 168
-7.37 3.45 -3.97 173 173 168
-7.37 3.36 -3.97 173 173 168
-7.36 3.27 -3.98 173 173 168
-7.36 3.18 -3.98 173 173 168
-7.36 3.10 -3.98 173 173 168
-7.36 3.00 -3.98 173 173 168
-7.35 2.92 -3.99 173 173 168
-7.36 2.82 -3.99 173 173 168
-7.36 2.73 -3.99 173 174 166
-7.35 2.65 -4.00 173 174 166
-7.36 2.55 -3.99 173 174 166
-7.34 2.47 -4.00 173 174 166
-7.35 2.37 -3.99 173 174 166
-7.36 2.28 -3.99 173 174 166
-7.35 2.19 -4.00 173 174 166
-7.36 2.10 -3.99 173 174 166
-7.36 2.01 -3.98 173 174 166
-7.36 1.92 -3.98 173 174 166
-7.37 1.83 -3.97 173 174 166
-7.37 1.74 -3.97 173 174 166
-7.37 1.65 -3.97 173 174 166
-7.37 1.56 -3.97 173 174 166
-7.37 1.47 -3.97 173 174 166
-7.38 1.37 -3.97 173 174 166
-7.38 1.28 -3.96 172 173 165
-7.38 1.19 -3.97 172 173 165
-7.38 1.10 -3.97 172 173 165
-7.38 1.01 -3.97 172 173 165
-7.38 0.92 -3.96 172 173 165
-7.38 0.83 -3.96 172 173 165
-7.37 0.74 -3.97 172 173 165
-7.38 0.65 -3.96 172 173 165
-7.38 0.56 -3.97 172 173 165
-7.38 0.47 -3.96 172 173 165
-7.38 0.38 -3.96 172 173 165
-7.38 0.29 -3.96 172 173 165
-7.38 0.20 -3.96 172 173 165
-7.38 0.11 -3.96 172 173 165
-7.39 0.02 -3.94 172 173 165
-7.39 -0.07 -3.95 172 173 165
-7.39 -0.16 -3.94 170 172 167
-7.39 -0.25 -3.95 170 172 167
-7.39 -0.34 -3.95 168 173 167
-7.38 -0.43 -3.96 168 173 167
-7.39 -0.52 -3.95 168 173 167
-7.38 -0.61 -3.96 168 173 167
-7.37 -0.70 -3.97 168 173 167
-7.38 -0.79 -3.97 168 173 167
-7.37 -0.88 -3.97 169 174 168
-7.37 -0.97 -3.97 169 174 168
-7.37 -1.06 -3.98 169 174 168
-7.36 -1.15 -3.98 169 174 168
-7.36 -1.24 -3.98 169 174 168
-7.36 -1.33 -3.98 169 174 168
-7.37 -1.42 -3.98 169 174 168
-7.37 -1.51 -3.98 169 174 168
-7.36 -1.60 -3.98 170 175 171
-7.35 -1.69 -4.00 170 175 171
-7.36 -1.78 -3.99 170 175 171
-7.35 -1.87 -4.00 170 175 171
-7.35 -1.96 -4.00 170 175 171
-7.35 -2.05 -4.00 170 175 171
-7.35 -2.14 -4.00 170 175 171
-7.36 -2.24 -3.98 170 175 171
-7.36 -2.33 -3.98 172 177 173
-7.36 -2.42 -3.98 172 177 173
-7.36 -2.51 -3.98 172 177 173
-7.36 -2.60 -3.98 172 177 173
-7.36 -2.69 -3.99 172 177 173
-7.36 -2.78 -3.98 172 177 173
-7.37 -2.87 -3.97 172 177 173
-7.36 -2.96 -3.98 172 177 173
-7.36 -3.05 -3.98 172 177 171
-7.36 -3.14 -3.98 172 177 171
-7.36 -3.23 -3.98 172 177 171
-7.36 -3.32 -3.98 172 177 171
-7.37 -3.41 -3.97 172 177 171
-7.38 -3.50 -3.97 172 177 171
-7.38 -3.59 -3.97 174 179 173
-7.38 -3.68 -3.96 174 179 173
-7.37 -3.77 -3.98 174 179 173
-7.37 -3.86 -3.97 174 179 173
-7.37 -3.95 -3.97 174 179 173
-7.37 -4.04 -3.97 174 179 173
-7.37 -4.13 -3.97 174 179 173
-7.37 -4.22 -3.97 174 179 173
-7.38 -4.31 -3.97 175 180 174
-7.37 -4.40 -3.98 175 180 174
-7.37 -4.49 -3.97 174 181 174
-7.36 -4.58 -3.99 174 181 174
-7.36 -4.68 -3.98 174 181 174
-7.36 -4.77 -3.98 174 181 174
-7.36 -4.86 -3.98 174 181 174
-7.36 -4.95 -3.98 174 181 174
-7.37 -5.04 -3.98 174 181 174
-7.36 -5.13 -3.98 174 181 174
-7.37 -5.22 -3.97 175 182 175
-7.37 -5.31 -3.97 175 182 175
-7.37 -5.40 -3.97 175 182 175
-7.37 -5.49 -3.97 175 182 175
-7.38 -5.58 -3.97 175 182 175
-7.37 -5.67 -3.97 175 182 175
-7.37 -5.76 -3.97 175 182 175
-7.37 -5.85 -3.97 175 182 175
-7.36 -5.94 -3.98 176 183 176
-7.36 -6.03 -3.98 176 183 176
-7.37 -6.12 -3.98 176 183 176
-7.36 -6.21 -3.98 176 183 176
-7.36 -6.30 -3.99 176 183 176
-7.35 -6.39 -3.99 176 183 176
-7.35 -6.48 -4.00 176 183 176
-7.34 -6.57 -4.01 176 183 176
-7.34 -6.66 -4.01 178 185 178
-7.33 -6.75 -4.02 178 185 178
-7.33 -6.84 -4.02 178 185 178
-7.32 -6.93 -4.04 178 185 178
-7.31 -7.02 -4.04 178 185 178
-7.31 -7.11 -4.05 178 185 178
-7.30 -7.20 -4.06 178 185 178
-7.29 -7.29 -4.07 178 185 178
-7.27 -7.39 -4.09 178 185 180
-7.26 -7.48 -4.11 178 185 180
-7.25 -7.57 -4.12 178 185 180
-7.24 -7.66 -4.14 178 185 180
-7.22 -7.75 -4.15 178 185 180
-7.22 -7.84 -4.16 178 185 180
-7.22 -7.93 -4.16 178 185 180
-7.22 -8.02 -4.16 178 185 180
-7.21 -8.11 -4.17 183 190 185
-7.22 -8.20 -4.16 182 189 184
-7.22 -8.29 -4.16 182 189 184
-7.23 -8.38 -4.15 184 191 186
-7.22 -8.47 -4.16 176 183 178
-7.22 -8.56 -4.16 173 180 175
-7.24 -8.65 -4.13 182 189 184
-7.22 -8.75 -4.15 183 190 185
-7.22 -8.84 -4.17 174 181 179
-7.15 -8.93 -4.24 169 176 174
-7.46 -9.01 -3.85 216 223 221
-8.14 -9.06 -3.01 232 239 237
-8.25 -9.14 -2.87 229 236 234
-8.22 -9.23 -2.91 241 248 246
-8.20 -9.32 -2.93 244 251 249
-8.18 -9.41 -2.96 232 239 237
-8.21 -9.50 -2.92 247 254 252
-8.23 -9.58 -2.90 247 254 252
-8.26 -9.67 -2.87 250 255 255
-8.24 -9.76 -2.89 247 254 252
-8.15 -9.85 -3.00 231 238 236
-7.95 -9.96 -3.25 206 213 211
-7.65 -10.07 -3.62 185 192 190
-7.43 -10.18 -3.89 176 183 181
-7.25 -10.29 -4.13 178 185 180
-7.23 -10.38 -4.15 182 189 184
-7.24 -10.47 -4.13 182 189 184
-7.24 -10.56 -4.13 178 185 180
-7.27 -10.65 -4.10 181 188 183
-7.25 -10.74 -4.12 185 192 187
-7.25 -10.83 -4.12 184 191 186
-7.25 -10.92 -4.12 177 184 179
-7.25 -11.01 -4.12 183 190 185
-7.25 -11.10 -4.12 182 189 184
-7.25 -11.19 -4.12 181 188 183
-7.25 -11.28 -4.12 180 187 182
-7.25 -11.37 -4.12 180 187 182
-7.25 -11.47 -4.13 181 188 183
-7.25 -11.56 -4.13 182 189 184
-7.25 -11.65 -4.12 183 190 185
-7.25 -11.74 -4.12 182 189 187
-7.25 -11.83 -4.12 182 189 187
-7.25 -11.92 -4.12 182 189 187
-7.25 -12.01 -4.12 182 189 187
-7.24 -12.10 -4.13 182 189 187
-7.24 -12.19 -4.13 182 189 187
-7.24 -12.28 -4.13 182 189 187
-7.24 -12.37 -4.13 182 189 187
-7.23 -12.47 -4.15 184 191 189
-7.23 -12.56 -4.14 187 194 192
-7.22 -12.65 -4.16 187 194 192
-7.22 -12.74 -4.16 187 194 192
-7.22 -12.83 -4.17 187 194 192
-7.21 -12.92 -4.17 187 194 192
-7.20 -13.01 -4.18 187 194 192
-7.20 -13.11 -4.18 187 194 192
-7.19 -13.20 -4.19 188 195 190
-7.19 -13.29 -4.20 189 196 191
-7.18 -13.38 -4.21 190 197 192
-7.17 -13.47 -4.22 190 197 192
-7.16 -13.57 -4.24 190 197 195
-7.15 -13.66 -4.24 188 195 193
-7.14 -13.75 -4.26 187 193 194
-7.14 -13.84 -4.26 184 190 191
-7.13 -13.94 -4.27 174 180 181
-7.13 -14.03 -4.27 167 173 174
-7.13 -14.12 -4.27 169 176 174
-7.15 -14.21 -4.25 159 166 164
-7.19 -14.29 -4.19 178 183 193
-7.25 -14.37 -4.12 86 91 101
-7.34 -14.44 -4.01 14 16 41
-7.39 -14.52 -3.94 42 44 69
-7.40 -14.60 -3.93 43 47 99
-7.40 -14.69 -3.93 44 48 100
-7.41 -14.78 -3.93 43 49 107
-7.42 -14.87 -3.91 45 51 109
-7.42 -14.96 -3.91 45 50 117
-7.42 -15.05 -3.91 45 50 117
-7.42 -15.14 -3.91 42 48 117
-7.42 -15.23 -3.91 41 47 116
-7.41 -15.33 -3.93 48 57 100
-7.43 -15.41 -3.90 38 47 90
-7.45 -15.49 -3.87 34 45 58
-7.49 -15.58 -3.83 36 47 60
-7.52 -15.66 -3.78 43 52 52
-7.56 -15.73 -3.73 59 68 68
-7.62 -15.81 -3.66 100 106 109
-7.66 -15.89 -3.61 138 144 147
-7.70 -15.97 -3.56 164 164 164
-7.72 -16.05 -3.54 178 178 178
-7.76 -16.13 -3.49 178 180 177
-7.80 -16.21 -3.44 179 181 178
-7.85 -16.28 -3.37 175 180 176
-7.89 -16.36 -3.32 178 183 179
-7.93 -16.44 -3.28 174 177 165
-7.97 -16.52 -3.23 174 177 165
-8.01 -16.59 -3.17 172 174 159
-8.06 -16.67 -3.11 171 173 158
-8.12 -16.74 -3.03 171 170 161
-8.16 -16.81 -2.98 172 171 162
-8.20 -16.89 -2.94 172 172 167
-8.24 -16.97 -2.88 174 174 169
-8.28 -17.04 -2.84 169 175 166
-8.31 -17.12 -2.80 169 175 166
-8.35 -17.20 -2.75 176 177 167
-8.39 -17.27 -2.70 176 177 167
-8.43 -17.35 -2.65 179 180 170
-8.47 -17.42 -2.60 179 180 170
-8.51 -17.50 -2.55 178 179 169
-8.54 -17.57 -2.51 178 179 169
-8.58 -17.65 -2.46 176 177 167
-8.60 -17.73 -2.44 176 177 167
-8.63 -17.80 -2.40 175 176 166
-8.66 -17.88 -2.36 174 175 165
-8.69 -17.96 -2.32 173 174 164
-8.72 -18.03 -2.29 171 172 162
-8.75 -18.11 -2.25 168 169 159
-8.77 -18.19 -2.22 166 167 157
-8.80 -18.27 -2.19 164 165 155
-8.83 -18.34 -2.15 164 165 155
-8.85 -18.42 -2.12 163 163 160
-8.87 -18.50 -2.09 159 159 156
-8.90 -18.57 -2.06 153 153 150
-8.93 -18.65 -2.03 151 151 148
-8.94 -18.73 -2.01 152 152 149
-8.96 -18.81 -1.98 153 153 150
-8.97 -18.89 -1.97 154 154 151
-9.00 -18.97 -1.93 153 153 150
-9.03 -19.04 -1.90 160 160 157
-9.04 -19.12 -1.88 156 156 153
-9.07 -19.20 -1.85 153 153 150
-9.09 -19.27 -1.82 156 156 153
-9.12 -19.35 -1.78 158 158 155
-9.15 -19.42 -1.75 144 144 141
-9.17 -19.50 -1.72 116 116 113
-9.19 -19.58 -1.70 93 93 90
-9.21 -19.66 -1.68 49 51 48
-9.24 -19.73 -1.64 32 34 31
-9.27 -19.80 -1.61 22 24 21
-9.30 -19.87 -1.56 28 30 27
-9.34 -19.94 -1.51 41 43 40
-9.37 -20.01 -1.47 45 47 44
-9.41 -20.08 -1.42 48 50 47
-9.45 -20.15 -1.38 48 50 47
-9.47 -20.22 -1.35 38 40 37
-9.53 -20.29 -1.28 35 37 34
-9.58 -20.35 -1.21 28 30 27
-9.62 -20.41 -1.16 25 27 24
-9.68 -20.47 -1.09 25 27 24
-9.73 -20.54 -1.03 25 27 24
-9.78 -20.60 -0.96 24 26 23
-9.85 -20.65 -0.88 24 26 23
-9.88 -20.72 -0.83 44 27 30
-9.93 -20.78 -0.78 15 0 1
-9.91 -20.87 -0.80 56 42 17
-9.76 -21.03 -0.99 255 246 221
-9.23 -21.35 -1.65 240 229 185
-8.57 -21.74 -2.47 229 218 174
-8.02 -22.08 -3.16 232 221 186
-7.77 -22.28 -3.48 234 223 188
-7.88 -22.32 -3.33 231 220 205
-8.02 -22.34 -3.15 229 218 203
-8.05 -22.42 -3.12 219 212 210
-8.06 -22.50 -3.11 214 207 205
-8.07 -22.59 -3.10 209 207 203
-8.07 -22.67 -3.09 217 215 211
-8.06 -22.77 -3.11 219 221 218
-8.06 -22.86 -3.11 215 217 214
-8.06 -22.95 -3.12 215 217 214
-8.05 -23.04 -3.12 215 217 214
-8.05 -23.12 -3.12 215 217 214
-8.06 -23.21 -3.11 215 217 214
-8.06 -23.30 -3.11 215 217 214
-8.07 -23.38 -3.10 215 217 214
-8.09 -23.46 -3.07 215 217 214
-8.10 -23.54 -3.06 215 217 214
-8.10 -23.63 -3.06 216 218 215
-8.11 -23.72 -3.05 216 218 215
-8.11 -23.80 -3.04 216 218 215
-8.12 -23.88 -3.03 216 218 215
-8.13 -23.97 -3.02 216 218 215
-8.14 -24.05 -3.02 216 218 215
-8.13 -24.14 -3.02 216 218 215
-8.13 -24.23 -3.02 218 220 217
-8.12 -24.32 -3.03 218 220 217
-8.13 -24.41 -3.03 218 220 217
-8.13 -24.50 -3.03 218 220 217
-8.13 -24.59 -3.03 218 220 217
-8.13 -24.67 -3.02 218 220 217
-8.13 -24.76 -3.02 218 220 217
-8.14 -24.85 -3.02 218 220 217
-8.15 -24.93 -3.00 218 220 217
-8.15 -25.02 -3.00 218 220 217
-8.15 -25.10 -3.00 218 220 217
-8.15 -25.19 -3.00 218 220 217
-8.15 -25.28 -3.00 218 220 217
-8.16 -25.36 -2.99 218 220 217
-8.16 -25.45 -2.98 218 220 217
-8.16 -25.54 -2.98 218 220 217
-8.17 -25.62 -2.97 218 220 217
-8.17 -25.71 -2.97 218 220 217
-8.16 -25.80 -2.98 218 220 217
-8.17 -25.89 -2.98 218 220 217
-8.17 -25.97 -2.97 218 220 217
-8.17 -26.06 -2.97 218 220 217
-8.18 -26.14 -2.96 218 220 217
-8.18 -26.23 -2.96 218 220 217
-8.18 -26.32 -2.96 218 220 217
-8.18 -26.41 -2.96 219 221 218
-8.19 -26.49 -2.95 220 222 219
-8.18 -26.58 -2.96 220 222 219
-8.19 -26.66 -2.94 220 222 219
-8.19 -26.75 -2.94 220 222 219
-8.20 -26.84 -2.94 220 222 219
-8.20 -26.92 -2.93 220 222 219
-8.21 -27.01 -2.93 220 222 219
-8.20 -27.10 -2.93 223 223 223
-8.21 -27.18 -2.93 223 223 223
-8.20 -27.27 -2.93 223 223 223
-8.22 -27.35 -2.92 223 223 223
-8.21 -27.45 -2.93 223 223 223
-8.21 -27.53 -2.92 223 223 223
-8.21 -27.62 -2.92 223 223 223
-8.21 -27.71 -2.92 223 223 223
-8.21 -27.80 -2.92 222 222 222
-8.22 -27.88 -2.92 222 222 222
-8.22 -27.97 -2.91 222 222 222
-8.22 -28.06 -2.92 222 222 222
-8.22 -28.14 -2.91 222 222 222
-8.22 -28.23 -2.91 222 222 222
-8.23 -28.31 -2.90 222 222 222
-8.23 -28.40 -2.90 222 222 222
-8.23 -28.49 -2.90 224 222 223
-8.24 -28.57 -2.89 224 222 223
-8.23 -28.66 -2.90 224 222 223
-8.23 -28.75 -2.89 224 222 223
-8.24 -28.83 -2.89 224 222 223
-8.24 -28.92 -2.89 224 222 223
-8.24 -29.01 -2.88 224 222 223
-8.24 -29.09 -2.88 225 223 224
-8.25 -29.18 -2.88 226 224 225
-8.25 -29.27 -2.87 226 224 225
-8.25 -29.36 -2.88 226 224 225
-8.25 -29.44 -2.87 226 224 225
-8.25 -29.53 -2.87 226 224 225
-8.25 -29.62 -2.88 226 224 225
-8.25 -29.71 -2.87 225 225 225
-8.25 -29.79 -2.87 225 225 225
-8.25 -29.88 -2.88 228 223 225
-8.25 -29.97 -2.88 228 223 225
-8.25 -30.06 -2.87 228 223 225
-8.25 -30.14 -2.87 230 225 227
-8.26 -30.23 -2.87 230 225 227
-8.26 -30.31 -2.86 230 225 227
-8.26 -30.40 -2.86 230 225 227
-8.26 -30.49 -2.86 230 225 227
-8.27 -30.57 -2.85 230 225 227
-8.26 -30.66 -2.86 230 225 227
-8.26 -30.75 -2.86 231 226 228
-8.26 -30.84 -2.86 232 227 229
-8.26 -30.93 -2.86 232 227 229
-8.26 -31.02 -2.86 232 227 229
-8.26 -31.10 -2.86 230 228 229
-8.26 -31.19 -2.86 230 228 229
-8.25 -31.29 -2.88 232 227 229
-8.25 -31.37 -2.87 232 227 229
-8.25 -31.46 -2.87 230 228 229
-8.25 -31.55 -2.87 230 228 229
-8.25 -31.64 -2.87 230 228 229
-8.26 -31.72 -2.86 230 228 229
-8.26 -31.80 -2.86 230 228 229
-8.27 -31.89 -2.85 230 228 229
-8.27 -31.97 -2.84 231 229 230
-8.27 -32.06 -2.84 232 230 231
-8.28 -32.14 -2.83 233 231 232
-8.29 -32.22 -2.83 233 231 232
-8.29 -32.31 -2.82 235 233 234
-8.29 -32.39 -2.82 235 233 234
-8.31 -32.47 -2.80 236 234 235
-8.30 -32.57 -2.81 236 234 235
-8.31 -32.65 -2.80 236 234 232
-8.31 -32.73 -2.80 236 234 232
-8.30 -32.82 -2.80 236 234 232
-8.31 -32.91 -2.80 236 234 232
-8.31 -33.00 -2.80 236 234 232
-8.31 -33.08 -2.79 236 234 232
-8.32 -33.17 -2.79 236 234 232
-8.32 -33.25 -2.79 236 234 232
-8.30 -33.35 -2.80 236 234 232
-8.31 -33.43 -2.79 236 234 232
-8.31 -33.52 -2.80 236 234 232
-8.32 -33.60 -2.79 236 234 232
-8.33 -33.68 -2.78 236 234 232
-8.33 -33.77 -2.78 236 234 232
-8.33 -33.86 -2.77 236 234 232
-8.34 -33.94 -2.77 235 233 231
-8.35 -34.01 -2.75 232 232 227
-8.37 -34.09 -2.73 232 232 227
-8.39 -34.15 -2.69 232 232 227
-8.41 -34.23 -2.67 232 232 227
-8.41 -34.31 -2.67 233 231 227
-8.42 -34.40 -2.67 233 231 227
-8.34 -34.55 -2.77 235 230 227
-8.37 -34.61 -2.73 235 230 227
-8.26 -34.80 -2.87 232 225 223
-8.50 -34.68 -2.57 249 242 240
-8.02 20.98 -3.30 141 132 124
-8.01 20.90 -3.31 141 132 124
-8.01 20.81 -3.31 141 132 124
-7.97 20.76 -3.35 141 132 124
-7.98 20.66 -3.34 142 133 125
-7.99 20.56 -3.32 142 133 125
-7.97 20.49 -3.35 142 133 125
