ply
format ascii 1.0
element vertex 1541
property float x
property float y
property float z
property uchar red
property uchar green
property uchar blue
end_header
-11.34 9.13 -2.56 170 166 160
-11.35 9.04 -2.55 171 167 161
-11.35 8.96 -2.54 173 169 163
-11.35 8.87 -2.54 174 170 164
-11.36 8.79 -2.53 174 170 164
-11.36 8.70 -2.53 174 170 164
-11.36 8.62 -2.53 172 171 162
-11.35 8.54 -2.54 172 171 162
-11.36 8.46 -2.53 172 171 162
-11.35 8.38 -2.55 173 172 163
-11.35 8.30 -2.54 172 173 163
-11.35 8.22 -2.54 172 173 163
-11.35 8.13 -2.54 172 173 163
-11.34 8.06 -2.56 172 173 163
-11.35 7.97 -2.55 172 173 163
-11.35 7.89 -2.55 172 173 163
-11.34 7.81 -2.55 172 173 163
-11.34 7.72 -2.55 172 173 163
-11.34 7.64 -2.56 173 174 164
-11.34 7.56 -2.56 174 175 165
-11.34 7.48 -2.56 174 175 165
-11.34 7.39 -2.55 174 175 165
-11.35 7.31 -2.55 174 175 165
-11.34 7.23 -2.56 174 175 165
-11.34 7.15 -2.56 177 175 171
-11.34 7.07 -2.56 177 175 171
-11.33 6.99 -2.57 177 175 171
-11.33 6.91 -2.58 177 175 171
-11.33 6.82 -2.57 177 175 171
-11.33 6.74 -2.57 177 175 171
-11.33 6.66 -2.57 179 177 173
-11.33 6.57 -2.57 179 177 173
-11.32 6.50 -2.58 179 177 173
-11.33 6.41 -2.57 179 177 173
-11.33 6.33 -2.57 179 177 173
-11.33 6.24 -2.57 179 177 173
-11.33 6.16 -2.57 179 177 173
-11.33 6.08 -2.58 179 177 173
-11.33 6.00 -2.58 180 178 174
-11.33 5.92 -2.58 181 179 175
-11.32 5.83 -2.58 181 181 176
-11.32 5.75 -2.58 181 181 176
-11.32 5.67 -2.59 181 182 174
-11.31 5.59 -2.59 181 182 174
-11.31 5.51 -2.60 181 182 174
-11.31 5.43 -2.60 181 182 174
-11.31 5.35 -2.60 181 182 174
-11.30 5.27 -2.61 181 182 174
-11.31 5.18 -2.59 181 182 174
-11.30 5.10 -2.61 180 181 173
-11.31 5.02 -2.60 180 181 173
-11.31 4.93 -2.60 180 181 173
-11.30 4.85 -2.61 180 181 173
-11.31 4.77 -2.60 180 181 173
-11.31 4.68 -2.60 180 181 173
-11.31 4.60 -2.60 180 181 173
-11.30 4.52 -2.61 180 181 173
-11.30 4.44 -2.61 180 181 173
-11.30 4.36 -2.62 179 179 174
-11.29 4.28 -2.62 178 178 173
-11.29 4.19 -2.62 178 178 173
-11.29 4.11 -2.62 178 178 173
-11.30 4.03 -2.62 178 178 173
-11.29 3.95 -2.62 178 178 173
-11.30 3.86 -2.61 178 178 173
-11.30 3.78 -2.61 178 178 173
-11.30 3.70 -2.61 176 176 171
-11.30 3.61 -2.61 175 175 170
-11.31 3.53 -2.60 175 175 170
-11.31 3.44 -2.60 175 175 170
-11.31 3.36 -2.60 175 175 170
-11.31 3.28 -2.60 175 175 170
-11.31 3.19 -2.59 172 174 171
-11.31 3.11 -2.59 172 174 171
-11.31 3.03 -2.59 172 174 171
-11.31 2.95 -2.60 172 174 171
-11.31 2.86 -2.60 172 174 171
-11.31 2.78 -2.60 172 174 171
-11.30 2.70 -2.61 172 174 171
-11.30 2.62 -2.61 172 174 171
-11.31 2.53 -2.60 171 173 170
-11.31 2.45 -2.60 171 173 170
-11.32 2.37 -2.59 171 173 170
-11.32 2.28 -2.58 171 173 170
-11.32 2.20 -2.59 171 173 170
-11.32 2.12 -2.58 171 173 170
-11.33 2.03 -2.57 171 173 170
-11.33 1.95 -2.58 171 173 170
-11.34 1.86 -2.56 172 173 165
-11.33 1.78 -2.57 172 173 165
-11.34 1.70 -2.56 172 173 165
-11.33 1.62 -2.57 172 173 165
-11.34 1.53 -2.56 172 173 165
-11.34 1.45 -2.56 172 173 165
-11.35 1.36 -2.54 172 173 165
-11.35 1.28 -2.54 172 173 165
-11.35 1.20 -2.54 173 174 166
-11.35 1.12 -2.54 173 174 166
-11.35 1.03 -2.54 173 174 166
-11.36 0.95 -2.53 173 174 166
-11.36 0.87 -2.53 173 174 166
-11.36 0.78 -2.53 173 174 166
-11.36 0.70 -2.53 173 174 166
-11.37 0.62 -2.52 173 174 166
-11.37 0.53 -2.52 173 174 166
-11.36 0.45 -2.53 173 174 166
-11.36 0.37 -2.53 173 174 166
-11.36 0.29 -2.53 173 174 166
-11.36 0.21 -2.53 173 174 166
-11.37 0.12 -2.52 173 174 166
-11.37 0.04 -2.52 173 174 166
-11.37 -0.04 -2.51 173 174 166
-11.38 -0.13 -2.51 172 173 165
-11.38 -0.21 -2.50 172 173 165
-11.39 -0.30 -2.50 172 173 165
-11.39 -0.38 -2.49 172 173 165
-11.39 -0.46 -2.49 172 173 165
-11.39 -0.54 -2.49 172 173 165
-11.40 -0.63 -2.48 172 173 165
-11.40 -0.71 -2.48 172 173 165
-11.40 -0.79 -2.48 167 172 166
-11.40 -0.88 -2.48 167 172 166
-11.41 -0.96 -2.47 167 172 166
-11.41 -1.04 -2.46 167 172 166
-11.41 -1.13 -2.46 167 172 166
-11.41 -1.21 -2.46 167 172 166
-11.41 -1.29 -2.46 167 172 166
-11.42 -1.37 -2.45 167 172 166
-11.42 -1.46 -2.45 169 174 168
-11.42 -1.54 -2.45 169 174 168
-11.42 -1.62 -2.45 169 174 168
-11.42 -1.70 -2.45 169 174 168
-11.42 -1.79 -2.44 169 174 168
-11.42 -1.87 -2.44 169 174 168
-11.42 -1.95 -2.44 169 174 168
-11.43 -2.04 -2.43 169 174 168
-11.42 -2.12 -2.44 171 173 168
-11.42 -2.20 -2.45 171 173 168
-11.42 -2.28 -2.45 171 173 168
-11.42 -2.36 -2.45 171 173 168
-11.42 -2.45 -2.44 171 173 168
-11.42 -2.53 -2.45 171 173 168
-11.41 -2.61 -2.46 171 173 168
-11.41 -2.69 -2.46 171 173 168
-11.41 -2.77 -2.46 173 175 170
-11.41 -2.86 -2.46 173 175 170
-11.41 -2.94 -2.47 173 175 170
-11.41 -3.02 -2.47 173 175 170
-11.41 -3.10 -2.47 173 175 170
-11.41 -3.18 -2.47 173 175 170
-11.41 -3.27 -2.47 173 175 170
-11.41 -3.35 -2.46 173 175 170
-11.41 -3.43 -2.47 170 175 174
-11.41 -3.51 -2.47 170 175 174
-11.41 -3.60 -2.46 170 175 174
-11.41 -3.68 -2.47 171 176 175
-11.41 -3.76 -2.46 171 176 175
-11.41 -3.84 -2.46 172 177 176
-11.41 -3.93 -2.46 172 177 176
-11.42 -4.01 -2.45 174 179 178
-11.42 -4.09 -2.45 172 177 176
-11.42 -4.17 -2.45 172 177 176
-11.41 -4.26 -2.46 172 177 176
-11.42 -4.34 -2.45 172 177 176
-11.42 -4.42 -2.45 172 177 176
-11.42 -4.50 -2.45 172 177 176
-11.42 -4.59 -2.45 172 177 176
-11.41 -4.67 -2.46 172 177 176
-11.40 -4.75 -2.48 174 179 178
-11.40 -4.83 -2.48 174 179 178
-11.40 -4.91 -2.48 174 179 178
-11.40 -5.00 -2.48 174 179 178
-11.40 -5.08 -2.48 174 179 178
-11.40 -5.16 -2.48 174 179 178
-11.39 -5.24 -2.49 174 179 178
-11.39 -5.33 -2.49 174 179 178
-11.38 -5.41 -2.50 174 179 178
-11.38 -5.49 -2.50 174 179 178
-11.37 -5.57 -2.51 174 179 178
-11.37 -5.65 -2.51 174 179 178
-11.37 -5.74 -2.52 174 179 178
-11.37 -5.82 -2.52 174 179 178
-11.37 -5.90 -2.52 174 179 178
-11.35 -5.98 -2.54 174 179 178
-11.35 -6.07 -2.55 175 180 176
-11.34 -6.15 -2.56 175 180 176
-11.33 -6.23 -2.58 175 180 176
-11.32 -6.31 -2.58 175 180 176
-11.32 -6.39 -2.58 175 180 176
-11.32 -6.48 -2.59 175 180 176
-11.31 -6.56 -2.60 175 180 176
-11.31 -6.64 -2.60 175 180 176
-11.31 -6.72 -2.60 177 182 178
-11.27 -6.81 -2.66 178 183 179
-11.22 -6.89 -2.72 179 184 180
-11.22 -6.97 -2.72 169 174 170
-11.58 -7.06 -2.22 170 175 171
-11.96 -7.14 -1.70 216 221 217
-12.13 -7.23 -1.48 241 246 242
-12.13 -7.31 -1.47 242 247 243
-12.12 -7.39 -1.49 244 251 246
-12.13 -7.47 -1.48 243 250 245
-12.14 -7.55 -1.47 247 254 249
-12.12 -7.63 -1.49 247 254 249
-12.11 -7.71 -1.50 243 250 245
-12.11 -7.79 -1.50 243 250 245
-12.11 -7.87 -1.51 245 252 247
-12.10 -7.95 -1.51 244 251 246
-12.09 -8.03 -1.52 246 253 248
-12.08 -8.11 -1.55 246 253 248
-12.06 -8.19 -1.56 246 253 248
-12.06 -8.27 -1.57 246 253 248
-12.04 -8.35 -1.59 246 253 248
-12.03 -8.43 -1.61 246 253 248
-12.02 -8.51 -1.62 246 253 248
-12.01 -8.60 -1.64 246 253 248
-12.01 -8.68 -1.64 246 253 251
-12.00 -8.76 -1.65 246 253 251
-11.99 -8.84 -1.66 246 253 251
-11.99 -8.92 -1.66 246 253 251
-11.98 -9.00 -1.67 246 253 251
-11.98 -9.08 -1.68 246 253 251
-11.98 -9.16 -1.68 246 253 251
-11.98 -9.24 -1.67 246 253 251
-11.98 -9.32 -1.68 246 253 251
-11.97 -9.41 -1.70 246 253 251
-11.97 -9.49 -1.70 246 253 251
-11.97 -9.57 -1.70 246 253 251
-11.97 -9.65 -1.69 246 253 251
-11.97 -9.73 -1.69 246 253 251
-11.97 -9.81 -1.69 246 253 251
-11.97 -9.89 -1.70 246 253 251
-11.96 -9.97 -1.70 246 253 251
-11.96 -10.05 -1.70 246 253 251
-11.96 -10.13 -1.70 246 253 251
-11.96 -10.21 -1.71 246 253 251
-11.96 -10.29 -1.71 246 253 251
-11.96 -10.38 -1.71 246 253 251
-11.96 -10.46 -1.70 246 253 251
-11.96 -10.54 -1.70 246 253 251
-11.96 -10.62 -1.70 246 253 251
-11.96 -10.70 -1.70 246 253 251
-11.96 -10.78 -1.70 246 253 251
-11.96 -10.86 -1.71 246 253 251
-11.96 -10.94 -1.70 246 253 251
-11.97 -11.02 -1.70 246 253 251
-11.97 -11.10 -1.69 246 253 251
-11.98 -11.18 -1.68 246 253 251
-11.97 -11.26 -1.69 246 253 251
-11.97 -11.34 -1.69 246 253 251
-11.97 -11.42 -1.69 246 253 251
-11.97 -11.50 -1.69 246 253 251
-11.97 -11.58 -1.69 246 253 251
-11.97 -11.67 -1.69 246 253 251
-11.97 -11.75 -1.69 246 253 251
-11.98 -11.83 -1.68 246 253 251
-11.98 -11.91 -1.68 246 253 251
-11.97 -11.99 -1.69 246 253 251
-11.97 -12.07 -1.69 246 253 251
-11.97 -12.15 -1.69 246 253 251
-11.97 -12.23 -1.69 246 253 251
-11.97 -12.31 -1.69 246 253 251
-11.98 -12.39 -1.68 246 253 251
-11.97 -12.47 -1.69 246 253 251
-11.97 -12.55 -1.69 245 252 250
-11.98 -12.63 -1.68 246 253 251
-11.98 -12.71 -1.68 248 255 253
-11.98 -12.80 -1.68 250 255 255
-11.98 -12.87 -1.67 248 255 253
-11.98 -12.96 -1.68 246 253 251
-11.98 -13.04 -1.67 244 251 249
-11.99 -13.12 -1.66 241 248 246
-11.99 -13.20 -1.67 243 250 248
-11.99 -13.28 -1.67 243 250 248
-11.98 -13.36 -1.68 245 252 250
-11.98 -13.44 -1.68 245 252 250
-11.96 -13.52 -1.70 244 251 249
-11.97 -13.60 -1.69 241 248 246
-11.97 -13.68 -1.69 243 250 248
-11.91 -13.78 -1.77 247 254 252
-11.80 -13.89 -1.92 241 246 242
-11.64 -14.00 -2.14 225 230 226
-11.51 -14.12 -2.33 203 208 204
-11.42 -14.22 -2.44 189 194 190
-11.39 -14.31 -2.49 184 189 185
-11.40 -14.39 -2.48 185 190 186
-11.42 -14.47 -2.45 188 193 189
-11.43 -14.55 -2.44 186 191 187
-11.43 -14.63 -2.43 190 195 191
-11.44 -14.71 -2.42 190 195 191
-11.44 -14.79 -2.42 190 195 191
-11.44 -14.88 -2.42 190 195 191
-11.44 -14.96 -2.42 190 195 191
-11.45 -15.04 -2.41 190 195 191
-11.44 -15.12 -2.42 190 195 191
-11.44 -15.20 -2.42 190 195 191
-11.44 -15.29 -2.42 192 194 191
-11.43 -15.37 -2.43 193 195 192
-11.43 -15.45 -2.43 193 195 192
-11.43 -15.54 -2.43 194 196 193
-11.43 -15.62 -2.44 194 196 193
-11.43 -15.70 -2.44 195 197 194
-11.44 -15.78 -2.42 195 197 194
-11.43 -15.87 -2.44 197 199 196
-11.43 -15.95 -2.44 194 196 193
-11.42 -16.03 -2.45 194 196 193
-11.42 -16.12 -2.45 194 196 193
-11.42 -16.20 -2.45 195 197 194
-11.41 -16.28 -2.46 195 197 194
-11.41 -16.37 -2.47 197 199 196
-11.41 -16.45 -2.46 197 199 196
-11.40 -16.53 -2.48 197 199 196
-11.39 -16.62 -2.49 197 199 196
-11.39 -16.70 -2.49 197 199 196
-11.39 -16.79 -2.50 197 199 196
-11.39 -16.87 -2.49 197 199 196
-11.39 -16.95 -2.50 195 197 194
-11.39 -17.03 -2.49 194 196 193
-11.39 -17.11 -2.49 195 197 194
-11.39 -17.20 -2.50 194 196 193
-11.38 -17.28 -2.50 198 200 197
-11.38 -17.36 -2.50 198 200 197
-11.38 -17.45 -2.51 199 201 198
-11.38 -17.53 -2.50 199 201 198
-11.37 -17.61 -2.51 198 200 197
-11.37 -17.70 -2.52 195 197 194
-11.37 -17.78 -2.52 193 195 192
-11.37 -17.86 -2.52 192 194 191
-11.37 -17.95 -2.52 193 195 192
-11.35 -18.03 -2.54 183 185 182
-11.35 -18.12 -2.54 177 179 176
-11.34 -18.20 -2.56 177 179 176
-11.33 -18.29 -2.57 176 178 175
-11.33 -18.37 -2.57 170 172 169
-11.33 -18.46 -2.57 165 167 164
-11.32 -18.54 -2.58 168 170 167
-11.32 -18.62 -2.58 165 167 164
-11.32 -18.71 -2.59 173 175 172
-11.32 -18.79 -2.59 173 175 172
-11.31 -18.88 -2.59 168 170 167
-11.32 -18.95 -2.58 164 166 163
-11.33 -19.03 -2.57 164 166 163
-11.34 -19.11 -2.56 161 163 160
-11.35 -19.19 -2.55 156 158 155
-11.34 -19.28 -2.55 158 160 160
-11.34 -19.36 -2.56 156 158 158
-11.35 -19.44 -2.55 156 158 158
-11.35 -19.52 -2.54 158 160 160
-11.36 -19.60 -2.53 162 164 164
-11.37 -19.68 -2.52 165 167 167
-11.38 -19.76 -2.51 171 173 173
-11.39 -19.84 -2.50 176 178 178
-11.39 -19.92 -2.50 179 181 181
-11.40 -19.99 -2.48 164 166 166
-11.41 -20.07 -2.46 155 157 157
-11.43 -20.15 -2.43 145 147 147
-11.46 -20.22 -2.40 130 132 132
-11.50 -20.28 -2.34 119 121 121
-11.54 -20.34 -2.29 114 116 116
-11.58 -20.40 -2.22 107 109 109
-11.64 -20.46 -2.14 66 67 72
-11.70 -20.51 -2.06 45 46 51
-11.84 -20.53 -1.88 32 34 31
-11.91 -20.58 -1.77 37 39 36
-12.08 -20.58 -1.55 42 44 39
-12.24 -20.58 -1.32 37 39 34
-12.56 -20.51 -0.89 31 31 39
-12.95 -20.40 -0.34 27 27 35
-13.24 -20.33 0.05 31 28 55
-13.54 -20.26 0.47 69 66 93
-13.72 -20.25 0.71 79 75 107
-13.82 -20.28 0.85 57 53 85
-13.90 -20.31 0.96 32 30 50
-13.94 -20.37 1.01 0 0 16
-13.97 -20.43 1.06 191 191 199
-14.00 -20.49 1.10 244 244 252
-14.02 -20.55 1.13 245 236 191
-14.03 -20.62 1.14 203 194 149
-14.03 -20.70 1.13 193 183 130
-14.03 -20.77 1.14 187 177 124
-14.03 -20.85 1.13 170 161 101
-14.03 -20.92 1.14 147 138 78
-14.03 -21.00 1.13 140 129 65
-14.03 -21.07 1.14 163 152 88
-14.03 -21.15 1.13 133 119 61
-14.03 -21.22 1.14 176 162 104
-14.04 -21.29 1.15 200 184 126
-14.05 -21.36 1.16 227 211 153
-14.07 -21.42 1.19 216 200 142
-14.08 -21.49 1.20 197 181 123
-14.09 -21.56 1.22 209 191 129
-14.13 -21.61 1.27 221 203 141
-14.15 -21.68 1.30 205 191 166
-14.15 -21.75 1.30 168 154 129
-14.18 -21.81 1.35 112 95 85
-14.20 -21.87 1.37 77 60 50
-14.20 -21.94 1.38 42 32 36
-14.27 -21.98 1.46 17 7 11
-14.36 -22.00 1.59 48 39 54
-14.10 -22.23 1.23 149 140 155
-13.05 -22.91 -0.22 236 232 243
-12.36 -23.39 -1.16 224 220 231
-12.34 -23.48 -1.19 207 205 213
-12.39 -23.53 -1.11 203 201 209
-12.34 -23.64 -1.18 208 207 212
-12.32 -23.73 -1.21 214 213 218
-12.30 -23.82 -1.24 213 212 217
-12.30 -23.90 -1.24 210 209 214
-12.31 -23.98 -1.23 212 210 208
-12.30 -24.06 -1.24 212 210 208
-12.29 -24.15 -1.26 212 210 208
-12.29 -24.23 -1.26 212 210 208
-12.28 -24.31 -1.27 212 210 208
-12.28 -24.39 -1.27 212 210 208
-12.28 -24.48 -1.27 212 210 208
-12.27 -24.56 -1.27 212 210 208
-12.27 -24.64 -1.28 214 212 210
-12.26 -24.72 -1.29 214 212 210
-12.26 -24.81 -1.29 214 212 210
-12.25 -24.89 -1.30 214 212 210
-12.25 -24.97 -1.31 214 212 210
-12.25 -25.06 -1.31 214 212 210
-12.25 -25.14 -1.31 214 212 210
-12.25 -25.22 -1.31 214 212 210
-12.24 -25.30 -1.32 214 212 213
-12.24 -25.38 -1.33 214 212 213
-12.23 -25.46 -1.33 214 212 213
-12.23 -25.55 -1.34 214 212 213
-12.23 -25.63 -1.34 214 212 213
-12.23 -25.70 -1.33 214 212 213
-12.23 -25.79 -1.34 214 212 213
-12.23 -25.87 -1.34 214 212 213
-12.23 -25.95 -1.34 214 212 213
-12.22 -26.03 -1.35 214 212 213
-12.23 -26.11 -1.34 214 212 213
-12.23 -26.19 -1.34 214 212 213
-12.23 -26.27 -1.34 214 212 213
-12.23 -26.35 -1.34 214 212 213
-12.23 -26.43 -1.34 214 212 213
-12.23 -26.51 -1.34 214 212 213
-12.23 -26.59 -1.34 217 212 209
-12.22 -26.67 -1.35 217 212 209
-12.22 -26.75 -1.35 217 212 209
-12.22 -26.83 -1.35 217 212 209
-12.23 -26.91 -1.34 217 212 209
-12.23 -26.99 -1.34 217 212 209
-12.23 -27.07 -1.34 217 212 209
-12.23 -27.15 -1.34 217 212 209
-12.23 -27.23 -1.34 217 212 209
-12.23 -27.30 -1.33 217 212 209
-12.23 -27.38 -1.33 217 212 209
-12.24 -27.46 -1.32 217 212 209
-12.24 -27.54 -1.32 217 212 209
-12.24 -27.62 -1.33 217 212 209
-12.24 -27.70 -1.32 217 212 209
-12.24 -27.78 -1.32 217 212 209
-12.24 -27.86 -1.32 217 212 209
-12.24 -27.94 -1.32 217 212 209
-12.24 -28.02 -1.32 217 212 209
-12.25 -28.09 -1.31 217 212 209
-12.25 -28.17 -1.31 217 212 209
-12.25 -28.25 -1.30 217 212 209
-12.25 -28.33 -1.31 217 212 209
-12.25 -28.41 -1.31 217 212 209
-12.26 -28.48 -1.30 217 212 209
-12.25 -28.57 -1.30 217 212 209
-12.25 -28.65 -1.30 217 212 209
-12.25 -28.73 -1.30 217 212 209
-12.26 -28.80 -1.30 217 212 209
-12.25 -28.89 -1.30 217 212 209
-12.26 -28.96 -1.29 217 212 209
-12.26 -29.04 -1.29 219 214 211
-12.26 -29.12 -1.29 220 213 211
-12.26 -29.20 -1.29 220 213 211
-12.26 -29.28 -1.29 222 212 211
-12.26 -29.36 -1.29 222 212 211
-12.27 -29.44 -1.28 222 212 211
-12.26 -29.52 -1.29 222 212 211
-12.27 -29.59 -1.28 222 212 211
-12.27 -29.67 -1.28 222 212 211
-12.27 -29.75 -1.28 222 212 211
-12.27 -29.83 -1.28 223 213 212
-12.27 -29.91 -1.28 223 213 212
-12.26 -30.00 -1.29 223 213 212
-12.27 -30.07 -1.28 223 213 212
-12.27 -30.15 -1.28 223 213 212
-12.27 -30.23 -1.28 223 213 212
-12.27 -30.31 -1.28 223 213 212
-12.27 -30.39 -1.27 223 213 212
-12.27 -30.47 -1.27 223 213 212
-12.27 -30.55 -1.28 223 213 212
-12.27 -30.63 -1.27 224 214 213
-12.28 -30.71 -1.27 224 217 217
-12.28 -30.79 -1.27 224 217 217
-12.28 -30.86 -1.26 223 218 217
-12.29 -30.93 -1.25 223 218 217
-12.30 -31.01 -1.24 223 218 217
-12.31 -31.08 -1.23 223 218 217
-12.32 -31.15 -1.21 223 218 217
-12.32 -31.23 -1.21 224 219 218
-12.33 -31.30 -1.20 225 220 219
-12.35 -31.37 -1.18 225 220 219
-12.36 -31.43 -1.15 225 220 219
-12.39 -31.49 -1.12 225 220 219
-12.38 -31.57 -1.13 223 223 223
-12.40 -31.63 -1.10 222 222 222
-12.43 -31.69 -1.06 225 225 225
-12.46 -31.74 -1.02 255 255 255
-12.53 -31.76 -0.92 255 255 255
-12.72 -31.67 -0.67 253 253 253
-13.15 -31.36 -0.07 255 255 255
-13.40 -31.21 0.27 251 251 251
-13.47 -31.23 0.36 250 250 250
-13.51 -31.27 0.42 250 250 250
-13.53 -31.32 0.45 249 249 249
-13.53 -31.40 0.44 217 217 217
-12.96 -32.00 -0.34 186 186 186
-12.43 -32.56 -1.05 235 235 235
-12.62 -32.46 -0.79 249 249 249
-12.17 -32.96 -1.42 207 207 207
-11.95 18.51 -1.85 137 128 120
-11.92 18.46 -1.88 137 128 120
-11.92 18.37 -1.88 137 128 120
-11.86 18.35 -1.97 137 128 120
-11.85 18.28 -1.98 137 128 120
-11.86 18.19 -1.97 137 128 120
-11.82 18.14 -2.03 137 128 120
-11.81 18.07 -2.04 137 128 120
-11.81 17.99 -2.04 139 130 122
-11.80 17.92 -2.06 139 130 122
-11.79 17.84 -2.06 139 130 122
-11.79 17.76 -2.07 139 130 122
-11.79 17.69 -2.07 139 130 122
-11.78 17.61 -2.08 139 130 122
-11.77 17.54 -2.09 139 130 122
-11.77 17.46 -2.09 139 130 122
-11.76 17.38 -2.11 141 132 124
-11.76 17.31 -2.11 142 133 125
-11.75 17.23 -2.13 142 133 125
-11.74 17.16 -2.14 142 133 125
-11.73 17.08 -2.15 142 133 125
-11.73 17.00 -2.15 142 133 125
-11.72 16.93 -2.16 142 133 125
-11.71 16.86 -2.18 142 133 125
-11.69 16.79 -2.20 143 134 126
-11.68 16.72 -2.22 144 135 127
-11.67 16.64 -2.23 144 135 127
-11.66 16.57 -2.24 144 135 127
-11.66 16.49 -2.25 144 135 127
-11.64 16.42 -2.27 144 135 127
-11.63 16.35 -2.28 144 135 127
-11.62 16.28 -2.30 145 136 128
-11.61 16.20 -2.31 146 137 131
-11.60 16.13 -2.32 146 137 131
-11.60 16.05 -2.33 146 137 131
-11.60 15.97 -2.33 146 137 131
-11.60 15.89 -2.33 146 137 131
-11.60 15.81 -2.33 146 137 131
-11.59 15.73 -2.35 146 137 131
-11.59 15.65 -2.35 146 137 131
-11.58 15.57 -2.35 149 140 134
-11.58 15.49 -2.36 149 140 134
-11.57 15.42 -2.36 149 140 134
-11.57 15.34 -2.37 149 140 134
-11.57 15.25 -2.37 149 140 134
-11.57 15.17 -2.37 149 140 134
-11.56 15.10 -2.38 149 140 134
-11.56 15.02 -2.39 149 140 134
-11.55 14.94 -2.39 148 142 135
-11.55 14.86 -2.40 149 143 136
-11.54 14.78 -2.41 148 144 136
-11.54 14.70 -2.41 148 144 136
-11.54 14.62 -2.41 148 144 136
-11.54 14.54 -2.41 149 145 137
-11.54 14.46 -2.41 150 146 138
-11.54 14.38 -2.42 152 148 140
-11.54 14.29 -2.41 152 148 140
-11.54 14.21 -2.42 152 148 140
-11.53 14.14 -2.42 152 148 140
-11.53 14.06 -2.43 152 148 140
-11.53 13.98 -2.43 152 148 140
-11.53 13.89 -2.43 152 148 140
-11.52 13.81 -2.43 153 149 141
-11.52 13.73 -2.44 153 149 141
-11.52 13.65 -2.44 153 149 141
-11.51 13.57 -2.45 153 149 141
-11.52 13.49 -2.44 153 149 141
-11.51 13.41 -2.45 153 149 141
-11.51 13.33 -2.45 153 149 141
-11.51 13.25 -2.45 153 149 141
-11.51 13.16 -2.45 154 150 142
-11.51 13.08 -2.45 155 151 143
-11.51 13.00 -2.46 156 152 144
-11.50 12.92 -2.46 156 152 144
-11.50 12.84 -2.47 156 152 144
-11.50 12.76 -2.47 156 152 144
-11.50 12.68 -2.47 156 152 144
-11.49 12.60 -2.48 156 152 144
-11.49 12.52 -2.48 157 153 145
-11.49 12.44 -2.48 159 155 147
-11.48 12.37 -2.50 160 154 147
-11.48 12.28 -2.50 160 154 147
-11.48 12.20 -2.49 159 155 147
-11.48 12.12 -2.50 159 155 147
-11.47 12.04 -2.50 159 155 147
-11.47 11.96 -2.50 159 155 147
-11.48 11.87 -2.50 157 156 147
-11.46 11.80 -2.51 158 157 148
-11.47 11.71 -2.51 158 157 148
-11.46 11.64 -2.52 158 157 148
-11.46 11.55 -2.52 157 158 148
-11.46 11.47 -2.52 157 158 148
-11.46 11.39 -2.52 157 158 148
-11.46 11.31 -2.52 157 158 148
-11.46 11.23 -2.52 158 157 150
-11.45 11.15 -2.53 160 159 152
-11.45 11.07 -2.54 157 158 148
-11.44 10.99 -2.55 159 160 150
-11.44 10.91 -2.55 161 160 153
-11.44 10.83 -2.55 161 160 153
-11.44 10.75 -2.55 164 160 154
-11.44 10.66 -2.55 164 160 154
-11.43 10.58 -2.56 166 162 156
-11.44 10.50 -2.55 166 162 156
-11.44 10.41 -2.54 166 162 156
-11.44 10.33 -2.55 166 162 156
-11.44 10.25 -2.54 166 162 156
-11.45 10.16 -2.54 166 162 156
-11.45 10.08 -2.53 166 162 156
-11.45 9.99 -2.53 166 162 156
-11.46 9.91 -2.52 166 162 156
-11.45 9.83 -2.53 167 163 157
-11.46 9.74 -2.52 167 163 157
-11.46 9.66 -2.52 167 163 157
-11.45 9.58 -2.53 167 163 157
-11.45 9.50 -2.54 167 163 157
-11.45 9.42 -2.53 167 163 157
-11.45 9.34 -2.53 168 164 158
-11.45 9.26 -2.54 170 166 160
-11.45 9.17 -2.53 171 167 161
-11.45 9.09 -2.53 171 167 161
-11.45 9.01 -2.53 173 169 163
-11.46 8.92 -2.52 173 169 163
-11.46 8.83 -2.51 173 169 163
-11.46 8.75 -2.51 173 169 163
-11.47 8.67 -2.50 174 170 164
-11.47 8.58 -2.50 173 172 163
-11.47 8.50 -2.50 173 172 163
-11.47 8.42 -2.51 173 172 163
-11.46 8.34 -2.51 173 172 163
-11.47 8.26 -2.51 172 173 163
-11.46 8.18 -2.52 172 173 163
-11.46 8.10 -2.52 172 173 163
-11.46 8.01 -2.52 172 173 163
-11.46 7.93 -2.52 172 173 163
-11.46 7.85 -2.52 172 173 163
-11.45 7.77 -2.53 172 173 163
-11.45 7.69 -2.53 172 173 163
-11.45 7.61 -2.53 173 174 164
-11.45 7.52 -2.53 174 175 165
-11.45 7.44 -2.53 174 175 165
-11.45 7.36 -2.53 174 175 165
-11.45 7.28 -2.53 174 175 165
-11.45 7.19 -2.53 174 175 165
-11.44 7.12 -2.54 179 177 173
-11.44 7.04 -2.55 179 177 173
-11.44 6.95 -2.55 179 177 173
-11.44 6.87 -2.55 179 177 173
-11.44 6.79 -2.55 179 177 173
-11.43 6.71 -2.56 179 177 173
-11.44 6.62 -2.54 180 178 174
-11.44 6.54 -2.55 180 178 174
-11.44 6.46 -2.55 180 178 174
-11.44 6.38 -2.55 180 178 174
-11.44 6.29 -2.55 180 178 174
-11.44 6.21 -2.55 180 178 174
-11.44 6.13 -2.54 180 178 174
-11.44 6.05 -2.55 180 178 174
-11.44 5.97 -2.55 181 179 175
-11.43 5.88 -2.56 182 180 176
-11.44 5.80 -2.55 181 181 176
-11.43 5.72 -2.56 181 181 176
-11.42 5.64 -2.57 181 182 174
-11.43 5.56 -2.56 181 182 174
-11.43 5.48 -2.57 181 182 174
-11.43 5.39 -2.57 181 182 174
-11.43 5.31 -2.57 181 182 174
-11.42 5.23 -2.58 181 182 174
-11.42 5.15 -2.58 181 182 174
-11.41 5.07 -2.58 180 181 173
-11.42 4.98 -2.58 180 181 173
-11.42 4.90 -2.58 180 181 173
-11.42 4.82 -2.57 180 181 173
-11.42 4.74 -2.58 180 181 173
-11.42 4.65 -2.58 180 181 173
-11.42 4.57 -2.58 180 181 173
-11.42 4.49 -2.58 180 181 173
-11.42 4.41 -2.58 180 181 173
-11.41 4.33 -2.59 179 179 174
-11.41 4.25 -2.59 178 178 173
-11.40 4.17 -2.60 178 178 173
-11.40 4.08 -2.60 178 178 173
-11.40 4.00 -2.60 178 178 173
-11.41 3.92 -2.59 178 178 173
-11.41 3.83 -2.58 178 178 173
-11.41 3.75 -2.59 178 178 173
-11.41 3.67 -2.59 176 176 171
-11.41 3.59 -2.59 175 175 170
-11.42 3.50 -2.58 175 175 170
-11.42 3.42 -2.58 175 175 170
-11.42 3.33 -2.58 175 175 170
-11.42 3.25 -2.58 175 175 170
-11.42 3.17 -2.58 172 174 171
-11.42 3.09 -2.58 172 174 171
-11.42 3.00 -2.57 172 174 171
-11.42 2.92 -2.58 172 174 171
-11.42 2.84 -2.58 172 174 171
-11.42 2.76 -2.58 172 174 171
-11.42 2.67 -2.57 172 174 171
-11.42 2.59 -2.57 172 174 171
-11.42 2.51 -2.57 171 173 170
-11.42 2.43 -2.57 171 173 170
-11.42 2.34 -2.57 171 173 170
-11.43 2.26 -2.56 171 173 170
-11.43 2.18 -2.56 171 173 170
-11.44 2.09 -2.55 171 173 170
-11.44 2.01 -2.55 171 173 170
-11.44 1.92 -2.54 171 173 170
-11.45 1.84 -2.54 172 173 165
-11.44 1.76 -2.54 172 173 165
-11.45 1.68 -2.53 172 173 165
-11.45 1.59 -2.54 172 173 165
-11.45 1.51 -2.53 172 173 165
-11.46 1.43 -2.52 172 173 165
-11.46 1.34 -2.52 172 173 165
-11.46 1.26 -2.51 172 173 165
-11.46 1.18 -2.52 172 173 165
-11.46 1.10 -2.52 172 173 165
-11.46 1.01 -2.51 172 173 165
-11.47 0.93 -2.50 172 173 165
-11.47 0.85 -2.50 172 173 165
-11.48 0.76 -2.50 172 173 165
-11.48 0.68 -2.49 172 173 165
-11.48 0.60 -2.50 172 173 165
-11.47 0.52 -2.50 172 172 167
-11.47 0.43 -2.50 172 172 167
-11.47 0.35 -2.50 172 172 167
-11.47 0.27 -2.50 172 172 167
-11.47 0.19 -2.50 172 172 167
-11.48 0.10 -2.49 172 172 167
-11.49 0.02 -2.49 172 172 167
-11.49 -0.06 -2.49 172 172 167
-11.49 -0.15 -2.48 172 172 167
-11.50 -0.23 -2.47 172 172 167
-11.50 -0.31 -2.47 172 172 167
-11.51 -0.40 -2.46 172 172 167
-11.51 -0.48 -2.46 172 172 167
-11.51 -0.56 -2.46 172 172 167
-11.52 -0.65 -2.44 172 172 167
-11.52 -0.73 -2.44 172 172 167
-11.52 -0.81 -2.44 167 172 166
-11.51 -0.89 -2.45 167 172 166
-11.52 -0.98 -2.44 167 172 166
-11.53 -1.06 -2.43 167 172 166
-11.52 -1.14 -2.43 167 172 166
-11.53 -1.22 -2.42 167 172 166
-11.53 -1.31 -2.42 167 172 166
-11.53 -1.39 -2.42 167 172 166
-11.53 -1.47 -2.42 168 173 167
-11.53 -1.55 -2.42 168 173 167
-11.53 -1.64 -2.42 168 173 167
-11.53 -1.72 -2.42 168 173 167
-11.53 -1.80 -2.42 168 173 167
-11.54 -1.88 -2.42 168 173 167
-11.54 -1.97 -2.41 168 173 167
-11.54 -2.05 -2.41 168 173 167
-11.54 -2.13 -2.41 171 173 168
-11.53 -2.21 -2.42 171 173 168
-11.54 -2.29 -2.42 171 173 168
-11.54 -2.38 -2.42 171 173 168
-11.54 -2.46 -2.42 171 173 168
-11.54 -2.54 -2.42 171 173 168
-11.54 -2.62 -2.42 171 173 168
-11.53 -2.70 -2.42 171 173 168
-11.52 -2.78 -2.43 173 175 170
-11.52 -2.87 -2.44 173 175 170
-11.52 -2.95 -2.44 173 175 170
-11.52 -3.03 -2.44 173 175 170
-11.52 -3.11 -2.44 173 175 170
-11.52 -3.19 -2.44 173 175 170
-11.52 -3.28 -2.44 173 175 170
-11.52 -3.36 -2.44 173 175 170
-11.52 -3.44 -2.43 170 175 174
-11.52 -3.52 -2.44 170 175 174
-11.52 -3.61 -2.44 170 175 174
-11.52 -3.69 -2.43 171 176 175
-11.53 -3.77 -2.43 171 176 175
-11.53 -3.85 -2.42 172 177 176
-11.53 -3.94 -2.43 172 177 176
-11.53 -4.02 -2.42 174 179 178
-11.53 -4.10 -2.43 174 179 178
-11.53 -4.18 -2.43 174 179 178
-11.53 -4.26 -2.43 174 179 178
-11.53 -4.35 -2.43 174 179 178
-11.52 -4.43 -2.43 174 179 178
-11.52 -4.51 -2.43 174 179 178
-11.52 -4.59 -2.43 174 179 178
-11.52 -4.67 -2.44 174 179 178
-11.51 -4.76 -2.46 172 177 176
-11.51 -4.84 -2.45 172 177 176
-11.51 -4.92 -2.45 172 177 176
-11.51 -5.00 -2.46 172 177 176
-11.51 -5.08 -2.46 172 177 176
-11.51 -5.17 -2.45 172 177 176
-11.51 -5.25 -2.45 172 177 176
-11.50 -5.33 -2.46 172 177 176
-11.49 -5.41 -2.48 174 179 178
-11.49 -5.49 -2.48 174 179 178
-11.49 -5.58 -2.49 174 179 178
-11.49 -5.66 -2.49 174 179 178
-11.49 -5.74 -2.49 174 179 178
-11.48 -5.82 -2.49 174 179 178
-11.48 -5.90 -2.50 174 179 178
-11.47 -5.99 -2.50 174 179 178
-11.46 -6.07 -2.51 176 181 177
-11.46 -6.15 -2.52 171 176 172
-11.45 -6.23 -2.54 174 179 175
-11.45 -6.32 -2.54 174 179 175
-11.44 -6.40 -2.55 169 174 170
-11.43 -6.48 -2.56 172 177 173
-11.43 -6.56 -2.57 178 183 179
-11.42 -6.64 -2.58 175 180 176
-11.40 -6.73 -2.61 179 184 180
-11.36 -6.81 -2.66 178 183 179
-11.35 -6.89 -2.67 170 175 171
-11.51 -6.98 -2.46 170 175 171
-11.98 -7.06 -1.81 210 215 211
-12.21 -7.15 -1.49 252 255 253
-12.24 -7.23 -1.45 247 252 248
-12.24 -7.31 -1.45 242 247 243
-12.22 -7.39 -1.47 245 252 247
-12.24 -7.47 -1.45 245 252 247
-12.24 -7.55 -1.45 245 252 247
-12.24 -7.63 -1.45 245 252 247
-12.23 -7.71 -1.46 245 252 247
-12.22 -7.79 -1.48 245 252 247
-12.22 -7.87 -1.48 245 252 247
-12.21 -7.95 -1.49 245 252 247
-12.18 -8.03 -1.52 246 253 248
-12.17 -8.11 -1.54 246 253 248
-12.16 -8.19 -1.55 246 253 248
-12.16 -8.27 -1.56 246 253 248
-12.15 -8.35 -1.57 246 253 248
-12.14 -8.43 -1.58 246 253 248
-12.13 -8.51 -1.59 246 253 248
-12.12 -8.59 -1.61 246 253 248
-12.12 -8.67 -1.61 246 253 251
-12.12 -8.75 -1.62 246 253 251
-12.11 -8.83 -1.63 246 253 251
-12.11 -8.92 -1.63 246 253 251
-12.10 -9.00 -1.63 246 253 251
-12.10 -9.08 -1.64 246 253 251
-12.10 -9.16 -1.64 246 253 251
-12.10 -9.24 -1.64 246 253 251
-12.09 -9.32 -1.65 246 253 251
-12.08 -9.40 -1.66 246 253 251
-12.09 -9.48 -1.65 246 253 251
-12.09 -9.56 -1.65 246 253 251
-12.10 -9.64 -1.64 246 253 251
-12.10 -9.72 -1.64 246 253 251
-12.10 -9.80 -1.64 246 253 251
-12.09 -9.88 -1.65 246 253 251
-12.09 -9.96 -1.65 246 253 251
-12.08 -10.04 -1.67 246 253 251
-12.08 -10.12 -1.67 246 253 251
-12.08 -10.21 -1.67 246 253 251
-12.08 -10.29 -1.67 246 253 251
-12.08 -10.37 -1.67 246 253 251
-12.08 -10.45 -1.67 246 253 251
-12.08 -10.53 -1.67 246 253 251
-12.08 -10.61 -1.67 246 253 251
-12.08 -10.69 -1.67 246 253 251
-12.09 -10.77 -1.66 246 253 251
-12.08 -10.85 -1.67 246 253 251
-12.09 -10.93 -1.66 246 253 251
-12.09 -11.01 -1.65 246 253 251
-12.10 -11.09 -1.64 246 253 251
-12.09 -11.17 -1.65 246 253 251
-12.09 -11.25 -1.65 246 253 251
-12.10 -11.33 -1.64 246 253 251
-12.09 -11.41 -1.65 246 253 251
-12.09 -11.49 -1.65 246 253 251
-12.09 -11.57 -1.65 246 253 251
-12.09 -11.65 -1.65 246 253 251
-12.09 -11.73 -1.65 246 253 251
-12.09 -11.81 -1.65 246 253 251
-12.09 -11.89 -1.65 246 253 251
-12.09 -11.98 -1.66 246 253 251
-12.09 -12.06 -1.66 246 253 251
-12.08 -12.14 -1.66 246 253 251
-12.08 -12.22 -1.66 246 253 251
-12.08 -12.30 -1.66 246 253 251
-12.08 -12.38 -1.66 246 253 251
-12.08 -12.46 -1.67 246 253 251
-12.08 -12.54 -1.67 246 253 251
-12.08 -12.62 -1.67 246 253 251
-12.08 -12.70 -1.66 246 253 251
-12.08 -12.78 -1.66 246 253 251
-12.10 -12.86 -1.64 246 253 251
-12.09 -12.94 -1.65 246 253 251
-12.10 -13.02 -1.64 246 253 251
-12.10 -13.10 -1.64 246 253 251
-12.10 -13.18 -1.63 245 252 250
-12.10 -13.26 -1.64 245 252 250
-12.10 -13.34 -1.63 245 252 250
-12.11 -13.42 -1.63 245 252 250
-12.11 -13.50 -1.63 245 252 250
-12.11 -13.58 -1.63 245 252 250
-12.11 -13.66 -1.63 245 252 250
-12.10 -13.75 -1.64 245 252 250
-12.08 -13.83 -1.67 247 252 248
-11.98 -13.93 -1.80 245 250 246
-11.82 -14.05 -2.02 238 243 239
-11.68 -14.17 -2.21 221 226 222
-11.57 -14.28 -2.37 204 209 205
-11.53 -14.37 -2.42 189 194 190
-11.53 -14.45 -2.42 183 188 184
-11.54 -14.53 -2.41 183 188 184
-11.55 -14.61 -2.40 189 194 190
-11.54 -14.69 -2.41 192 197 193
-11.55 -14.78 -2.40 193 198 194
-11.55 -14.86 -2.40 191 196 192
-11.55 -14.94 -2.40 188 193 189
-11.56 -15.02 -2.39 186 191 187
-11.55 -15.10 -2.40 190 195 191
-11.56 -15.18 -2.39 193 198 194
-11.55 -15.27 -2.39 193 195 192
-11.56 -15.35 -2.38 193 195 192
-11.56 -15.43 -2.38 193 195 192
-11.56 -15.51 -2.38 193 195 192
-11.56 -15.59 -2.38 193 195 192
-11.56 -15.67 -2.38 193 195 192
-11.56 -15.76 -2.38 193 195 192
-11.56 -15.84 -2.38 193 195 192
-11.56 -15.92 -2.39 194 196 193
-11.55 -16.00 -2.39 194 196 193
-11.55 -16.09 -2.40 194 196 193
-11.55 -16.17 -2.39 194 196 193
-11.55 -16.25 -2.39 194 196 193
-11.55 -16.33 -2.40 194 196 193
-11.55 -16.42 -2.40 194 196 193
-11.54 -16.50 -2.41 194 196 193
-11.53 -16.59 -2.42 195 197 194
-11.53 -16.67 -2.42 195 197 194
-11.52 -16.75 -2.43 195 197 194
-11.52 -16.84 -2.43 195 197 194
-11.52 -16.92 -2.43 195 197 194
-11.52 -17.00 -2.43 195 197 194
-11.52 -17.08 -2.44 195 197 194
-11.52 -17.17 -2.44 195 197 194
-11.51 -17.25 -2.45 197 199 196
-11.51 -17.33 -2.45 197 199 196
-11.51 -17.41 -2.45 197 199 196
-11.51 -17.50 -2.45 197 199 196
-11.51 -17.58 -2.45 197 199 196
-11.51 -17.66 -2.45 197 199 196
-11.51 -17.74 -2.45 197 199 196
-11.51 -17.83 -2.45 197 199 196
-11.50 -17.91 -2.47 198 200 197
-11.49 -18.00 -2.48 194 196 193
-11.49 -18.08 -2.48 191 193 190
-11.48 -18.17 -2.49 185 187 184
-11.47 -18.25 -2.50 180 182 179
-11.47 -18.34 -2.51 174 176 173
-11.47 -18.42 -2.51 170 172 169
-11.46 -18.50 -2.51 168 170 167
-11.46 -18.59 -2.52 169 171 168
-11.45 -18.67 -2.53 170 172 169
-11.45 -18.75 -2.53 170 172 169
-11.46 -18.83 -2.52 170 172 169
-11.46 -18.92 -2.52 171 173 170
-11.46 -19.00 -2.51 171 173 170
-11.47 -19.08 -2.50 171 173 170
-11.48 -19.15 -2.50 171 173 170
-11.48 -19.24 -2.50 162 164 164
-11.47 -19.32 -2.50 162 164 164
-11.47 -19.40 -2.50 163 165 165
-11.49 -19.48 -2.48 163 165 165
-11.49 -19.56 -2.48 162 164 164
-11.50 -19.64 -2.47 162 164 164
-11.51 -19.72 -2.46 163 165 165
-11.52 -19.80 -2.44 162 164 164
-11.52 -19.88 -2.43 164 166 166
-11.53 -19.95 -2.42 171 173 173
-11.55 -20.03 -2.40 180 182 182
-11.57 -20.10 -2.37 166 168 168
-11.59 -20.18 -2.35 158 160 160
-11.63 -20.24 -2.28 149 151 151
-11.68 -20.30 -2.21 141 143 143
-11.73 -20.35 -2.15 122 124 124
-11.79 -20.41 -2.07 89 89 99
-11.85 -20.46 -1.99 63 63 73
-11.97 -20.49 -1.82 41 42 45
-12.04 -20.53 -1.72 36 37 40
-12.18 -20.55 -1.53 45 47 44
-12.33 -20.56 -1.32 30 32 29
-12.61 -20.50 -0.94 17 17 25
-12.98 -20.40 -0.43 17 17 25
-13.31 -20.32 0.03 16 14 38
-13.63 -20.24 0.48 58 56 80
-13.81 -20.22 0.72 81 78 107
-13.93 -20.24 0.89 53 50 79
-14.02 -20.27 1.01 35 34 51
-14.05 -20.33 1.05 4 3 20
-14.08 -20.39 1.09 74 75 78
-14.11 -20.45 1.13 186 187 190
-14.12 -20.52 1.14 251 237 212
-14.12 -20.59 1.15 208 194 169
-14.13 -20.66 1.16 184 172 133
-14.13 -20.74 1.16 187 175 136
-14.14 -20.81 1.17 185 173 118
-14.14 -20.88 1.17 180 168 113
-14.12 -20.97 1.15 187 173 105
-14.11 -21.05 1.13 185 171 103
-14.11 -21.12 1.14 161 145 73
-14.12 -21.19 1.14 152 136 64
-14.12 -21.27 1.14 165 143 78
-14.12 -21.34 1.15 178 156 91
-14.14 -21.41 1.17 197 172 113
-14.14 -21.48 1.17 160 135 76
-14.15 -21.55 1.19 206 182 120
-14.17 -21.61 1.22 238 214 152
-14.19 -21.68 1.24 231 215 161
-14.20 -21.74 1.26 223 207 153
-14.21 -21.81 1.27 198 181 146
-14.24 -21.87 1.31 178 161 126
-14.28 -21.92 1.37 50 35 26
-14.32 -21.97 1.43 38 23 14
-14.38 -22.01 1.50 29 18 27
-14.47 -22.03 1.63 68 57 66
-13.95 -22.41 0.90 176 169 183
-12.70 -23.22 -0.81 246 239 253
-12.38 -23.48 -1.26 214 212 220
-12.51 -23.48 -1.07 197 195 203
-12.46 -23.59 -1.14 207 206 211
-12.44 -23.69 -1.17 202 201 206
-12.42 -23.78 -1.20 206 207 210
-12.42 -23.86 -1.20 202 203 206
-12.42 -23.93 -1.19 210 208 206
-12.42 -24.02 -1.20 210 208 206
-12.41 -24.10 -1.21 211 209 207
-12.41 -24.18 -1.21 211 209 207
-12.41 -24.26 -1.22 212 210 208
-12.40 -24.35 -1.22 212 210 208
-12.39 -24.43 -1.24 214 212 210
-12.38 -24.51 -1.25 212 210 208
-12.38 -24.59 -1.25 214 212 210
-12.37 -24.68 -1.26 214 212 210
-12.37 -24.76 -1.26 214 212 210
-12.37 -24.84 -1.27 214 212 210
-12.37 -24.92 -1.27 214 212 210
-12.37 -25.00 -1.27 214 212 210
-12.37 -25.08 -1.27 214 212 210
-12.36 -25.17 -1.28 214 212 210
-12.36 -25.25 -1.29 214 212 213
-12.36 -25.33 -1.29 214 212 213
-12.35 -25.41 -1.29 214 212 213
-12.35 -25.50 -1.30 214 212 213
-12.35 -25.57 -1.29 214 212 213
-12.35 -25.66 -1.30 214 212 213
-12.34 -25.74 -1.30 214 212 213
-12.35 -25.81 -1.30 214 212 213
-12.34 -25.90 -1.30 214 212 213
-12.34 -25.98 -1.31 215 213 214
-12.34 -26.06 -1.31 215 213 214
-12.34 -26.14 -1.31 215 213 214
-12.34 -26.22 -1.31 215 213 214
-12.35 -26.29 -1.30 215 213 214
-12.35 -26.37 -1.30 215 213 214
-12.34 -26.46 -1.31 215 213 214
-12.34 -26.54 -1.30 217 212 209
-12.34 -26.62 -1.31 217 212 209
-12.34 -26.70 -1.31 217 212 209
-12.34 -26.78 -1.31 217 212 209
-12.35 -26.85 -1.30 217 212 209
-12.35 -26.93 -1.29 217 212 209
-12.35 -27.01 -1.30 217 212 209
-12.34 -27.09 -1.30 217 212 209
-12.34 -27.17 -1.30 217 212 209
-12.35 -27.25 -1.30 217 212 209
-12.34 -27.33 -1.30 217 212 209
-12.35 -27.41 -1.29 217 212 209
-12.35 -27.49 -1.29 217 212 209
-12.35 -27.57 -1.29 217 212 209
-12.35 -27.65 -1.29 217 212 209
-12.36 -27.72 -1.29 217 212 209
-12.35 -27.80 -1.29 216 211 208
-12.36 -27.88 -1.29 216 211 208
-12.36 -27.96 -1.28 216 211 208
-12.36 -28.04 -1.28 216 211 208
-12.37 -28.11 -1.27 216 211 208
-12.37 -28.19 -1.26 216 211 208
-12.37 -28.27 -1.27 216 211 208
-12.37 -28.35 -1.26 216 211 208
-12.37 -28.43 -1.26 216 211 208
-12.37 -28.51 -1.27 216 211 208
-12.37 -28.58 -1.26 216 211 208
-12.37 -28.66 -1.26 216 211 208
-12.37 -28.75 -1.27 216 211 208
-12.37 -28.83 -1.27 216 211 208
-12.37 -28.90 -1.26 216 211 208
-12.38 -28.98 -1.26 218 213 210
-12.37 -29.06 -1.26 219 212 210
-12.38 -29.14 -1.25 220 213 211
-12.38 -29.22 -1.25 222 212 211
-12.38 -29.30 -1.25 222 212 211
-12.38 -29.38 -1.25 222 212 211
-12.38 -29.45 -1.25 222 212 211
-12.38 -29.54 -1.25 222 212 211
-12.39 -29.61 -1.24 222 212 211
-12.38 -29.69 -1.25 222 212 211
-12.38 -29.77 -1.25 223 213 212
-12.39 -29.85 -1.24 223 213 212
-12.38 -29.93 -1.25 223 213 212
-12.38 -30.01 -1.25 223 213 212
-12.39 -30.09 -1.24 223 213 212
-12.39 -30.17 -1.24 223 213 212
-12.39 -30.25 -1.24 223 213 212
-12.39 -30.32 -1.24 223 213 212
-12.39 -30.40 -1.24 223 213 212
-12.39 -30.48 -1.23 223 213 212
-12.39 -30.56 -1.24 224 214 213
-12.39 -30.64 -1.24 222 215 215
-12.39 -30.72 -1.23 222 215 215
-12.40 -30.80 -1.23 221 216 215
-12.40 -30.87 -1.22 221 216 215
-12.41 -30.95 -1.21 221 216 215
-12.41 -31.02 -1.21 221 216 215
-12.41 -31.10 -1.21 221 216 215
-12.42 -31.17 -1.19 223 218 217
-12.44 -31.24 -1.18 224 219 218
-12.45 -31.31 -1.16 224 219 218
-12.47 -31.37 -1.13 224 219 218
-12.49 -31.44 -1.11 224 219 218
-12.50 -31.50 -1.09 223 223 223
-12.52 -31.56 -1.05 228 228 228
-12.55 -31.62 -1.02 220 220 220
-12.57 -31.68 -0.99 246 246 246
-12.62 -31.71 -0.92 245 245 245
-12.76 -31.66 -0.72 246 246 246
-13.14 -31.40 -0.21 246 246 246
-13.46 -31.20 0.23 255 255 255
-13.57 -31.17 0.39 249 249 249
-13.62 -31.20 0.46 255 255 255
-13.67 -31.23 0.52 250 250 250
-13.65 -31.33 0.49 236 236 236
-13.24 -31.78 -0.07 194 194 194
-12.74 -32.31 -0.75 211 211 211
-12.75 -32.38 -0.74 244 244 244
-12.47 -32.72 -1.13 235 235 235
-12.08 18.43 -1.79 137 128 120
-12.05 18.38 -1.83 137 128 120
-12.03 18.31 -1.85 137 128 120
-11.98 18.28 -1.93 137 128 120
-11.97 18.21 -1.94 137 128 120
-11.96 18.13 -1.95 137 128 120
-11.94 18.07 -1.99 137 128 120
-11.92 18.01 -2.01 137 128 120
-11.93 17.92 -2.00 139 130 122
-11.91 17.85 -2.02 139 130 122
-11.91 17.77 -2.03 139 130 122
-11.90 17.70 -2.04 139 130 122
-11.90 17.62 -2.04 139 130 122
-11.89 17.55 -2.05 139 130 122
-11.89 17.47 -2.06 139 130 122
-11.88 17.39 -2.07 139 130 122
-11.87 17.32 -2.08 141 132 124
-11.87 17.24 -2.09 142 133 125
-11.86 17.17 -2.10 142 133 125
-11.85 17.10 -2.11 142 133 125
-11.85 17.02 -2.11 142 133 125
-11.84 16.94 -2.12 142 133 125
-11.83 16.87 -2.14 142 133 125
-11.81 16.80 -2.16 142 133 125
-11.81 16.73 -2.17 143 134 126
-11.79 16.66 -2.19 144 135 127
-11.78 16.59 -2.21 144 135 127
-11.78 16.51 -2.21 144 135 127
-11.77 16.44 -2.22 144 135 127
-11.76 16.36 -2.24 144 135 127
-11.74 16.29 -2.26 144 135 127
-11.73 16.22 -2.27 145 136 128
-11.72 16.15 -2.29 146 137 131
-11.72 16.07 -2.29 146 137 131
-11.71 15.99 -2.30 146 137 131
-11.71 15.91 -2.31 146 137 131
-11.70 15.84 -2.31 146 137 131
-11.70 15.75 -2.31 146 137 131
-11.70 15.67 -2.32 146 137 131
-11.69 15.60 -2.33 146 137 131
-11.69 15.52 -2.33 149 140 134
-11.69 15.44 -2.33 149 140 134
-11.68 15.36 -2.35 149 140 134
-11.68 15.28 -2.34 149 140 134
-11.68 15.20 -2.35 149 140 134
-11.68 15.12 -2.35 149 140 134
-11.67 15.04 -2.35 149 140 134
-11.67 14.97 -2.36 149 140 134
-11.66 14.89 -2.37 148 142 135
-11.65 14.81 -2.38 149 143 136
-11.65 14.73 -2.38 148 144 136
-11.65 14.65 -2.38 148 144 136
-11.65 14.56 -2.38 148 144 136
-11.65 14.49 -2.39 149 145 137
-11.65 14.40 -2.38 150 146 138
-11.65 14.32 -2.39 152 148 140
-11.65 14.24 -2.39 152 148 140
-11.64 14.16 -2.40 152 148 140
-11.64 14.08 -2.40 152 148 140
-11.64 14.00 -2.39 152 148 140
-11.64 13.92 -2.40 152 148 140
-11.64 13.84 -2.40 152 148 140
-11.63 13.76 -2.41 153 149 141
-11.63 13.68 -2.41 153 149 141
-11.63 13.60 -2.42 153 149 141
-11.63 13.52 -2.41 153 149 141
-11.62 13.44 -2.42 153 149 141
-11.62 13.36 -2.42 153 149 141
-11.62 13.28 -2.42 153 149 141
-11.62 13.19 -2.42 153 149 141
-11.62 13.11 -2.42 154 150 142
-11.62 13.03 -2.42 155 151 143
-11.62 12.95 -2.42 156 152 144
-11.61 12.87 -2.43 156 152 144
-11.61 12.79 -2.43 156 152 144
-11.61 12.71 -2.44 156 152 144
-11.61 12.63 -2.44 156 152 144
-11.61 12.55 -2.44 156 152 144
-11.60 12.47 -2.45 157 153 145
-11.60 12.39 -2.45 159 155 147
-11.60 12.31 -2.45 160 154 147
-11.59 12.23 -2.47 160 154 147
-11.60 12.15 -2.46 159 155 147
-11.59 12.07 -2.47 159 155 147
-11.59 11.98 -2.46 159 155 147
-11.60 11.90 -2.46 159 155 147
-11.59 11.82 -2.46 157 156 147
-11.59 11.74 -2.47 158 157 148
-11.59 11.66 -2.47 158 157 148
-11.58 11.58 -2.48 158 157 148
-11.58 11.50 -2.48 157 158 148
-11.58 11.42 -2.49 157 158 148
-11.57 11.34 -2.49 157 158 148
-11.57 11.26 -2.49 157 158 148
-11.57 11.18 -2.49 158 157 150
-11.57 11.10 -2.50 160 159 152
-11.56 11.02 -2.50 157 158 148
-11.56 10.94 -2.51 159 160 150
-11.56 10.86 -2.51 161 160 153
-11.56 10.78 -2.51 161 160 153
-11.56 10.70 -2.51 164 160 154
-11.56 10.61 -2.51 164 160 154
-11.56 10.53 -2.51 166 162 156
-11.56 10.45 -2.51 166 162 156
-11.56 10.36 -2.51 166 162 156
-11.56 10.28 -2.51 166 162 156
-11.56 10.20 -2.51 166 162 156
-11.56 10.12 -2.50 166 162 156
-11.56 10.04 -2.51 166 162 156
-11.57 9.95 -2.50 166 162 156
-11.57 9.86 -2.49 166 162 156
-11.56 9.79 -2.50 167 163 157
-11.57 9.70 -2.49 167 163 157
-11.57 9.62 -2.50 167 163 157
-11.57 9.54 -2.50 167 163 157
-11.57 9.45 -2.50 167 163 157
-11.57 9.37 -2.50 167 163 157
-11.57 9.29 -2.50 168 164 158
-11.57 9.21 -2.50 171 167 161
-11.57 9.12 -2.49 173 169 163
-11.57 9.04 -2.49 173 169 163
-11.57 8.96 -2.50 173 169 163
-11.57 8.88 -2.49 173 169 163
-11.58 8.79 -2.49 173 169 163
-11.58 8.71 -2.48 173 169 163
-11.58 8.63 -2.48 174 170 164
-11.59 8.54 -2.47 173 172 163
-11.58 8.46 -2.48 174 173 164
-11.58 8.38 -2.48 173 172 163
-11.58 8.30 -2.48 173 172 163
-11.58 8.22 -2.49 172 173 163
-11.58 8.14 -2.49 172 173 163
-11.57 8.06 -2.50 172 173 163
-11.57 7.98 -2.50 172 173 163
-11.57 7.89 -2.50 172 173 163
-11.57 7.81 -2.50 172 173 163
-11.57 7.73 -2.50 172 173 163
-11.57 7.65 -2.50 173 174 164
-11.57 7.57 -2.50 174 175 165
-11.57 7.48 -2.49 174 175 165
-11.57 7.40 -2.49 174 175 165
-11.58 7.32 -2.49 174 175 165
-11.57 7.24 -2.50 174 175 165
-11.56 7.16 -2.51 174 175 165
-11.57 7.07 -2.50 180 178 174
-11.56 7.00 -2.51 180 178 174
-11.56 6.91 -2.51 180 178 174
-11.56 6.83 -2.51 180 178 174
-11.56 6.75 -2.51 180 178 174
-11.56 6.67 -2.51 180 178 174
-11.56 6.59 -2.51 181 179 175
-11.56 6.50 -2.51 181 179 175
-11.56 6.42 -2.51 181 179 175
-11.56 6.34 -2.51 181 179 175
-11.56 6.26 -2.51 181 179 175
-11.56 6.17 -2.51 181 179 175
-11.56 6.09 -2.51 181 179 175
-11.55 6.01 -2.52 181 179 175
-11.55 5.93 -2.52 182 180 176
-11.55 5.85 -2.53 182 180 176
-11.55 5.77 -2.53 181 181 176
-11.54 5.69 -2.54 181 181 176
-11.54 5.61 -2.54 181 182 174
-11.53 5.53 -2.55 181 182 174
-11.54 5.44 -2.54 181 182 174
-11.54 5.36 -2.54 181 182 174
-11.54 5.28 -2.54 181 182 174
-11.53 5.20 -2.55 181 182 174
-11.53 5.12 -2.55 181 182 174
-11.54 5.03 -2.54 180 181 173
-11.53 4.95 -2.55 180 181 173
-11.53 4.87 -2.55 180 181 173
-11.53 4.79 -2.55 180 181 173
-11.54 4.70 -2.54 180 181 173
-11.54 4.62 -2.54 180 181 173
-11.53 4.54 -2.55 180 181 173
-11.53 4.46 -2.55 180 181 173
-11.53 4.38 -2.55 180 181 173
-11.53 4.30 -2.56 179 179 174
-11.53 4.22 -2.56 178 178 173
-11.53 4.13 -2.56 178 178 173
-11.52 4.05 -2.56 178 178 173
-11.53 3.97 -2.55 178 178 173
-11.53 3.89 -2.56 178 178 173
-11.53 3.80 -2.55 178 178 173
-11.53 3.72 -2.56 178 178 173
-11.53 3.64 -2.55 176 176 171
-11.53 3.56 -2.56 175 175 170
-11.53 3.47 -2.55 175 175 170
-11.54 3.39 -2.54 175 175 170
-11.54 3.31 -2.54 175 175 170
-11.54 3.22 -2.53 175 175 170
-11.54 3.14 -2.54 172 174 171
-11.54 3.06 -2.54 172 174 171
-11.54 2.98 -2.54 172 174 171
-11.54 2.89 -2.54 172 174 171
-11.54 2.81 -2.54 172 174 171
-11.54 2.73 -2.54 172 174 171
-11.54 2.65 -2.53 172 174 171
-11.54 2.56 -2.54 172 174 171
-11.54 2.48 -2.53 171 173 170
-11.54 2.40 -2.53 171 173 170
-11.54 2.32 -2.53 171 173 170
-11.54 2.23 -2.53 171 173 170
-11.55 2.15 -2.52 171 173 170
-11.55 2.07 -2.52 171 173 170
-11.56 1.98 -2.50 171 173 170
-11.56 1.90 -2.50 171 173 170
-11.57 1.81 -2.50 172 173 165
-11.56 1.73 -2.50 172 173 165
-11.57 1.65 -2.50 172 173 165
-11.56 1.57 -2.50 172 173 165
-11.57 1.49 -2.50 172 173 165
-11.57 1.40 -2.49 172 173 165
-11.57 1.32 -2.49 172 173 165
-11.58 1.24 -2.49 172 173 165
-11.57 1.16 -2.49 172 173 165
-11.58 1.07 -2.48 172 173 165
-11.58 0.99 -2.48 172 173 165
-11.59 0.91 -2.47 172 173 165
-11.59 0.82 -2.47 172 173 165
-11.60 0.74 -2.46 172 173 165
-11.60 0.66 -2.46 172 173 165
-11.59 0.58 -2.47 172 173 165
-11.59 0.49 -2.46 172 172 167
-11.59 0.41 -2.47 172 172 167
-11.59 0.33 -2.46 172 172 167
-11.59 0.25 -2.47 172 172 167
-11.60 0.16 -2.46 172 172 167
-11.60 0.08 -2.46 172 172 167
-11.60 -0.00 -2.45 172 172 167
-11.60 -0.08 -2.45 172 172 167
-11.60 -0.17 -2.45 172 172 167
-11.61 -0.25 -2.44 172 172 167
-11.62 -0.33 -2.43 172 172 167
-11.62 -0.42 -2.43 172 172 167
-11.62 -0.50 -2.42 172 172 167
-11.62 -0.58 -2.42 172 172 167
-11.63 -0.66 -2.42 172 172 167
-11.63 -0.75 -2.41 172 172 167
-11.63 -0.83 -2.41 167 172 166
-11.63 -0.91 -2.41 167 172 166
-11.64 -0.99 -2.40 167 172 166
-11.64 -1.08 -2.40 167 172 166
-11.64 -1.16 -2.39 167 172 166
-11.65 -1.24 -2.39 167 172 166
-11.65 -1.32 -2.38 167 172 166
-11.65 -1.41 -2.38 167 172 166
-11.65 -1.49 -2.38 168 173 167
-11.65 -1.57 -2.38 168 173 167
-11.65 -1.65 -2.38 168 173 167
-11.65 -1.73 -2.38 168 173 167
-11.65 -1.82 -2.38 168 173 167
-11.66 -1.90 -2.37 168 173 167
-11.66 -1.98 -2.37 168 173 167
-11.66 -2.06 -2.37 168 173 167
-11.65 -2.14 -2.38 171 173 168
-11.65 -2.23 -2.39 171 173 168
-11.65 -2.31 -2.38 171 173 168
-11.65 -2.39 -2.39 171 173 168
-11.65 -2.47 -2.39 171 173 168
-11.65 -2.55 -2.38 171 173 168
-11.65 -2.63 -2.39 171 173 168
-11.64 -2.72 -2.39 171 173 168
-11.64 -2.80 -2.39 173 175 170
-11.64 -2.88 -2.40 173 175 170
-11.64 -2.96 -2.40 173 175 170
-11.64 -3.04 -2.39 173 175 170
-11.64 -3.13 -2.39 173 175 170
-11.64 -3.21 -2.39 173 175 170
-11.65 -3.29 -2.39 173 175 170
-11.64 -3.37 -2.40 173 175 170
-11.64 -3.45 -2.39 172 177 176
-11.64 -3.53 -2.40 172 177 176
-11.64 -3.62 -2.39 172 177 176
-11.65 -3.70 -2.39 172 177 176
-11.65 -3.78 -2.39 172 177 176
-11.65 -3.86 -2.38 172 177 176
-11.65 -3.95 -2.38 172 177 176
-11.65 -4.03 -2.38 172 177 176
-11.65 -4.11 -2.39 172 177 176
-11.65 -4.19 -2.39 172 177 176
-11.64 -4.27 -2.39 172 177 176
-11.64 -4.35 -2.40 172 177 176
-11.64 -4.44 -2.40 172 177 176
-11.64 -4.52 -2.40 172 177 176
-11.63 -4.60 -2.41 172 177 176
-11.63 -4.68 -2.41 172 177 176
-11.62 -4.76 -2.42 172 177 176
-11.62 -4.84 -2.42 172 177 176
-11.62 -4.93 -2.42 172 177 176
-11.62 -5.01 -2.42 172 177 176
-11.62 -5.09 -2.42 172 177 176
-11.62 -5.17 -2.42 172 177 176
-11.62 -5.25 -2.42 172 177 176
-11.62 -5.34 -2.42 172 177 176
-11.60 -5.42 -2.45 174 179 178
-11.60 -5.50 -2.46 174 179 178
-11.59 -5.58 -2.46 174 179 178
-11.59 -5.66 -2.46 174 179 178
-11.59 -5.74 -2.46 174 179 178
-11.60 -5.83 -2.46 174 179 178
-11.59 -5.91 -2.47 174 179 178
-11.58 -5.99 -2.48 174 179 178
-11.58 -6.07 -2.48 181 186 182
-11.58 -6.15 -2.48 174 179 175
-11.57 -6.24 -2.49 172 177 173
-11.58 -6.32 -2.49 172 177 173
-11.57 -6.40 -2.50 170 175 171
-11.57 -6.48 -2.49 174 179 175
-11.57 -6.56 -2.50 172 177 173
-11.56 -6.65 -2.51 159 164 160
-11.52 -6.73 -2.57 171 176 172
-11.47 -6.81 -2.63 171 176 172
-11.60 -6.89 -2.45 164 169 165
-11.99 -6.98 -1.92 193 198 194
-12.29 -7.07 -1.50 241 246 242
-12.37 -7.15 -1.39 242 247 243
-12.35 -7.23 -1.41 246 251 247
-12.35 -7.31 -1.42 244 249 245
-12.35 -7.39 -1.41 245 252 247
-12.36 -7.47 -1.40 245 252 247
-12.35 -7.55 -1.42 245 252 247
-12.35 -7.63 -1.42 245 252 247
-12.34 -7.71 -1.43 245 252 247
-12.34 -7.79 -1.43 245 252 247
-12.32 -7.87 -1.46 245 252 247
-12.31 -7.95 -1.47 245 252 247
-12.30 -8.03 -1.49 246 253 248
-12.28 -8.11 -1.51 246 253 248
-12.27 -8.19 -1.53 246 253 248
-12.27 -8.27 -1.53 246 253 248
-12.26 -8.35 -1.54 246 253 248
-12.26 -8.43 -1.55 246 253 248
-12.25 -8.51 -1.56 246 253 248
-12.24 -8.59 -1.56 246 253 248
-12.24 -8.67 -1.57 246 253 251
-12.24 -8.75 -1.57 246 253 251
-12.23 -8.83 -1.58 246 253 251
-12.22 -8.91 -1.59 246 253 251
-12.22 -8.99 -1.59 246 253 251
-12.22 -9.07 -1.60 246 253 251
-12.22 -9.15 -1.60 246 253 251
-12.22 -9.23 -1.60 246 253 251
-12.22 -9.31 -1.60 246 253 251
-12.20 -9.39 -1.62 246 253 251
-12.21 -9.47 -1.61 246 253 251
-12.21 -9.55 -1.60 246 253 251
-12.21 -9.63 -1.60 246 253 251
-12.22 -9.71 -1.60 246 253 251
-12.22 -9.79 -1.60 246 253 251
-12.21 -9.88 -1.61 246 253 251
-12.21 -9.96 -1.60 246 253 251
-12.21 -10.04 -1.61 246 253 251
-12.21 -10.12 -1.61 246 253 251
-12.21 -10.20 -1.61 246 253 251
-12.20 -10.28 -1.62 246 253 251
-12.20 -10.36 -1.63 246 253 251
-12.20 -10.44 -1.62 246 253 251
-12.20 -10.52 -1.62 246 253 251
-12.20 -10.60 -1.62 246 253 251
-12.20 -10.68 -1.62 246 253 251
-12.20 -10.76 -1.62 246 253 251
-12.21 -10.84 -1.61 246 253 251
-12.22 -10.92 -1.60 246 253 251
-12.22 -11.00 -1.60 246 253 251
-12.23 -11.08 -1.59 246 253 251
-12.23 -11.16 -1.59 246 253 251
-12.22 -11.24 -1.59 246 253 251
-12.22 -11.32 -1.60 246 253 251
-12.22 -11.40 -1.60 246 253 251
-12.21 -11.48 -1.60 246 253 251
-12.21 -11.56 -1.61 246 253 251
-12.21 -11.64 -1.60 246 253 251
-12.21 -11.72 -1.60 246 253 251
-12.21 -11.80 -1.61 246 253 251
-12.21 -11.88 -1.61 246 253 251
-12.20 -11.96 -1.62 246 253 251
-12.20 -12.04 -1.62 246 253 251
-12.20 -12.13 -1.63 246 253 251
-12.20 -12.21 -1.63 246 253 251
