ply
format ascii 1.0
element vertex 1543
property float x
property float y
property float z
property uchar red
property uchar green
property uchar blue
end_header
-11.73 16.22 -2.28 145 136 128
-11.73 16.14 -2.28 146 137 131
-11.72 16.07 -2.29 146 137 131
-11.71 15.99 -2.30 146 137 131
-11.71 15.91 -2.30 146 137 131
-11.71 15.83 -2.30 146 137 131
-11.71 15.75 -2.31 146 137 131
-11.71 15.67 -2.31 146 137 131
-11.70 15.59 -2.32 146 137 131
-11.70 15.51 -2.32 149 140 134
-11.70 15.43 -2.32 149 140 134
-11.69 15.36 -2.33 149 140 134
-11.68 15.28 -2.35 149 140 134
-11.68 15.20 -2.35 149 140 134
-11.67 15.13 -2.36 149 140 134
-11.67 15.04 -2.36 149 140 134
-11.66 14.97 -2.37 149 140 134
-11.65 14.89 -2.38 148 142 135
-11.64 14.82 -2.39 149 143 136
-11.64 14.74 -2.39 148 144 136
-11.64 14.66 -2.40 148 144 136
-11.64 14.58 -2.40 148 144 136
-11.63 14.50 -2.41 149 145 137
-11.63 14.42 -2.42 150 146 138
-11.63 14.34 -2.42 152 148 140
-11.62 14.26 -2.43 152 148 140
-11.62 14.18 -2.42 152 148 140
-11.62 14.10 -2.42 152 148 140
-11.62 14.02 -2.42 152 148 140
-11.62 13.93 -2.42 152 148 140
-11.62 13.85 -2.42 152 148 140
-11.62 13.77 -2.42 153 149 141
-11.61 13.69 -2.43 153 149 141
-11.61 13.61 -2.44 153 149 141
-11.60 13.54 -2.45 153 149 141
-11.60 13.46 -2.45 153 149 141
-11.60 13.38 -2.45 153 149 141
-11.60 13.29 -2.45 153 149 141
-11.60 13.21 -2.45 153 149 141
-11.60 13.13 -2.45 154 150 142
-11.60 13.04 -2.45 155 151 143
-11.60 12.96 -2.45 156 152 144
-11.60 12.88 -2.45 156 152 144
-11.59 12.81 -2.47 156 152 144
-11.59 12.72 -2.46 156 152 144
-11.59 12.64 -2.46 156 152 144
-11.59 12.56 -2.47 156 152 144
-11.59 12.48 -2.47 157 153 145
-11.58 12.40 -2.48 159 155 147
-11.58 12.32 -2.48 160 154 147
-11.58 12.24 -2.48 160 154 147
-11.57 12.17 -2.50 159 155 147
-11.58 12.08 -2.49 159 155 147
-11.58 12.00 -2.49 159 155 147
-11.57 11.92 -2.49 159 155 147
-11.57 11.83 -2.49 157 156 147
-11.57 11.75 -2.49 158 157 148
-11.57 11.67 -2.49 158 157 148
-11.57 11.59 -2.49 158 157 148
-11.57 11.51 -2.50 157 158 148
-11.57 11.43 -2.50 157 158 148
-11.57 11.35 -2.50 157 158 148
-11.56 11.27 -2.50 157 158 148
-11.56 11.19 -2.51 158 157 150
-11.56 11.11 -2.51 160 159 152
-11.55 11.03 -2.52 157 158 148
-11.55 10.95 -2.52 159 160 150
-11.55 10.87 -2.53 161 160 153
-11.55 10.78 -2.53 161 160 153
-11.54 10.70 -2.53 164 160 154
-11.55 10.62 -2.53 164 160 154
-11.55 10.54 -2.53 166 162 156
-11.55 10.46 -2.53 166 162 156
-11.53 10.38 -2.55 166 162 156
-11.53 10.30 -2.55 166 162 156
-11.53 10.22 -2.56 166 162 156
-11.53 10.13 -2.55 166 162 156
-11.53 10.05 -2.55 166 162 156
-11.54 9.97 -2.54 166 162 156
-11.54 9.88 -2.54 166 162 156
-11.54 9.80 -2.54 167 163 157
-11.54 9.72 -2.54 167 163 157
-11.54 9.64 -2.53 167 163 157
-11.54 9.56 -2.54 167 163 157
-11.54 9.47 -2.54 167 163 157
-11.54 9.39 -2.53 167 163 157
-11.54 9.31 -2.53 168 164 158
-11.54 9.22 -2.53 171 167 161
-11.55 9.14 -2.53 173 169 163
-11.54 9.06 -2.53 173 169 163
-11.55 8.98 -2.53 173 169 163
-11.55 8.89 -2.52 173 169 163
-11.56 8.81 -2.51 173 169 163
-11.56 8.72 -2.51 173 169 163
-11.56 8.64 -2.51 174 170 164
-11.56 8.56 -2.51 173 172 163
-11.56 8.47 -2.51 174 173 164
-11.56 8.39 -2.51 175 171 163
-11.56 8.31 -2.51 175 171 163
-11.56 8.23 -2.50 174 173 164
-11.56 8.15 -2.51 174 173 164
-11.56 8.07 -2.51 174 173 164
-11.56 7.98 -2.51 174 173 164
-11.55 7.90 -2.52 174 173 164
-11.55 7.82 -2.52 174 173 164
-11.56 7.74 -2.51 174 173 164
-11.55 7.66 -2.52 175 174 165
-11.55 7.58 -2.52 176 175 166
-11.55 7.49 -2.52 176 175 166
-11.55 7.41 -2.52 176 175 166
-11.55 7.33 -2.53 176 175 166
-11.55 7.25 -2.53 176 175 166
-11.55 7.16 -2.52 176 175 166
-11.54 7.09 -2.53 180 178 174
-11.55 7.00 -2.52 180 178 174
-11.54 6.92 -2.53 180 178 174
-11.54 6.84 -2.53 180 178 174
-11.55 6.76 -2.53 180 178 174
-11.54 6.67 -2.53 180 178 174
-11.54 6.59 -2.53 181 179 175
-11.54 6.51 -2.54 181 179 175
-11.54 6.43 -2.54 181 179 175
-11.53 6.35 -2.56 181 179 175
-11.52 6.27 -2.56 181 179 175
-11.52 6.19 -2.56 181 179 175
-11.52 6.11 -2.56 181 179 175
-11.52 6.03 -2.56 181 179 175
-11.52 5.95 -2.57 182 180 176
-11.51 5.87 -2.58 182 180 176
-11.51 5.79 -2.58 181 181 178
-11.51 5.71 -2.58 181 181 178
-11.50 5.63 -2.59 181 181 176
-11.50 5.54 -2.59 181 181 176
-11.50 5.46 -2.59 181 181 176
-11.50 5.38 -2.59 181 181 176
-11.50 5.30 -2.59 181 181 176
-11.50 5.21 -2.59 181 181 176
-11.50 5.13 -2.59 181 181 176
-11.50 5.05 -2.59 180 180 175
-11.50 4.97 -2.60 180 180 175
-11.49 4.89 -2.60 180 180 175
-11.50 4.80 -2.60 180 180 175
-11.50 4.72 -2.59 180 180 175
-11.50 4.64 -2.60 180 180 175
-11.50 4.56 -2.59 180 180 175
-11.50 4.47 -2.60 180 181 173
-11.50 4.39 -2.60 180 181 173
-11.50 4.31 -2.60 179 179 174
-11.50 4.23 -2.59 178 178 173
-11.50 4.14 -2.59 178 178 173
-11.50 4.06 -2.59 178 178 173
-11.50 3.98 -2.59 178 178 173
-11.49 3.90 -2.60 178 178 173
-11.49 3.82 -2.60 178 178 173
-11.49 3.73 -2.60 178 178 173
-11.49 3.65 -2.61 176 176 171
-11.48 3.57 -2.62 175 175 170
-11.48 3.49 -2.61 175 175 170
-11.49 3.41 -2.61 175 175 170
-11.49 3.32 -2.61 175 175 170
-11.49 3.24 -2.61 175 175 170
-11.48 3.16 -2.61 174 174 169
-11.48 3.08 -2.61 174 174 169
-11.48 3.00 -2.61 174 174 169
-11.49 2.91 -2.61 174 174 169
-11.49 2.83 -2.61 174 174 169
-11.49 2.75 -2.60 174 174 169
-11.49 2.67 -2.61 174 174 169
-11.49 2.58 -2.60 174 174 169
-11.49 2.50 -2.60 173 173 168
-11.49 2.42 -2.60 173 173 168
-11.50 2.33 -2.59 173 173 168
-11.49 2.25 -2.60 173 173 168
-11.50 2.17 -2.59 173 173 168
-11.50 2.08 -2.59 173 173 168
-11.50 2.00 -2.59 173 173 168
-11.51 1.92 -2.58 173 173 168
-11.51 1.83 -2.58 172 173 165
-11.51 1.75 -2.58 172 173 165
-11.51 1.67 -2.58 172 173 165
-11.51 1.59 -2.58 172 173 165
-11.52 1.50 -2.57 172 173 165
-11.52 1.42 -2.56 172 173 165
-11.52 1.34 -2.56 172 173 165
-11.53 1.25 -2.56 172 173 165
-11.53 1.17 -2.55 172 173 165
-11.52 1.09 -2.56 172 173 165
-11.53 1.01 -2.55 172 173 165
-11.53 0.92 -2.55 172 173 165
-11.54 0.84 -2.54 172 173 165
-11.54 0.76 -2.54 172 173 165
-11.54 0.67 -2.53 172 173 165
-11.55 0.59 -2.53 172 173 165
-11.54 0.51 -2.53 172 172 167
-11.55 0.42 -2.53 172 172 167
-11.55 0.34 -2.52 172 172 167
-11.55 0.26 -2.52 172 172 167
-11.56 0.17 -2.51 172 172 167
-11.56 0.09 -2.51 172 172 167
-11.56 0.01 -2.50 172 172 167
-11.56 -0.07 -2.51 172 172 167
-11.57 -0.16 -2.50 172 172 167
-11.57 -0.24 -2.50 172 172 167
-11.57 -0.32 -2.50 172 172 167
-11.57 -0.40 -2.50 172 172 167
-11.57 -0.49 -2.50 172 172 167
-11.57 -0.57 -2.49 172 172 167
-11.58 -0.65 -2.49 172 172 167
-11.57 -0.73 -2.49 172 172 167
-11.58 -0.82 -2.49 167 172 166
-11.58 -0.90 -2.48 167 172 166
-11.59 -0.98 -2.47 167 172 166
-11.59 -1.06 -2.47 167 172 166
-11.59 -1.15 -2.46 167 172 166
-11.59 -1.23 -2.46 167 172 166
-11.60 -1.31 -2.45 167 172 166
-11.60 -1.40 -2.45 167 172 166
-11.60 -1.48 -2.45 168 173 167
-11.60 -1.56 -2.45 168 173 167
-11.60 -1.64 -2.45 168 173 167
-11.60 -1.72 -2.45 168 173 167
-11.60 -1.81 -2.45 168 173 167
-11.61 -1.89 -2.43 168 173 167
-11.61 -1.97 -2.44 168 173 167
-11.61 -2.05 -2.44 168 173 167
-11.61 -2.14 -2.44 171 173 168
-11.61 -2.22 -2.44 171 173 168
-11.61 -2.30 -2.44 171 173 168
-11.61 -2.38 -2.44 171 173 168
-11.61 -2.46 -2.44 171 173 168
-11.61 -2.55 -2.44 171 173 168
-11.61 -2.63 -2.44 171 173 168
-11.60 -2.71 -2.45 172 174 169
-11.61 -2.79 -2.44 173 175 170
-11.60 -2.87 -2.46 173 175 170
-11.59 -2.95 -2.46 173 175 170
-11.60 -3.04 -2.45 173 175 170
-11.60 -3.12 -2.45 173 175 170
-11.60 -3.20 -2.45 173 175 170
-11.60 -3.28 -2.45 173 175 172
-11.61 -3.37 -2.44 173 175 172
-11.61 -3.45 -2.44 172 177 176
-11.61 -3.53 -2.44 172 177 176
-11.62 -3.61 -2.43 172 177 176
-11.62 -3.70 -2.43 172 177 176
-11.62 -3.78 -2.43 172 177 176
-11.62 -3.86 -2.42 172 177 176
-11.62 -3.94 -2.42 172 177 176
-11.62 -4.02 -2.43 172 177 176
-11.62 -4.11 -2.43 172 177 176
-11.62 -4.19 -2.43 172 177 176
-11.62 -4.27 -2.43 172 177 176
-11.61 -4.35 -2.43 172 177 176
-11.61 -4.43 -2.44 172 177 176
-11.61 -4.52 -2.43 172 177 176
-11.61 -4.60 -2.44 172 177 176
-11.61 -4.68 -2.44 172 177 176
-11.60 -4.76 -2.45 172 177 176
-11.60 -4.84 -2.45 172 177 176
-11.60 -4.92 -2.46 172 177 176
-11.60 -5.01 -2.45 172 177 176
-11.60 -5.09 -2.45 172 177 176
-11.60 -5.17 -2.46 172 177 176
-11.60 -5.25 -2.46 172 177 176
-11.59 -5.33 -2.47 172 177 176
-11.58 -5.42 -2.48 174 179 178
-11.57 -5.50 -2.50 174 179 178
-11.56 -5.58 -2.51 174 179 178
-11.56 -5.66 -2.51 174 179 178
-11.56 -5.74 -2.51 174 179 178
-11.57 -5.83 -2.50 174 179 178
-11.56 -5.91 -2.50 174 179 178
-11.57 -5.99 -2.50 174 179 178
-11.56 -6.07 -2.51 182 187 183
-11.57 -6.15 -2.50 172 177 173
-11.56 -6.24 -2.50 171 176 172
-11.57 -6.32 -2.50 174 179 175
-11.57 -6.40 -2.50 171 176 172
-11.57 -6.48 -2.50 172 177 173
-11.57 -6.56 -2.50 171 176 172
-11.55 -6.65 -2.52 160 165 161
-11.51 -6.73 -2.58 172 177 173
-11.46 -6.81 -2.64 172 177 173
-11.57 -6.89 -2.49 164 169 165
-11.96 -6.98 -1.96 193 198 194
-12.29 -7.07 -1.51 241 246 242
-12.37 -7.15 -1.39 242 247 243
-12.34 -7.23 -1.43 245 250 246
-12.33 -7.31 -1.44 242 247 243
-12.32 -7.39 -1.45 245 252 247
-12.31 -7.47 -1.47 245 252 247
-12.31 -7.55 -1.47 245 252 247
-12.31 -7.63 -1.47 245 252 247
-12.30 -7.71 -1.49 245 252 247
-12.29 -7.79 -1.50 245 252 247
-12.29 -7.87 -1.51 245 252 247
-12.27 -7.95 -1.52 245 252 247
-12.25 -8.03 -1.55 246 253 248
-12.24 -8.11 -1.56 246 253 248
-12.23 -8.19 -1.59 246 253 248
-12.22 -8.27 -1.60 246 253 248
-12.21 -8.35 -1.60 246 253 248
-12.21 -8.43 -1.61 246 253 248
-12.20 -8.51 -1.62 246 253 248
-12.20 -8.59 -1.62 246 253 248
-12.20 -8.67 -1.63 246 253 251
-12.19 -8.75 -1.64 246 253 251
-12.19 -8.83 -1.64 246 253 251
-12.18 -8.91 -1.65 246 253 251
-12.18 -8.99 -1.65 246 253 251
-12.18 -9.07 -1.65 246 253 251
-12.18 -9.15 -1.66 246 253 251
-12.17 -9.24 -1.67 246 253 251
-12.17 -9.32 -1.67 246 253 251
-12.16 -9.40 -1.69 246 253 251
-12.16 -9.48 -1.68 246 253 251
-12.16 -9.56 -1.68 246 253 251
-12.17 -9.64 -1.67 246 253 251
-12.16 -9.72 -1.68 246 253 251
-12.17 -9.80 -1.67 246 253 251
-12.17 -9.88 -1.67 246 253 251
-12.17 -9.96 -1.67 246 253 251
-12.17 -10.04 -1.67 246 253 251
-12.17 -10.12 -1.66 246 253 251
-12.17 -10.20 -1.66 246 253 251
-12.17 -10.28 -1.67 246 253 251
-12.18 -10.36 -1.66 246 253 251
-12.17 -10.44 -1.67 246 253 251
-12.16 -10.52 -1.68 246 253 251
-12.17 -10.60 -1.67 246 253 251
-12.16 -10.68 -1.68 246 253 251
-12.16 -10.76 -1.68 246 253 251
-12.17 -10.84 -1.67 246 253 251
-12.17 -10.92 -1.66 246 253 251
-12.18 -11.00 -1.66 246 253 251
-12.18 -11.08 -1.65 246 253 251
-12.18 -11.16 -1.65 246 253 251
-12.18 -11.24 -1.65 246 253 251
-12.19 -11.32 -1.64 246 253 251
-12.19 -11.40 -1.64 246 253 251
-12.19 -11.48 -1.64 246 253 251
-12.18 -11.57 -1.65 246 253 251
-12.19 -11.64 -1.64 246 253 251
-12.18 -11.73 -1.65 246 253 251
-12.18 -11.81 -1.65 246 253 251
-12.18 -11.89 -1.65 246 253 251
-12.18 -11.97 -1.66 246 253 251
-12.18 -12.05 -1.66 246 253 251
-12.17 -12.13 -1.67 246 253 251
-12.17 -12.21 -1.66 246 253 251
-12.17 -12.29 -1.66 246 253 251
-12.17 -12.37 -1.67 246 253 251
-12.17 -12.45 -1.66 246 253 251
-12.17 -12.53 -1.67 246 253 251
-12.18 -12.61 -1.66 246 253 251
-12.18 -12.69 -1.65 246 253 251
-12.18 -12.77 -1.65 246 253 251
-12.20 -12.85 -1.63 246 253 251
-12.19 -12.93 -1.64 246 253 251
-12.19 -13.01 -1.64 246 253 251
-12.19 -13.09 -1.64 246 253 251
-12.19 -13.17 -1.64 245 252 250
-12.19 -13.25 -1.64 245 252 250
-12.19 -13.33 -1.64 245 252 250
-12.20 -13.41 -1.63 245 252 250
-12.20 -13.49 -1.62 245 252 250
-12.20 -13.57 -1.62 245 252 250
-12.21 -13.65 -1.61 245 252 250
-12.22 -13.73 -1.60 245 252 250
-12.21 -13.81 -1.60 244 249 248
-12.21 -13.89 -1.61 244 249 248
-12.18 -13.98 -1.66 242 247 246
-12.05 -14.09 -1.83 241 246 245
-11.90 -14.21 -2.04 233 238 237
-11.75 -14.32 -2.25 214 219 218
-11.68 -14.42 -2.35 195 200 199
-11.65 -14.51 -2.38 184 189 188
-11.64 -14.60 -2.39 184 189 188
-11.64 -14.68 -2.39 184 189 188
-11.64 -14.76 -2.40 186 191 190
-11.64 -14.84 -2.39 186 191 190
-11.65 -14.92 -2.38 189 194 193
-11.66 -15.00 -2.37 190 195 194
-11.65 -15.09 -2.38 186 191 190
-11.65 -15.17 -2.38 183 188 187
-11.65 -15.25 -2.38 192 194 191
-11.66 -15.33 -2.37 192 194 191
-11.67 -15.41 -2.36 192 194 191
-11.67 -15.49 -2.36 192 194 191
-11.67 -15.57 -2.36 192 194 191
-11.67 -15.65 -2.36 192 194 191
-11.67 -15.74 -2.36 192 194 191
-11.67 -15.82 -2.36 192 194 191
-11.66 -15.90 -2.37 194 196 193
-11.66 -15.98 -2.37 194 196 193
-11.65 -16.07 -2.38 194 196 193
-11.65 -16.15 -2.38 194 196 193
-11.65 -16.23 -2.38 194 196 193
-11.65 -16.31 -2.38 194 196 193
-11.65 -16.40 -2.39 194 196 193
-11.65 -16.48 -2.39 194 196 193
-11.64 -16.56 -2.39 195 197 194
-11.64 -16.65 -2.40 195 197 194
-11.63 -16.73 -2.41 195 197 194
-11.63 -16.81 -2.41 195 197 194
-11.63 -16.89 -2.41 195 197 194
-11.63 -16.98 -2.41 195 197 194
-11.63 -17.06 -2.42 195 197 194
-11.62 -17.14 -2.42 195 197 194
-11.61 -17.23 -2.43 197 199 196
-11.61 -17.31 -2.44 197 199 196
-11.61 -17.40 -2.44 197 199 196
-11.61 -17.48 -2.44 197 199 196
-11.61 -17.56 -2.44 197 199 196
-11.61 -17.64 -2.44 197 199 196
-11.61 -17.72 -2.44 197 199 196
-11.61 -17.81 -2.44 197 199 196
-11.60 -17.89 -2.45 200 202 199
-11.59 -17.98 -2.47 199 201 198
-11.59 -18.06 -2.46 197 199 196
-11.59 -18.14 -2.47 193 195 192
-11.58 -18.22 -2.48 190 192 189
-11.58 -18.31 -2.48 186 188 185
-11.58 -18.39 -2.49 184 186 183
-11.57 -18.48 -2.50 183 185 182
-11.56 -18.56 -2.50 174 176 173
-11.56 -18.64 -2.50 174 176 173
-11.56 -18.73 -2.51 173 175 172
-11.57 -18.81 -2.50 171 173 170
-11.57 -18.89 -2.49 171 173 170
-11.58 -18.97 -2.49 169 171 168
-11.58 -19.05 -2.48 168 170 167
-11.58 -19.13 -2.48 168 170 167
-11.58 -19.21 -2.49 169 171 171
-11.58 -19.29 -2.49 168 170 170
-11.59 -19.37 -2.47 165 167 167
-11.59 -19.45 -2.46 163 165 165
-11.60 -19.53 -2.45 162 164 164
-11.61 -19.61 -2.44 159 161 161
-11.61 -19.69 -2.44 158 160 160
-11.62 -19.77 -2.42 157 159 159
-11.63 -19.85 -2.41 155 157 157
-11.63 -19.93 -2.41 158 160 160
-11.65 -20.00 -2.38 168 170 170
-11.67 -20.07 -2.35 166 168 168
-11.69 -20.15 -2.33 168 170 170
-11.73 -20.21 -2.27 162 164 164
-11.78 -20.27 -2.20 159 161 161
-11.84 -20.32 -2.13 150 152 152
-11.90 -20.38 -2.04 140 140 148
-11.95 -20.43 -1.97 113 113 121
-12.03 -20.48 -1.87 83 85 85
-12.09 -20.53 -1.78 43 45 45
-12.19 -20.56 -1.64 45 47 42
-12.33 -20.58 -1.44 32 34 29
-12.56 -20.54 -1.13 21 22 27
-12.96 -20.43 -0.57 7 8 13
-13.35 -20.32 -0.04 3 1 23
-13.72 -20.22 0.47 35 33 55
-13.89 -20.21 0.71 56 53 80
-14.01 -20.22 0.88 49 46 73
-14.10 -20.25 1.00 45 44 59
-14.13 -20.31 1.05 7 6 21
-14.16 -20.37 1.09 8 10 10
-14.17 -20.44 1.09 74 76 76
-14.17 -20.52 1.09 170 160 136
-14.18 -20.59 1.11 201 191 167
-14.18 -20.66 1.11 185 175 133
-14.18 -20.73 1.12 168 158 116
-14.18 -20.81 1.12 173 159 103
-14.18 -20.88 1.11 168 154 98
-14.17 -20.96 1.10 186 167 103
-14.16 -21.04 1.09 215 196 132
-14.16 -21.12 1.08 194 172 105
-14.16 -21.19 1.08 176 154 87
-14.16 -21.27 1.08 168 144 78
-14.16 -21.34 1.09 154 130 64
-14.16 -21.42 1.08 158 136 73
-14.16 -21.49 1.08 143 121 58
-14.16 -21.56 1.09 170 150 89
-14.18 -21.63 1.11 193 173 112
-14.20 -21.69 1.14 193 177 123
-14.20 -21.76 1.14 187 171 117
-14.21 -21.83 1.16 229 212 177
-14.25 -21.88 1.21 236 219 184
-14.30 -21.93 1.28 64 49 40
-14.36 -21.97 1.36 43 28 19
-14.38 -22.03 1.39 46 35 44
-14.44 -22.08 1.47 33 22 31
-14.45 -22.14 1.49 100 93 107
-13.70 -22.65 0.45 225 218 232
-12.70 -23.32 -0.93 223 221 229
-12.54 -23.49 -1.15 204 202 210
-12.54 -23.57 -1.15 210 209 214
-12.50 -23.67 -1.21 209 208 213
-12.48 -23.76 -1.24 207 208 211
-12.48 -23.84 -1.24 208 209 212
-12.49 -23.92 -1.23 209 207 208
-12.49 -24.00 -1.22 209 207 208
-12.48 -24.08 -1.24 210 208 209
-12.48 -24.16 -1.24 210 208 209
-12.48 -24.24 -1.24 211 209 210
-12.48 -24.32 -1.24 212 210 211
-12.46 -24.41 -1.26 212 210 211
-12.46 -24.49 -1.26 209 207 208
-12.46 -24.57 -1.27 212 210 211
-12.46 -24.65 -1.27 212 210 211
-12.45 -24.74 -1.28 212 210 211
-12.44 -24.82 -1.29 212 210 211
-12.44 -24.90 -1.29 212 210 211
-12.44 -24.98 -1.29 212 210 211
-12.43 -25.07 -1.30 212 210 211
-12.43 -25.15 -1.31 212 210 211
-12.43 -25.23 -1.31 212 210 211
-12.43 -25.31 -1.31 212 210 211
-12.42 -25.39 -1.31 212 210 211
-12.43 -25.47 -1.31 212 210 211
-12.43 -25.55 -1.31 212 210 211
-12.43 -25.63 -1.31 212 210 211
-12.43 -25.71 -1.31 212 210 211
-12.43 -25.79 -1.31 212 210 211
-12.42 -25.87 -1.31 212 210 211
-12.43 -25.95 -1.31 214 212 213
-12.43 -26.03 -1.31 215 213 214
-12.43 -26.11 -1.31 215 213 214
-12.43 -26.18 -1.31 215 213 214
-12.43 -26.26 -1.30 215 213 214
-12.43 -26.34 -1.30 215 213 214
-12.44 -26.42 -1.30 215 213 214
-12.43 -26.50 -1.31 217 212 209
-12.43 -26.58 -1.31 217 212 209
-12.43 -26.66 -1.31 217 212 209
-12.43 -26.74 -1.30 217 212 209
-12.44 -26.82 -1.30 217 212 209
-12.44 -26.89 -1.29 217 212 209
-12.44 -26.97 -1.29 217 212 209
-12.45 -27.05 -1.28 217 212 209
-12.45 -27.13 -1.28 217 212 209
-12.45 -27.20 -1.28 217 212 209
-12.45 -27.28 -1.28 217 212 209
-12.45 -27.36 -1.28 217 212 209
-12.45 -27.44 -1.28 217 212 209
-12.45 -27.52 -1.28 217 212 209
-12.45 -27.60 -1.28 217 212 209
-12.45 -27.68 -1.28 216 211 208
-12.45 -27.76 -1.28 216 211 208
-12.44 -27.85 -1.29 216 211 208
-12.44 -27.93 -1.29 216 211 208
-12.44 -28.01 -1.29 216 211 208
-12.44 -28.08 -1.29 216 211 208
-12.45 -28.16 -1.28 216 211 208
-12.45 -28.24 -1.28 216 211 208
-12.45 -28.32 -1.28 216 211 208
-12.45 -28.40 -1.28 216 211 208
-12.45 -28.48 -1.28 216 211 208
-12.46 -28.55 -1.27 216 211 208
-12.45 -28.63 -1.28 216 211 208
-12.46 -28.71 -1.27 216 211 208
-12.46 -28.79 -1.27 216 211 208
-12.46 -28.87 -1.26 216 211 208
-12.46 -28.95 -1.27 217 212 209
-12.46 -29.03 -1.27 218 211 209
-12.46 -29.11 -1.27 219 212 210
-12.45 -29.19 -1.28 221 211 210
-12.46 -29.27 -1.27 221 211 210
-12.46 -29.35 -1.27 221 211 210
-12.46 -29.43 -1.27 221 211 210
-12.47 -29.50 -1.26 221 211 210
-12.47 -29.58 -1.26 221 211 210
-12.47 -29.66 -1.25 222 212 211
-12.47 -29.74 -1.25 223 213 212
-12.47 -29.81 -1.25 223 213 212
-12.48 -29.89 -1.24 223 213 212
-12.48 -29.97 -1.24 223 213 212
-12.49 -30.04 -1.23 223 213 212
-12.48 -30.12 -1.23 223 213 212
-12.48 -30.20 -1.23 223 213 212
-12.49 -30.27 -1.22 223 213 212
-12.49 -30.35 -1.22 223 213 212
-12.49 -30.43 -1.22 223 213 212
-12.49 -30.51 -1.22 223 213 212
-12.50 -30.59 -1.21 221 214 214
-12.49 -30.67 -1.22 221 214 214
-12.50 -30.75 -1.21 220 215 214
-12.51 -30.82 -1.20 220 215 214
-12.51 -30.89 -1.19 220 215 214
-12.52 -30.97 -1.19 220 215 214
-12.52 -31.05 -1.19 220 215 214
-12.53 -31.12 -1.17 221 216 215
-12.53 -31.20 -1.17 223 218 217
-12.54 -31.27 -1.16 223 218 217
-12.56 -31.33 -1.13 223 218 217
-12.58 -31.39 -1.10 223 218 217
-12.60 -31.45 -1.07 220 220 220
-12.63 -31.50 -1.03 224 224 224
-12.65 -31.56 -1.00 215 215 215
-12.67 -31.62 -0.97 237 237 237
-12.70 -31.68 -0.93 249 249 249
-12.78 -31.68 -0.82 249 249 249
-13.09 -31.48 -0.39 236 236 236
-13.45 -31.24 0.10 249 249 249
-13.62 -31.15 0.34 250 250 250
-13.69 -31.17 0.43 251 251 251
-13.74 -31.20 0.50 252 252 252
-13.74 -31.27 0.51 242 242 242
-13.54 -31.53 0.23 200 200 200
-13.02 -32.09 -0.49 207 207 207
-12.82 -32.35 -0.77 246 246 246
-12.63 -32.61 -1.03 237 237 237
-12.21 18.34 -1.73 135 129 120
-12.16 18.31 -1.81 135 129 120
-12.16 18.23 -1.80 135 129 120
-12.09 18.21 -1.89 135 129 120
-12.09 18.13 -1.90 135 129 120
-12.08 18.06 -1.92 135 129 120
-12.05 18.01 -1.95 135 129 120
-12.04 17.94 -1.97 135 129 120
-12.04 17.86 -1.98 137 131 122
-12.02 17.79 -2.00 137 131 122
-12.01 17.72 -2.01 137 131 122
-12.01 17.64 -2.01 137 131 122
-12.00 17.56 -2.02 137 131 122
-12.00 17.49 -2.03 137 131 122
-11.99 17.41 -2.04 137 131 122
-11.99 17.34 -2.05 137 131 122
-11.98 17.26 -2.05 141 132 124
-11.97 17.19 -2.06 142 133 125
-11.97 17.11 -2.07 142 133 125
-11.97 17.03 -2.07 142 133 125
-11.96 16.95 -2.08 142 133 125
-11.96 16.88 -2.09 142 133 125
-11.95 16.80 -2.10 142 133 125
-11.94 16.73 -2.11 142 133 125
-11.92 16.66 -2.13 143 134 126
-11.91 16.59 -2.15 144 135 127
-11.90 16.52 -2.16 144 135 127
-11.89 16.44 -2.17 144 135 127
-11.88 16.38 -2.20 144 135 127
-11.87 16.30 -2.21 144 135 127
-11.86 16.23 -2.22 144 135 127
-11.85 16.15 -2.23 144 135 127
-11.84 16.08 -2.24 146 137 131
-11.84 16.00 -2.25 146 137 131
-11.84 15.92 -2.25 146 137 131
-11.83 15.84 -2.26 146 137 131
-11.83 15.76 -2.26 146 137 131
-11.83 15.68 -2.27 146 137 131
-11.82 15.61 -2.27 146 137 131
-11.81 15.53 -2.29 146 137 131
-11.82 15.45 -2.28 149 140 134
-11.82 15.37 -2.28 149 140 134
-11.81 15.29 -2.29 149 140 134
-11.81 15.21 -2.29 149 140 134
-11.81 15.13 -2.29 149 140 134
-11.80 15.06 -2.31 149 140 134
-11.80 14.97 -2.31 149 140 134
-11.79 14.90 -2.32 149 140 134
-11.79 14.82 -2.32 148 142 135
-11.78 14.74 -2.33 149 143 136
-11.77 14.67 -2.34 148 144 136
-11.77 14.59 -2.35 148 144 136
-11.77 14.51 -2.35 148 144 136
-11.76 14.43 -2.36 149 145 137
-11.76 14.35 -2.36 150 146 138
-11.76 14.27 -2.36 152 148 140
-11.75 14.19 -2.37 152 148 140
-11.75 14.11 -2.37 152 148 140
-11.75 14.03 -2.37 152 148 140
-11.75 13.95 -2.38 152 148 140
-11.75 13.87 -2.38 152 148 140
-11.75 13.79 -2.38 152 148 140
-11.75 13.71 -2.38 153 149 141
-11.74 13.63 -2.38 153 149 141
-11.74 13.55 -2.39 153 149 141
-11.73 13.47 -2.40 153 149 141
-11.73 13.39 -2.40 153 149 141
-11.73 13.31 -2.40 153 149 141
-11.73 13.23 -2.40 153 149 141
-11.73 13.15 -2.40 153 149 141
-11.73 13.07 -2.40 154 150 142
-11.73 12.98 -2.40 155 151 143
-11.73 12.90 -2.40 156 152 144
-11.72 12.83 -2.42 156 152 144
-11.72 12.75 -2.42 156 152 144
-11.72 12.66 -2.42 156 152 144
-11.72 12.58 -2.42 156 152 144
-11.71 12.50 -2.43 156 152 144
-11.72 12.42 -2.42 157 153 145
-11.71 12.34 -2.43 159 155 147
-11.71 12.26 -2.43 160 154 147
-11.71 12.18 -2.43 160 154 147
-11.70 12.10 -2.44 159 155 147
-11.71 12.02 -2.43 159 155 147
-11.71 11.94 -2.43 159 155 147
-11.71 11.85 -2.43 159 155 147
-11.71 11.77 -2.43 157 156 147
-11.70 11.69 -2.44 158 157 148
-11.70 11.61 -2.44 158 157 148
-11.70 11.53 -2.44 158 157 148
-11.70 11.45 -2.44 157 158 148
-11.70 11.37 -2.44 157 158 148
-11.70 11.29 -2.44 157 158 148
-11.70 11.20 -2.44 157 158 148
-11.70 11.12 -2.45 158 157 150
-11.70 11.04 -2.44 160 159 152
-11.69 10.97 -2.46 157 158 148
-11.69 10.88 -2.46 159 160 150
-11.69 10.80 -2.46 161 160 153
-11.68 10.72 -2.47 161 160 153
-11.68 10.64 -2.47 164 160 154
-11.68 10.56 -2.47 164 160 154
-11.68 10.48 -2.48 166 162 156
-11.68 10.40 -2.48 166 162 156
-11.67 10.32 -2.49 166 162 156
-11.67 10.24 -2.49 166 162 156
-11.66 10.16 -2.50 166 162 156
-11.66 10.08 -2.50 166 162 156
-11.67 10.00 -2.49 166 162 156
-11.67 9.91 -2.48 166 162 156
-11.67 9.83 -2.49 166 162 156
-11.67 9.75 -2.48 167 163 157
-11.67 9.66 -2.48 167 163 157
-11.67 9.58 -2.48 167 163 157
-11.67 9.50 -2.48 167 163 157
-11.67 9.42 -2.48 167 163 157
-11.68 9.33 -2.48 167 163 157
-11.68 9.25 -2.47 168 164 158
-11.68 9.17 -2.48 171 167 161
-11.68 9.09 -2.48 173 169 163
-11.68 9.01 -2.48 173 169 163
-11.68 8.92 -2.47 173 169 163
-11.68 8.84 -2.47 173 169 163
-11.68 8.76 -2.47 173 169 163
-11.68 8.67 -2.47 173 169 163
-11.69 8.59 -2.46 174 170 164
-11.69 8.51 -2.46 173 172 163
-11.69 8.42 -2.45 174 173 164
-11.69 8.34 -2.46 175 171 163
-11.69 8.26 -2.46 175 171 163
-11.69 8.18 -2.46 174 173 164
-11.69 8.10 -2.46 174 173 164
-11.68 8.02 -2.47 174 173 164
-11.68 7.94 -2.47 174 173 164
-11.69 7.85 -2.46 174 173 164
-11.69 7.77 -2.46 174 173 164
-11.69 7.69 -2.46 174 173 164
-11.68 7.61 -2.47 175 174 165
-11.68 7.53 -2.47 176 175 166
-11.68 7.45 -2.47 177 176 167
-11.68 7.37 -2.47 177 176 167
-11.68 7.29 -2.48 177 176 167
-11.67 7.20 -2.48 177 176 167
-11.68 7.12 -2.47 177 176 167
-11.67 7.04 -2.49 180 178 176
-11.67 6.96 -2.48 180 178 176
-11.67 6.88 -2.48 180 178 176
-11.67 6.79 -2.48 180 178 176
-11.67 6.72 -2.49 180 178 176
-11.67 6.63 -2.49 180 178 176
-11.67 6.55 -2.48 181 179 177
-11.67 6.47 -2.49 181 179 177
-11.67 6.39 -2.49 181 179 177
-11.66 6.31 -2.50 181 179 177
-11.66 6.23 -2.50 181 179 177
-11.66 6.15 -2.50 181 179 177
-11.66 6.07 -2.50 181 179 177
-11.65 5.99 -2.51 181 179 177
-11.64 5.91 -2.52 182 180 178
-11.64 5.83 -2.53 182 180 178
-11.63 5.75 -2.54 181 181 178
-11.63 5.67 -2.54 181 181 178
-11.63 5.58 -2.53 181 181 176
-11.63 5.50 -2.54 181 181 176
-11.63 5.42 -2.53 181 181 176
-11.63 5.34 -2.53 181 181 176
-11.63 5.25 -2.53 181 181 176
-11.63 5.17 -2.54 181 181 176
-11.63 5.09 -2.53 181 181 176
-11.63 5.01 -2.54 180 180 175
-11.63 4.93 -2.54 180 180 175
-11.62 4.85 -2.55 180 180 175
-11.62 4.77 -2.55 180 180 175
-11.62 4.68 -2.55 180 180 175
-11.62 4.60 -2.55 180 180 175
-11.62 4.52 -2.55 180 180 175
-11.63 4.44 -2.54 180 181 173
-11.62 4.36 -2.55 180 181 173
-11.62 4.27 -2.55 179 179 174
-11.62 4.19 -2.55 178 178 173
-11.62 4.11 -2.55 178 178 173
-11.63 4.03 -2.54 178 178 173
-11.63 3.94 -2.54 178 178 173
-11.62 3.86 -2.55 178 178 173
-11.62 3.78 -2.55 178 178 173
-11.62 3.70 -2.56 178 178 173
-11.62 3.62 -2.56 176 176 171
-11.62 3.54 -2.56 175 175 170
-11.62 3.45 -2.55 175 175 170
-11.61 3.37 -2.56 175 175 170
-11.62 3.29 -2.56 175 175 170
-11.61 3.21 -2.56 175 175 170
-11.61 3.13 -2.56 174 174 169
-11.62 3.04 -2.56 174 174 169
-11.62 2.96 -2.56 174 174 169
-11.62 2.88 -2.56 174 174 169
-11.62 2.80 -2.55 174 174 169
-11.62 2.71 -2.55 174 174 169
-11.62 2.63 -2.55 174 174 169
-11.62 2.55 -2.55 174 174 169
-11.62 2.47 -2.55 173 173 168
-11.63 2.38 -2.54 173 173 168
-11.63 2.30 -2.54 173 173 168
-11.63 2.22 -2.54 173 173 168
-11.63 2.14 -2.54 173 173 168
-11.63 2.05 -2.54 173 173 168
-11.64 1.97 -2.53 173 173 168
-11.64 1.89 -2.52 173 173 168
-11.64 1.81 -2.53 172 172 167
-11.64 1.72 -2.52 172 172 167
-11.64 1.64 -2.52 172 172 167
-11.64 1.56 -2.52 172 172 167
-11.65 1.47 -2.51 172 172 167
-11.65 1.39 -2.51 172 172 167
-11.66 1.31 -2.50 172 172 167
-11.66 1.23 -2.50 172 172 167
-11.66 1.14 -2.50 172 172 167
-11.66 1.06 -2.50 172 172 167
-11.66 0.98 -2.50 172 172 167
-11.67 0.90 -2.49 172 172 167
-11.68 0.81 -2.48 172 172 167
-11.68 0.73 -2.48 172 172 167
-11.68 0.65 -2.48 172 172 167
-11.68 0.56 -2.48 172 172 167
-11.68 0.48 -2.48 172 172 169
-11.68 0.40 -2.47 172 172 169
-11.68 0.32 -2.47 172 172 169
-11.69 0.23 -2.46 172 172 169
-11.69 0.15 -2.46 172 172 169
-11.69 0.07 -2.46 172 172 169
-11.70 -0.01 -2.45 172 172 169
-11.69 -0.10 -2.46 172 172 169
-11.70 -0.18 -2.45 172 172 169
-11.70 -0.26 -2.45 172 172 169
-11.70 -0.34 -2.44 172 172 169
-11.71 -0.43 -2.43 172 172 169
-11.71 -0.51 -2.43 172 172 169
-11.71 -0.59 -2.43 172 172 169
-11.71 -0.67 -2.43 172 172 169
-11.72 -0.76 -2.42 172 172 169
-11.72 -0.84 -2.42 167 172 166
-11.72 -0.92 -2.42 167 172 166
-11.73 -1.00 -2.41 167 172 166
-11.73 -1.09 -2.41 167 172 166
-11.73 -1.17 -2.41 167 172 166
-11.73 -1.25 -2.40 167 172 166
-11.74 -1.33 -2.39 167 172 166
-11.75 -1.42 -2.38 167 172 166
-11.75 -1.50 -2.37 168 173 167
-11.74 -1.58 -2.38 168 173 167
-11.74 -1.66 -2.39 168 173 167
-11.74 -1.74 -2.38 168 173 167
-11.75 -1.83 -2.38 168 173 167
-11.75 -1.91 -2.38 168 173 167
-11.74 -1.99 -2.38 168 173 167
-11.74 -2.07 -2.39 168 173 167
-11.74 -2.15 -2.38 171 173 168
-11.74 -2.23 -2.38 171 173 168
-11.74 -2.32 -2.39 171 173 168
-11.74 -2.40 -2.39 171 173 168
-11.74 -2.48 -2.38 171 173 168
-11.74 -2.56 -2.39 171 173 168
-11.74 -2.64 -2.39 171 173 168
-11.74 -2.72 -2.39 172 174 169
-11.74 -2.81 -2.39 173 175 170
-11.73 -2.89 -2.40 173 175 170
-11.74 -2.97 -2.39 173 175 170
-11.73 -3.05 -2.40 173 175 170
-11.74 -3.13 -2.39 173 175 170
-11.74 -3.22 -2.39 173 175 170
-11.74 -3.30 -2.39 173 175 172
-11.75 -3.38 -2.38 173 175 172
-11.75 -3.46 -2.37 171 176 175
-11.75 -3.54 -2.37 171 176 175
-11.75 -3.63 -2.37 171 176 175
-11.76 -3.71 -2.36 171 176 175
-11.76 -3.79 -2.36 171 176 175
-11.76 -3.87 -2.36 171 176 175
-11.76 -3.95 -2.36 171 176 175
-11.76 -4.04 -2.36 171 176 175
-11.76 -4.12 -2.36 172 177 176
-11.75 -4.20 -2.37 172 177 176
-11.76 -4.28 -2.36 172 177 176
-11.75 -4.36 -2.37 172 177 176
-11.75 -4.44 -2.37 172 177 176
-11.74 -4.52 -2.38 172 177 176
-11.74 -4.61 -2.39 172 177 176
-11.74 -4.69 -2.39 172 177 176
-11.74 -4.77 -2.39 172 177 176
-11.73 -4.85 -2.40 172 177 176
-11.73 -4.93 -2.41 172 177 176
-11.72 -5.01 -2.41 172 177 176
-11.73 -5.10 -2.40 172 177 176
-11.73 -5.18 -2.41 172 177 176
-11.72 -5.26 -2.41 172 177 176
-11.71 -5.34 -2.43 172 177 176
-11.71 -5.42 -2.43 174 179 178
-11.70 -5.50 -2.45 174 179 178
-11.70 -5.58 -2.45 174 179 178
-11.69 -5.67 -2.45 174 179 178
-11.69 -5.75 -2.45 174 179 178
-11.69 -5.83 -2.46 174 179 178
-11.69 -5.91 -2.45 174 179 178
-11.69 -5.99 -2.46 174 179 178
-11.69 -6.08 -2.46 176 181 177
-11.69 -6.16 -2.45 171 176 172
-11.69 -6.24 -2.45 175 180 176
-11.70 -6.32 -2.44 176 181 177
-11.70 -6.40 -2.45 172 177 173
-11.70 -6.49 -2.45 177 182 178
-11.69 -6.57 -2.46 172 177 173
-11.66 -6.65 -2.50 155 160 156
-11.62 -6.73 -2.55 159 164 160
-11.67 -6.81 -2.49 163 168 164
-12.07 -6.90 -1.94 183 188 184
-12.43 -6.99 -1.43 230 235 231
-12.50 -7.07 -1.33 248 253 249
-12.48 -7.15 -1.36 248 253 249
-12.47 -7.23 -1.37 242 247 243
-12.46 -7.31 -1.39 246 251 247
-12.46 -7.39 -1.39 245 252 247
-12.44 -7.47 -1.41 245 252 247
-12.45 -7.55 -1.41 245 252 247
-12.43 -7.63 -1.42 245 252 247
-12.43 -7.71 -1.43 245 252 247
-12.42 -7.79 -1.45 245 252 247
-12.41 -7.87 -1.46 245 252 247
-12.40 -7.95 -1.47 245 252 247
-12.38 -8.03 -1.49 246 253 248
-12.37 -8.11 -1.51 246 253 248
-12.36 -8.19 -1.53 246 253 248
-12.35 -8.27 -1.54 246 253 248
-12.34 -8.35 -1.56 246 253 248
-12.33 -8.43 -1.57 246 253 248
-12.33 -8.51 -1.57 246 253 248
-12.33 -8.59 -1.57 246 253 248
-12.33 -8.67 -1.57 246 253 251
-12.32 -8.75 -1.59 246 253 251
-12.31 -8.83 -1.59 246 253 251
-12.31 -8.91 -1.59 246 253 251
-12.31 -8.99 -1.60 246 253 251
-12.31 -9.07 -1.60 246 253 251
-12.30 -9.15 -1.61 246 253 251
-12.30 -9.23 -1.61 246 253 251
-12.30 -9.31 -1.61 246 253 251
-12.30 -9.39 -1.61 246 253 251
-12.29 -9.47 -1.62 246 253 251
-12.29 -9.55 -1.62 246 253 251
-12.30 -9.63 -1.62 246 253 251
-12.30 -9.71 -1.62 246 253 251
-12.30 -9.79 -1.61 246 253 251
-12.31 -9.87 -1.60 246 253 251
-12.31 -9.95 -1.60 246 253 251
-12.30 -10.03 -1.61 246 253 251
-12.30 -10.11 -1.61 246 253 251
-12.31 -10.19 -1.60 246 253 251
-12.31 -10.27 -1.60 246 253 251
-12.31 -10.35 -1.60 246 253 251
-12.31 -10.43 -1.60 246 253 251
-12.30 -10.51 -1.61 246 253 251
-12.31 -10.59 -1.60 246 253 251
-12.31 -10.67 -1.60 246 253 251
-12.31 -10.75 -1.60 246 253 251
-12.31 -10.83 -1.60 246 253 251
-12.31 -10.91 -1.59 246 253 251
-12.32 -10.99 -1.59 246 253 251
-12.32 -11.07 -1.58 246 253 251
-12.33 -11.15 -1.57 246 253 251
-12.33 -11.23 -1.57 246 253 251
-12.33 -11.31 -1.57 246 253 251
-12.33 -11.39 -1.57 246 253 251
-12.33 -11.47 -1.57 246 253 251
-12.33 -11.55 -1.57 246 253 251
-12.33 -11.63 -1.57 246 253 251
-12.32 -11.71 -1.58 246 253 251
-12.32 -11.79 -1.58 246 253 251
-12.32 -11.87 -1.58 246 253 251
-12.32 -11.95 -1.59 246 253 251
-12.32 -12.03 -1.58 246 253 251
-12.32 -12.11 -1.58 246 253 251
-12.32 -12.19 -1.58 246 253 251
-12.31 -12.27 -1.60 246 253 251
-12.31 -12.35 -1.60 246 253 251
-12.30 -12.43 -1.61 246 253 251
-12.30 -12.51 -1.61 246 253 251
-12.31 -12.59 -1.60 246 253 251
-12.31 -12.67 -1.59 246 253 251
-12.31 -12.75 -1.59 246 253 251
-12.32 -12.83 -1.59 246 253 251
-12.32 -12.91 -1.58 246 253 251
-12.32 -12.99 -1.58 246 253 251
-12.32 -13.07 -1.58 246 253 251
-12.32 -13.15 -1.59 245 252 250
-12.32 -13.23 -1.58 245 252 250
-12.33 -13.31 -1.57 245 252 250
-12.33 -13.39 -1.57 245 252 250
-12.34 -13.47 -1.56 245 252 250
-12.35 -13.55 -1.55 245 252 250
-12.35 -13.63 -1.54 245 252 250
-12.37 -13.70 -1.52 245 252 250
-12.38 -13.78 -1.50 246 251 250
-12.38 -13.86 -1.49 246 251 250
-12.39 -13.94 -1.48 246 251 250
-12.37 -14.02 -1.51 247 252 251
-12.29 -14.12 -1.62 245 250 249
-12.17 -14.23 -1.80 238 243 242
-12.00 -14.35 -2.03 224 229 228
-11.89 -14.46 -2.18 207 212 211
-11.80 -14.57 -2.30 185 190 189
-11.78 -14.65 -2.33 186 191 190
-11.78 -14.74 -2.34 189 194 193
-11.78 -14.82 -2.34 189 194 193
-11.78 -14.90 -2.33 188 193 192
-11.78 -14.98 -2.33 186 191 190
-11.78 -15.06 -2.33 186 191 190
-11.78 -15.14 -2.34 189 194 193
-11.78 -15.23 -2.33 192 194 191
-11.78 -15.31 -2.34 192 194 191
-11.78 -15.39 -2.33 192 194 191
-11.79 -15.47 -2.32 192 194 191
-11.80 -15.55 -2.30 192 194 191
-11.80 -15.63 -2.31 192 194 191
-11.81 -15.71 -2.29 192 194 191
-11.81 -15.79 -2.29 192 194 191
-11.80 -15.87 -2.30 194 196 193
-11.80 -15.95 -2.30 194 196 193
-11.80 -16.03 -2.30 194 196 193
-11.80 -16.12 -2.30 194 196 193
-11.80 -16.20 -2.31 194 196 193
-11.80 -16.28 -2.30 194 196 193
-11.80 -16.36 -2.31 194 196 193
-11.80 -16.44 -2.30 194 196 193
-11.79 -16.53 -2.31 195 197 194
-11.80 -16.61 -2.30 195 197 194
-11.80 -16.69 -2.31 195 197 194
-11.79 -16.77 -2.32 195 197 194
-11.79 -16.86 -2.32 195 197 194
-11.79 -16.94 -2.32 195 197 194
-11.79 -17.02 -2.31 195 197 194
-11.79 -17.10 -2.32 195 197 194
-11.78 -17.19 -2.33 197 199 196
-11.78 -17.27 -2.33 197 199 196
-11.78 -17.35 -2.34 197 199 196
-11.77 -17.43 -2.35 197 199 196
-11.78 -17.51 -2.33 197 199 196
-11.77 -17.60 -2.34 197 199 196
-11.77 -17.68 -2.35 197 199 196
-11.77 -17.76 -2.35 197 199 196
-11.77 -17.84 -2.35 200 202 199
-11.76 -17.93 -2.36 199 201 198
-11.75 -18.01 -2.37 199 201 198
-11.75 -18.10 -2.38 199 201 198
-11.75 -18.18 -2.38 198 200 197
-11.75 -18.26 -2.38 197 199 196
-11.74 -18.34 -2.38 197 199 196
-11.74 -18.43 -2.39 195 197 194
-11.73 -18.51 -2.40 184 186 183
-11.73 -18.59 -2.40 183 185 182
-11.73 -18.68 -2.40 180 182 179
-11.73 -18.76 -2.40 178 180 177
-11.74 -18.83 -2.39 173 175 172
-11.74 -18.92 -2.38 170 172 169
-11.75 -19.00 -2.38 168 170 167
-11.74 -19.08 -2.39 166 168 165
-11.74 -19.16 -2.38 170 172 172
-11.75 -19.24 -2.37 170 172 172
-11.76 -19.32 -2.36 169 171 171
-11.76 -19.40 -2.36 165 167 167
-11.77 -19.48 -2.35 164 166 166
-11.77 -19.56 -2.35 161 163 163
-11.78 -19.64 -2.34 159 161 161
-11.78 -19.72 -2.33 158 160 160
-11.79 -19.79 -2.32 154 156 156
-11.80 -19.87 -2.30 156 158 158
-11.82 -19.94 -2.27 159 161 161
-11.85 -20.01 -2.24 155 157 157
-11.87 -20.08 -2.21 159 161 161
-11.90 -20.15 -2.17 155 157 157
-11.94 -20.22 -2.11 152 154 154
-11.99 -20.27 -2.04 145 147 147
-12.05 -20.33 -1.96 156 157 162
-12.12 -20.37 -1.85 144 145 150
-12.18 -20.43 -1.78 122 124 121
-12.23 -20.48 -1.70 53 55 52
-12.34 -20.51 -1.55 48 50 45
-12.40 -20.56 -1.48 36 38 33
-12.58 -20.55 -1.22 34 35 40
-12.93 -20.46 -0.74 15 16 21
-13.34 -20.34 -0.17 9 7 27
-13.77 -20.21 0.42 18 16 36
-13.98 -20.18 0.72 27 25 49
-14.10 -20.20 0.88 34 32 56
-14.20 -20.22 1.03 56 54 74
-14.25 -20.27 1.09 35 33 53
-14.27 -20.33 1.12 10 10 20
-14.28 -20.40 1.14 0 0 6
-14.28 -20.48 1.13 42 32 36
-14.28 -20.55 1.14 131 121 125
-14.28 -20.63 1.13 201 191 169
-14.28 -20.70 1.14 199 189 167
-14.27 -20.78 1.13 188 177 131
-14.27 -20.86 1.12 158 147 101
-14.26 -20.93 1.11 146 131 68
-14.26 -21.01 1.10 182 167 104
-14.25 -21.09 1.09 185 167 96
-14.25 -21.16 1.09 190 172 101
-14.24 -21.24 1.08 214 194 117
-14.24 -21.32 1.08 210 190 113
-14.23 -21.39 1.07 187 165 91
-14.23 -21.47 1.07 168 146 72
-14.24 -21.54 1.08 165 142 73
-14.24 -21.61 1.08 152 129 60
-14.25 -21.68 1.10 181 159 96
-14.25 -21.76 1.10 141 119 56
-14.28 -21.82 1.13 183 161 114
-14.32 -21.87 1.19 213 191 144
-14.38 -21.91 1.28 65 51 26
-14.42 -21.96 1.33 31 17 0
-14.46 -22.01 1.38 59 46 41
-14.45 -22.09 1.37 52 39 34
-14.51 -22.13 1.46 54 47 50
-14.46 -22.23 1.39 189 182 185
-13.37 -22.94 -0.12 237 236 239
-12.60 -23.48 -1.19 203 202 205
-12.66 -23.52 -1.12 209 209 206
-12.63 -23.62 -1.15 214 214 211
-12.59 -23.72 -1.20 208 211 203
-12.61 -23.79 -1.19 199 202 194
-12.61 -23.87 -1.19 207 205 206
-12.61 -23.95 -1.18 207 205 206
-12.61 -24.03 -1.19 208 206 207
-12.60 -24.11 -1.19 208 206 207
-12.60 -24.19 -1.20 210 208 209
-12.59 -24.27 -1.20 210 208 209
-12.58 -24.36 -1.22 210 208 209
-12.59 -24.44 -1.21 207 205 206
-12.58 -24.52 -1.22 210 208 209
-12.58 -24.60 -1.22 210 208 209
-12.58 -24.68 -1.23 210 208 209
-12.57 -24.76 -1.23 210 208 209
-12.57 -24.85 -1.24 210 208 209
-12.57 -24.92 -1.24 210 208 209
-12.56 -25.01 -1.25 210 208 209
-12.56 -25.09 -1.25 210 208 209
-12.56 -25.17 -1.26 210 208 209
-12.56 -25.25 -1.25 210 208 209
-12.56 -25.33 -1.25 210 208 209
-12.56 -25.41 -1.25 210 208 209
-12.56 -25.48 -1.25 210 208 209
-12.57 -25.56 -1.24 210 208 209
-12.57 -25.64 -1.24 210 208 209
-12.57 -25.72 -1.24 210 208 209
-12.57 -25.80 -1.24 210 208 209
-12.56 -25.88 -1.25 211 209 210
-12.57 -25.96 -1.24 214 212 213
-12.57 -26.04 -1.24 214 212 213
-12.57 -26.12 -1.24 214 212 213
-12.57 -26.19 -1.23 214 212 213
-12.57 -26.27 -1.24 214 212 213
-12.57 -26.35 -1.23 214 212 213
-12.57 -26.43 -1.24 217 212 209
-12.57 -26.51 -1.24 217 212 209
-12.57 -26.59 -1.23 217 212 209
-12.57 -26.67 -1.24 217 212 209
-12.58 -26.75 -1.23 217 212 209
-12.58 -26.83 -1.23 217 212 209
-12.58 -26.90 -1.23 217 212 209
-12.59 -26.97 -1.21 217 212 209
-12.59 -27.05 -1.21 217 212 209
-12.58 -27.14 -1.22 217 212 209
-12.58 -27.21 -1.22 217 212 209
-12.59 -27.29 -1.21 217 212 209
-12.59 -27.37 -1.21 217 212 209
-12.59 -27.45 -1.21 217 212 209
-12.59 -27.53 -1.21 217 212 209
-12.59 -27.61 -1.21 216 211 208
-12.59 -27.69 -1.21 216 211 208
-12.58 -27.77 -1.22 216 211 208
-12.58 -27.85 -1.22 216 211 208
-12.58 -27.93 -1.22 216 211 208
-12.59 -28.01 -1.21 216 211 208
-12.58 -28.09 -1.22 216 211 208
-12.58 -28.17 -1.22 216 211 208
-12.59 -28.24 -1.21 216 211 208
-12.58 -28.33 -1.22 216 211 208
-12.58 -28.40 -1.22 216 211 208
-12.58 -28.48 -1.22 216 211 208
-12.59 -28.56 -1.21 216 211 208
-12.59 -28.64 -1.21 216 211 208
-12.59 -28.71 -1.20 216 211 208
-12.60 -28.79 -1.20 216 211 208
-12.59 -28.88 -1.21 217 212 209
-12.59 -28.95 -1.20 218 211 209
-12.59 -29.03 -1.21 219 212 210
-12.59 -29.11 -1.21 221 211 210
-12.60 -29.19 -1.20 221 211 210
-12.60 -29.27 -1.20 221 211 210
-12.59 -29.35 -1.21 221 211 210
-12.59 -29.43 -1.21 221 211 210
-12.59 -29.51 -1.21 221 211 210
-12.59 -29.59 -1.21 222 212 211
-12.59 -29.67 -1.20 222 212 211
-12.60 -29.74 -1.20 222 212 211
-12.60 -29.82 -1.19 222 212 211
-12.61 -29.89 -1.18 222 212 211
-12.61 -29.97 -1.18 222 212 211
-12.61 -30.05 -1.18 222 212 211
-12.62 -30.12 -1.17 222 212 211
-12.62 -30.20 -1.17 222 212 211
-12.62 -30.28 -1.16 222 212 211
-12.63 -30.35 -1.16 222 212 211
-12.62 -30.44 -1.17 222 212 211
-12.63 -30.51 -1.16 220 213 213
-12.62 -30.59 -1.16 220 213 213
-12.63 -30.67 -1.16 219 214 213
-12.64 -30.74 -1.15 219 214 213
-12.64 -30.82 -1.14 219 214 213
-12.64 -30.89 -1.13 219 214 213
-12.65 -30.97 -1.13 219 214 213
-12.66 -31.04 -1.12 220 215 214
-12.66 -31.11 -1.11 221 216 215
-12.67 -31.18 -1.09 221 216 215
-12.69 -31.24 -1.06 221 216 215
-12.71 -31.31 -1.04 221 216 215
-12.73 -31.37 -1.01 223 223 223
-12.74 -31.43 -0.99 224 224 224
-12.77 -31.49 -0.95 216 216 216
-12.79 -31.55 -0.93 229 229 229
-12.82 -31.60 -0.89 252 252 252
-12.87 -31.64 -0.82 249 249 249
-13.09 -31.52 -0.51 208 208 208
-13.46 -31.26 -0.00 221 221 221
-13.70 -31.11 0.34 251 251 251
-13.77 -31.13 0.43 250 250 250
-13.84 -31.14 0.53 251 251 251
-13.88 -31.18 0.58 250 250 250
-13.79 -31.34 0.45 201 201 201
-13.24 -31.92 -0.30 207 207 207
-12.91 -32.31 -0.77 250 250 250
-12.75 -32.53 -0.98 241 241 241
-12.31 18.28 -1.72 135 129 120
-12.27 18.25 -1.78 135 129 120
-12.27 18.16 -1.77 135 129 120
-12.21 18.14 -1.86 135 129 120
-12.21 18.06 -1.86 135 129 120
-12.20 17.99 -1.87 135 129 120
-12.16 17.94 -1.92 135 129 120
-12.16 17.86 -1.93 135 129 120
-12.15 17.79 -1.94 137 131 122
-12.13 17.72 -1.96 137 131 122
-12.13 17.65 -1.97 137 131 122
-12.13 17.57 -1.97 137 131 122
-12.12 17.50 -1.99 137 131 122
-12.11 17.43 -2.01 137 131 122
-12.10 17.35 -2.01 137 131 122
-12.10 17.27 -2.02 137 131 122
-12.09 17.20 -2.02 139 130 122
-12.09 17.12 -2.03 141 132 124
-12.08 17.05 -2.05 141 132 124
-12.08 16.97 -2.04 141 132 124
-12.07 16.89 -2.06 141 132 124
-12.07 16.82 -2.06 141 132 124
-12.05 16.75 -2.08 141 132 124
-12.04 16.68 -2.10 142 133 125
-12.02 16.61 -2.12 143 134 126
-12.01 16.54 -2.14 144 135 127
-11.99 16.48 -2.17 144 135 127
-11.98 16.40 -2.18 144 135 127
-11.97 16.33 -2.19 144 135 127
-11.97 16.25 -2.19 144 135 127
-11.97 16.17 -2.20 144 135 127
-11.95 16.10 -2.22 144 135 127
-11.95 16.02 -2.23 146 137 131
-11.94 15.95 -2.23 146 137 131
-11.94 15.87 -2.24 146 137 131
-11.94 15.79 -2.24 146 137 131
-11.93 15.71 -2.24 146 137 131
-11.93 15.63 -2.24 146 137 131
-11.93 15.55 -2.25 146 137 131
-11.93 15.47 -2.25 146 137 131
-11.93 15.39 -2.25 149 140 134
-11.93 15.31 -2.25 149 140 134
-11.92 15.23 -2.26 149 140 134
-11.92 15.15 -2.27 149 140 134
-11.92 15.07 -2.27 149 140 134
-11.91 15.00 -2.28 149 140 134
-11.91 14.92 -2.28 149 140 134
-11.90 14.85 -2.30 149 140 134
-11.89 14.77 -2.30 148 142 135
-11.88 14.70 -2.32 149 143 136
-11.88 14.62 -2.32 148 144 136
-11.87 14.54 -2.33 148 144 136
-11.87 14.46 -2.33 148 144 136
-11.86 14.38 -2.34 149 145 137
-11.87 14.30 -2.34 150 146 138
-11.86 14.22 -2.34 152 148 140
-11.86 14.14 -2.35 152 148 140
-11.86 14.06 -2.35 152 148 140
-11.86 13.98 -2.35 152 148 140
-11.86 13.90 -2.35 152 148 140
-11.86 13.81 -2.35 152 148 140
-11.86 13.73 -2.34 152 148 140
-11.86 13.65 -2.35 153 149 141
-11.85 13.57 -2.36 153 149 141
-11.85 13.50 -2.36 153 149 141
-11.85 13.42 -2.36 153 149 141
-11.85 13.33 -2.36 153 149 141
-11.85 13.25 -2.36 153 149 141
-11.85 13.17 -2.36 153 149 141
-11.85 13.09 -2.36 153 149 141
-11.84 13.02 -2.38 154 150 142
-11.84 12.93 -2.38 155 151 143
-11.83 12.86 -2.38 156 152 144
-11.83 12.78 -2.39 156 152 144
-11.83 12.70 -2.39 156 152 144
-11.82 12.62 -2.40 156 152 144
-11.83 12.53 -2.39 156 152 144
-11.82 12.46 -2.40 156 152 144
-11.82 12.37 -2.40 157 153 145
-11.82 12.29 -2.40 159 155 147
-11.82 12.21 -2.41 160 154 147
-11.82 12.13 -2.40 160 154 147
-11.81 12.05 -2.41 159 155 147
-11.81 11.97 -2.41 159 155 147
-11.81 11.89 -2.41 159 155 147
-11.82 11.81 -2.41 159 155 147
-11.82 11.72 -2.41 157 156 147
-11.82 11.64 -2.41 158 157 148
-11.82 11.56 -2.41 158 157 148
-11.81 11.48 -2.41 158 157 148
-11.81 11.40 -2.41 157 158 148
-11.81 11.32 -2.42 157 158 148
-11.81 11.24 -2.41 157 158 148
-11.81 11.16 -2.42 157 158 148
-11.81 11.08 -2.42 158 157 150
-11.80 11.00 -2.43 160 159 152
-11.80 10.92 -2.43 157 158 148
-11.79 10.84 -2.44 159 160 150
-11.80 10.76 -2.43 161 160 153
-11.80 10.68 -2.43 161 160 153
-11.79 10.60 -2.44 164 160 154
-11.79 10.51 -2.44 164 160 154
-11.78 10.44 -2.45 166 162 156
-11.79 10.35 -2.45 166 162 156
-11.78 10.28 -2.45 166 162 156
-11.78 10.19 -2.45 166 162 156
-11.78 10.12 -2.46 166 162 156
-11.78 10.03 -2.46 166 162 156
-11.78 9.95 -2.46 166 162 156
-11.78 9.87 -2.46 166 162 156
-11.78 9.78 -2.45 166 162 156
-11.78 9.70 -2.46 167 163 157
-11.78 9.62 -2.45 167 163 157
-11.78 9.54 -2.45 167 163 157
-11.78 9.46 -2.45 167 163 157
-11.78 9.38 -2.46 167 163 157
-11.79 9.29 -2.45 167 163 157
-11.79 9.21 -2.45 168 164 158
-11.78 9.13 -2.45 171 167 161
-11.78 9.05 -2.46 173 169 163
-11.78 8.97 -2.46 173 169 163
-11.78 8.89 -2.45 173 169 163
-11.79 8.80 -2.44 173 169 163
-11.79 8.72 -2.45 173 169 163
-11.79 8.64 -2.44 173 169 163
-11.79 8.55 -2.44 174 170 164
-11.80 8.47 -2.43 173 172 163
-11.80 8.39 -2.43 174 173 164
-11.80 8.31 -2.43 175 171 163
-11.80 8.22 -2.43 175 171 163
-11.80 8.14 -2.43 174 173 164
-11.79 8.06 -2.44 174 173 164
-11.79 7.98 -2.44 174 173 164
-11.79 7.90 -2.44 174 173 164
-11.79 7.82 -2.44 174 173 164
-11.79 7.74 -2.44 174 173 164
-11.79 7.66 -2.44 174 173 164
-11.79 7.57 -2.44 175 174 165
-11.79 7.49 -2.44 176 175 166
-11.79 7.41 -2.44 177 176 167
-11.79 7.33 -2.44 177 176 167
-11.78 7.25 -2.45 177 176 167
-11.79 7.17 -2.45 177 176 167
-11.79 7.08 -2.45 177 176 167
-11.78 7.01 -2.46 180 178 176
-11.78 6.92 -2.45 180 178 176
-11.78 6.84 -2.46 180 178 176
-11.78 6.76 -2.46 180 178 176
-11.78 6.68 -2.46 180 178 176
-11.78 6.60 -2.46 180 178 176
-11.78 6.52 -2.46 181 179 177
-11.78 6.44 -2.46 181 179 177
-11.77 6.36 -2.47 181 179 177
-11.76 6.28 -2.48 181 179 177
-11.77 6.20 -2.48 181 179 177
-11.77 6.11 -2.48 181 179 177
-11.77 6.03 -2.48 181 179 177
-11.76 5.95 -2.48 181 179 177
-11.76 5.87 -2.49 182 180 178
-11.76 5.79 -2.49 182 180 178
-11.75 5.71 -2.50 181 181 178
-11.75 5.63 -2.50 181 181 178
-11.75 5.55 -2.50 181 181 176
-11.74 5.47 -2.51 181 181 176
-11.75 5.39 -2.51 181 181 176
-11.75 5.30 -2.51 181 181 176
-11.75 5.22 -2.51 181 181 176
-11.75 5.14 -2.51 181 181 176
-11.74 5.06 -2.51 181 181 176
-11.74 4.98 -2.51 180 180 175
-11.74 4.90 -2.52 180 180 175
-11.74 4.82 -2.51 180 180 175
-11.73 4.74 -2.52 180 180 175
-11.74 4.65 -2.52 180 180 175
-11.73 4.57 -2.53 180 180 175
-11.73 4.49 -2.52 180 180 175
-11.73 4.41 -2.52 180 181 173
-11.73 4.33 -2.52 180 181 173
-11.73 4.25 -2.52 179 179 174
-11.74 4.16 -2.52 178 178 173
-11.73 4.08 -2.52 178 178 173
-11.73 4.00 -2.52 178 178 173
-11.73 3.92 -2.52 178 178 173
-11.73 3.84 -2.53 178 178 173
-11.73 3.76 -2.53 178 178 173
-11.72 3.68 -2.54 178 178 173
-11.73 3.59 -2.53 176 176 171
-11.73 3.51 -2.53 175 175 170
-11.72 3.43 -2.54 175 175 170
-11.73 3.35 -2.53 175 175 170
-11.73 3.27 -2.53 175 175 170
-11.72 3.19 -2.55 175 175 170
-11.73 3.10 -2.53 174 174 169
-11.73 3.02 -2.53 174 174 169
-11.73 2.94 -2.53 174 174 169
-11.73 2.85 -2.52 174 174 169
-11.73 2.77 -2.52 174 174 169
-11.73 2.69 -2.52 174 174 169
-11.73 2.61 -2.52 174 174 169
-11.74 2.52 -2.51 174 174 169
-11.74 2.44 -2.52 173 173 168
-11.75 2.36 -2.51 173 173 168
-11.74 2.28 -2.51 173 173 168
-11.74 2.20 -2.51 173 173 168
-11.74 2.11 -2.51 173 173 168
-11.75 2.03 -2.51 173 173 168
-11.75 1.95 -2.50 173 173 168
-11.75 1.86 -2.50 173 173 168
-11.75 1.78 -2.50 172 172 167
-11.76 1.70 -2.49 172 172 167
-11.76 1.62 -2.49 172 172 167
-11.76 1.53 -2.49 172 172 167
-11.76 1.45 -2.48 172 172 167
-11.76 1.37 -2.49 172 172 167
-11.76 1.29 -2.49 172 172 167
-11.76 1.21 -2.49 172 172 167
-11.76 1.12 -2.48 172 172 167
-11.76 1.04 -2.48 172 172 167
-11.77 0.96 -2.47 172 172 167
-11.77 0.88 -2.47 172 172 167
-11.78 0.79 -2.46 172 172 167
-11.78 0.71 -2.46 172 172 167
-11.78 0.63 -2.46 172 172 167
-11.78 0.55 -2.45 172 172 167
-11.79 0.46 -2.45 172 172 169
-11.79 0.38 -2.44 172 172 169
-11.79 0.30 -2.45 172 172 169
-11.79 0.22 -2.44 172 172 169
-11.80 0.13 -2.43 172 172 169
-11.80 0.05 -2.43 172 172 169
-11.81 -0.03 -2.42 172 172 169
-11.80 -0.11 -2.43 172 172 169
-11.81 -0.20 -2.42 172 172 169
-11.80 -0.28 -2.43 172 172 169
-11.81 -0.36 -2.41 172 172 169
-11.81 -0.44 -2.41 172 172 169
-11.82 -0.53 -2.40 172 172 169
-11.82 -0.61 -2.40 172 172 169
-11.82 -0.69 -2.40 172 172 169
-11.83 -0.77 -2.39 172 172 169
-11.83 -0.86 -2.39 167 172 166
-11.84 -0.94 -2.38 167 172 166
-11.84 -1.02 -2.38 167 172 166
-11.83 -1.10 -2.38 167 172 166
-11.84 -1.19 -2.37 167 172 166
-11.85 -1.27 -2.36 167 172 166
-11.85 -1.35 -2.36 167 172 166
-11.85 -1.43 -2.36 167 172 166
-11.85 -1.51 -2.36 168 173 167
-11.86 -1.60 -2.35 168 173 167
-11.86 -1.68 -2.35 168 173 167
-11.85 -1.76 -2.36 168 173 167
-11.86 -1.84 -2.35 168 173 167
-11.85 -1.92 -2.36 168 173 167
-11.85 -2.00 -2.36 168 173 167
-11.86 -2.09 -2.35 168 173 167
-11.86 -2.17 -2.35 171 173 168
-11.86 -2.25 -2.35 171 173 168
-11.86 -2.33 -2.35 171 173 168
-11.86 -2.41 -2.35 171 173 168
-11.86 -2.49 -2.35 171 173 168
-11.86 -2.57 -2.35 171 173 168
-11.85 -2.66 -2.36 171 173 168
-11.85 -2.74 -2.36 172 174 169
-11.85 -2.82 -2.36 173 175 170
-11.85 -2.90 -2.36 173 175 170
-11.85 -2.98 -2.36 173 175 170
-11.85 -3.06 -2.36 173 175 170
-11.85 -3.14 -2.36 173 175 170
-11.85 -3.23 -2.36 173 175 170
-11.85 -3.31 -2.36 173 175 172
-11.86 -3.39 -2.35 173 175 172
-11.86 -3.47 -2.35 171 176 175
-11.86 -3.55 -2.35 171 176 175
-11.86 -3.63 -2.35 171 176 175
-11.86 -3.72 -2.34 171 176 175
-11.87 -3.80 -2.33 171 176 175
-11.86 -3.88 -2.34 171 176 175
-11.87 -3.96 -2.33 171 176 175
-11.87 -4.04 -2.33 171 176 175
-11.87 -4.13 -2.33 172 177 176
-11.87 -4.21 -2.34 172 177 176
-11.87 -4.29 -2.33 172 177 176
-11.87 -4.37 -2.33 172 177 176
-11.87 -4.45 -2.33 172 177 176
-11.87 -4.53 -2.34 172 177 176
-11.86 -4.61 -2.35 172 177 176
-11.85 -4.69 -2.36 172 177 176
-11.85 -4.78 -2.36 172 177 176
-11.85 -4.86 -2.36 172 177 176
-11.84 -4.94 -2.37 172 177 176
-11.84 -5.02 -2.37 172 177 176
-11.84 -5.10 -2.38 172 177 176
-11.84 -5.18 -2.38 172 177 176
