ply
format ascii 1.0
element vertex 1580
property float x
property float y
property float z
property uchar red
property uchar green
property uchar blue
end_header
-3.95 7.13 -4.95 169 172 164
-3.95 7.03 -4.94 169 172 164
-3.95 6.94 -4.95 169 172 164
-3.95 6.84 -4.95 169 172 164
-3.95 6.74 -4.95 169 172 164
-3.95 6.65 -4.95 169 172 164
-3.94 6.55 -4.96 172 173 165
-3.94 6.46 -4.97 172 173 165
-3.94 6.36 -4.96 172 173 165
-3.94 6.26 -4.97 172 173 165
-3.94 6.17 -4.96 172 173 165
-3.95 6.07 -4.95 172 173 165
-3.95 5.97 -4.95 172 173 165
-3.96 5.87 -4.94 172 173 165
-3.96 5.77 -4.94 172 173 165
-3.96 5.68 -4.94 172 173 165
-3.95 5.58 -4.94 172 173 165
-3.95 5.49 -4.95 172 173 165
-3.96 5.39 -4.94 172 173 165
-3.96 5.29 -4.94 172 173 165
-3.96 5.19 -4.94 172 173 165
-3.95 5.10 -4.95 173 174 166
-3.95 5.00 -4.95 173 174 166
-3.95 4.91 -4.95 173 174 166
-3.94 4.81 -4.96 173 174 166
-3.95 4.71 -4.95 173 174 166
-3.95 4.62 -4.95 173 174 166
-3.94 4.52 -4.96 173 174 166
-3.94 4.42 -4.96 173 174 166
-3.95 4.33 -4.95 173 174 166
-3.94 4.23 -4.96 173 174 166
-3.94 4.13 -4.97 173 174 166
-3.94 4.04 -4.97 173 174 166
-3.94 3.94 -4.96 173 174 166
-3.94 3.84 -4.96 173 174 166
-3.94 3.75 -4.97 173 174 166
-3.94 3.65 -4.96 173 174 166
-3.94 3.55 -4.96 173 174 166
-3.94 3.46 -4.96 171 173 168
-3.94 3.36 -4.96 171 173 168
-3.94 3.26 -4.96 171 173 168
-3.93 3.17 -4.97 171 173 168
-3.93 3.07 -4.97 171 173 168
-3.93 2.97 -4.97 171 173 168
-3.92 2.88 -4.98 171 173 168
-3.92 2.78 -4.98 171 173 168
-3.91 2.69 -4.99 171 173 168
-3.92 2.59 -4.99 171 173 168
-3.92 2.49 -4.99 171 173 168
-3.92 2.40 -4.99 171 173 168
-3.93 2.30 -4.98 171 173 168
-3.92 2.20 -4.98 171 173 168
-3.93 2.10 -4.97 171 173 168
-3.93 2.01 -4.98 171 173 168
-3.93 1.91 -4.98 171 176 172
-3.93 1.81 -4.98 171 176 172
-3.93 1.72 -4.97 171 176 172
-3.93 1.62 -4.98 171 176 172
-3.93 1.52 -4.97 171 176 172
-3.93 1.43 -4.97 171 176 172
-3.93 1.33 -4.97 171 176 172
-3.94 1.23 -4.97 171 176 172
-3.93 1.13 -4.97 171 176 172
-3.92 1.04 -4.98 171 176 172
-3.92 0.94 -4.98 171 176 172
-3.92 0.85 -4.98 171 176 172
-3.93 0.75 -4.98 171 176 172
-3.93 0.65 -4.97 171 176 172
-3.93 0.55 -4.97 171 176 172
-3.92 0.46 -4.98 171 176 172
-3.92 0.36 -4.99 170 175 169
-3.92 0.27 -4.99 170 175 169
-3.91 0.17 -4.99 170 175 169
-3.91 0.08 -5.00 170 175 169
-3.90 -0.02 -5.00 171 178 171
-3.91 -0.12 -5.00 171 178 171
-3.91 -0.22 -5.00 171 178 171
-3.91 -0.31 -5.00 171 178 171
-3.91 -0.41 -5.00 171 178 171
-3.91 -0.51 -5.00 171 178 171
-3.91 -0.60 -5.00 171 178 171
-3.91 -0.70 -5.00 171 178 171
-3.91 -0.80 -4.99 173 180 173
-3.91 -0.89 -5.00 173 180 173
-3.91 -0.99 -5.00 173 180 173
-3.90 -1.09 -5.01 173 180 173
-3.90 -1.18 -5.00 171 181 173
-3.89 -1.28 -5.02 171 181 173
-3.90 -1.38 -5.01 171 181 173
-3.89 -1.47 -5.02 171 181 173
-3.89 -1.57 -5.02 171 181 173
-3.89 -1.67 -5.02 171 181 173
-3.88 -1.76 -5.03 171 181 173
-3.88 -1.86 -5.03 171 181 173
-3.88 -1.95 -5.04 171 181 173
-3.88 -2.05 -5.03 172 182 174
-3.87 -2.15 -5.04 172 182 174
-3.88 -2.25 -5.04 172 182 174
-3.88 -2.34 -5.03 172 182 174
-3.87 -2.44 -5.04 172 182 174
-3.88 -2.54 -5.03 172 182 174
-3.88 -2.63 -5.03 172 182 174
-3.88 -2.73 -5.03 172 182 174
-3.88 -2.83 -5.03 172 182 174
-3.88 -2.92 -5.03 172 182 174
-3.88 -3.02 -5.03 171 181 173
-3.88 -3.12 -5.03 174 181 174
-3.88 -3.22 -5.03 174 181 174
-3.88 -3.31 -5.03 174 181 174
-3.88 -3.41 -5.04 175 182 175
-3.87 -3.51 -5.04 175 182 175
-3.87 -3.60 -5.05 175 182 175
-3.87 -3.70 -5.05 175 182 175
-3.86 -3.80 -5.05 175 182 175
-3.85 -3.89 -5.06 175 182 175
-3.85 -3.99 -5.06 175 182 175
-3.85 -4.09 -5.07 175 182 175
-3.85 -4.18 -5.06 175 182 175
-3.85 -4.28 -5.07 175 182 177
-3.85 -4.38 -5.07 175 182 177
-3.83 -4.47 -5.09 174 184 176
-3.83 -4.57 -5.09 174 184 176
-3.83 -4.67 -5.09 174 184 176
-3.83 -4.76 -5.08 174 184 176
-3.83 -4.86 -5.08 174 184 176
-3.82 -4.96 -5.10 174 184 176
-3.81 -5.05 -5.11 174 184 176
-3.80 -5.15 -5.12 174 184 176
-3.80 -5.25 -5.12 175 185 177
-3.81 -5.34 -5.12 175 185 177
-3.80 -5.44 -5.12 175 185 177
-3.80 -5.54 -5.12 175 185 177
-3.79 -5.63 -5.14 175 185 177
-3.80 -5.73 -5.12 175 185 177
-3.79 -5.83 -5.13 175 185 177
-3.80 -5.93 -5.12 175 185 177
-3.80 -6.02 -5.13 175 185 177
-3.80 -6.12 -5.12 175 185 177
-3.80 -6.22 -5.12 178 188 182
-3.80 -6.32 -5.12 178 188 182
-3.81 -6.41 -5.12 178 188 182
-3.80 -6.51 -5.13 178 188 182
-3.80 -6.61 -5.12 178 188 182
-3.80 -6.70 -5.13 178 188 182
-3.80 -6.80 -5.12 178 188 182
-3.79 -6.90 -5.13 178 188 182
-3.79 -7.00 -5.14 178 188 182
-3.79 -7.09 -5.14 178 188 182
-3.77 -7.19 -5.16 178 188 182
-3.77 -7.29 -5.16 178 188 182
-3.76 -7.38 -5.17 178 188 182
-3.75 -7.48 -5.18 178 188 182
-3.75 -7.58 -5.18 178 188 182
-3.74 -7.68 -5.20 179 189 183
-3.73 -7.77 -5.20 179 189 183
-3.73 -7.87 -5.20 179 189 183
-3.73 -7.97 -5.20 179 189 183
-3.73 -8.07 -5.20 179 189 183
-3.73 -8.16 -5.21 179 189 183
-3.73 -8.26 -5.20 179 189 183
-3.73 -8.36 -5.20 179 189 183
-3.73 -8.46 -5.20 180 190 184
-3.73 -8.55 -5.20 180 190 184
-3.74 -8.65 -5.20 180 190 184
-3.73 -8.75 -5.20 180 190 184
-3.74 -8.84 -5.19 180 190 184
-3.73 -8.94 -5.20 180 192 188
-3.73 -9.04 -5.21 180 192 188
-3.72 -9.14 -5.21 180 192 188
-3.72 -9.23 -5.21 181 193 189
-3.73 -9.33 -5.21 182 194 190
-3.72 -9.43 -5.21 182 194 190
-3.73 -9.53 -5.21 182 194 190
-3.72 -9.62 -5.21 182 194 190
-3.73 -9.72 -5.21 182 194 190
-3.72 -9.82 -5.22 182 194 190
-3.72 -9.92 -5.22 182 194 190
-3.72 -10.01 -5.22 184 196 192
-3.71 -10.11 -5.22 184 195 194
-3.71 -10.21 -5.23 184 195 194
-3.71 -10.31 -5.23 186 195 195
-3.70 -10.40 -5.23 186 195 195
-3.69 -10.50 -5.25 188 195 193
-3.68 -10.60 -5.26 188 195 193
-3.68 -10.70 -5.26 188 195 193
-3.68 -10.80 -5.26 188 195 193
-3.68 -10.89 -5.27 188 195 193
-3.67 -10.99 -5.27 188 195 193
-3.66 -11.09 -5.28 188 195 193
-3.65 -11.19 -5.29 189 196 194
-3.65 -11.29 -5.30 190 197 195
-3.63 -11.39 -5.32 190 197 195
-3.62 -11.49 -5.33 190 197 195
-3.62 -11.58 -5.33 190 197 195
-3.60 -11.68 -5.35 190 197 195
-3.60 -11.78 -5.35 190 197 195
-3.60 -11.88 -5.36 188 198 195
-3.59 -11.98 -5.37 188 198 195
-3.58 -12.08 -5.38 187 199 195
-3.57 -12.18 -5.39 188 200 196
-3.56 -12.28 -5.40 189 201 197
-3.56 -12.37 -5.40 189 201 197
-3.56 -12.47 -5.40 191 203 199
-3.55 -12.57 -5.41 191 203 199
-3.55 -12.67 -5.41 191 203 199
-3.57 -12.76 -5.39 191 203 199
-3.56 -12.86 -5.40 191 203 199
-3.56 -12.96 -5.40 192 204 200
-3.56 -13.06 -5.40 193 205 201
-3.57 -13.15 -5.39 193 205 201
-3.57 -13.25 -5.39 194 206 202
-3.58 -13.35 -5.38 194 206 202
-3.58 -13.45 -5.38 195 205 199
-3.57 -13.54 -5.38 195 205 199
-3.57 -13.64 -5.38 194 204 198
-3.57 -13.74 -5.39 194 204 198
-3.57 -13.84 -5.39 194 204 198
-3.57 -13.94 -5.39 195 205 199
-3.57 -14.03 -5.39 196 206 200
-3.57 -14.13 -5.39 196 206 200
-3.57 -14.23 -5.39 196 206 200
-3.56 -14.33 -5.40 196 206 200
-3.57 -14.43 -5.39 196 206 200
-3.56 -14.52 -5.40 196 206 200
-3.57 -14.62 -5.39 197 207 201
-3.57 -14.72 -5.39 199 209 203
-3.57 -14.82 -5.39 199 209 203
-3.57 -14.91 -5.39 199 209 203
-3.57 -15.01 -5.39 203 208 202
-3.56 -15.11 -5.40 203 208 202
-3.55 -15.21 -5.41 202 208 199
-3.55 -15.31 -5.41 202 208 199
-3.56 -15.41 -5.40 202 208 199
-3.57 -15.50 -5.39 202 208 199
-3.59 -15.59 -5.37 202 208 199
-3.60 -15.69 -5.35 202 208 199
-3.61 -15.78 -5.34 202 208 197
-3.63 -15.88 -5.32 202 208 197
-3.64 -15.97 -5.31 206 212 201
-3.67 -16.06 -5.27 202 208 197
-3.68 -16.16 -5.26 200 206 195
-3.72 -16.25 -5.22 197 203 192
-3.74 -16.34 -5.19 193 198 194
-3.74 -16.44 -5.19 196 201 197
-3.75 -16.53 -5.18 192 197 196
-3.77 -16.62 -5.16 182 187 186
-3.71 -16.74 -5.22 183 190 172
-3.71 -16.83 -5.22 202 209 191
-4.87 -16.62 -3.88 182 182 148
-5.95 -16.43 -2.64 167 167 133
-5.84 -16.55 -2.76 226 220 174
-5.70 -16.68 -2.93 241 235 189
-5.82 -16.74 -2.79 232 224 170
-6.25 -16.71 -2.29 241 233 179
-6.61 -16.70 -1.88 243 221 172
-6.72 -16.76 -1.75 186 164 115
-6.76 -16.84 -1.69 203 164 125
-6.84 -16.90 -1.60 212 173 134
-6.91 -16.98 -1.53 210 172 137
-6.94 -17.06 -1.49 205 167 132
-6.96 -17.14 -1.47 193 174 139
-6.99 -17.22 -1.43 185 166 131
-7.04 -17.29 -1.37 169 165 155
-7.09 -17.36 -1.31 176 172 162
-7.14 -17.44 -1.26 209 205 197
-7.19 -17.51 -1.20 195 191 183
-7.25 -17.58 -1.13 197 197 183
-7.29 -17.65 -1.08 191 191 177
-7.34 -17.72 -1.02 181 179 175
-7.39 -17.80 -0.97 205 203 199
-7.44 -17.87 -0.91 239 237 235
-7.48 -17.94 -0.87 250 248 246
-7.51 -18.02 -0.82 180 179 172
-7.56 -18.09 -0.77 193 192 185
-7.60 -18.16 -0.72 192 189 174
-7.64 -18.24 -0.68 178 175 160
-7.67 -18.31 -0.65 149 147 125
-7.68 -18.40 -0.63 156 154 132
-7.70 -18.48 -0.61 160 141 102
-7.71 -18.56 -0.60 155 136 97
-7.74 -18.64 -0.57 171 159 129
-7.74 -18.72 -0.56 189 177 147
-7.75 -18.81 -0.55 178 176 158
-7.78 -18.88 -0.52 226 224 206
-7.81 -18.96 -0.48 230 231 223
-7.82 -19.04 -0.47 231 232 224
-7.82 -19.13 -0.48 200 200 195
-7.72 -19.25 -0.58 182 182 177
-7.61 -19.38 -0.72 166 166 163
-7.29 -19.58 -1.08 201 201 198
-6.69 -19.90 -1.77 223 228 227
-5.96 -20.27 -2.63 231 236 235
-5.27 -20.62 -3.42 214 218 220
-4.73 -20.92 -4.05 200 204 206
-4.46 -21.12 -4.36 214 216 213
-4.50 -21.20 -4.31 222 224 221
-4.51 -21.29 -4.30 218 220 217
-4.49 -21.40 -4.33 227 229 226
-4.48 -21.49 -4.33 225 227 224
-4.46 -21.60 -4.36 216 218 215
-4.47 -21.69 -4.34 225 227 224
-4.48 -21.78 -4.34 222 224 221
-4.47 -21.88 -4.34 223 225 222
-4.46 -21.98 -4.36 223 225 222
-4.44 -22.08 -4.38 223 225 222
-4.43 -22.18 -4.40 223 225 222
-4.43 -22.28 -4.39 223 225 222
-4.42 -22.38 -4.41 223 225 222
-4.41 -22.48 -4.42 223 225 222
-4.40 -22.58 -4.42 223 225 222
-4.41 -22.67 -4.42 227 229 226
-4.42 -22.76 -4.41 227 229 226
-4.42 -22.86 -4.40 227 229 226
-4.43 -22.95 -4.40 227 229 226
-4.43 -23.04 -4.40 227 229 226
-4.43 -23.14 -4.40 227 229 226
-4.43 -23.23 -4.40 227 229 226
-4.43 -23.33 -4.40 227 229 226
-4.42 -23.43 -4.41 229 231 228
-4.42 -23.52 -4.41 229 231 228
-4.42 -23.62 -4.40 229 231 228
-4.42 -23.72 -4.41 229 231 228
-4.41 -23.82 -4.42 229 231 228
-4.42 -23.91 -4.41 229 231 228
-4.42 -24.00 -4.41 229 231 228
-4.43 -24.09 -4.40 229 231 228
-4.43 -24.19 -4.39 228 230 227
-4.42 -24.29 -4.40 228 230 227
-4.41 -24.39 -4.42 228 230 227
-4.40 -24.49 -4.43 228 230 227
-4.41 -24.58 -4.41 228 230 227
-4.42 -24.67 -4.41 228 230 227
-4.42 -24.77 -4.41 228 230 227
-4.41 -24.86 -4.41 229 231 228
-4.40 -24.97 -4.43 230 232 229
-4.41 -25.06 -4.42 230 232 229
-4.41 -25.15 -4.42 230 232 229
-4.43 -25.24 -4.40 230 232 229
-4.43 -25.33 -4.39 230 232 229
-4.44 -25.43 -4.39 230 232 229
-4.44 -25.52 -4.39 230 232 229
-4.45 -25.61 -4.38 230 232 229
-4.45 -25.70 -4.37 230 232 229
-4.44 -25.80 -4.38 230 232 229
-4.46 -25.89 -4.36 230 232 229
-4.45 -25.99 -4.37 230 232 229
-4.46 -26.08 -4.36 230 232 229
-4.47 -26.17 -4.35 230 232 229
-4.47 -26.27 -4.35 230 232 229
-4.48 -26.36 -4.34 230 232 229
-4.47 -26.46 -4.35 230 232 229
-4.47 -26.55 -4.35 230 232 229
-4.47 -26.65 -4.35 230 232 229
-4.48 -26.74 -4.34 230 232 229
-4.48 -26.83 -4.33 230 232 229
-4.49 -26.93 -4.33 230 232 229
-4.50 -27.01 -4.32 230 232 229
-4.50 -27.11 -4.32 230 232 229
-4.50 -27.20 -4.31 230 232 229
-4.51 -27.29 -4.30 230 232 229
-4.51 -27.39 -4.30 230 232 229
-4.52 -27.48 -4.28 230 232 229
-4.53 -27.57 -4.28 230 232 229
-4.53 -27.66 -4.28 230 232 229
-4.53 -27.76 -4.28 230 232 229
-4.53 -27.85 -4.28 230 232 229
-4.53 -27.95 -4.28 230 232 229
-4.53 -28.04 -4.28 230 232 229
-4.54 -28.13 -4.27 230 232 229
-4.54 -28.23 -4.27 230 232 229
-4.55 -28.32 -4.26 230 232 229
-4.55 -28.41 -4.25 230 232 229
-4.55 -28.51 -4.25 230 232 229
-4.56 -28.59 -4.24 230 232 229
-4.56 -28.69 -4.24 230 232 229
-4.56 -28.78 -4.24 230 232 229
-4.56 -28.88 -4.24 230 232 229
-4.56 -28.97 -4.24 230 232 229
-4.57 -29.07 -4.23 230 232 229
-4.58 -29.16 -4.22 230 232 229
-4.57 -29.26 -4.23 230 232 229
-4.58 -29.35 -4.22 230 232 229
-4.59 -29.44 -4.21 230 232 229
-4.59 -29.53 -4.21 230 232 229
-4.60 -29.62 -4.20 230 232 229
-4.60 -29.72 -4.20 230 232 229
-4.61 -29.80 -4.18 230 232 229
-4.62 -29.89 -4.18 230 232 229
-4.63 -29.98 -4.17 230 232 229
-4.64 -30.07 -4.15 230 232 229
-4.64 -30.16 -4.15 230 232 229
-4.65 -30.25 -4.13 230 232 229
-4.66 -30.34 -4.13 230 232 229
-4.66 -30.43 -4.13 230 232 229
-4.66 -30.53 -4.13 230 232 229
-4.67 -30.62 -4.12 230 232 229
-4.67 -30.71 -4.11 230 232 229
-4.66 -30.81 -4.12 230 232 229
-4.67 -30.90 -4.12 230 232 229
-4.67 -31.00 -4.12 230 232 229
-4.67 -31.09 -4.12 230 232 229
-4.68 -31.18 -4.11 232 234 231
-4.67 -31.28 -4.11 233 235 232
-4.67 -31.37 -4.11 234 236 233
-4.68 -31.46 -4.10 234 236 233
-4.69 -31.55 -4.10 234 236 233
-4.69 -31.65 -4.09 232 237 233
-4.69 -31.74 -4.09 232 237 233
-4.70 -31.83 -4.08 233 238 234
-4.70 -31.92 -4.08 233 238 234
-4.70 -32.02 -4.08 234 239 235
-4.71 -32.11 -4.07 234 239 235
-4.71 -32.20 -4.07 237 242 238
-4.71 -32.30 -4.07 238 243 239
-4.72 -32.39 -4.06 238 243 239
-4.72 -32.48 -4.06 238 243 239
-4.72 -32.57 -4.05 238 243 239
-4.73 -32.66 -4.05 238 243 239
-4.73 -32.76 -4.05 238 243 239
-4.73 -32.85 -4.05 238 243 239
-4.74 -32.94 -4.04 240 242 239
-4.75 -33.03 -4.03 241 243 240
-4.75 -33.11 -4.02 241 243 240
-4.74 -33.22 -4.03 241 243 240
-4.75 -33.31 -4.02 241 243 240
-4.75 -33.40 -4.03 241 243 240
-4.75 -33.50 -4.02 241 243 240
-4.76 -33.59 -4.02 241 243 240
-4.76 -33.68 -4.01 242 244 241
-4.76 -33.77 -4.01 242 244 241
-4.75 -33.87 -4.02 242 244 241
-4.76 -33.96 -4.01 242 244 241
-4.75 -34.06 -4.02 242 244 241
-4.76 -34.15 -4.01 242 244 241
-4.76 -34.24 -4.01 242 244 241
-4.76 -34.34 -4.01 242 244 241
-4.76 -34.43 -4.01 242 244 241
-4.76 -34.53 -4.02 242 244 241
-4.76 -34.62 -4.01 242 244 241
-4.76 -34.72 -4.02 242 244 241
-4.77 -34.81 -4.00 242 244 241
-4.78 -34.90 -3.99 242 244 241
-4.78 -34.99 -3.99 242 244 241
-4.78 -35.08 -3.99 242 244 241
-4.77 -35.18 -4.00 242 244 241
-4.77 -35.28 -4.00 243 245 242
-4.76 -35.38 -4.01 243 245 242
-4.77 -35.47 -4.00 243 245 242
-4.77 -35.56 -4.00 243 245 242
-4.78 -35.65 -3.99 243 245 242
-4.79 -35.74 -3.98 243 245 242
-4.80 -35.82 -3.96 243 245 242
-4.83 -35.90 -3.94 245 245 242
-4.83 -35.98 -3.93 244 244 241
-4.84 -36.07 -3.92 245 245 242
-4.90 -36.12 -3.86 243 243 240
-4.86 -36.24 -3.89 242 242 239
-4.96 -36.25 -3.78 243 243 240
-4.81 -36.48 -3.96 251 249 247
-5.36 -36.11 -3.32 235 233 231
-4.82 22.87 -4.07 142 133 125
-4.76 22.83 -4.15 142 133 125
-4.78 22.72 -4.13 142 133 125
-4.76 22.64 -4.15 142 133 125
-4.78 22.53 -4.13 142 133 125
-4.80 22.42 -4.11 142 133 125
-4.77 22.34 -4.13 142 133 125
-4.77 22.25 -4.14 142 133 125
-4.76 22.16 -4.14 142 133 125
-4.76 22.07 -4.14 142 133 125
-4.77 21.97 -4.14 142 133 125
-4.76 21.88 -4.15 142 133 125
-4.75 21.80 -4.16 142 133 125
-4.73 21.71 -4.18 142 133 125
-4.74 21.62 -4.18 142 133 125
-4.71 21.54 -4.20 142 133 125
-4.71 21.45 -4.20 144 135 127
-4.70 21.36 -4.22 144 135 127
-4.69 21.27 -4.22 144 135 127
-4.69 21.18 -4.23 144 135 127
-4.69 21.08 -4.23 145 136 128
-4.68 21.00 -4.24 145 136 128
-4.68 20.90 -4.24 146 137 129
-4.68 20.81 -4.24 148 139 131
-4.66 20.73 -4.26 148 139 131
-4.66 20.64 -4.27 148 139 131
-4.65 20.55 -4.28 148 139 131
-4.65 20.45 -4.28 148 139 131
-4.64 20.36 -4.29 148 139 131
-4.64 20.27 -4.29 148 139 131
-4.63 20.18 -4.30 147 141 134
-4.62 20.09 -4.31 147 141 134
-4.62 20.00 -4.31 146 142 134
-4.61 19.91 -4.32 146 142 134
-4.60 19.82 -4.33 146 142 134
-4.60 19.73 -4.34 146 142 134
-4.59 19.65 -4.35 146 142 134
-4.58 19.55 -4.35 146 142 134
-4.57 19.47 -4.37 147 143 135
-4.56 19.38 -4.37 148 144 136
-4.55 19.29 -4.39 148 144 136
-4.55 19.20 -4.39 148 144 136
-4.55 19.10 -4.39 148 144 136
-4.54 19.01 -4.40 148 144 136
-4.54 18.92 -4.41 148 144 136
-4.53 18.83 -4.42 148 144 136
-4.53 18.74 -4.42 149 145 137
-4.52 18.65 -4.43 150 146 138
-4.51 18.56 -4.44 150 146 138
-4.51 18.46 -4.44 150 146 138
-4.50 18.38 -4.45 150 146 138
-4.50 18.28 -4.45 150 146 138
-4.49 18.19 -4.46 150 146 138
-4.49 18.10 -4.47 150 146 138
-4.49 18.00 -4.46 150 146 138
-4.48 17.91 -4.47 150 146 138
-4.48 17.82 -4.47 150 146 138
-4.47 17.73 -4.48 152 148 140
-4.48 17.63 -4.48 152 148 140
-4.47 17.54 -4.48 152 148 140
-4.47 17.44 -4.49 152 148 140
-4.46 17.36 -4.50 152 148 140
-4.45 17.27 -4.51 152 148 140
-4.45 17.17 -4.51 152 148 140
-4.44 17.08 -4.52 153 149 139
-4.43 16.99 -4.53 153 149 139
-4.43 16.90 -4.54 153 149 139
-4.42 16.81 -4.54 153 149 139
-4.43 16.71 -4.53 153 149 139
-4.42 16.62 -4.54 153 149 139
-4.42 16.52 -4.54 153 149 139
-4.41 16.43 -4.55 153 149 139
-4.40 16.34 -4.56 154 150 140
-4.41 16.24 -4.55 154 150 140
-4.39 16.16 -4.58 154 150 140
-4.39 16.06 -4.58 154 150 140
-4.38 15.97 -4.58 154 150 140
-4.38 15.88 -4.59 154 150 140
-4.37 15.79 -4.60 154 150 140
-4.36 15.70 -4.61 154 150 140
-4.35 15.61 -4.62 154 150 140
-4.35 15.52 -4.63 155 151 141
-4.34 15.42 -4.63 156 152 144
-4.34 15.33 -4.64 156 152 144
-4.34 15.23 -4.63 156 152 144
-4.34 15.14 -4.64 156 152 144
-4.33 15.05 -4.64 156 152 144
-4.33 14.95 -4.64 156 152 144
-4.34 14.85 -4.64 156 152 144
-4.33 14.76 -4.65 157 153 145
-4.33 14.67 -4.65 159 155 147
-4.33 14.57 -4.65 159 155 147
-4.33 14.47 -4.65 159 155 147
-4.33 14.38 -4.65 159 155 147
-4.33 14.28 -4.65 159 155 147
-4.33 14.19 -4.65 159 155 147
-4.32 14.10 -4.66 160 156 148
-4.33 14.00 -4.65 160 156 148
-4.32 13.91 -4.66 160 156 148
-4.31 13.81 -4.67 160 156 148
-4.31 13.72 -4.67 160 156 148
-4.30 13.63 -4.68 160 156 148
-4.31 13.53 -4.67 160 156 148
-4.30 13.43 -4.68 160 156 148
-4.30 13.34 -4.68 160 156 148
-4.30 13.25 -4.68 160 156 148
-4.30 13.15 -4.69 160 156 148
-4.30 13.05 -4.69 161 157 149
-4.30 12.96 -4.68 161 157 149
-4.30 12.86 -4.68 161 157 149
-4.30 12.77 -4.69 161 157 149
-4.29 12.67 -4.69 161 157 149
-4.30 12.57 -4.68 160 159 150
-4.29 12.48 -4.69 161 160 151
-4.29 12.39 -4.70 162 161 152
-4.29 12.29 -4.70 162 161 152
-4.28 12.20 -4.70 164 163 154
-4.28 12.10 -4.71 164 163 154
-4.28 12.01 -4.70 164 163 154
-4.28 11.91 -4.70 164 163 154
-4.27 11.82 -4.72 164 163 154
-4.27 11.72 -4.71 164 163 154
-4.26 11.64 -4.73 164 163 154
-4.25 11.54 -4.74 164 163 154
-4.25 11.45 -4.73 164 165 155
-4.25 11.35 -4.74 164 165 155
-4.25 11.26 -4.74 164 165 155
-4.25 11.16 -4.74 164 165 155
-4.25 11.07 -4.74 164 165 153
-4.25 10.97 -4.74 165 166 154
-4.25 10.87 -4.74 165 166 154
-4.25 10.78 -4.74 165 166 154
-4.25 10.68 -4.74 165 166 154
-4.24 10.59 -4.75 165 166 154
-4.25 10.49 -4.74 165 166 154
-4.25 10.39 -4.74 165 166 154
-4.25 10.30 -4.74 165 166 154
-4.24 10.20 -4.75 166 167 155
-4.23 10.11 -4.76 166 167 155
-4.23 10.02 -4.76 166 167 155
-4.22 9.92 -4.77 166 167 155
-4.21 9.83 -4.78 166 167 155
-4.22 9.73 -4.78 166 167 155
-4.21 9.64 -4.79 166 167 155
-4.21 9.55 -4.79 165 166 156
-4.21 9.45 -4.79 165 166 156
-4.20 9.36 -4.80 165 166 156
-4.20 9.26 -4.79 165 166 156
-4.20 9.17 -4.80 165 166 156
-4.20 9.07 -4.80 166 167 157
-4.19 8.98 -4.81 166 167 157
-4.19 8.88 -4.81 166 167 157
-4.19 8.78 -4.81 167 168 158
-4.19 8.69 -4.81 167 168 158
-4.19 8.59 -4.81 167 168 158
-4.18 8.50 -4.82 167 168 158
-4.18 8.40 -4.82 167 168 158
-4.18 8.31 -4.82 170 171 161
-4.18 8.21 -4.82 168 171 161
-4.18 8.12 -4.82 168 171 161
-4.18 8.02 -4.82 170 171 163
-4.17 7.93 -4.83 170 171 163
-4.17 7.83 -4.83 168 171 163
-4.16 7.74 -4.85 168 171 163
-4.16 7.64 -4.85 168 171 163
-4.15 7.55 -4.86 168 171 163
-4.15 7.45 -4.86 168 171 163
-4.14 7.36 -4.87 168 171 163
-4.13 7.27 -4.88 169 172 164
-4.13 7.17 -4.88 170 173 165
-4.12 7.08 -4.89 170 173 165
-4.12 6.98 -4.89 170 173 165
-4.12 6.89 -4.90 170 173 165
-4.11 6.79 -4.90 170 173 165
-4.11 6.70 -4.90 170 173 165
-4.10 6.61 -4.91 170 173 165
-4.10 6.51 -4.92 172 173 165
-4.10 6.42 -4.92 172 173 165
-4.10 6.32 -4.92 172 173 165
-4.10 6.22 -4.91 172 173 165
-4.11 6.12 -4.90 172 173 165
-4.11 6.03 -4.91 172 173 165
-4.12 5.92 -4.89 172 173 165
-4.11 5.83 -4.90 172 173 165
-4.12 5.73 -4.89 172 173 165
-4.12 5.64 -4.90 172 173 165
-4.12 5.54 -4.89 172 173 165
-4.12 5.44 -4.89 172 173 165
-4.12 5.34 -4.89 172 173 165
-4.12 5.25 -4.90 172 173 165
-4.11 5.15 -4.90 172 173 165
-4.12 5.06 -4.90 173 174 166
-4.11 4.96 -4.90 173 174 166
-4.11 4.87 -4.90 173 174 166
-4.10 4.77 -4.91 173 174 166
-4.11 4.67 -4.91 173 174 166
-4.10 4.58 -4.91 173 174 166
-4.10 4.48 -4.91 173 174 166
-4.10 4.39 -4.92 173 174 166
-4.10 4.29 -4.92 173 174 166
-4.10 4.20 -4.92 173 174 166
-4.09 4.10 -4.93 173 174 166
-4.10 4.00 -4.92 173 174 166
-4.10 3.91 -4.92 173 174 166
-4.10 3.81 -4.91 173 174 166
-4.09 3.71 -4.92 173 174 166
-4.10 3.62 -4.91 173 174 166
-4.09 3.52 -4.92 173 174 166
-4.10 3.42 -4.92 171 173 168
-4.10 3.33 -4.92 171 173 168
-4.09 3.23 -4.93 171 173 168
-4.09 3.14 -4.92 171 173 168
-4.09 3.04 -4.93 171 173 168
-4.10 2.94 -4.92 171 173 168
-4.09 2.85 -4.92 171 173 168
-4.09 2.75 -4.93 171 173 168
-4.08 2.66 -4.94 171 173 168
-4.09 2.56 -4.93 171 173 168
-4.09 2.46 -4.93 171 173 168
-4.08 2.37 -4.93 171 173 168
-4.09 2.27 -4.93 171 173 168
-4.08 2.17 -4.94 171 173 168
-4.09 2.07 -4.92 171 173 168
-4.09 1.98 -4.93 171 173 168
-4.09 1.88 -4.93 170 175 171
-4.08 1.79 -4.93 170 175 171
-4.09 1.69 -4.92 170 175 171
-4.09 1.59 -4.93 170 175 171
-4.09 1.49 -4.92 170 175 171
-4.09 1.40 -4.92 170 175 171
-4.09 1.30 -4.93 170 175 171
-4.10 1.20 -4.92 170 175 171
-4.09 1.11 -4.92 170 175 171
-4.09 1.01 -4.92 170 175 171
-4.09 0.92 -4.92 170 175 171
-4.09 0.82 -4.92 170 175 171
-4.09 0.72 -4.92 170 175 171
-4.08 0.63 -4.93 170 175 171
-4.09 0.53 -4.93 170 175 171
-4.09 0.43 -4.93 170 175 171
-4.08 0.34 -4.94 170 175 169
-4.08 0.24 -4.94 170 175 169
-4.07 0.15 -4.95 170 175 169
-4.07 0.05 -4.95 170 175 169
-4.06 -0.04 -4.96 171 176 170
-4.07 -0.14 -4.95 171 176 170
-4.06 -0.24 -4.96 170 177 170
-4.06 -0.33 -4.96 170 177 170
-4.06 -0.43 -4.96 170 177 170
-4.06 -0.53 -4.96 170 177 170
-4.07 -0.62 -4.95 170 177 170
-4.07 -0.72 -4.95 170 177 170
-4.07 -0.82 -4.95 171 178 171
-4.07 -0.91 -4.95 171 178 171
-4.08 -1.01 -4.94 171 178 171
-4.06 -1.11 -4.96 171 178 171
-4.07 -1.20 -4.95 171 181 173
-4.06 -1.30 -4.96 169 179 171
-4.06 -1.40 -4.96 171 178 171
-4.06 -1.49 -4.97 171 178 171
-4.06 -1.59 -4.97 171 178 171
-4.05 -1.68 -4.97 171 178 171
-4.05 -1.78 -4.97 171 178 171
-4.06 -1.88 -4.97 171 178 171
-4.05 -1.97 -4.97 173 180 173
-4.05 -2.07 -4.97 173 180 173
-4.05 -2.17 -4.97 173 180 173
-4.04 -2.26 -4.98 173 180 173
-4.04 -2.36 -4.98 173 180 173
-4.05 -2.46 -4.98 173 180 173
-4.05 -2.55 -4.97 173 180 173
-4.04 -2.65 -4.99 173 180 173
-4.04 -2.75 -4.98 174 181 174
-4.04 -2.84 -4.98 174 181 174
-4.05 -2.94 -4.97 174 181 174
-4.05 -3.04 -4.98 173 180 173
-4.05 -3.13 -4.97 174 181 174
-4.05 -3.23 -4.97 174 181 174
-4.05 -3.33 -4.98 174 181 174
-4.05 -3.42 -4.97 175 182 175
-4.04 -3.52 -4.98 175 182 175
-4.04 -3.61 -4.99 175 182 175
-4.03 -3.71 -4.99 175 182 175
-4.03 -3.81 -5.00 175 182 175
-4.03 -3.90 -5.00 175 182 175
-4.02 -4.00 -5.01 175 182 175
-4.01 -4.10 -5.02 175 182 175
-4.01 -4.19 -5.02 175 182 175
-4.01 -4.29 -5.02 175 182 177
-4.01 -4.39 -5.02 175 182 177
-3.99 -4.48 -5.04 174 184 176
-3.99 -4.58 -5.04 174 184 176
-3.99 -4.67 -5.05 174 184 176
-3.99 -4.77 -5.05 174 184 176
-3.99 -4.87 -5.04 174 184 176
-3.99 -4.96 -5.05 174 184 176
-3.99 -5.06 -5.04 174 184 176
-3.99 -5.16 -5.05 174 184 176
-3.97 -5.25 -5.06 175 185 177
-3.97 -5.35 -5.06 175 185 177
-3.97 -5.45 -5.06 175 185 177
-3.97 -5.54 -5.06 175 185 177
-3.96 -5.64 -5.07 175 185 177
-3.96 -5.74 -5.07 175 185 177
-3.95 -5.83 -5.09 175 185 177
-3.96 -5.93 -5.08 175 185 177
-3.95 -6.03 -5.08 175 185 177
-3.96 -6.13 -5.08 175 185 177
-3.96 -6.22 -5.08 180 187 182
-3.95 -6.32 -5.08 180 187 182
-3.96 -6.42 -5.07 180 187 182
-3.96 -6.51 -5.08 180 187 182
-3.96 -6.61 -5.07 180 187 182
-3.95 -6.71 -5.09 180 187 182
-3.95 -6.80 -5.09 180 187 182
-3.95 -6.90 -5.09 180 187 182
-3.94 -7.00 -5.10 180 187 182
-3.94 -7.09 -5.10 180 187 182
-3.93 -7.19 -5.11 180 187 182
-3.93 -7.29 -5.11 180 187 182
-3.93 -7.38 -5.12 178 188 182
-3.92 -7.48 -5.13 178 188 182
-3.92 -7.58 -5.13 178 188 182
-3.90 -7.68 -5.14 179 189 183
-3.91 -7.77 -5.14 179 189 183
-3.90 -7.87 -5.15 179 189 183
-3.91 -7.97 -5.14 179 189 183
-3.90 -8.06 -5.15 179 189 183
-3.90 -8.16 -5.15 179 189 183
-3.90 -8.26 -5.15 179 189 183
-3.89 -8.36 -5.16 179 189 183
-3.89 -8.45 -5.15 180 190 184
-3.90 -8.55 -5.15 180 190 184
-3.90 -8.65 -5.15 180 190 184
-3.90 -8.74 -5.15 180 190 184
-3.90 -8.84 -5.15 180 190 184
-3.89 -8.94 -5.16 181 191 185
-3.89 -9.03 -5.16 181 191 185
-3.90 -9.13 -5.15 181 191 185
-3.90 -9.23 -5.15 182 192 186
-3.90 -9.33 -5.15 182 192 186
-3.90 -9.42 -5.15 182 192 186
-3.90 -9.52 -5.15 183 193 187
-3.89 -9.62 -5.16 183 193 187
-3.89 -9.71 -5.15 183 193 187
-3.89 -9.81 -5.15 183 193 187
-3.89 -9.91 -5.15 183 193 187
-3.88 -10.01 -5.17 183 193 187
-3.88 -10.10 -5.17 185 195 192
-3.88 -10.20 -5.17 185 195 192
-3.88 -10.30 -5.17 187 193 194
-3.88 -10.39 -5.17 188 194 195
-3.88 -10.49 -5.18 188 195 193
-3.86 -10.59 -5.19 188 195 193
-3.85 -10.69 -5.20 188 195 193
-3.86 -10.78 -5.20 188 195 193
-3.85 -10.88 -5.20 188 195 193
-3.84 -10.98 -5.21 188 195 193
-3.84 -11.08 -5.22 188 195 193
-3.82 -11.18 -5.24 189 196 194
-3.82 -11.27 -5.24 190 197 195
-3.81 -11.37 -5.25 190 197 195
-3.80 -11.47 -5.26 190 197 195
-3.79 -11.57 -5.27 190 197 195
-3.78 -11.67 -5.28 190 197 195
-3.79 -11.76 -5.28 190 197 195
-3.78 -11.86 -5.28 188 198 195
-3.78 -11.96 -5.29 187 197 194
-3.77 -12.06 -5.30 186 198 194
-3.76 -12.16 -5.30 187 199 195
-3.75 -12.26 -5.32 187 199 195
-3.75 -12.35 -5.32 188 200 196
-3.74 -12.45 -5.33 189 201 197
-3.74 -12.55 -5.33 191 203 199
-3.73 -12.65 -5.34 191 203 199
-3.74 -12.75 -5.33 191 203 199
-3.73 -12.84 -5.34 191 203 199
-3.74 -12.94 -5.33 191 203 199
-3.74 -13.04 -5.34 192 204 200
-3.74 -13.14 -5.34 192 204 200
-3.74 -13.23 -5.33 193 205 201
-3.74 -13.33 -5.33 194 206 202
-3.75 -13.43 -5.32 195 205 199
-3.75 -13.52 -5.32 194 204 198
-3.75 -13.62 -5.32 194 204 198
-3.75 -13.72 -5.32 194 204 198
-3.74 -13.82 -5.34 194 204 198
-3.74 -13.91 -5.33 194 204 198
-3.74 -14.01 -5.33 195 205 199
-3.74 -14.11 -5.33 195 205 199
-3.75 -14.21 -5.32 195 205 199
-3.73 -14.31 -5.34 195 205 199
-3.73 -14.40 -5.34 195 205 199
-3.74 -14.50 -5.34 195 205 199
-3.74 -14.60 -5.34 196 206 200
-3.74 -14.69 -5.33 197 207 201
-3.74 -14.79 -5.33 199 206 201
-3.74 -14.89 -5.34 199 206 201
-3.74 -14.99 -5.33 202 207 201
-3.74 -15.08 -5.33 202 207 201
-3.74 -15.18 -5.33 206 206 201
-3.74 -15.28 -5.33 206 206 201
-3.75 -15.37 -5.32 206 206 203
-3.75 -15.47 -5.32 206 206 203
-3.77 -15.57 -5.30 206 206 203
-3.79 -15.66 -5.28 206 206 203
-3.80 -15.75 -5.26 206 207 199
-3.82 -15.84 -5.24 206 207 199
-3.85 -15.94 -5.21 194 195 183
-3.86 -16.03 -5.19 204 205 193
-3.88 -16.12 -5.17 204 205 195
-3.92 -16.21 -5.13 196 197 187
-3.90 -16.31 -5.14 193 193 193
-3.88 -16.41 -5.17 190 190 190
-3.86 -16.52 -5.20 192 190 200
-3.77 -16.64 -5.29 197 195 205
-3.83 -16.72 -5.23 208 209 199
-4.20 -16.72 -4.80 204 205 195
-5.50 -16.47 -3.29 191 184 145
-6.14 -16.39 -2.55 210 203 164
-5.99 -16.52 -2.71 237 225 170
-6.02 -16.61 -2.69 238 226 171
-6.23 -16.64 -2.44 231 219 151
-6.55 -16.64 -2.07 249 237 169
-6.71 -16.69 -1.88 221 199 136
-6.78 -16.76 -1.80 185 163 100
-6.84 -16.83 -1.73 211 175 126
-6.89 -16.90 -1.68 220 184 135
-6.94 -16.98 -1.62 200 167 117
-6.98 -17.05 -1.57 187 154 104
-7.02 -17.13 -1.53 183 162 121
-7.08 -17.20 -1.46 177 156 115
-7.12 -17.28 -1.41 167 156 137
-7.17 -17.35 -1.35 180 169 150
-7.21 -17.43 -1.31 218 208 196
-7.26 -17.50 -1.24 196 186 174
-7.32 -17.57 -1.18 176 170 163
-7.37 -17.64 -1.12 183 177 170
-7.42 -17.71 -1.06 175 173 174
-7.47 -17.78 -1.00 183 181 182
-7.53 -17.85 -0.93 251 249 247
-7.57 -17.93 -0.88 249 247 245
-7.62 -18.00 -0.83 182 177 165
-7.66 -18.07 -0.78 176 171 159
-7.70 -18.15 -0.74 220 213 186
-7.72 -18.22 -0.71 177 170 143
-7.76 -18.30 -0.66 140 133 92
-7.79 -18.38 -0.64 166 159 118
-7.81 -18.45 -0.61 169 145 92
-7.84 -18.53 -0.57 165 141 88
-7.88 -18.60 -0.53 165 148 113
-7.93 -18.67 -0.47 157 140 105
-7.96 -18.75 -0.43 115 108 88
-7.99 -18.82 -0.40 174 167 147
-7.99 -18.91 -0.40 245 245 229
-8.00 -18.99 -0.39 244 244 228
-8.01 -19.07 -0.38 231 230 221
-8.00 -19.16 -0.39 223 222 213
-8.03 -19.24 -0.35 214 212 213
-8.01 -19.33 -0.38 195 193 194
-7.99 -19.43 -0.40 173 173 173
-7.91 -19.54 -0.49 186 186 186
-7.56 -19.76 -0.89 197 197 192
-6.35 -20.31 -2.30 210 210 205
-5.07 -20.90 -3.79 216 218 215
-4.72 -21.13 -4.19 226 228 225
-4.76 -21.21 -4.15 218 220 217
-4.78 -21.30 -4.13 220 222 219
-4.72 -21.42 -4.20 216 218 215
-4.66 -21.54 -4.27 211 213 210
-4.69 -21.62 -4.23 223 225 222
-4.68 -21.72 -4.24 220 222 219
-4.67 -21.82 -4.25 223 225 222
-4.65 -21.92 -4.28 223 225 222
-4.63 -22.02 -4.30 223 225 222
-4.62 -22.12 -4.31 223 225 222
-4.62 -22.22 -4.31 223 225 222
-4.61 -22.32 -4.33 223 225 222
-4.60 -22.42 -4.33 223 225 222
-4.59 -22.51 -4.34 223 225 222
-4.60 -22.61 -4.34 227 229 226
-4.61 -22.70 -4.33 227 229 226
-4.61 -22.79 -4.32 227 229 226
-4.61 -22.89 -4.33 227 229 226
-4.61 -22.99 -4.33 227 229 226
-4.61 -23.08 -4.32 227 229 226
-4.61 -23.17 -4.32 227 229 226
-4.62 -23.26 -4.31 227 229 226
-4.61 -23.36 -4.32 228 230 227
-4.62 -23.46 -4.31 228 230 227
-4.60 -23.56 -4.33 228 230 227
-4.61 -23.65 -4.32 228 230 227
-4.61 -23.75 -4.33 228 230 227
-4.61 -23.84 -4.32 228 230 227
-4.62 -23.93 -4.31 228 230 227
-4.63 -24.02 -4.30 228 230 227
-4.62 -24.12 -4.31 228 230 227
-4.62 -24.22 -4.31 228 230 227
-4.60 -24.32 -4.33 228 230 227
-4.60 -24.42 -4.33 228 230 227
-4.60 -24.51 -4.33 228 230 227
-4.60 -24.61 -4.33 228 230 227
-4.60 -24.70 -4.33 228 230 227
-4.60 -24.80 -4.33 229 231 228
-4.59 -24.89 -4.34 230 232 229
-4.60 -24.99 -4.34 230 232 229
-4.59 -25.09 -4.34 230 232 229
-4.60 -25.17 -4.33 230 232 229
-4.61 -25.27 -4.32 230 232 229
-4.61 -25.36 -4.32 230 232 229
-4.62 -25.45 -4.31 230 232 229
-4.61 -25.55 -4.32 230 232 229
-4.62 -25.64 -4.31 230 232 229
-4.62 -25.74 -4.31 230 232 229
-4.62 -25.83 -4.31 230 232 229
-4.62 -25.92 -4.31 230 232 229
-4.63 -26.02 -4.30 230 232 229
-4.63 -26.11 -4.30 230 232 229
-4.63 -26.21 -4.30 230 232 229
-4.63 -26.30 -4.30 230 232 229
-4.63 -26.40 -4.30 230 232 229
-4.63 -26.49 -4.30 230 232 229
-4.63 -26.59 -4.30 230 232 229
-4.63 -26.68 -4.30 230 232 229
-4.64 -26.77 -4.28 230 232 229
-4.64 -26.86 -4.28 230 232 229
-4.66 -26.95 -4.26 230 232 229
-4.66 -27.04 -4.26 230 232 229
-4.67 -27.13 -4.25 230 232 229
-4.68 -27.22 -4.24 230 232 229
-4.68 -27.32 -4.24 230 232 229
-4.70 -27.40 -4.22 230 232 229
-4.70 -27.50 -4.22 230 232 229
-4.70 -27.59 -4.22 230 232 229
-4.70 -27.69 -4.22 230 232 229
-4.70 -27.78 -4.22 230 232 229
-4.71 -27.87 -4.21 230 232 229
-4.71 -27.96 -4.20 230 232 229
-4.71 -28.06 -4.21 230 232 229
-4.72 -28.15 -4.20 230 232 229
-4.72 -28.24 -4.19 230 232 229
-4.73 -28.33 -4.18 230 232 229
-4.73 -28.43 -4.18 230 232 229
-4.74 -28.52 -4.18 230 232 229
-4.73 -28.62 -4.18 230 232 229
-4.74 -28.70 -4.17 230 232 229
-4.73 -28.81 -4.18 230 232 229
-4.73 -28.90 -4.18 230 232 229
-4.73 -28.99 -4.18 230 232 229
-4.74 -29.08 -4.17 230 232 229
-4.74 -29.18 -4.17 230 232 229
-4.75 -29.27 -4.16 230 232 229
-4.76 -29.36 -4.15 230 232 229
-4.76 -29.45 -4.15 230 232 229
-4.77 -29.54 -4.14 230 232 229
-4.77 -29.63 -4.13 230 232 229
-4.78 -29.72 -4.12 230 232 229
-4.78 -29.81 -4.12 230 232 229
-4.79 -29.90 -4.11 230 232 229
-4.80 -29.99 -4.10 230 232 229
-4.81 -30.08 -4.09 230 232 229
-4.81 -30.18 -4.09 230 232 229
-4.82 -30.27 -4.08 230 232 229
-4.82 -30.36 -4.08 230 232 229
-4.83 -30.45 -4.07 230 232 229
-4.83 -30.54 -4.07 230 232 229
-4.83 -30.63 -4.06 232 232 232
-4.83 -30.73 -4.06 232 232 232
-4.84 -30.82 -4.06 232 232 232
-4.84 -30.91 -4.05 232 232 232
-4.84 -31.01 -4.05 232 232 232
-4.85 -31.10 -4.04 232 232 232
-4.85 -31.19 -4.05 235 235 235
-4.85 -31.29 -4.05 236 236 236
-4.85 -31.38 -4.04 236 236 236
-4.86 -31.47 -4.04 236 236 236
-4.85 -31.57 -4.04 234 236 233
-4.86 -31.65 -4.03 234 236 233
-4.85 -31.75 -4.04 235 237 234
-4.86 -31.84 -4.03 235 237 234
-4.86 -31.94 -4.03 236 238 235
-4.86 -32.03 -4.03 236 238 235
-4.87 -32.12 -4.02 237 239 236
-4.87 -32.21 -4.02 239 241 238
-4.89 -32.30 -4.00 239 241 238
-4.89 -32.39 -4.00 239 241 238
-4.89 -32.48 -4.00 239 241 238
-4.90 -32.57 -3.99 239 241 238
-4.89 -32.67 -4.00 239 241 238
-4.90 -32.76 -3.98 239 241 238
-4.90 -32.85 -3.98 239 241 238
-4.91 -32.94 -3.97 240 242 239
-4.92 -33.03 -3.96 241 243 240
-4.92 -33.12 -3.96 241 243 240
-4.92 -33.21 -3.96 241 243 240
-4.92 -33.31 -3.96 241 243 240
-4.92 -33.40 -3.96 241 243 240
-4.92 -33.50 -3.96 241 243 240
-4.92 -33.59 -3.96 242 244 241
-4.93 -33.68 -3.95 242 244 241
-4.92 -33.79 -3.97 242 244 241
-4.93 -33.87 -3.95 242 244 241
-4.92 -33.97 -3.96 242 244 241
-4.93 -34.06 -3.95 242 244 241
-4.93 -34.15 -3.95 242 244 241
-4.93 -34.25 -3.95 242 244 241
-4.94 -34.33 -3.94 242 244 241
-4.94 -34.43 -3.94 242 244 241
-4.95 -34.51 -3.93 242 244 241
-4.95 -34.61 -3.93 242 244 241
-4.95 -34.70 -3.93 242 244 241
-4.96 -34.79 -3.91 242 244 241
-4.97 -34.88 -3.91 242 244 241
-4.97 -34.97 -3.91 242 244 241
-4.96 -35.07 -3.91 242 244 241
-4.96 -35.16 -3.91 243 245 242
-4.96 -35.26 -3.92 243 245 242
-4.96 -35.35 -3.92 243 245 242
-4.96 -35.45 -3.91 243 245 242
-4.97 -35.53 -3.91 243 245 242
-4.98 -35.62 -3.90 243 245 242
-4.98 -35.71 -3.89 243 245 242
-4.99 -35.80 -3.88 245 245 242
-5.00 -35.88 -3.87 243 243 240
-5.03 -35.95 -3.83 243 243 240
-5.12 -35.98 -3.73 241 241 238
-5.08 -36.10 -3.78 241 241 238
-5.15 -36.14 -3.70 245 245 242
-5.05 -36.31 -3.81 251 249 247
-5.53 -36.00 -3.25 239 237 235
-4.96 22.79 -4.05 142 133 125
-4.90 22.75 -4.12 142 133 125
-4.90 22.65 -4.12 142 133 125
-4.87 22.58 -4.16 142 133 125
-4.91 22.46 -4.11 142 133 125
-4.93 22.35 -4.09 142 133 125
-4.90 22.27 -4.12 142 133 125
-4.90 22.18 -4.12 142 133 125
-4.90 22.08 -4.12 142 133 125
-4.89 22.00 -4.13 142 133 125
-4.89 21.91 -4.13 142 133 125
-4.89 21.81 -4.14 142 133 125
-4.88 21.72 -4.14 142 133 125
-4.88 21.63 -4.15 142 133 125
-4.87 21.54 -4.16 142 133 125
-4.86 21.45 -4.16 142 133 125
-4.86 21.36 -4.16 143 134 126
-4.85 21.27 -4.18 144 135 127
-4.85 21.19 -4.18 144 135 127
-4.83 21.10 -4.20 145 136 128
-4.83 21.01 -4.20 145 136 128
-4.82 20.92 -4.21 146 137 129
-4.82 20.83 -4.21 148 139 131
-4.82 20.73 -4.21 148 139 131
-4.81 20.65 -4.23 148 139 131
-4.81 20.55 -4.23 148 139 131
-4.80 20.47 -4.24 148 139 131
-4.80 20.37 -4.24 148 139 131
-4.78 20.29 -4.26 148 139 131
-4.78 20.20 -4.27 148 139 131
-4.77 20.11 -4.27 147 141 134
-4.77 20.02 -4.28 147 141 134
-4.76 19.93 -4.28 146 142 134
-4.75 19.84 -4.29 146 142 134
-4.75 19.75 -4.30 146 142 134
-4.74 19.66 -4.31 146 142 134
-4.73 19.57 -4.32 146 142 134
-4.72 19.48 -4.33 146 142 134
-4.71 19.39 -4.34 147 143 135
-4.71 19.30 -4.34 148 144 136
-4.71 19.21 -4.35 148 144 136
-4.70 19.12 -4.36 148 144 136
-4.69 19.03 -4.37 148 144 136
-4.68 18.94 -4.37 148 144 136
-4.68 18.85 -4.38 148 144 136
-4.67 18.76 -4.39 148 144 136
-4.67 18.67 -4.39 149 145 137
-4.66 18.58 -4.40 150 146 138
-4.65 18.49 -4.41 150 146 138
-4.65 18.40 -4.41 150 146 138
-4.64 18.31 -4.42 150 146 138
-4.65 18.21 -4.42 150 146 138
-4.64 18.12 -4.43 150 146 138
-4.63 18.03 -4.43 150 146 138
-4.63 17.93 -4.43 150 146 138
-4.62 17.84 -4.44 150 146 138
-4.63 17.74 -4.43 150 146 138
-4.62 17.66 -4.45 152 148 140
-4.62 17.56 -4.45 152 148 140
-4.62 17.47 -4.45 152 148 140
-4.61 17.38 -4.46 152 148 140
-4.61 17.28 -4.46 152 148 140
-4.60 17.19 -4.47 152 148 140
-4.60 17.10 -4.47 152 148 140
-4.59 17.01 -4.48 153 149 139
-4.58 16.92 -4.49 153 149 139
-4.58 16.83 -4.49 153 149 139
-4.58 16.73 -4.49 153 149 139
-4.58 16.64 -4.49 153 149 139
-4.57 16.55 -4.50 153 149 139
-4.57 16.46 -4.51 153 149 139
-4.56 16.36 -4.52 153 149 139
-4.55 16.27 -4.53 154 150 140
-4.56 16.17 -4.51 154 150 140
-4.54 16.09 -4.54 154 150 140
-4.54 16.00 -4.55 154 150 140
-4.52 15.91 -4.57 154 150 140
-4.51 15.82 -4.57 154 150 140
-4.51 15.73 -4.58 154 150 140
-4.51 15.64 -4.58 154 150 140
-4.50 15.54 -4.59 154 150 140
-4.49 15.45 -4.59 155 151 141
-4.50 15.36 -4.59 156 152 144
-4.49 15.26 -4.60 156 152 144
-4.49 15.17 -4.60 156 152 144
-4.49 15.07 -4.60 156 152 144
-4.49 14.98 -4.60 156 152 144
-4.49 14.88 -4.60 156 152 144
-4.48 14.79 -4.61 156 152 144
-4.49 14.69 -4.60 157 153 145
-4.48 14.60 -4.61 159 155 147
-4.48 14.51 -4.61 159 155 147
-4.48 14.41 -4.61 159 155 147
-4.48 14.31 -4.61 159 155 147
-4.49 14.22 -4.60 159 155 147
-4.49 14.12 -4.60 159 155 147
-4.48 14.03 -4.61 160 156 148
-4.48 13.93 -4.61 160 156 148
-4.48 13.84 -4.61 160 156 148
-4.47 13.75 -4.62 160 156 148
-4.47 13.65 -4.62 160 156 148
-4.45 13.57 -4.64 160 156 148
-4.45 13.47 -4.65 160 156 148
-4.45 13.37 -4.64 160 156 148
-4.45 13.28 -4.64 160 156 148
-4.45 13.18 -4.64 160 156 148
-4.46 13.09 -4.64 160 156 148
-4.45 12.99 -4.65 161 157 149
-4.44 12.90 -4.65 161 157 149
-4.45 12.80 -4.65 161 157 149
-4.45 12.71 -4.65 161 157 149
-4.44 12.62 -4.66 161 157 149
-4.44 12.52 -4.65 160 159 150
-4.44 12.42 -4.66 162 161 152
-4.44 12.33 -4.66 164 163 154
-4.43 12.24 -4.66 164 163 154
-4.43 12.15 -4.67 164 163 154
-4.43 12.05 -4.66 164 163 154
-4.43 11.95 -4.67 164 163 154
-4.43 11.86 -4.67 164 163 154
-4.42 11.76 -4.68 164 163 154
-4.42 11.67 -4.68 164 163 154
-4.41 11.58 -4.69 164 163 154
-4.40 11.49 -4.70 164 163 154
-4.41 11.39 -4.70 164 165 155
-4.40 11.30 -4.70 164 165 155
-4.40 11.20 -4.71 164 165 155
-4.39 11.11 -4.71 164 165 155
-4.40 11.01 -4.71 164 165 153
-4.40 10.92 -4.71 165 166 154
-4.40 10.82 -4.70 165 166 154
-4.40 10.72 -4.70 165 166 154
-4.40 10.63 -4.71 165 166 154
-4.40 10.53 -4.71 165 166 154
-4.39 10.44 -4.71 165 166 154
-4.39 10.34 -4.71 165 166 154
-4.38 10.25 -4.72 165 166 154
-4.38 10.16 -4.72 166 167 155
-4.38 10.06 -4.73 166 167 155
-4.38 9.97 -4.73 166 167 155
-4.37 9.87 -4.73 166 167 155
-4.36 9.78 -4.75 166 167 155
-4.36 9.69 -4.75 166 167 155
-4.36 9.59 -4.75 166 167 155
-4.35 9.50 -4.76 165 166 156
-4.36 9.40 -4.75 165 166 156
-4.35 9.31 -4.76 165 166 156
-4.35 9.21 -4.76 165 166 156
-4.35 9.12 -4.76 165 166 156
-4.34 9.02 -4.77 166 167 157
-4.35 8.93 -4.76 166 167 157
-4.35 8.83 -4.77 166 167 157
-4.34 8.74 -4.77 167 168 158
-4.34 8.64 -4.77 167 168 158
-4.34 8.55 -4.77 167 168 158
-4.34 8.45 -4.78 167 168 158
-4.33 8.36 -4.78 167 168 158
-4.34 8.26 -4.78 170 171 161
-4.33 8.17 -4.79 168 171 161
-4.33 8.07 -4.78 168 171 161
-4.33 7.98 -4.79 170 171 163
-4.33 7.88 -4.79 170 171 163
-4.33 7.78 -4.79 168 171 163
-4.31 7.69 -4.80 168 171 163
-4.32 7.60 -4.80 168 171 163
-4.30 7.51 -4.82 168 171 163
-4.30 7.41 -4.82 168 171 163
-4.29 7.32 -4.83 168 171 163
-4.28 7.23 -4.84 170 173 165
-4.28 7.13 -4.84 171 174 166
-4.27 7.04 -4.86 171 174 166
-4.27 6.94 -4.86 171 174 166
-4.26 6.85 -4.86 171 174 166
-4.26 6.75 -4.86 171 174 166
-4.26 6.66 -4.86 171 174 166
-4.26 6.56 -4.87 171 174 166
-4.26 6.47 -4.87 172 173 165
-4.26 6.37 -4.86 172 173 165
-4.26 6.28 -4.87 172 173 165
-4.27 6.18 -4.86 172 173 165
-4.27 6.08 -4.86 172 173 165
-4.26 5.98 -4.86 172 173 165
-4.27 5.89 -4.86 172 173 165
-4.26 5.79 -4.86 172 173 165
-4.27 5.69 -4.86 172 173 165
-4.26 5.60 -4.86 172 173 165
-4.27 5.50 -4.85 172 173 165
-4.27 5.41 -4.86 172 173 165
-4.27 5.31 -4.85 172 173 165
-4.27 5.21 -4.86 172 173 165
-4.27 5.12 -4.85 172 173 165
-4.27 5.02 -4.85 173 174 166
-4.26 4.93 -4.86 173 174 166
-4.26 4.83 -4.86 173 174 166
-4.26 4.73 -4.86 173 174 166
-4.26 4.64 -4.87 173 174 166
-4.25 4.55 -4.88 173 174 166
-4.25 4.45 -4.88 173 174 166
-4.25 4.35 -4.88 173 174 166
-4.25 4.26 -4.87 173 174 166
-4.26 4.16 -4.87 173 174 166
-4.25 4.06 -4.88 173 174 166
-4.25 3.97 -4.88 173 174 166
-4.25 3.87 -4.88 173 174 166
-4.26 3.77 -4.87 173 174 166
-4.25 3.68 -4.88 173 174 166
-4.25 3.58 -4.88 173 174 166
-4.25 3.49 -4.88 173 174 166
-4.25 3.39 -4.88 171 173 168
-4.26 3.29 -4.87 171 173 168
-4.25 3.20 -4.87 171 173 168
-4.26 3.10 -4.87 171 173 168
-4.25 3.01 -4.88 171 173 168
-4.25 2.91 -4.87 171 173 168
-4.25 2.81 -4.88 171 173 168
-4.25 2.72 -4.87 171 173 168
-4.25 2.62 -4.88 171 173 168
-4.25 2.53 -4.88 171 173 168
-4.25 2.43 -4.88 171 173 168
-4.24 2.34 -4.89 171 173 168
-4.25 2.24 -4.88 171 173 168
-4.24 2.14 -4.89 171 173 168
-4.24 2.05 -4.89 171 173 168
-4.24 1.95 -4.89 171 173 168
-4.25 1.85 -4.88 170 175 171
-4.25 1.76 -4.88 170 175 171
-4.25 1.66 -4.88 170 175 171
-4.24 1.56 -4.88 170 175 171
-4.24 1.47 -4.88 170 175 171
-4.24 1.37 -4.89 170 175 171
-4.24 1.28 -4.89 170 175 171
-4.24 1.18 -4.88 170 175 171
-4.24 1.08 -4.89 170 175 171
-4.24 0.99 -4.89 170 175 171
-4.25 0.89 -4.88 170 175 171
-4.24 0.80 -4.89 170 175 171
-4.25 0.70 -4.88 170 175 171
-4.24 0.60 -4.89 170 175 171
-4.24 0.51 -4.89 170 175 171
-4.24 0.41 -4.89 170 175 171
-4.23 0.32 -4.90 170 175 169
-4.23 0.22 -4.90 170 175 169
-4.23 0.12 -4.91 170 175 169
-4.22 0.03 -4.91 170 175 169
-4.22 -0.07 -4.92 171 176 170
-4.21 -0.16 -4.92 171 176 170
-4.21 -0.26 -4.93 170 177 170
-4.22 -0.35 -4.92 170 177 170
-4.21 -0.45 -4.92 170 177 170
-4.22 -0.55 -4.91 170 177 170
-4.22 -0.64 -4.91 170 177 170
-4.22 -0.74 -4.91 170 177 170
-4.22 -0.84 -4.91 171 178 171
-4.22 -0.93 -4.92 171 178 171
-4.22 -1.03 -4.91 171 178 171
-4.21 -1.12 -4.92 171 178 171
-4.22 -1.22 -4.92 171 181 173
-4.22 -1.32 -4.92 169 179 171
-4.21 -1.41 -4.92 171 178 171
-4.21 -1.51 -4.92 171 178 171
-4.21 -1.60 -4.93 171 178 171
-4.21 -1.70 -4.92 171 178 171
-4.21 -1.80 -4.92 171 178 171
-4.22 -1.90 -4.92 171 178 171
-4.21 -1.99 -4.93 173 180 173
-4.21 -2.09 -4.93 173 180 173
-4.21 -2.18 -4.93 173 180 173
-4.20 -2.28 -4.93 173 180 173
-4.21 -2.38 -4.92 173 180 173
-4.20 -2.47 -4.93 173 180 173
-4.21 -2.57 -4.93 173 180 173
-4.20 -2.66 -4.93 173 180 173
-4.21 -2.76 -4.93 173 180 173
-4.21 -2.86 -4.92 173 180 173
-4.21 -2.95 -4.92 173 180 173
-4.21 -3.05 -4.93 173 180 173
-4.21 -3.15 -4.93 173 180 173
-4.21 -3.24 -4.93 173 180 173
-4.20 -3.34 -4.93 173 180 173
-4.20 -3.43 -4.93 174 181 174
-4.19 -3.53 -4.94 174 181 174
-4.19 -3.63 -4.95 174 181 174
-4.19 -3.72 -4.95 174 181 174
-4.18 -3.82 -4.95 174 181 174
-4.18 -3.91 -4.96 174 181 174
-4.17 -4.01 -4.97 174 181 174
-4.17 -4.11 -4.98 174 181 174
-4.17 -4.20 -4.97 175 182 175
-4.16 -4.30 -4.98 175 182 177
-4.16 -4.39 -4.98 175 182 177
-4.15 -4.49 -4.99 174 184 176
-4.15 -4.59 -4.99 174 184 176
-4.15 -4.68 -4.99 174 184 176
-4.14 -4.78 -5.01 174 184 176
-4.15 -4.88 -5.00 174 184 176
-4.14 -4.97 -5.00 174 184 176
-4.15 -5.07 -5.00 174 184 176
-4.14 -5.16 -5.00 174 184 176
-4.13 -5.26 -5.01 175 185 177
-4.13 -5.36 -5.02 175 185 177
-4.12 -5.45 -5.03 175 185 177
-4.12 -5.55 -5.03 175 185 177
-4.12 -5.65 -5.03 175 185 177
-4.12 -5.74 -5.03 175 185 177
-4.11 -5.84 -5.04 175 185 177
-4.13 -5.94 -5.02 175 185 177
-4.12 -6.03 -5.03 175 185 177
-4.12 -6.13 -5.03 175 185 177
-4.13 -6.23 -5.02 178 185 180
-4.12 -6.32 -5.03 178 185 180
-4.12 -6.42 -5.03 178 185 180
-4.11 -6.52 -5.04 178 185 180
-4.12 -6.61 -5.03 178 185 180
-4.11 -6.71 -5.04 178 185 180
-4.11 -6.81 -5.04 178 185 180
-4.10 -6.90 -5.05 178 185 180
-4.10 -7.00 -5.06 178 185 180
-4.10 -7.09 -5.06 178 185 180
-4.09 -7.19 -5.07 178 185 180
-4.08 -7.29 -5.07 178 185 180
-4.08 -7.38 -5.08 176 186 180
-4.07 -7.48 -5.08 176 186 180
-4.07 -7.58 -5.08 178 188 182
-4.06 -7.67 -5.10 179 189 183
-4.06 -7.77 -5.10 179 189 183
-4.06 -7.87 -5.10 179 189 183
-4.06 -7.97 -5.10 179 189 183
-4.05 -8.06 -5.11 179 189 183
-4.05 -8.16 -5.12 179 189 183
-4.06 -8.26 -5.10 179 189 183
-4.05 -8.35 -5.12 179 189 183
-4.05 -8.45 -5.11 180 190 184
-4.05 -8.55 -5.11 180 190 184
-4.06 -8.64 -5.10 180 190 184
-4.06 -8.74 -5.10 180 190 184
-4.05 -8.84 -5.11 180 190 184
-4.05 -8.93 -5.11 180 190 184
-4.05 -9.03 -5.11 180 190 184
-4.06 -9.13 -5.10 180 190 184
-4.05 -9.22 -5.11 181 191 185
-4.05 -9.32 -5.11 181 191 185
-4.06 -9.42 -5.10 182 192 186
-4.05 -9.51 -5.11 183 193 187
-4.05 -9.61 -5.11 183 193 187
-4.05 -9.71 -5.11 183 193 187
-4.06 -9.80 -5.10 183 193 187
-4.06 -9.90 -5.10 183 193 187
-4.05 -10.00 -5.11 183 193 187
-4.05 -10.09 -5.11 183 193 190
-4.04 -10.19 -5.13 185 195 192
-4.04 -10.29 -5.13 187 193 194
-4.04 -10.38 -5.12 188 194 195
-4.03 -10.48 -5.13 188 195 193
-4.04 -10.58 -5.13 188 195 193
-4.03 -10.68 -5.14 188 195 193
-4.02 -10.77 -5.14 188 195 193
-4.01 -10.87 -5.15 188 195 193
-4.01 -10.97 -5.16 188 195 193
-4.00 -11.07 -5.17 188 195 193
-3.98 -11.17 -5.19 189 196 194
-3.98 -11.26 -5.19 190 197 195
-3.97 -11.36 -5.20 190 197 195
-3.97 -11.46 -5.20 190 197 195
-3.96 -11.56 -5.21 190 197 195
-3.95 -11.65 -5.23 190 197 195
-3.95 -11.75 -5.23 190 197 195
-3.94 -11.85 -5.24 188 198 195
-3.93 -11.95 -5.25 187 197 194
-3.93 -12.05 -5.26 186 198 194
-3.93 -12.14 -5.26 186 198 194
-3.92 -12.24 -5.27 186 198 194
-3.91 -12.34 -5.28 187 199 195
-3.90 -12.44 -5.29 188 200 196
-3.89 -12.54 -5.30 189 201 197
-3.88 -12.63 -5.30 191 203 199
-3.90 -12.73 -5.29 191 203 199
-3.88 -12.83 -5.30 191 203 199
-3.90 -12.92 -5.29 191 203 199
-3.90 -13.02 -5.29 191 203 199
-3.90 -13.12 -5.29 191 203 199
-3.91 -13.21 -5.28 192 204 200
-3.90 -13.31 -5.29 193 205 201
-3.90 -13.41 -5.28 195 205 199
-3.91 -13.50 -5.28 194 204 198
-3.90 -13.60 -5.29 194 204 198
-3.90 -13.70 -5.28 194 204 198
-3.90 -13.80 -5.29 194 204 198
-3.90 -13.90 -5.29 194 204 198
-3.90 -13.99 -5.28 195 205 199
-3.90 -14.09 -5.29 195 205 199
-3.90 -14.19 -5.28 195 205 199
-3.90 -14.28 -5.29 195 205 199
-3.91 -14.38 -5.28 195 205 199
-3.91 -14.48 -5.28 195 205 199
-3.91 -14.57 -5.28 195 205 199
-3.91 -14.67 -5.28 196 206 200
-3.91 -14.77 -5.27 199 206 201
-3.91 -14.86 -5.27 199 206 201
-3.92 -14.96 -5.26 200 205 199
-3.92 -15.06 -5.27 202 207 201
-3.92 -15.15 -5.26 204 204 199
-3.93 -15.25 -5.25 204 204 199
-3.94 -15.34 -5.24 204 204 201
-3.95 -15.44 -5.23 204 204 201
-3.97 -15.53 -5.21 204 204 201
-3.98 -15.62 -5.19 204 204 201
-3.99 -15.72 -5.18 204 205 197
-4.02 -15.81 -5.15 204 205 197
-4.04 -15.90 -5.13 201 202 190
-4.08 -15.99 -5.08 206 207 195
-4.09 -16.08 -5.06 202 203 193
-4.11 -16.18 -5.05 195 196 186
-4.05 -16.29 -5.11 197 197 197
-3.95 -16.41 -5.22 206 206 206
-3.98 -16.50 -5.19 210 208 218
-3.90 -16.61 -5.28 209 207 217
-4.29 -16.61 -4.83 202 203 193
-4.78 -16.58 -4.26 152 153 143
-5.78 -16.41 -3.09 146 139 100
-6.22 -16.38 -2.58 224 217 178
-6.11 -16.50 -2.71 241 229 174
-6.12 -16.59 -2.70 234 222 167
-6.43 -16.60 -2.34 239 227 159
-6.68 -16.62 -2.04 249 237 169
-6.78 -16.68 -1.93 196 174 111
-6.86 -16.75 -1.83 179 157 94
-6.93 -16.82 -1.76 201 165 116
-6.97 -16.89 -1.71 212 176 127
-7.00 -16.97 -1.68 213 180 130
-7.04 -17.05 -1.63 220 187 137
-7.08 -17.13 -1.58 202 181 140
-7.14 -17.20 -1.51 187 166 125
-7.19 -17.27 -1.45 152 141 122
-7.24 -17.35 -1.40 158 147 128
-7.28 -17.42 -1.35 183 173 161
-7.33 -17.49 -1.29 170 160 148
-7.38 -17.56 -1.23 150 144 137
-7.44 -17.63 -1.17 176 170 163
-7.49 -17.70 -1.10 175 173 174
-7.55 -17.77 -1.04 188 186 187
-7.61 -17.84 -0.96 212 210 208
-7.66 -17.91 -0.91 221 219 217
-7.70 -17.99 -0.86 171 166 154
-7.72 -18.06 -0.83 148 143 131
-7.76 -18.14 -0.79 222 215 188
-7.80 -18.21 -0.74 150 143 116
-7.84 -18.28 -0.70 132 125 84
-7.88 -18.36 -0.65 177 170 129
-7.92 -18.43 -0.61 182 158 105
-7.95 -18.51 -0.57 167 143 90
-7.98 -18.58 -0.54 161 144 109
-8.02 -18.66 -0.49 131 114 79
-8.05 -18.73 -0.45 88 81 61
-8.08 -18.81 -0.42 104 97 77
-8.10 -18.88 -0.39 153 153 137
-8.12 -18.96 -0.37 207 207 191
-8.14 -19.04 -0.35 218 217 208
-8.14 -19.12 -0.34 237 236 227
-8.15 -19.21 -0.34 235 233 234
-8.14 -19.30 -0.34 230 228 229
-8.12 -19.39 -0.37 214 214 214
-8.11 -19.48 -0.38 166 166 166
-8.21 -19.53 -0.26 193 193 188
-7.76 -19.79 -0.79 190 190 185
-6.29 -20.44 -2.50 221 223 220
-4.98 -21.05 -4.03 239 241 238
-4.72 -21.25 -4.33 243 245 242
-4.89 -21.27 -4.13 237 239 236
-4.93 -21.35 -4.09 226 228 225
-4.90 -21.46 -4.12 218 220 217
-4.88 -21.56 -4.14 222 224 221
-4.87 -21.66 -4.16 215 217 214
-4.82 -21.78 -4.21 222 224 221
-4.81 -21.87 -4.23 222 224 221
-4.81 -21.97 -4.23 222 224 221
-4.78 -22.08 -4.26 222 224 221
-4.79 -22.17 -4.25 222 224 221
-4.79 -22.26 -4.25 222 224 221
-4.77 -22.37 -4.27 222 224 221
-4.77 -22.46 -4.28 222 224 221
-4.75 -22.56 -4.29 227 229 226
-4.76 -22.65 -4.28 227 229 226
-4.76 -22.75 -4.28 227 229 226
-4.77 -22.84 -4.27 227 229 226
-4.77 -22.93 -4.27 227 229 226
-4.77 -23.03 -4.27 227 229 226
-4.77 -23.12 -4.27 227 229 226
-4.78 -23.21 -4.26 227 229 226
-4.79 -23.30 -4.25 227 229 226
-4.79 -23.40 -4.25 227 229 226
