ply
format ascii 1.0
element vertex 1553
property float x
property float y
property float z
property uchar red
property uchar green
property uchar blue
end_header
-14.23 -6.39 -0.83 246 251 250
-14.23 -6.47 -0.82 246 251 250
-14.23 -6.55 -0.82 246 251 250
-14.23 -6.62 -0.83 246 251 250
-14.23 -6.70 -0.82 246 251 250
-14.23 -6.78 -0.83 247 252 251
-14.21 -6.85 -0.85 247 252 251
-14.20 -6.93 -0.87 247 252 251
-14.19 -7.00 -0.88 247 252 251
-14.19 -7.08 -0.88 247 252 251
-14.19 -7.16 -0.88 247 252 251
-14.19 -7.23 -0.89 247 252 251
-14.18 -7.31 -0.90 247 252 251
-14.18 -7.39 -0.90 245 252 250
-14.17 -7.46 -0.92 245 252 250
-14.16 -7.54 -0.92 245 252 250
-14.15 -7.62 -0.94 245 252 250
-14.15 -7.69 -0.95 245 252 250
-14.14 -7.77 -0.96 245 252 250
-14.13 -7.85 -0.97 245 252 250
-14.13 -7.92 -0.98 245 252 250
-14.12 -8.00 -0.98 245 252 250
-14.11 -8.08 -1.00 245 252 250
-14.11 -8.15 -0.99 245 252 250
-14.11 -8.23 -1.01 245 252 250
-14.10 -8.31 -1.01 245 252 250
-14.10 -8.38 -1.01 245 252 250
-14.10 -8.46 -1.01 245 252 250
-14.09 -8.54 -1.02 245 252 250
-14.09 -8.61 -1.02 246 253 251
-14.09 -8.69 -1.02 246 253 251
-14.09 -8.77 -1.02 246 253 251
-14.09 -8.84 -1.02 246 253 251
-14.11 -8.92 -1.01 246 253 251
-14.11 -9.00 -0.99 246 253 251
-14.12 -9.07 -0.99 246 253 251
-14.12 -9.15 -0.98 246 253 251
-14.12 -9.23 -0.99 246 253 251
-14.12 -9.30 -0.99 246 253 251
-14.11 -9.38 -0.99 246 253 251
-14.12 -9.46 -0.99 246 253 251
-14.12 -9.53 -0.99 246 253 251
-14.13 -9.61 -0.98 246 253 251
-14.13 -9.68 -0.98 246 253 251
-14.13 -9.76 -0.97 246 253 251
-14.14 -9.84 -0.96 246 253 251
-14.15 -9.91 -0.95 246 253 251
-14.16 -9.99 -0.93 246 253 251
-14.17 -10.06 -0.92 246 253 251
-14.18 -10.14 -0.90 246 253 251
-14.19 -10.21 -0.88 246 253 251
-14.20 -10.29 -0.86 246 253 251
-14.21 -10.36 -0.85 246 253 251
-14.22 -10.44 -0.83 244 251 249
-14.23 -10.51 -0.83 246 253 251
-14.24 -10.59 -0.81 251 255 255
-14.25 -10.66 -0.80 251 255 255
-14.26 -10.74 -0.78 250 255 255
-14.27 -10.81 -0.77 244 251 249
-14.27 -10.89 -0.76 240 247 245
-14.28 -10.96 -0.75 237 244 242
-14.28 -11.04 -0.75 251 252 255
-14.28 -11.12 -0.75 246 247 250
-14.28 -11.19 -0.75 249 250 253
-14.28 -11.27 -0.75 246 247 250
-14.31 -11.34 -0.71 249 250 253
-14.32 -11.42 -0.69 246 247 250
-14.45 -11.47 -0.50 253 254 255
-14.65 -11.51 -0.21 248 249 252
-14.91 -11.54 0.17 205 206 209
-15.15 -11.58 0.52 168 169 172
-15.26 -11.63 0.68 113 114 117
-15.27 -11.71 0.69 66 67 70
-15.27 -11.78 0.70 31 32 35
-15.26 -11.85 0.68 8 9 12
-15.26 -11.93 0.68 10 11 14
-15.22 -12.01 0.62 31 32 35
-15.20 -12.08 0.60 34 37 48
-15.18 -12.16 0.57 35 38 49
-15.17 -12.24 0.55 42 45 56
-15.18 -12.31 0.57 46 49 60
-15.21 -12.38 0.61 36 39 50
-15.24 -12.44 0.65 27 30 41
-15.26 -12.51 0.68 30 33 44
-15.27 -12.58 0.69 36 39 50
-15.28 -12.65 0.71 36 39 50
-15.29 -12.73 0.72 40 43 54
-15.29 -12.80 0.73 39 42 53
-15.29 -12.87 0.72 34 37 48
-15.29 -12.95 0.72 30 33 44
-15.28 -13.02 0.71 30 33 44
-15.27 -13.09 0.70 32 35 46
-15.26 -13.17 0.67 30 33 44
-15.21 -13.26 0.60 21 25 29
-15.13 -13.35 0.49 30 34 38
-15.04 -13.44 0.36 29 33 35
-14.96 -13.54 0.24 44 48 50
-14.89 -13.63 0.14 106 110 112
-14.78 -13.73 -0.02 177 181 183
-14.65 -13.84 -0.21 252 255 255
-14.57 -13.94 -0.33 245 250 249
-14.52 -14.02 -0.40 246 251 250
-14.50 -14.10 -0.42 246 251 250
-14.47 -14.19 -0.47 246 251 247
-14.44 -14.27 -0.52 246 251 247
-14.42 -14.35 -0.55 246 251 247
-14.39 -14.44 -0.59 246 251 247
-14.38 -14.52 -0.61 246 251 245
-14.37 -14.59 -0.62 246 251 245
-14.35 -14.67 -0.64 248 250 247
-14.34 -14.75 -0.66 248 250 247
-14.33 -14.83 -0.68 248 250 247
-14.32 -14.91 -0.70 248 250 247
-14.32 -14.99 -0.70 248 250 247
-14.33 -15.06 -0.68 248 250 247
-14.35 -15.13 -0.65 248 250 247
-14.36 -15.20 -0.63 248 250 247
-14.37 -15.28 -0.61 248 250 247
-14.38 -15.35 -0.60 248 250 247
-14.40 -15.42 -0.57 248 250 247
-14.41 -15.49 -0.56 248 250 247
-14.42 -15.56 -0.54 248 250 247
-14.43 -15.64 -0.53 248 250 247
-14.44 -15.71 -0.52 248 250 247
-14.45 -15.78 -0.51 248 250 247
-14.45 -15.86 -0.51 250 249 252
-14.44 -15.94 -0.52 249 248 251
-14.41 -16.02 -0.56 248 247 250
-14.32 -16.13 -0.69 239 238 241
-14.17 -16.26 -0.91 224 223 226
-14.04 -16.38 -1.10 202 201 204
-13.93 -16.49 -1.26 190 189 192
-13.89 -16.58 -1.32 188 187 190
-13.87 -16.67 -1.34 183 182 185
-13.88 -16.74 -1.34 187 186 189
-13.87 -16.82 -1.34 193 192 195
-13.88 -16.90 -1.33 192 191 194
-13.89 -16.97 -1.32 192 191 194
-13.89 -17.05 -1.32 188 187 190
-13.90 -17.12 -1.30 189 188 191
-13.90 -17.20 -1.30 189 188 191
-13.90 -17.28 -1.31 194 192 200
-13.90 -17.36 -1.31 194 192 200
-13.88 -17.44 -1.33 194 192 200
-13.87 -17.52 -1.34 194 192 200
-13.87 -17.60 -1.35 194 192 200
-13.87 -17.68 -1.35 194 192 200
-13.87 -17.75 -1.35 194 192 200
-13.87 -17.83 -1.36 194 192 200
-13.87 -17.91 -1.36 194 192 200
-13.85 -17.99 -1.37 194 192 200
-13.85 -18.07 -1.38 194 192 200
-13.85 -18.15 -1.38 194 192 200
-13.85 -18.23 -1.39 194 192 200
-13.84 -18.31 -1.39 194 192 200
-13.84 -18.38 -1.39 194 192 200
-13.84 -18.46 -1.40 194 192 200
-13.83 -18.54 -1.41 194 193 198
-13.83 -18.62 -1.41 194 193 198
-13.83 -18.70 -1.40 194 193 198
-13.83 -18.78 -1.41 194 193 198
-13.83 -18.85 -1.40 194 193 198
-13.84 -18.93 -1.40 194 193 198
-13.84 -19.01 -1.40 194 193 198
-13.85 -19.08 -1.39 194 193 198
-13.85 -19.16 -1.38 193 192 197
-13.85 -19.23 -1.37 190 189 194
-13.86 -19.30 -1.36 186 185 190
-13.87 -19.38 -1.35 183 182 187
-13.89 -19.45 -1.32 183 182 187
-13.91 -19.51 -1.30 181 180 185
-13.93 -19.58 -1.26 176 175 180
-13.95 -19.65 -1.24 174 173 178
-13.96 -19.72 -1.22 171 169 170
-13.97 -19.80 -1.21 176 174 175
-13.97 -19.87 -1.20 161 158 162
-13.99 -19.94 -1.18 168 165 169
-14.00 -20.01 -1.16 159 156 160
-14.01 -20.08 -1.14 122 119 123
-14.00 -20.16 -1.15 37 34 40
-13.98 -20.25 -1.19 32 29 35
-13.88 -20.38 -1.33 46 43 49
-13.78 -20.50 -1.48 47 44 50
-13.74 -20.60 -1.54 49 45 54
-13.77 -20.67 -1.50 52 48 57
-13.90 -20.68 -1.30 53 49 58
-14.15 -20.62 -0.94 53 49 58
-14.79 -20.37 -0.01 53 49 60
-15.20 -20.23 0.59 52 48 59
-15.15 -20.33 0.53 45 52 47
-15.19 -20.38 0.58 34 41 36
-15.30 -20.40 0.74 19 26 38
-15.29 -20.47 0.73 5 12 24
-15.27 -20.56 0.69 12 19 56
-15.22 -20.66 0.62 49 56 93
-15.21 -20.74 0.61 49 55 115
-15.20 -20.82 0.59 43 49 109
-15.19 -20.90 0.58 39 43 115
-15.18 -20.98 0.57 34 38 110
-15.18 -21.05 0.57 36 40 110
-15.17 -21.13 0.54 29 33 103
-15.17 -21.20 0.54 8 11 72
-15.15 -21.29 0.52 20 23 84
-15.13 -21.37 0.49 45 47 99
-15.08 -21.47 0.42 37 39 91
-14.99 -21.60 0.29 34 46 68
-14.91 -21.72 0.17 35 47 69
-14.85 -21.83 0.08 25 37 61
-14.82 -21.92 0.04 21 33 57
-14.83 -21.99 0.05 30 37 62
-14.81 -22.08 0.02 30 37 62
-14.78 -22.17 -0.02 39 45 66
-14.68 -22.30 -0.16 45 51 72
-14.41 -22.53 -0.56 64 67 85
-14.07 -22.82 -1.06 113 116 134
-13.93 -22.98 -1.26 154 157 168
-13.91 -23.06 -1.29 152 155 166
-13.91 -23.15 -1.30 150 150 160
-13.89 -23.23 -1.32 156 156 166
-13.86 -23.33 -1.36 158 156 166
-13.87 -23.40 -1.34 164 162 172
-13.89 -23.46 -1.32 164 158 163
-13.90 -23.54 -1.30 170 164 169
-13.91 -23.61 -1.29 175 169 174
-13.90 -23.69 -1.30 174 168 173
-13.89 -23.77 -1.32 167 161 166
-13.88 -23.86 -1.34 156 150 155
-13.87 -23.94 -1.35 145 139 144
-13.86 -24.02 -1.36 140 134 139
-13.84 -24.11 -1.39 136 130 135
-13.83 -24.20 -1.40 143 137 142
-13.83 -24.28 -1.41 149 143 148
-13.82 -24.36 -1.42 147 141 146
-13.82 -24.44 -1.42 135 129 134
-13.84 -24.50 -1.39 112 106 111
-13.87 -24.56 -1.35 93 87 92
-13.90 -24.62 -1.30 81 75 80
-13.94 -24.67 -1.25 66 57 68
-13.97 -24.73 -1.21 57 48 59
-14.00 -24.78 -1.15 55 46 57
-14.04 -24.84 -1.11 56 47 58
-14.09 -24.87 -1.03 58 49 60
-14.16 -24.90 -0.93 64 55 66
-14.23 -24.93 -0.83 72 63 74
-14.28 -24.97 -0.75 75 66 77
-14.33 -25.01 -0.67 77 68 79
-14.37 -25.07 -0.62 69 60 71
-14.39 -25.12 -0.59 59 50 61
-14.41 -25.19 -0.56 47 38 49
-14.43 -25.25 -0.54 47 38 49
-14.44 -25.32 -0.52 56 47 58
-14.45 -25.38 -0.50 78 69 80
-14.47 -25.45 -0.48 95 86 97
-14.49 -25.51 -0.45 142 134 142
-14.50 -25.58 -0.42 170 162 170
-14.52 -25.64 -0.40 197 189 197
-14.53 -25.71 -0.39 217 209 217
-14.52 -25.79 -0.40 217 209 217
-14.53 -25.86 -0.38 221 213 221
-14.53 -25.93 -0.38 217 209 217
-14.54 -26.00 -0.37 212 204 212
-14.53 -26.08 -0.38 214 206 214
-14.53 -26.16 -0.38 213 205 213
-14.53 -26.24 -0.39 208 200 208
-14.53 -26.31 -0.39 210 202 210
-14.52 -26.39 -0.40 207 199 207
-14.52 -26.47 -0.40 213 205 213
-14.52 -26.55 -0.40 210 202 210
-14.51 -26.62 -0.41 205 197 205
-14.51 -26.70 -0.42 205 200 199
-14.51 -26.78 -0.42 210 205 204
-14.50 -26.86 -0.42 210 205 204
-14.50 -26.94 -0.43 209 204 203
-14.50 -27.01 -0.43 210 205 204
-14.50 -27.09 -0.43 213 208 207
-14.50 -27.16 -0.43 211 206 205
-14.50 -27.24 -0.43 206 201 200
-14.49 -27.32 -0.44 212 207 206
-14.49 -27.39 -0.44 212 207 206
-14.49 -27.48 -0.45 212 207 206
-14.48 -27.56 -0.46 212 207 206
-14.47 -27.64 -0.47 212 207 206
-14.47 -27.72 -0.47 212 207 206
-14.47 -27.79 -0.48 212 207 206
-14.46 -27.88 -0.49 212 207 206
-14.45 -27.96 -0.50 212 207 209
-14.45 -28.03 -0.50 212 207 209
-14.45 -28.11 -0.50 212 207 209
-14.45 -28.19 -0.50 212 207 209
-14.45 -28.26 -0.51 212 207 209
-14.44 -28.34 -0.51 212 207 209
-14.45 -28.41 -0.50 212 207 209
-14.45 -28.49 -0.50 212 207 209
-14.45 -28.57 -0.51 212 207 209
-14.44 -28.65 -0.52 212 207 209
-14.44 -28.72 -0.52 212 207 209
-14.44 -28.80 -0.52 212 207 209
-14.43 -28.88 -0.53 212 207 209
-14.44 -28.95 -0.52 213 208 210
-14.43 -29.03 -0.53 214 209 211
-14.43 -29.11 -0.53 214 209 211
-14.43 -29.19 -0.53 214 209 211
-14.43 -29.26 -0.53 214 209 211
-14.43 -29.33 -0.53 214 209 211
-14.44 -29.41 -0.52 214 209 211
-14.44 -29.48 -0.52 214 209 211
-14.44 -29.55 -0.51 214 209 211
-14.44 -29.63 -0.51 214 209 211
-14.45 -29.70 -0.50 214 209 211
-14.46 -29.77 -0.49 214 209 211
-14.46 -29.84 -0.49 214 209 211
-14.47 -29.91 -0.48 214 209 211
-14.48 -29.98 -0.46 214 209 211
-14.49 -30.04 -0.44 214 209 211
-14.51 -30.10 -0.42 214 209 211
-14.51 -30.17 -0.41 214 209 211
-14.53 -30.23 -0.38 214 209 211
-14.54 -30.30 -0.37 214 207 205
-14.55 -30.36 -0.35 211 204 202
-14.57 -30.42 -0.33 218 211 209
-14.58 -30.48 -0.31 221 214 212
-14.60 -30.54 -0.28 209 204 201
-14.63 -30.59 -0.25 205 200 197
-14.65 -30.65 -0.21 235 233 229
-14.70 -30.68 -0.14 245 243 239
-14.79 -30.66 -0.00 199 199 194
-14.93 -30.61 0.19 200 200 195
-15.06 -30.56 0.39 178 180 175
-15.14 -30.57 0.50 247 249 244
-15.18 -30.60 0.57 241 246 240
-15.23 -30.62 0.64 244 249 243
-15.24 -30.68 0.66 232 239 232
-15.18 -30.81 0.57 212 219 212
-13.99 17.29 -1.29 122 125 132
-13.98 17.22 -1.31 124 127 134
-14.03 17.10 -1.24 126 126 134
-14.02 17.03 -1.25 128 128 136
-14.04 16.93 -1.22 129 129 137
-14.05 16.85 -1.21 128 128 136
-14.04 16.78 -1.23 129 128 133
-14.03 16.71 -1.24 128 127 132
-14.01 16.66 -1.27 128 128 128
-13.98 16.60 -1.31 126 126 126
-13.96 16.55 -1.34 131 129 127
-13.93 16.50 -1.38 131 129 127
-13.89 16.46 -1.45 127 125 121
-13.85 16.42 -1.50 125 123 119
-13.83 16.36 -1.53 127 122 119
-13.78 16.32 -1.60 131 126 123
-13.75 16.28 -1.65 133 119 132
-13.72 16.23 -1.70 135 121 134
-13.69 16.18 -1.74 136 122 135
-13.67 16.11 -1.77 137 123 136
-13.64 16.06 -1.81 136 125 134
-13.62 16.00 -1.84 135 124 133
-13.67 15.88 -1.77 132 125 128
-13.72 15.75 -1.69 130 123 126
-13.75 15.65 -1.64 126 126 121
-13.81 15.52 -1.56 129 129 124
-14.37 14.96 -0.75 131 135 139
-15.34 14.02 0.69 125 129 133
-15.86 13.50 1.45 93 99 118
-15.95 13.35 1.58 58 64 83
-15.84 13.37 1.42 38 46 78
-15.80 13.34 1.36 48 56 88
-15.68 13.37 1.17 124 125 155
-15.00 13.88 0.19 132 133 163
-13.97 14.69 -1.33 132 137 136
-13.66 14.88 -1.79 132 137 136
-13.63 14.82 -1.83 136 136 131
-13.59 14.78 -1.88 135 135 130
-13.55 14.73 -1.94 138 132 139
-13.57 14.64 -1.92 142 136 143
-13.58 14.55 -1.90 144 133 140
-13.57 14.48 -1.91 144 133 140
-13.58 14.39 -1.90 146 135 132
-13.58 14.32 -1.90 146 135 132
-13.58 14.24 -1.90 151 134 135
-13.58 14.16 -1.90 151 134 135
-13.57 14.09 -1.91 149 136 144
-13.57 14.01 -1.91 150 137 145
-13.57 13.93 -1.91 148 137 144
-13.56 13.86 -1.92 148 137 144
-13.56 13.78 -1.93 146 138 144
-13.56 13.70 -1.92 146 138 144
-13.57 13.62 -1.92 146 140 145
-13.56 13.55 -1.93 146 140 145
-13.56 13.47 -1.93 146 140 145
-13.55 13.40 -1.94 147 141 146
-13.54 13.32 -1.95 147 141 146
-13.54 13.25 -1.95 148 142 147
-13.54 13.17 -1.96 149 143 148
-13.53 13.10 -1.97 149 143 148
-13.53 13.02 -1.98 149 143 148
-13.52 12.95 -1.98 149 143 148
-13.51 12.88 -1.99 150 145 147
-13.51 12.80 -1.99 152 147 149
-13.51 12.72 -2.00 152 147 149
-13.51 12.65 -2.00 152 147 149
-13.51 12.57 -2.00 152 147 149
-13.50 12.49 -2.01 152 147 149
-13.50 12.41 -2.01 152 147 149
-13.50 12.34 -2.02 153 148 150
-13.50 12.26 -2.02 153 148 150
-13.49 12.19 -2.03 153 148 150
-13.49 12.11 -2.03 153 148 150
-13.49 12.03 -2.03 153 148 150
-13.49 11.95 -2.03 153 148 150
-13.48 11.88 -2.04 153 148 150
-13.48 11.80 -2.04 154 149 151
-13.48 11.72 -2.05 155 150 152
-13.48 11.65 -2.05 153 151 152
-13.48 11.57 -2.05 153 151 152
-13.47 11.49 -2.05 154 152 153
-13.48 11.41 -2.04 154 152 153
-13.49 11.32 -2.03 155 153 154
-13.49 11.24 -2.03 155 153 154
-13.49 11.16 -2.03 157 155 156
-13.50 11.08 -2.02 158 156 157
-13.50 11.00 -2.01 159 157 158
-13.50 10.92 -2.02 159 157 158
-13.50 10.84 -2.01 158 156 157
-13.51 10.76 -2.00 158 156 157
-13.51 10.68 -1.99 158 156 157
-13.52 10.60 -1.99 158 156 157
-13.52 10.52 -1.99 158 156 157
-13.52 10.44 -1.99 159 157 158
-13.52 10.36 -1.99 162 157 159
-13.52 10.28 -1.98 162 157 159
-13.52 10.20 -1.99 162 157 159
-13.51 10.13 -1.99 162 157 159
-13.51 10.05 -1.99 163 158 160
-13.51 9.97 -2.00 163 158 160
-13.50 9.90 -2.01 164 159 161
-13.50 9.82 -2.01 164 159 161
-13.50 9.75 -2.02 166 161 163
-13.50 9.67 -2.02 167 162 164
-13.50 9.59 -2.02 167 162 164
-13.49 9.52 -2.03 167 162 164
-13.49 9.43 -2.03 167 162 164
-13.49 9.36 -2.03 167 162 164
-13.50 9.28 -2.02 167 162 164
-13.50 9.20 -2.02 167 162 164
-13.50 9.12 -2.02 167 162 161
-13.50 9.04 -2.02 169 164 163
-13.50 8.96 -2.02 169 163 168
-13.49 8.88 -2.03 169 163 168
-13.49 8.81 -2.03 169 163 168
-13.49 8.73 -2.03 169 163 168
-13.49 8.65 -2.03 169 163 168
-13.48 8.58 -2.04 170 164 169
-13.48 8.50 -2.04 173 167 172
-13.48 8.42 -2.04 174 168 173
-13.48 8.34 -2.04 174 168 173
-13.48 8.26 -2.04 174 168 173
-13.48 8.18 -2.04 174 168 173
-13.48 8.10 -2.04 174 168 173
-13.48 8.02 -2.04 172 169 173
-13.49 7.94 -2.03 173 170 174
-13.49 7.86 -2.03 174 172 173
-13.50 7.78 -2.02 174 172 173
-13.50 7.70 -2.02 175 172 176
-13.50 7.62 -2.02 176 173 177
-13.50 7.54 -2.02 179 176 180
-13.50 7.46 -2.01 180 177 181
-13.50 7.39 -2.01 180 177 181
-13.50 7.31 -2.01 181 178 182
-13.51 7.22 -2.00 181 178 182
-13.51 7.14 -2.00 181 178 182
-13.51 7.07 -2.00 181 178 182
-13.50 6.99 -2.01 182 179 183
-13.51 6.91 -2.00 182 179 183
-13.50 6.84 -2.01 183 180 184
-13.50 6.76 -2.02 183 181 182
-13.50 6.68 -2.01 184 182 183
-13.50 6.60 -2.02 183 183 183
-13.49 6.53 -2.03 183 183 183
-13.50 6.45 -2.02 185 185 185
-13.49 6.37 -2.03 186 186 186
-13.49 6.29 -2.03 186 186 186
-13.50 6.21 -2.02 186 186 186
-13.49 6.13 -2.03 186 186 186
-13.50 6.05 -2.01 186 186 186
-13.50 5.97 -2.01 186 186 186
-13.50 5.89 -2.01 186 186 186
-13.50 5.81 -2.01 186 186 186
-13.51 5.73 -2.00 186 186 186
-13.51 5.65 -2.00 186 186 186
-13.50 5.58 -2.01 186 186 186
-13.50 5.50 -2.01 186 186 186
-13.50 5.42 -2.01 186 186 186
-13.50 5.34 -2.01 186 186 186
-13.50 5.26 -2.01 186 186 186
-13.50 5.19 -2.01 186 186 186
-13.50 5.11 -2.01 185 185 185
-13.51 5.03 -2.00 185 184 187
-13.51 4.95 -2.00 185 184 187
-13.51 4.87 -2.00 185 184 187
-13.51 4.79 -1.99 185 184 187
-13.51 4.71 -2.00 185 184 187
-13.51 4.63 -2.00 183 182 185
-13.51 4.55 -2.00 182 181 184
-13.51 4.48 -2.00 181 180 183
-13.50 4.40 -2.01 181 180 183
-13.50 4.32 -2.02 181 180 183
-13.50 4.24 -2.02 181 180 183
-13.50 4.17 -2.02 181 180 183
-13.50 4.09 -2.02 181 180 183
-13.49 4.01 -2.03 181 180 183
-13.50 3.93 -2.02 181 180 185
-13.50 3.85 -2.02 180 179 184
-13.50 3.77 -2.02 179 177 185
-13.50 3.69 -2.02 179 177 185
-13.50 3.62 -2.02 178 176 184
-13.50 3.54 -2.02 178 176 184
-13.50 3.46 -2.02 176 174 182
-13.50 3.38 -2.02 176 174 182
-13.50 3.30 -2.02 175 173 181
-13.49 3.22 -2.03 174 172 180
-13.49 3.15 -2.03 174 172 180
-13.49 3.07 -2.03 174 172 180
-13.49 2.99 -2.03 174 172 180
-13.50 2.91 -2.02 174 172 180
-13.49 2.83 -2.03 174 172 180
-13.50 2.75 -2.02 174 172 180
-13.50 2.67 -2.02 174 172 180
-13.50 2.59 -2.01 174 172 180
-13.51 2.51 -2.00 174 173 178
-13.51 2.43 -2.00 173 172 177
-13.51 2.35 -1.99 171 172 175
-13.51 2.27 -1.99 171 172 175
-13.52 2.19 -1.99 171 172 175
-13.52 2.12 -1.99 171 172 175
-13.53 2.03 -1.98 171 172 175
-13.53 1.96 -1.98 171 172 175
-13.53 1.87 -1.97 170 171 174
-13.53 1.80 -1.97 170 171 174
-13.53 1.72 -1.97 170 171 174
-13.53 1.64 -1.98 170 171 174
-13.53 1.56 -1.96 170 171 174
-13.53 1.48 -1.97 170 171 174
-13.53 1.40 -1.97 169 170 173
-13.54 1.32 -1.96 169 170 173
-13.54 1.24 -1.96 169 170 173
-13.54 1.17 -1.95 169 170 173
-13.54 1.09 -1.95 169 170 173
-13.55 1.01 -1.95 169 170 173
-13.55 0.93 -1.94 169 170 173
-13.55 0.85 -1.94 169 170 173
-13.55 0.77 -1.94 168 169 172
-13.56 0.69 -1.93 168 169 172
-13.57 0.61 -1.91 168 169 172
-13.57 0.53 -1.91 168 169 172
-13.57 0.45 -1.91 168 169 172
-13.58 0.37 -1.90 168 169 172
-13.58 0.29 -1.90 168 169 172
-13.58 0.21 -1.90 168 169 172
-13.58 0.13 -1.89 168 170 170
-13.58 0.06 -1.90 168 170 170
-13.58 -0.02 -1.89 168 170 170
-13.59 -0.10 -1.89 168 170 170
-13.58 -0.18 -1.89 168 170 170
-13.59 -0.26 -1.89 168 170 170
-13.59 -0.34 -1.89 168 170 170
-13.59 -0.42 -1.88 168 170 170
-13.59 -0.50 -1.88 168 170 170
-13.60 -0.57 -1.88 168 170 170
-13.60 -0.65 -1.88 168 170 170
-13.60 -0.73 -1.87 168 170 170
-13.60 -0.81 -1.87 168 170 170
-13.60 -0.89 -1.87 168 170 170
-13.60 -0.97 -1.86 168 170 170
-13.61 -1.05 -1.85 168 170 170
-13.61 -1.13 -1.85 168 169 172
-13.62 -1.21 -1.84 168 169 172
-13.61 -1.28 -1.85 168 169 172
-13.62 -1.36 -1.84 168 169 172
-13.62 -1.44 -1.84 168 169 172
-13.63 -1.52 -1.83 168 169 172
-13.63 -1.60 -1.83 168 169 172
-13.63 -1.68 -1.83 168 169 172
-13.63 -1.76 -1.82 166 167 170
-13.64 -1.84 -1.81 166 167 170
-13.64 -1.92 -1.80 166 167 170
-13.64 -1.99 -1.80 166 167 170
-13.65 -2.07 -1.80 166 167 170
-13.64 -2.15 -1.80 166 167 170
-13.65 -2.23 -1.80 166 167 170
-13.65 -2.31 -1.80 166 167 170
-13.65 -2.39 -1.80 168 170 170
-13.65 -2.46 -1.80 168 170 170
-13.65 -2.54 -1.80 168 170 170
-13.65 -2.62 -1.80 168 170 170
-13.65 -2.70 -1.80 168 170 170
-13.65 -2.78 -1.80 168 170 170
-13.65 -2.85 -1.80 168 170 170
-13.65 -2.93 -1.80 169 171 171
-13.65 -3.01 -1.79 169 171 171
-13.65 -3.09 -1.80 169 171 171
-13.66 -3.17 -1.79 169 171 171
-13.66 -3.25 -1.78 169 171 171
-13.66 -3.32 -1.78 169 171 171
-13.66 -3.40 -1.78 169 171 171
-13.66 -3.48 -1.78 169 170 173
-13.66 -3.56 -1.78 170 171 174
-13.67 -3.64 -1.77 170 171 176
-13.66 -3.72 -1.77 170 171 176
-13.67 -3.79 -1.77 170 171 176
-13.67 -3.87 -1.77 170 171 176
-13.67 -3.95 -1.77 170 171 176
-13.67 -4.03 -1.77 170 171 176
-13.67 -4.11 -1.77 170 171 176
-13.67 -4.19 -1.77 170 171 176
-13.67 -4.26 -1.76 171 172 177
-13.67 -4.34 -1.76 171 172 177
-13.67 -4.42 -1.76 171 172 177
-13.67 -4.50 -1.77 171 172 177
-13.67 -4.58 -1.77 171 172 177
-13.66 -4.65 -1.78 171 172 177
-13.66 -4.73 -1.78 171 172 177
-13.66 -4.81 -1.79 171 172 177
-13.66 -4.89 -1.79 169 173 175
-13.66 -4.96 -1.79 169 173 175
-13.66 -5.04 -1.79 169 173 175
-13.66 -5.12 -1.78 169 173 175
-13.66 -5.20 -1.79 169 173 175
-13.66 -5.28 -1.79 169 173 175
-13.65 -5.36 -1.80 169 173 175
-13.66 -5.43 -1.78 169 173 175
-13.66 -5.51 -1.78 174 178 180
-13.66 -5.59 -1.78 168 172 174
-13.64 -5.67 -1.81 169 173 175
-13.66 -5.75 -1.78 167 171 173
-13.84 -5.84 -1.52 174 178 180
-14.15 -5.93 -1.06 225 229 231
-14.29 -6.02 -0.85 248 252 254
-14.32 -6.09 -0.81 244 248 250
-14.31 -6.17 -0.83 246 251 250
-14.31 -6.24 -0.83 246 251 250
-14.32 -6.32 -0.82 246 251 250
-14.31 -6.40 -0.82 246 251 250
-14.30 -6.47 -0.84 246 251 250
-14.31 -6.55 -0.83 246 251 250
-14.30 -6.62 -0.84 246 251 250
-14.31 -6.70 -0.83 246 251 250
-14.30 -6.78 -0.84 247 252 251
-14.29 -6.85 -0.85 247 252 251
-14.28 -6.93 -0.87 247 252 251
-14.28 -7.01 -0.87 247 252 251
-14.27 -7.08 -0.88 247 252 251
-14.27 -7.16 -0.89 247 252 251
-14.26 -7.23 -0.90 247 252 251
-14.26 -7.31 -0.90 247 252 251
-14.26 -7.39 -0.90 245 252 250
-14.25 -7.46 -0.92 245 252 250
-14.25 -7.54 -0.92 245 252 250
-14.24 -7.62 -0.94 245 252 250
-14.23 -7.69 -0.95 245 252 250
-14.23 -7.77 -0.95 245 252 250
-14.22 -7.85 -0.96 245 252 250
-14.21 -7.92 -0.98 245 252 250
-14.20 -8.00 -0.98 245 252 250
-14.19 -8.08 -1.00 245 252 250
-14.19 -8.15 -1.00 245 252 250
-14.19 -8.23 -1.01 245 252 250
-14.19 -8.30 -1.00 245 252 250
-14.18 -8.38 -1.02 245 252 250
-14.18 -8.46 -1.02 245 252 250
-14.18 -8.54 -1.02 245 252 250
-14.17 -8.61 -1.03 246 253 251
-14.18 -8.69 -1.02 246 253 251
-14.17 -8.76 -1.03 246 253 251
-14.18 -8.84 -1.01 246 253 251
-14.19 -8.92 -1.01 246 253 251
-14.19 -8.99 -1.00 246 253 251
-14.20 -9.07 -0.99 246 253 251
-14.21 -9.15 -0.98 246 253 251
-14.20 -9.22 -0.98 246 253 251
-14.21 -9.30 -0.98 246 253 251
-14.20 -9.38 -0.98 246 253 251
-14.21 -9.45 -0.98 246 253 251
-14.21 -9.53 -0.98 246 253 251
-14.21 -9.60 -0.98 246 253 251
-14.21 -9.68 -0.98 246 253 251
-14.21 -9.76 -0.97 246 253 251
-14.22 -9.83 -0.96 246 253 251
-14.23 -9.91 -0.94 246 253 251
-14.24 -9.98 -0.92 246 253 251
-14.26 -10.06 -0.91 246 253 251
-14.27 -10.13 -0.88 246 253 251
-14.28 -10.21 -0.87 246 253 251
-14.29 -10.28 -0.85 246 253 251
-14.31 -10.36 -0.83 246 253 251
-14.31 -10.43 -0.82 244 251 249
-14.31 -10.51 -0.82 244 251 249
-14.33 -10.58 -0.80 250 255 255
-14.34 -10.66 -0.79 248 255 253
-14.35 -10.73 -0.77 247 254 252
-14.35 -10.81 -0.77 247 254 252
-14.35 -10.88 -0.77 240 247 245
-14.36 -10.96 -0.75 241 248 246
-14.37 -11.03 -0.73 251 252 255
-14.37 -11.11 -0.73 243 244 247
-14.38 -11.18 -0.72 248 249 252
-14.41 -11.26 -0.68 247 248 251
-14.50 -11.32 -0.55 247 248 251
-14.58 -11.38 -0.44 225 226 229
-14.89 -11.41 0.03 201 202 205
-15.10 -11.45 0.34 172 173 176
-15.31 -11.49 0.63 86 87 90
-15.39 -11.54 0.76 44 45 48
-15.41 -11.61 0.78 11 12 15
-15.38 -11.69 0.73 7 8 11
-15.35 -11.77 0.70 17 18 21
-15.33 -11.85 0.67 30 31 34
-15.32 -11.92 0.65 41 42 45
-15.31 -12.00 0.63 45 46 49
-15.27 -12.08 0.57 40 43 54
-15.24 -12.16 0.54 39 42 53
-15.24 -12.23 0.53 37 40 51
-15.25 -12.30 0.56 36 39 50
-15.29 -12.37 0.61 29 32 43
-15.32 -12.43 0.65 25 28 39
-15.34 -12.50 0.68 30 33 44
-15.33 -12.58 0.67 40 43 54
-15.35 -12.65 0.70 35 38 49
-15.35 -12.72 0.70 37 40 51
-15.35 -12.79 0.70 34 37 48
-15.35 -12.87 0.70 30 33 44
-15.33 -12.94 0.67 33 36 47
-15.32 -13.02 0.65 34 37 48
-15.29 -13.10 0.61 29 32 43
-15.26 -13.18 0.56 25 28 39
-15.18 -13.27 0.45 23 27 31
-15.09 -13.37 0.32 44 48 52
-15.00 -13.46 0.18 87 91 93
-14.93 -13.55 0.09 138 142 144
-14.87 -13.64 -0.00 193 197 199
-14.81 -13.73 -0.10 238 242 244
-14.72 -13.83 -0.23 249 254 253
-14.65 -13.92 -0.33 253 255 255
-14.62 -14.01 -0.38 246 251 250
-14.59 -14.09 -0.42 246 251 250
-14.55 -14.18 -0.47 246 251 247
-14.53 -14.26 -0.51 246 251 247
-14.51 -14.34 -0.53 246 251 247
-14.49 -14.42 -0.57 246 251 247
-14.47 -14.50 -0.59 246 251 245
-14.46 -14.58 -0.61 246 251 245
-14.45 -14.66 -0.62 248 250 247
-14.44 -14.74 -0.64 248 250 247
-14.43 -14.82 -0.66 248 250 247
-14.42 -14.89 -0.67 248 250 247
-14.41 -14.97 -0.68 248 250 247
-14.42 -15.05 -0.67 248 250 247
-14.43 -15.12 -0.65 248 250 247
-14.45 -15.19 -0.63 248 250 247
-14.46 -15.26 -0.60 248 250 247
-14.47 -15.33 -0.59 248 250 247
-14.49 -15.40 -0.56 248 250 247
-14.50 -15.48 -0.55 248 250 247
-14.51 -15.55 -0.53 248 250 247
-14.52 -15.62 -0.52 248 250 247
-14.53 -15.69 -0.51 248 250 247
-14.54 -15.77 -0.49 248 250 247
-14.54 -15.84 -0.49 249 248 251
-14.54 -15.92 -0.49 248 247 250
-14.54 -15.99 -0.49 249 248 251
-14.53 -16.07 -0.50 249 248 251
-14.47 -16.17 -0.60 245 244 247
-14.36 -16.28 -0.75 236 235 238
-14.23 -16.40 -0.94 217 216 219
-14.13 -16.52 -1.10 201 200 203
-14.05 -16.62 -1.21 179 178 181
-14.02 -16.71 -1.25 182 181 184
-14.01 -16.79 -1.27 188 187 190
-14.01 -16.86 -1.27 192 191 194
-14.00 -16.95 -1.29 193 192 195
-13.99 -17.03 -1.29 190 189 192
-14.00 -17.10 -1.29 192 191 194
-13.99 -17.18 -1.30 193 192 195
-13.98 -17.26 -1.31 194 192 200
-13.98 -17.34 -1.31 194 192 200
-13.97 -17.42 -1.33 194 192 200
-13.96 -17.50 -1.34 194 192 200
-13.96 -17.58 -1.34 194 192 200
-13.97 -17.65 -1.33 194 192 200
-13.96 -17.73 -1.34 194 192 200
-13.96 -17.81 -1.34 194 192 200
-13.96 -17.89 -1.34 194 192 200
-13.96 -17.96 -1.34 194 192 200
-13.96 -18.04 -1.34 194 192 200
-13.95 -18.12 -1.35 194 192 200
-13.95 -18.20 -1.35 194 192 200
-13.94 -18.28 -1.37 194 192 200
-13.93 -18.36 -1.38 194 192 200
-13.93 -18.44 -1.38 194 192 200
-13.93 -18.52 -1.39 194 193 198
-13.92 -18.60 -1.39 194 193 198
-13.93 -18.67 -1.38 194 193 198
-13.92 -18.75 -1.39 194 193 198
-13.93 -18.83 -1.39 194 193 198
-13.93 -18.90 -1.39 194 193 198
-13.93 -18.98 -1.38 194 193 198
-13.94 -19.05 -1.37 194 193 198
-13.95 -19.13 -1.36 193 192 197
-13.95 -19.20 -1.36 190 189 194
-13.96 -19.28 -1.34 186 185 190
-13.97 -19.35 -1.33 183 182 187
-13.98 -19.42 -1.31 183 182 187
-14.00 -19.49 -1.28 181 180 185
-14.02 -19.56 -1.26 176 175 180
-14.02 -19.63 -1.25 174 173 178
-14.03 -19.70 -1.23 177 175 176
-14.04 -19.78 -1.23 171 169 170
-14.04 -19.85 -1.22 162 159 163
-14.06 -19.92 -1.20 172 169 173
-14.06 -20.00 -1.19 157 154 158
-14.08 -20.07 -1.17 75 72 76
-14.07 -20.15 -1.18 27 24 30
-14.05 -20.24 -1.21 41 38 44
-13.97 -20.35 -1.32 47 44 50
-13.86 -20.49 -1.49 48 45 51
-13.83 -20.58 -1.53 51 47 56
-13.81 -20.66 -1.56 52 48 57
-13.93 -20.68 -1.38 53 49 58
-14.21 -20.61 -0.97 53 49 58
-14.75 -20.41 -0.18 52 48 59
-15.09 -20.31 0.31 52 48 59
-15.06 -20.40 0.27 43 50 45
-15.37 -20.31 0.73 35 42 37
-15.43 -20.35 0.82 26 33 45
-15.38 -20.45 0.75 13 20 32
-15.36 -20.53 0.72 15 22 59
-15.32 -20.63 0.65 51 58 95
-15.28 -20.72 0.60 53 59 119
-15.25 -20.81 0.56 46 52 112
-15.24 -20.89 0.53 43 47 119
-15.24 -20.96 0.54 42 46 118
-15.24 -21.04 0.54 42 46 116
-15.24 -21.11 0.53 32 36 106
-15.20 -21.21 0.48 10 13 74
-15.19 -21.29 0.46 13 16 77
-15.14 -21.39 0.39 46 48 100
-15.07 -21.50 0.29 59 61 113
-14.92 -21.66 0.07 67 79 101
-14.73 -21.84 -0.21 62 74 96
-14.64 -21.97 -0.35 49 61 85
-14.59 -22.07 -0.41 43 55 79
-14.62 -22.14 -0.38 47 54 79
-14.64 -22.20 -0.35 37 44 69
-14.62 -22.28 -0.37 41 47 68
-14.48 -22.44 -0.58 59 65 86
-14.22 -22.67 -0.96 99 102 120
-14.02 -22.87 -1.25 142 145 163
-13.99 -22.97 -1.30 162 165 176
-14.01 -23.03 -1.27 153 156 167
-13.98 -23.12 -1.31 156 156 166
-13.99 -23.20 -1.30 152 152 162
-13.97 -23.28 -1.32 149 147 157
-13.97 -23.36 -1.33 150 148 158
-13.98 -23.43 -1.31 154 148 153
-13.99 -23.51 -1.30 162 156 161
-14.00 -23.57 -1.28 169 163 168
-14.00 -23.65 -1.28 171 165 170
-14.00 -23.73 -1.28 167 161 166
-13.98 -23.82 -1.31 163 157 162
-13.97 -23.90 -1.32 167 161 166
-13.97 -23.98 -1.33 169 163 168
-13.96 -24.06 -1.34 149 143 148
-13.94 -24.15 -1.37 148 142 147
-13.93 -24.24 -1.38 147 141 146
-13.93 -24.32 -1.39 145 139 144
-13.92 -24.39 -1.39 143 137 142
-13.92 -24.47 -1.39 142 136 141
-13.94 -24.54 -1.37 140 134 139
-13.96 -24.61 -1.34 140 134 139
-13.98 -24.67 -1.31 116 107 118
-14.00 -24.73 -1.29 93 84 95
-14.02 -24.79 -1.25 73 64 75
-14.05 -24.85 -1.21 62 53 64
-14.07 -24.92 -1.18 48 39 50
-14.11 -24.97 -1.13 44 35 46
-14.16 -25.00 -1.04 56 47 58
-14.22 -25.04 -0.96 66 57 68
-14.28 -25.07 -0.87 77 68 79
-14.35 -25.10 -0.77 76 67 78
-14.40 -25.14 -0.69 79 70 81
-14.45 -25.19 -0.62 76 67 78
-14.48 -25.24 -0.58 68 59 70
-14.50 -25.30 -0.55 51 42 53
-14.52 -25.36 -0.52 48 39 50
-14.54 -25.43 -0.49 48 39 50
-14.56 -25.48 -0.46 51 43 51
-14.58 -25.55 -0.44 76 68 76
-14.60 -25.61 -0.41 101 93 101
-14.61 -25.68 -0.39 133 125 133
-14.62 -25.75 -0.38 161 153 161
-14.62 -25.82 -0.38 194 186 194
-14.63 -25.89 -0.36 211 203 211
-14.63 -25.96 -0.36 218 210 218
-14.62 -26.04 -0.37 215 207 215
-14.62 -26.12 -0.37 222 214 222
-14.62 -26.19 -0.37 222 214 222
-14.62 -26.27 -0.38 218 210 218
-14.62 -26.34 -0.37 210 202 210
-14.62 -26.42 -0.38 210 202 210
-14.61 -26.50 -0.38 208 200 208
-14.61 -26.58 -0.39 207 199 207
-14.61 -26.66 -0.39 207 202 201
-14.60 -26.73 -0.40 213 208 207
-14.60 -26.81 -0.40 214 209 208
-14.60 -26.88 -0.40 211 206 205
-14.60 -26.96 -0.40 209 204 203
-14.60 -27.04 -0.40 209 204 203
-14.60 -27.12 -0.41 213 208 207
-14.59 -27.20 -0.42 216 211 210
-14.59 -27.27 -0.41 211 206 205
-14.59 -27.35 -0.42 211 206 205
-14.58 -27.43 -0.43 211 206 205
-14.57 -27.52 -0.45 211 206 205
-14.57 -27.59 -0.45 211 206 205
-14.56 -27.67 -0.46 211 206 205
-14.55 -27.76 -0.47 211 206 205
-14.55 -27.84 -0.48 211 206 205
-14.54 -27.92 -0.49 212 207 209
-14.54 -27.99 -0.49 212 207 209
-14.54 -28.07 -0.49 212 207 209
-14.53 -28.15 -0.50 212 207 209
-14.54 -28.22 -0.49 212 207 209
-14.53 -28.30 -0.50 212 207 209
-14.54 -28.37 -0.49 212 207 209
-14.53 -28.45 -0.50 212 207 209
-14.53 -28.53 -0.51 212 207 209
-14.53 -28.60 -0.50 212 207 209
-14.53 -28.68 -0.51 212 207 209
-14.52 -28.76 -0.51 212 207 209
-14.53 -28.83 -0.51 212 207 209
-14.52 -28.91 -0.51 213 208 210
-14.52 -28.99 -0.51 214 209 211
-14.52 -29.06 -0.51 214 209 211
-14.52 -29.14 -0.52 214 209 211
-14.52 -29.22 -0.52 214 209 211
-14.52 -29.30 -0.53 214 209 211
-14.52 -29.37 -0.52 214 209 211
-14.52 -29.44 -0.52 214 209 211
-14.53 -29.51 -0.51 214 209 211
-14.52 -29.59 -0.51 214 209 211
-14.53 -29.66 -0.50 214 209 211
-14.54 -29.73 -0.49 214 209 211
-14.55 -29.79 -0.48 214 209 211
-14.56 -29.86 -0.47 214 209 211
-14.57 -29.93 -0.44 214 209 211
-14.59 -29.99 -0.42 214 209 211
-14.60 -30.05 -0.40 214 209 211
-14.61 -30.12 -0.39 214 209 211
-14.62 -30.18 -0.37 214 209 211
-14.64 -30.24 -0.35 215 208 206
-14.65 -30.31 -0.33 212 205 203
-14.65 -30.38 -0.32 213 206 204
-14.66 -30.44 -0.31 218 211 209
-14.68 -30.51 -0.29 212 207 204
-14.70 -30.56 -0.26 210 205 202
-14.73 -30.61 -0.22 228 226 222
-14.78 -30.63 -0.14 245 243 239
-14.88 -30.62 0.01 201 201 196
-15.00 -30.58 0.18 199 199 194
-15.11 -30.55 0.35 181 183 178
-15.17 -30.57 0.44 242 244 239
-15.21 -30.60 0.50 247 252 246
-15.26 -30.63 0.57 241 246 240
-15.29 -30.67 0.61 233 240 233
-15.21 -30.83 0.49 229 236 229
-14.05 17.27 -1.33 115 121 153
-14.11 17.14 -1.24 116 122 154
-14.15 17.02 -1.19 119 123 154
-14.14 16.96 -1.20 123 127 158
-14.20 16.82 -1.11 125 130 156
-14.22 16.72 -1.08 124 129 155
-14.21 16.65 -1.09 124 127 149
-14.22 16.58 -1.09 123 126 148
-14.19 16.52 -1.13 124 127 147
-14.16 16.47 -1.17 123 126 146
-14.13 16.42 -1.21 124 126 142
-14.08 16.40 -1.29 124 126 142
-14.00 16.39 -1.40 121 124 135
-13.95 16.36 -1.48 120 123 134
-13.92 16.31 -1.52 126 126 134
-13.88 16.27 -1.59 133 133 141
-13.82 16.24 -1.67 134 125 136
-13.80 16.19 -1.70 135 126 137
-13.78 16.13 -1.73 136 128 136
-13.74 16.08 -1.78 137 129 137
-13.77 15.98 -1.74 136 131 133
-13.73 15.94 -1.80 135 130 132
-13.79 15.80 -1.71 129 130 135
-14.02 15.53 -1.38 128 129 134
-14.53 14.99 -0.62 125 133 151
-15.27 14.27 0.46 124 132 150
-15.78 13.74 1.22 98 114 152
-16.01 13.47 1.55 69 85 123
-16.01 13.40 1.54 27 52 107
-15.91 13.42 1.40 10 35 90
-15.84 13.41 1.30 9 39 102
-15.79 13.38 1.23 15 45 108
-15.77 13.32 1.19 116 117 165
-15.53 13.46 0.84 135 136 184
-14.58 14.19 -0.55 134 139 145
-13.85 14.74 -1.62 130 135 141
-13.74 14.76 -1.78 135 137 132
-13.74 14.68 -1.79 135 137 132
-13.68 14.66 -1.88 138 132 139
-13.67 14.59 -1.89 141 135 142
-13.69 14.49 -1.86 144 133 140
-13.69 14.41 -1.86 144 133 140
-13.69 14.33 -1.86 148 135 132
-13.69 14.26 -1.86 148 135 132
-13.68 14.18 -1.87 152 133 135
-13.68 14.11 -1.87 152 133 135
-13.68 14.03 -1.88 149 136 146
-13.68 13.95 -1.88 150 137 147
-13.68 13.88 -1.88 148 137 144
-13.67 13.80 -1.89 148 137 144
-13.66 13.73 -1.90 147 139 147
-13.66 13.65 -1.90 147 139 147
-13.66 13.58 -1.91 146 140 147
-13.65 13.50 -1.92 146 140 147
-13.65 13.43 -1.92 146 140 147
-13.64 13.35 -1.93 146 140 147
-13.64 13.28 -1.93 147 141 148
-13.63 13.21 -1.95 147 141 148
-13.63 13.13 -1.95 148 142 149
-13.62 13.06 -1.96 148 142 149
-13.61 12.99 -1.97 149 143 150
-13.61 12.91 -1.98 149 143 150
-13.60 12.84 -1.99 150 144 149
-13.60 12.76 -1.99 152 146 151
-13.59 12.69 -2.00 152 147 149
-13.60 12.61 -2.00 152 147 149
-13.59 12.53 -2.00 152 147 149
-13.60 12.45 -1.99 152 147 149
-13.60 12.37 -1.99 152 147 149
-13.60 12.29 -2.00 153 148 150
-13.60 12.21 -2.00 153 148 150
-13.60 12.14 -2.00 153 148 150
-13.59 12.06 -2.00 153 148 150
-13.59 11.98 -2.00 153 148 150
-13.59 11.91 -2.01 153 148 150
-13.58 11.83 -2.02 153 148 150
-13.59 11.75 -2.01 154 149 151
-13.58 11.68 -2.02 155 150 152
-13.58 11.60 -2.02 153 151 152
-13.58 11.52 -2.02 153 151 152
-13.58 11.44 -2.02 153 151 152
-13.58 11.36 -2.02 154 152 153
-13.59 11.28 -2.01 154 152 153
-13.59 11.20 -2.00 155 153 154
-13.60 11.12 -2.00 155 153 154
-13.60 11.03 -1.99 157 155 156
-13.61 10.95 -1.98 158 156 157
-13.61 10.87 -1.98 158 156 157
-13.62 10.79 -1.97 158 156 157
-13.62 10.71 -1.96 158 156 157
-13.63 10.63 -1.96 158 156 157
-13.63 10.54 -1.95 158 156 157
-13.63 10.47 -1.95 158 156 157
-13.63 10.39 -1.95 159 157 158
-13.63 10.31 -1.95 162 156 161
-13.63 10.23 -1.95 162 156 161
-13.63 10.16 -1.95 162 157 159
-13.63 10.08 -1.95 162 157 159
-13.63 10.00 -1.96 163 158 160
-13.62 9.92 -1.96 163 158 160
-13.62 9.85 -1.96 164 159 161
-13.62 9.77 -1.96 164 159 161
-13.62 9.69 -1.96 166 161 163
-13.62 9.61 -1.96 167 162 164
-13.61 9.54 -1.97 167 162 164
-13.61 9.46 -1.97 167 162 164
-13.62 9.38 -1.97 167 162 164
-13.62 9.30 -1.97 167 162 164
-13.62 9.22 -1.97 167 162 164
-13.62 9.14 -1.96 167 162 164
-13.62 9.06 -1.96 167 162 164
-13.63 8.98 -1.96 169 164 166
-13.62 8.91 -1.96 169 163 170
-13.62 8.83 -1.97 169 163 170
-13.61 8.76 -1.98 169 163 170
-13.61 8.68 -1.98 169 163 170
-13.60 8.60 -1.99 169 163 170
-13.60 8.53 -1.99 170 164 171
-13.60 8.45 -1.99 173 167 174
-13.60 8.37 -1.99 174 168 175
-13.60 8.29 -2.00 174 168 175
-13.60 8.21 -1.99 174 168 175
-13.60 8.13 -1.99 174 168 175
-13.60 8.06 -1.99 174 168 175
-13.61 7.98 -1.98 172 169 175
-13.62 7.89 -1.97 173 170 176
-13.62 7.81 -1.97 174 171 175
-13.62 7.73 -1.97 174 171 175
-13.62 7.65 -1.96 175 172 178
-13.62 7.58 -1.96 176 173 179
-13.62 7.50 -1.96 179 176 182
-13.63 7.42 -1.96 180 177 183
-13.63 7.34 -1.96 180 177 183
-13.63 7.26 -1.96 181 178 184
-13.63 7.18 -1.95 181 178 184
-13.63 7.10 -1.95 181 178 184
-13.63 7.02 -1.95 181 178 184
-13.63 6.94 -1.95 182 179 185
-13.63 6.87 -1.95 182 179 183
-13.63 6.79 -1.95 183 180 184
-13.62 6.71 -1.96 183 180 184
-13.62 6.63 -1.96 184 181 185
-13.63 6.55 -1.96 185 185 185
-13.63 6.48 -1.96 185 185 185
-13.62 6.40 -1.96 186 186 186
-13.62 6.32 -1.96 187 187 187
-13.62 6.24 -1.96 187 187 187
-13.63 6.16 -1.96 187 187 187
-13.62 6.09 -1.96 187 187 187
-13.63 6.00 -1.94 187 187 187
-13.63 5.93 -1.95 187 187 187
-13.63 5.85 -1.94 187 187 187
-13.63 5.77 -1.94 187 187 187
-13.64 5.69 -1.94 187 187 187
-13.63 5.61 -1.94 187 187 187
-13.63 5.53 -1.95 187 187 187
-13.63 5.45 -1.94 187 187 187
-13.63 5.38 -1.96 187 187 187
-13.63 5.30 -1.95 187 187 187
-13.63 5.22 -1.95 187 187 187
-13.64 5.14 -1.94 187 187 187
-13.64 5.06 -1.94 186 186 186
-13.64 4.98 -1.94 185 184 187
-13.64 4.90 -1.94 185 184 187
-13.64 4.82 -1.93 185 184 187
-13.64 4.75 -1.93 185 184 187
-13.64 4.67 -1.94 185 184 187
-13.64 4.59 -1.94 183 182 185
-13.64 4.51 -1.94 182 181 184
-13.64 4.43 -1.94 181 180 183
-13.64 4.36 -1.94 181 180 183
-13.63 4.28 -1.94 181 180 183
-13.63 4.20 -1.95 181 180 183
-13.63 4.13 -1.95 181 180 183
-13.63 4.05 -1.95 181 180 183
-13.63 3.97 -1.96 181 180 183
-13.63 3.89 -1.95 181 180 185
-13.63 3.81 -1.96 180 179 184
-13.63 3.74 -1.96 179 177 185
-13.62 3.66 -1.96 179 177 185
-13.63 3.58 -1.96 178 176 184
-13.62 3.50 -1.96 178 176 184
-13.63 3.42 -1.96 176 174 182
-13.62 3.35 -1.96 176 174 182
-13.62 3.27 -1.96 175 173 181
-13.62 3.19 -1.96 174 172 180
-13.62 3.11 -1.96 174 172 180
-13.62 3.03 -1.96 174 172 180
-13.63 2.95 -1.95 174 172 180
-13.63 2.87 -1.96 174 172 180
-13.63 2.80 -1.96 174 172 180
-13.63 2.72 -1.95 174 172 180
-13.63 2.64 -1.95 174 172 180
-13.64 2.56 -1.94 174 172 180
-13.64 2.48 -1.93 174 173 178
-13.64 2.40 -1.93 173 172 177
-13.64 2.32 -1.93 171 172 175
-13.65 2.24 -1.92 171 172 175
-13.64 2.16 -1.93 171 172 175
-13.64 2.08 -1.93 171 172 175
-13.65 2.00 -1.92 171 172 175
-13.64 1.93 -1.93 171 172 175
-13.65 1.85 -1.92 170 171 174
-13.65 1.77 -1.92 169 170 173
-13.65 1.69 -1.92 169 170 173
-13.65 1.61 -1.92 169 170 173
-13.65 1.53 -1.92 169 170 173
-13.66 1.45 -1.91 169 170 173
-13.66 1.37 -1.91 169 170 173
-13.66 1.30 -1.91 169 170 173
-13.66 1.22 -1.90 169 170 173
-13.67 1.14 -1.89 169 170 173
-13.67 1.06 -1.89 169 170 173
-13.67 0.98 -1.89 169 170 173
-13.67 0.90 -1.89 169 170 173
-13.68 0.82 -1.88 169 170 173
-13.68 0.74 -1.88 168 169 172
-13.68 0.66 -1.87 168 169 172
-13.68 0.58 -1.87 168 169 172
-13.69 0.50 -1.86 168 169 172
-13.69 0.43 -1.86 168 169 172
-13.69 0.35 -1.86 168 169 172
-13.70 0.27 -1.85 168 169 172
-13.69 0.19 -1.86 168 169 172
-13.70 0.11 -1.85 168 170 170
-13.69 0.03 -1.85 168 170 170
-13.69 -0.04 -1.86 168 170 170
-13.70 -0.12 -1.85 168 170 170
-13.69 -0.20 -1.85 168 170 170
-13.70 -0.28 -1.85 168 170 170
-13.70 -0.36 -1.85 168 170 170
-13.70 -0.44 -1.85 168 170 170
-13.70 -0.51 -1.84 168 170 170
-13.71 -0.59 -1.84 168 170 170
-13.71 -0.67 -1.83 168 170 170
-13.71 -0.75 -1.83 168 170 170
-13.71 -0.83 -1.82 168 170 170
-13.71 -0.91 -1.82 168 170 170
-13.72 -0.99 -1.81 168 170 170
-13.73 -1.07 -1.81 168 170 170
-13.72 -1.14 -1.81 168 169 174
-13.73 -1.22 -1.80 168 169 174
-13.73 -1.30 -1.80 168 169 174
-13.74 -1.38 -1.79 168 169 174
-13.74 -1.46 -1.79 168 169 174
-13.74 -1.54 -1.78 168 169 174
-13.74 -1.62 -1.78 168 169 174
-13.74 -1.69 -1.79 168 169 174
-13.74 -1.77 -1.79 166 167 172
-13.75 -1.85 -1.78 166 167 172
-13.75 -1.93 -1.77 166 167 172
-13.76 -2.01 -1.76 166 167 172
-13.76 -2.09 -1.76 166 167 172
-13.76 -2.17 -1.76 166 167 172
-13.76 -2.24 -1.76 166 167 172
-13.76 -2.32 -1.75 166 167 172
-13.76 -2.40 -1.76 168 170 170
-13.76 -2.48 -1.76 168 170 170
-13.76 -2.56 -1.76 168 170 170
-13.76 -2.63 -1.76 168 170 170
-13.76 -2.71 -1.76 168 170 170
-13.76 -2.79 -1.76 168 170 170
-13.76 -2.87 -1.76 168 170 170
-13.75 -2.94 -1.77 169 171 171
-13.76 -3.02 -1.76 169 171 171
-13.76 -3.10 -1.76 169 171 171
-13.76 -3.18 -1.75 169 171 171
-13.76 -3.26 -1.76 169 171 171
-13.76 -3.34 -1.75 169 171 171
-13.77 -3.41 -1.74 169 171 171
-13.77 -3.49 -1.74 169 170 173
-13.77 -3.57 -1.74 170 171 174
-13.77 -3.65 -1.74 170 171 176
-13.77 -3.73 -1.74 170 171 176
-13.77 -3.80 -1.74 170 171 176
-13.78 -3.88 -1.73 170 171 176
-13.77 -3.96 -1.74 170 171 176
-13.77 -4.04 -1.75 170 171 176
-13.77 -4.12 -1.74 170 171 176
-13.77 -4.19 -1.74 170 171 176
-13.76 -4.27 -1.75 171 172 177
-13.76 -4.35 -1.76 171 172 177
-13.76 -4.43 -1.76 171 172 177
-13.76 -4.50 -1.76 171 172 177
-13.75 -4.58 -1.77 171 172 177
-13.74 -4.66 -1.78 171 172 177
-13.74 -4.74 -1.78 171 172 177
-13.75 -4.81 -1.78 171 172 177
-13.74 -4.89 -1.78 169 173 175
-13.75 -4.97 -1.78 169 173 175
-13.75 -5.05 -1.78 169 173 175
-13.75 -5.13 -1.77 169 173 175
-13.75 -5.20 -1.77 169 173 175
-13.76 -5.28 -1.76 169 173 175
-13.77 -5.36 -1.75 169 173 175
-13.77 -5.44 -1.74 169 173 175
-13.79 -5.52 -1.72 175 179 181
-13.81 -5.60 -1.68 168 172 174
-13.88 -5.68 -1.58 157 161 163
-14.10 -5.77 -1.26 162 166 168
-14.30 -5.86 -0.97 217 221 223
-14.38 -5.94 -0.84 249 253 255
-14.41 -6.02 -0.80 245 249 251
-14.43 -6.10 -0.78 242 246 248
-14.42 -6.17 -0.79 246 251 250
-14.42 -6.25 -0.79 246 251 250
-14.43 -6.32 -0.78 246 251 250
-14.43 -6.40 -0.77 246 251 250
-14.43 -6.48 -0.77 246 251 250
-14.42 -6.55 -0.79 246 251 250
-14.41 -6.63 -0.80 246 251 250
-14.41 -6.70 -0.80 246 251 250
-14.41 -6.78 -0.80 247 252 251
-14.41 -6.85 -0.81 247 252 251
-14.39 -6.93 -0.83 247 252 251
-14.38 -7.01 -0.84 247 252 251
-14.38 -7.08 -0.85 247 252 251
-14.37 -7.16 -0.86 247 252 251
-14.37 -7.23 -0.86 247 252 251
-14.37 -7.31 -0.86 247 252 251
-14.37 -7.39 -0.86 245 252 250
-14.36 -7.46 -0.88 245 252 250
-14.36 -7.54 -0.88 245 252 250
-14.34 -7.62 -0.90 245 252 250
-14.34 -7.69 -0.91 245 252 250
-14.33 -7.77 -0.92 245 252 250
-14.32 -7.84 -0.93 245 252 250
-14.32 -7.92 -0.94 245 252 250
-14.30 -8.00 -0.96 245 252 250
-14.30 -8.07 -0.97 245 252 250
-14.29 -8.15 -0.98 245 252 250
-14.29 -8.23 -0.98 245 252 250
-14.28 -8.30 -0.99 245 252 250
-14.28 -8.38 -0.99 245 252 250
-14.28 -8.46 -0.99 245 252 250
-14.28 -8.53 -0.99 245 252 250
-14.28 -8.61 -1.00 246 253 251
-14.27 -8.69 -1.00 246 253 251
-14.28 -8.76 -1.00 246 253 251
-14.28 -8.84 -0.99 246 253 251
-14.30 -8.91 -0.97 246 253 251
-14.30 -8.99 -0.97 246 253 251
-14.31 -9.06 -0.95 246 253 251
-14.31 -9.14 -0.95 246 253 251
-14.31 -9.22 -0.95 246 253 251
-14.31 -9.29 -0.94 246 253 251
-14.32 -9.37 -0.94 246 253 251
-14.32 -9.45 -0.93 246 253 251
-14.32 -9.52 -0.94 246 253 251
-14.32 -9.60 -0.94 246 253 251
-14.32 -9.67 -0.94 246 253 251
-14.32 -9.75 -0.93 246 253 251
-14.33 -9.83 -0.92 246 253 251
-14.34 -9.90 -0.91 246 253 251
-14.34 -9.98 -0.90 246 253 251
-14.36 -10.05 -0.88 246 253 251
-14.37 -10.13 -0.86 246 253 251
-14.38 -10.20 -0.84 246 253 251
-14.39 -10.28 -0.83 246 253 251
-14.40 -10.35 -0.82 246 253 251
-14.41 -10.43 -0.81 245 252 250
-14.41 -10.50 -0.80 241 248 246
-14.42 -10.58 -0.79 246 253 251
-14.43 -10.65 -0.77 245 252 250
-14.45 -10.72 -0.75 248 255 253
-14.43 -10.80 -0.77 254 255 255
-14.46 -10.88 -0.73 244 251 249
-14.47 -10.95 -0.71 245 252 250
-14.51 -11.02 -0.65 249 249 255
-14.58 -11.09 -0.56 243 243 251
-14.67 -11.15 -0.42 246 246 254
-14.85 -11.19 -0.16 234 234 242
-15.08 -11.23 0.18 205 205 213
-15.24 -11.28 0.41 141 141 149
-15.38 -11.33 0.63 67 67 75
-15.42 -11.40 0.69 8 8 16
-15.44 -11.47 0.71 6 6 14
-15.43 -11.54 0.70 16 16 24
-15.44 -11.61 0.71 32 32 40
-15.43 -11.69 0.70 39 39 47
-15.42 -11.76 0.68 36 36 44
-15.41 -11.84 0.66 35 35 43
-15.39 -11.92 0.64 38 38 46
-15.39 -11.99 0.64 39 39 47
-15.38 -12.06 0.62 41 43 57
-15.35 -12.14 0.59 36 38 52
-15.34 -12.22 0.57 33 35 49
-15.36 -12.29 0.60 34 36 50
-15.39 -12.35 0.64 35 37 51
-15.41 -12.42 0.66 35 37 51
-15.41 -12.49 0.68 37 39 53
-15.41 -12.57 0.68 40 42 56
-15.41 -12.64 0.67 41 43 57
-15.41 -12.71 0.68 42 44 58
-15.41 -12.79 0.67 39 41 55
-15.40 -12.86 0.65 35 37 51
-15.36 -12.95 0.59 33 35 49
-15.30 -13.03 0.51 25 27 41
-15.24 -13.12 0.42 25 27 41
-15.17 -13.21 0.32 34 36 50
-15.11 -13.30 0.22 79 83 87
-15.03 -13.39 0.11 136 140 144
-14.98 -13.48 0.04 184 188 190
-14.95 -13.56 -0.00 230 234 236
-14.91 -13.64 -0.06 233 237 239
-14.87 -13.73 -0.13 238 242 244
-14.81 -13.82 -0.21 246 251 250
-14.77 -13.90 -0.27 247 252 251
-14.72 -13.99 -0.35 246 251 250
-14.69 -14.07 -0.39 246 251 250
-14.66 -14.16 -0.43 246 251 247
-14.65 -14.24 -0.45 246 251 247
-14.63 -14.32 -0.48 246 251 247
-14.60 -14.40 -0.52 246 251 247
-14.59 -14.48 -0.54 246 251 245
-14.58 -14.56 -0.55 246 251 245
-14.57 -14.63 -0.56 248 250 247
-14.56 -14.71 -0.59 248 250 247
-14.55 -14.79 -0.60 248 250 247
-14.54 -14.87 -0.61 248 250 247
-14.54 -14.95 -0.61 248 250 247
-14.54 -15.02 -0.61 248 250 247
-14.55 -15.09 -0.60 248 250 247
-14.56 -15.16 -0.58 248 250 247
-14.58 -15.24 -0.55 248 250 247
-14.59 -15.31 -0.54 248 250 247
-14.60 -15.38 -0.52 248 250 247
-14.62 -15.45 -0.49 248 250 247
-14.63 -15.52 -0.48 248 250 247
-14.63 -15.60 -0.48 248 250 247
-14.65 -15.67 -0.45 248 250 247
-14.65 -15.74 -0.45 248 250 247
-14.66 -15.81 -0.44 245 244 247
-14.66 -15.89 -0.43 248 247 250
-14.66 -15.96 -0.44 250 249 252
-14.66 -16.04 -0.44 249 248 251
-14.66 -16.11 -0.44 246 245 248
-14.63 -16.20 -0.47 244 243 246
-14.58 -16.29 -0.55 239 238 241
-14.49 -16.40 -0.68 237 236 239
-14.40 -16.51 -0.82 201 200 203
-14.32 -16.61 -0.93 192 191 194
-14.26 -16.71 -1.02 180 179 182
-14.22 -16.80 -1.08 181 180 183
-14.18 -16.89 -1.14 186 185 188
-14.15 -16.98 -1.19 192 191 194
-14.13 -17.07 -1.22 190 189 192
-14.12 -17.15 -1.23 187 186 189
-14.10 -17.23 -1.26 194 192 200
-14.08 -17.31 -1.28 194 192 200
-14.08 -17.39 -1.29 194 192 200
-14.08 -17.47 -1.29 194 192 200
-14.08 -17.54 -1.28 194 192 200
-14.09 -17.62 -1.28 194 192 200
-14.09 -17.69 -1.27 194 192 200
-14.09 -17.77 -1.27 194 192 200
-14.10 -17.85 -1.26 194 192 200
-14.10 -17.92 -1.26 194 192 200
-14.10 -18.00 -1.26 194 192 200
-14.09 -18.08 -1.27 194 192 200
-14.09 -18.16 -1.27 194 192 200
-14.08 -18.24 -1.28 194 192 200
-14.07 -18.32 -1.30 194 192 200
-14.07 -18.40 -1.30 194 192 200
-14.06 -18.48 -1.32 194 193 198
-14.06 -18.56 -1.32 194 193 198
-14.05 -18.64 -1.33 194 193 198
-14.05 -18.71 -1.33 194 193 198
-14.05 -18.79 -1.33 194 193 198
-14.06 -18.86 -1.32 194 193 198
-14.06 -18.94 -1.31 194 193 198
-14.07 -19.01 -1.30 194 193 198
-14.07 -19.09 -1.30 193 192 197
-14.08 -19.16 -1.29 190 189 194
-14.08 -19.24 -1.29 186 185 190
-14.09 -19.31 -1.27 183 182 187
-14.10 -19.38 -1.26 183 182 187
-14.11 -19.46 -1.25 181 180 185
-14.12 -19.53 -1.22 176 175 180
-14.13 -19.60 -1.22 174 173 178
-14.13 -19.68 -1.22 173 171 172
-14.13 -19.75 -1.21 169 167 168
-14.14 -19.82 -1.20 176 173 177
-14.15 -19.90 -1.18 171 168 172
-14.15 -19.98 -1.19 102 99 103
-14.15 -20.05 -1.18 20 17 21
-14.14 -20.13 -1.20 30 27 33
-14.11 -20.23 -1.25 49 46 52
-14.07 -20.32 -1.30 48 45 51
-13.98 -20.44 -1.43 49 46 52
-13.93 -20.55 -1.51 51 47 56
-13.95 -20.62 -1.48 52 48 57
-14.00 -20.67 -1.41 53 49 58
-14.24 -20.62 -1.05 52 48 57
-14.66 -20.47 -0.43 51 47 58
-14.36 -20.71 -0.87 51 47 58
-14.66 -20.63 -0.44 43 46 57
-15.63 -20.19 0.99 39 42 53
-15.61 -20.27 0.96 35 37 64
-15.53 -20.39 0.84 22 24 51
-15.45 -20.50 0.72 23 26 75
-15.39 -20.61 0.64 56 59 108
-15.36 -20.70 0.60 56 57 130
-15.32 -20.79 0.54 49 50 123
-15.31 -20.87 0.53 47 50 129
-15.33 -20.94 0.54 50 53 132
-15.32 -21.01 0.53 47 51 125
-15.31 -21.09 0.53 34 38 112
-15.26 -21.19 0.44 13 16 79
-15.21 -21.29 0.37 3 6 69
-15.06 -21.45 0.16 41 45 97
-14.77 -21.69 -0.27 85 89 141
-14.49 -21.93 -0.69 130 139 152
-14.34 -22.09 -0.91 127 136 149
-14.36 -22.16 -0.88 125 133 149
-14.41 -22.20 -0.80 125 133 149
-14.40 -22.28 -0.81 116 124 140
-14.40 -22.36 -0.81 103 111 127
-14.38 -22.45 -0.85 105 113 122
-14.32 -22.56 -0.94 122 130 139
-14.19 -22.71 -1.12 152 156 160
-14.14 -22.82 -1.20 170 174 178
-14.09 -22.92 -1.27 170 171 174
-14.11 -22.99 -1.25 166 167 170
-14.10 -23.08 -1.26 166 167 172
-14.10 -23.15 -1.26 162 163 168
-14.11 -23.22 -1.25 160 158 170
-14.10 -23.31 -1.26 163 161 173
-14.10 -23.38 -1.26 162 156 161
-14.11 -23.45 -1.24 162 156 161
-14.12 -23.52 -1.23 163 157 162
-14.14 -23.59 -1.20 159 153 158
-14.14 -23.66 -1.20 155 149 154
-14.13 -23.75 -1.21 160 154 159
-14.13 -23.82 -1.21 170 164 169
-14.12 -23.91 -1.22 181 175 180
-14.11 -23.99 -1.24 185 179 184
-14.10 -24.07 -1.25 183 177 182
-14.09 -24.16 -1.27 174 168 173
-14.08 -24.24 -1.29 160 154 159
-14.06 -24.33 -1.31 145 139 144
-14.06 -24.41 -1.31 139 133 138
-14.06 -24.48 -1.31 141 135 140
-14.07 -24.56 -1.30 147 141 146
-14.07 -24.63 -1.30 150 141 154
-14.08 -24.70 -1.29 156 147 160
-14.09 -24.77 -1.27 149 140 153
-14.10 -24.84 -1.26 120 111 124
-14.11 -24.92 -1.25 84 75 88
-14.11 -24.99 -1.25 66 57 70
-14.14 -25.05 -1.20 62 53 66
-14.17 -25.10 -1.15 55 46 59
-14.22 -25.15 -1.09 62 53 66
-14.27 -25.19 -1.01 59 50 63
-14.32 -25.22 -0.93 68 59 72
-14.40 -25.25 -0.82 71 62 75
-14.46 -25.28 -0.72 77 68 81
-14.51 -25.33 -0.66 69 60 73
-14.55 -25.37 -0.60 72 63 76
-14.58 -25.42 -0.55 73 64 77
-14.62 -25.47 -0.50 73 58 68
-14.65 -25.52 -0.45 57 42 52
-14.68 -25.58 -0.41 42 27 37
-14.70 -25.64 -0.37 48 33 43
-14.72 -25.70 -0.35 61 46 56
-14.73 -25.77 -0.34 98 83 93
-14.74 -25.84 -0.32 138 123 133
-14.75 -25.90 -0.30 174 159 169
-14.76 -25.97 -0.29 203 188 198
-14.76 -26.05 -0.29 216 201 211
-14.76 -26.12 -0.29 230 215 225
-14.76 -26.20 -0.29 225 210 220
-14.76 -26.27 -0.29 220 205 215
-14.76 -26.35 -0.29 215 200 210
-14.76 -26.42 -0.29 216 201 211
-14.75 -26.50 -0.30 213 198 208
-14.74 -26.58 -0.31 202 197 196
-14.74 -26.66 -0.31 203 198 197
-14.73 -26.74 -0.33 207 202 201
-14.73 -26.81 -0.33 213 208 207
