ply
format ascii 1.0
element vertex 1585
property float x
property float y
property float z
property uchar red
property uchar green
property uchar blue
end_header
-7.75 -3.45 -3.76 172 178 169
-7.75 -3.54 -3.76 172 178 169
-7.75 -3.63 -3.76 172 178 169
-7.75 -3.72 -3.76 174 180 171
-7.75 -3.81 -3.76 174 180 171
-7.76 -3.90 -3.76 174 180 171
-7.76 -3.98 -3.76 174 180 171
-7.76 -4.07 -3.76 174 180 171
-7.75 -4.16 -3.76 174 180 171
-7.75 -4.25 -3.77 174 180 171
-7.75 -4.34 -3.77 174 180 171
-7.75 -4.43 -3.76 175 181 172
-7.74 -4.52 -3.77 174 181 174
-7.74 -4.61 -3.77 174 181 174
-7.75 -4.70 -3.77 174 181 174
-7.74 -4.79 -3.77 174 181 174
-7.74 -4.88 -3.77 174 181 174
-7.75 -4.97 -3.76 174 181 174
-7.75 -5.06 -3.77 174 181 174
-7.75 -5.15 -3.76 174 181 174
-7.75 -5.24 -3.76 175 182 175
-7.74 -5.33 -3.77 175 182 175
-7.74 -5.42 -3.77 175 182 175
-7.74 -5.51 -3.77 175 182 175
-7.74 -5.59 -3.78 175 182 175
-7.73 -5.68 -3.79 175 182 175
-7.72 -5.77 -3.80 175 182 175
-7.72 -5.86 -3.80 175 182 175
-7.71 -5.95 -3.81 176 183 176
-7.70 -6.04 -3.82 176 183 176
-7.71 -6.13 -3.81 176 183 176
-7.70 -6.22 -3.82 176 183 176
-7.70 -6.31 -3.82 176 183 176
-7.69 -6.40 -3.83 176 183 176
-7.69 -6.49 -3.84 176 183 176
-7.69 -6.58 -3.84 176 183 176
-7.68 -6.67 -3.85 178 185 178
-7.68 -6.76 -3.86 178 185 178
-7.66 -6.85 -3.87 178 185 178
-7.66 -6.94 -3.87 178 185 178
-7.65 -7.03 -3.88 178 185 178
-7.65 -7.12 -3.89 178 185 178
-7.64 -7.21 -3.90 178 185 178
-7.64 -7.30 -3.91 178 185 178
-7.62 -7.39 -3.93 178 185 180
-7.61 -7.48 -3.94 178 185 180
-7.60 -7.57 -3.95 178 185 180
-7.60 -7.66 -3.95 178 185 180
-7.58 -7.75 -3.98 178 185 180
-7.58 -7.84 -3.98 178 185 180
-7.56 -7.93 -4.00 178 185 180
-7.55 -8.02 -4.01 178 185 180
-7.55 -8.11 -4.02 176 183 178
-7.56 -8.20 -4.00 180 187 182
-7.56 -8.29 -4.00 177 184 179
-7.56 -8.38 -4.00 183 190 185
-7.56 -8.47 -4.00 185 192 187
-7.59 -8.55 -3.97 183 190 185
-7.58 -8.65 -3.98 180 187 182
-7.52 -8.74 -4.05 169 176 171
-7.61 -8.82 -3.94 176 181 180
-8.08 -8.89 -3.35 244 249 248
-8.49 -8.96 -2.83 253 255 255
-8.62 -9.04 -2.67 247 252 251
-8.62 -9.13 -2.67 252 255 255
-8.62 -9.21 -2.67 247 252 251
-8.63 -9.30 -2.65 242 247 246
-8.64 -9.39 -2.64 244 249 248
-8.65 -9.47 -2.63 245 250 249
-8.65 -9.56 -2.63 242 247 246
-8.64 -9.65 -2.64 242 247 246
-8.64 -9.74 -2.65 247 252 251
-8.63 -9.82 -2.66 246 251 250
-8.63 -9.91 -2.66 246 251 250
-8.62 -10.00 -2.67 248 253 252
-8.56 -10.09 -2.75 253 255 255
-8.40 -10.19 -2.95 226 233 231
-8.09 -10.31 -3.33 199 206 204
-7.86 -10.42 -3.63 178 185 183
-7.70 -10.52 -3.83 180 187 185
-7.64 -10.62 -3.90 185 192 190
-7.63 -10.71 -3.92 185 192 190
-7.66 -10.80 -3.88 187 194 192
-7.65 -10.89 -3.89 195 202 200
-7.66 -10.98 -3.88 187 194 192
-7.65 -11.07 -3.89 187 194 192
-7.65 -11.16 -3.89 188 195 193
-7.66 -11.25 -3.88 188 195 193
-7.65 -11.34 -3.89 188 195 193
-7.66 -11.42 -3.88 188 195 193
-7.65 -11.52 -3.89 187 194 192
-7.64 -11.61 -3.90 187 194 192
-7.65 -11.70 -3.89 189 194 193
-7.64 -11.79 -3.90 189 194 193
-7.64 -11.88 -3.90 189 194 193
-7.63 -11.97 -3.91 189 194 193
-7.62 -12.06 -3.92 189 194 193
-7.62 -12.15 -3.92 189 194 193
-7.62 -12.24 -3.93 189 194 193
-7.62 -12.33 -3.92 189 194 193
-7.61 -12.42 -3.94 191 196 195
-7.61 -12.51 -3.94 191 196 195
-7.60 -12.60 -3.95 191 196 195
-7.59 -12.69 -3.96 191 196 195
-7.59 -12.78 -3.96 190 197 192
-7.59 -12.87 -3.97 189 196 191
-7.58 -12.96 -3.97 189 196 191
-7.58 -13.05 -3.98 189 196 191
-7.56 -13.15 -4.00 188 195 190
-7.55 -13.24 -4.01 189 196 191
-7.55 -13.33 -4.02 190 197 190
-7.54 -13.42 -4.02 190 197 190
-7.53 -13.51 -4.04 189 196 191
-7.52 -13.61 -4.06 188 195 190
-7.51 -13.70 -4.06 185 191 192
-7.51 -13.79 -4.07 184 190 191
-7.49 -13.88 -4.09 177 183 186
-7.50 -13.97 -4.08 174 180 183
-7.49 -14.06 -4.09 161 168 166
-7.52 -14.15 -4.05 153 160 158
-7.55 -14.23 -4.02 139 145 148
-7.58 -14.32 -3.98 155 161 164
-7.61 -14.40 -3.94 10 15 25
-7.63 -14.48 -3.91 17 22 32
-7.63 -14.57 -3.91 25 30 65
-7.63 -14.66 -3.91 29 34 69
-7.62 -14.75 -3.92 29 35 77
-7.62 -14.85 -3.93 35 41 83
-7.61 -14.94 -3.94 42 47 96
-7.59 -15.03 -3.96 47 52 101
-7.59 -15.12 -3.96 50 58 106
-7.58 -15.22 -3.98 53 61 109
-7.58 -15.31 -3.98 37 44 79
-7.58 -15.39 -3.98 31 38 73
-7.59 -15.48 -3.96 38 47 58
-7.61 -15.57 -3.94 40 49 60
-7.65 -15.65 -3.89 39 45 46
-7.68 -15.73 -3.85 39 45 46
-7.74 -15.80 -3.78 41 46 42
-7.80 -15.87 -3.70 30 35 31
-7.86 -15.95 -3.62 28 26 27
-7.90 -16.03 -3.57 31 29 30
-7.95 -16.10 -3.52 38 40 37
-7.97 -16.19 -3.48 71 73 70
-8.01 -16.26 -3.44 122 128 119
-8.06 -16.34 -3.38 168 174 165
-8.10 -16.42 -3.33 198 201 191
-8.14 -16.49 -3.28 218 221 211
-8.18 -16.57 -3.23 217 216 207
-8.21 -16.65 -3.19 211 210 201
-8.25 -16.73 -3.13 204 203 194
-8.28 -16.80 -3.09 191 190 181
-8.31 -16.88 -3.05 181 182 174
-8.35 -16.96 -3.00 174 175 167
-8.38 -17.04 -2.98 170 176 163
-8.41 -17.12 -2.93 171 177 164
-8.44 -17.19 -2.89 172 174 159
-8.49 -17.27 -2.84 173 175 160
-8.52 -17.34 -2.79 172 173 161
-8.57 -17.42 -2.73 173 174 162
-8.61 -17.49 -2.68 173 174 162
-8.67 -17.56 -2.61 173 174 162
-8.70 -17.64 -2.57 175 176 166
-8.73 -17.71 -2.53 175 176 166
-8.77 -17.79 -2.48 176 177 167
-8.80 -17.86 -2.44 176 177 167
-8.84 -17.94 -2.39 176 177 169
-8.87 -18.01 -2.36 176 177 169
-8.91 -18.08 -2.31 176 177 169
-8.94 -18.16 -2.26 175 176 168
-8.97 -18.23 -2.23 174 174 169
-9.00 -18.31 -2.19 175 175 170
-9.04 -18.38 -2.14 167 167 162
-9.07 -18.46 -2.11 164 164 159
-9.08 -18.54 -2.09 161 161 156
-9.11 -18.61 -2.05 160 160 155
-9.13 -18.69 -2.03 161 161 156
-9.16 -18.77 -1.99 161 161 156
-9.18 -18.85 -1.97 156 156 151
-9.20 -18.92 -1.94 156 156 151
-9.22 -19.00 -1.92 160 160 155
-9.23 -19.08 -1.90 156 156 151
-9.25 -19.16 -1.87 151 151 146
-9.28 -19.23 -1.84 146 146 141
-9.31 -19.31 -1.80 144 144 139
-9.34 -19.38 -1.77 145 145 140
-9.36 -19.46 -1.73 150 150 145
-9.39 -19.53 -1.71 154 154 149
-9.41 -19.61 -1.68 157 159 156
-9.43 -19.68 -1.64 156 158 155
-9.46 -19.76 -1.61 151 153 150
-9.50 -19.83 -1.57 137 139 136
-9.52 -19.90 -1.54 116 118 115
-9.56 -19.97 -1.49 84 86 83
-9.59 -20.04 -1.45 49 51 48
-9.63 -20.11 -1.40 25 27 24
-9.67 -20.18 -1.34 27 29 26
-9.71 -20.24 -1.29 27 29 26
-9.76 -20.31 -1.23 27 29 26
-9.81 -20.37 -1.17 28 30 27
-9.87 -20.43 -1.10 28 30 27
-9.93 -20.48 -1.02 29 31 28
-10.01 -20.53 -0.93 30 32 29
-10.07 -20.59 -0.85 31 33 30
-10.11 -20.65 -0.79 50 34 21
-10.16 -20.72 -0.74 20 4 0
-10.14 -20.81 -0.76 161 150 117
-9.95 -20.98 -1.00 255 246 213
-9.39 -21.32 -1.70 247 236 192
-9.05 -21.56 -2.13 228 217 173
-8.83 -21.74 -2.40 239 228 193
-8.47 -22.00 -2.85 214 203 168
-8.11 -22.26 -3.31 210 203 187
-8.22 -22.29 -3.17 212 205 189
-8.40 -22.29 -2.95 211 207 201
-8.41 -22.38 -2.94 221 217 211
-8.42 -22.46 -2.92 209 211 206
-8.42 -22.55 -2.92 213 215 210
-8.43 -22.63 -2.90 216 222 211
-8.42 -22.72 -2.91 207 213 202
-8.44 -22.80 -2.90 211 216 212
-8.44 -22.89 -2.89 211 216 212
-8.45 -22.97 -2.89 211 216 212
-8.46 -23.06 -2.87 211 216 212
-8.47 -23.14 -2.86 211 216 212
-8.48 -23.22 -2.85 211 216 212
-8.49 -23.30 -2.83 213 215 212
-8.50 -23.38 -2.82 215 217 214
-8.51 -23.46 -2.80 216 218 215
-8.51 -23.55 -2.81 216 218 215
-8.52 -23.63 -2.79 216 218 215
-8.51 -23.73 -2.80 216 218 215
-8.51 -23.81 -2.80 216 218 218
-8.52 -23.90 -2.79 216 218 218
-8.52 -23.98 -2.79 216 218 215
-8.52 -24.07 -2.79 218 220 217
-8.51 -24.16 -2.80 218 220 217
-8.51 -24.25 -2.80 218 220 217
-8.51 -24.34 -2.80 218 220 217
-8.51 -24.43 -2.81 218 220 217
-8.51 -24.51 -2.80 218 220 217
-8.51 -24.60 -2.81 218 220 217
-8.51 -24.69 -2.80 218 220 217
-8.51 -24.77 -2.80 218 220 217
-8.52 -24.86 -2.80 218 220 217
-8.52 -24.95 -2.79 218 220 217
-8.52 -25.03 -2.80 218 220 217
-8.53 -25.11 -2.78 218 220 217
-8.53 -25.20 -2.78 218 220 217
-8.54 -25.28 -2.77 218 220 217
-8.54 -25.37 -2.77 218 220 217
-8.54 -25.46 -2.76 218 220 217
-8.54 -25.54 -2.76 218 220 217
-8.55 -25.63 -2.76 218 220 217
-8.55 -25.71 -2.75 218 220 217
-8.55 -25.80 -2.76 218 220 217
-8.56 -25.88 -2.75 218 220 217
-8.56 -25.97 -2.74 218 220 217
-8.56 -26.06 -2.74 218 220 217
-8.57 -26.14 -2.73 218 220 217
-8.57 -26.23 -2.73 218 220 217
-8.58 -26.31 -2.72 219 221 218
-8.58 -26.39 -2.72 219 221 218
-8.58 -26.48 -2.71 219 221 218
-8.58 -26.57 -2.72 219 221 218
-8.58 -26.65 -2.71 219 221 218
-8.59 -26.74 -2.71 219 221 218
-8.59 -26.82 -2.70 219 221 218
-8.59 -26.91 -2.71 221 221 221
-8.60 -26.99 -2.70 221 221 221
-8.60 -27.08 -2.69 221 221 221
-8.60 -27.17 -2.69 221 221 221
-8.60 -27.25 -2.69 221 221 221
-8.60 -27.34 -2.69 221 221 221
-8.61 -27.42 -2.69 221 221 221
-8.61 -27.51 -2.68 222 222 222
-8.61 -27.59 -2.68 222 222 222
-8.61 -27.68 -2.68 222 222 222
-8.62 -27.76 -2.67 222 222 222
-8.62 -27.85 -2.67 222 222 222
-8.62 -27.94 -2.67 222 222 222
-8.62 -28.02 -2.66 222 222 222
-8.62 -28.11 -2.66 223 221 222
-8.62 -28.20 -2.66 223 221 222
-8.62 -28.29 -2.67 224 222 223
-8.63 -28.37 -2.66 224 222 223
-8.63 -28.45 -2.66 224 222 223
-8.63 -28.54 -2.65 224 222 223
-8.63 -28.62 -2.65 224 222 223
-8.64 -28.71 -2.65 224 222 223
-8.63 -28.80 -2.65 224 222 223
-8.64 -28.88 -2.64 225 223 224
-8.64 -28.97 -2.65 226 224 225
-8.64 -29.06 -2.65 226 224 225
-8.64 -29.14 -2.64 226 224 225
-8.64 -29.23 -2.64 226 224 225
-8.65 -29.31 -2.63 226 224 225
-8.65 -29.39 -2.63 226 224 225
-8.66 -29.48 -2.62 226 224 225
-8.66 -29.57 -2.62 226 224 225
-8.67 -29.65 -2.61 225 223 224
-8.67 -29.73 -2.61 225 223 224
-8.66 -29.82 -2.62 225 223 224
-8.67 -29.91 -2.61 225 223 224
-8.67 -29.99 -2.61 226 224 225
-8.67 -30.08 -2.61 228 226 227
-8.66 -30.17 -2.61 228 226 227
-8.67 -30.25 -2.61 228 226 227
-8.66 -30.34 -2.61 228 226 227
-8.66 -30.43 -2.62 228 226 227
-8.66 -30.52 -2.62 229 227 228
-8.66 -30.61 -2.62 230 228 229
-8.66 -30.70 -2.62 230 228 229
-8.65 -30.79 -2.63 229 227 228
-8.66 -30.87 -2.62 228 228 228
-8.66 -30.95 -2.61 228 228 228
-8.67 -31.04 -2.61 230 228 229
-8.67 -31.12 -2.61 230 228 229
-8.67 -31.21 -2.60 230 228 229
-8.67 -31.29 -2.60 230 228 229
-8.68 -31.38 -2.60 230 228 229
-8.68 -31.46 -2.60 230 228 229
-8.68 -31.55 -2.59 230 228 229
-8.68 -31.63 -2.59 230 228 229
-8.68 -31.72 -2.59 230 228 229
-8.68 -31.81 -2.59 231 229 230
-8.68 -31.90 -2.60 231 229 230
-8.68 -31.98 -2.60 232 230 231
-8.68 -32.07 -2.59 232 230 231
-8.69 -32.15 -2.58 233 231 232
-8.69 -32.24 -2.58 235 233 234
-8.69 -32.32 -2.58 235 233 234
-8.69 -32.41 -2.58 235 233 234
-8.69 -32.49 -2.58 235 233 234
-8.70 -32.58 -2.57 235 233 234
-8.69 -32.67 -2.58 235 233 234
-8.70 -32.75 -2.57 235 233 234
-8.70 -32.84 -2.57 235 233 234
-8.71 -32.91 -2.55 235 233 234
-8.72 -33.00 -2.55 235 233 234
-8.71 -33.09 -2.56 235 233 234
-8.71 -33.18 -2.56 235 233 234
-8.71 -33.26 -2.56 235 233 234
-8.71 -33.35 -2.56 235 233 234
-8.70 -33.44 -2.56 235 233 234
-8.70 -33.53 -2.57 235 233 234
-8.71 -33.61 -2.56 235 233 234
-8.71 -33.70 -2.56 235 233 234
-8.70 -33.79 -2.56 234 234 229
-8.71 -33.87 -2.55 234 234 229
-8.71 -33.95 -2.55 234 234 229
-8.73 -34.02 -2.53 234 234 229
-8.75 -34.10 -2.51 235 233 229
-8.76 -34.17 -2.49 235 233 229
-8.77 -34.25 -2.48 237 232 229
-8.76 -34.35 -2.50 237 232 229
-8.72 -34.47 -2.55 235 228 226
-8.87 -34.42 -2.36 241 234 232
-8.22 -35.08 -3.17 224 214 213
-8.48 20.64 -2.97 141 132 124
-8.45 20.58 -3.01 141 132 124
-8.47 20.48 -2.99 141 132 124
-8.46 20.40 -3.00 141 132 124
-8.46 20.31 -3.00 142 133 125
-8.47 20.22 -2.99 142 133 125
-8.42 20.17 -3.05 142 133 125
-8.42 20.09 -3.06 142 133 125
-8.41 20.00 -3.06 142 133 125
-8.40 19.92 -3.07 142 133 125
-8.40 19.84 -3.08 142 133 125
-8.39 19.76 -3.08 142 133 125
-8.39 19.67 -3.09 143 134 126
-8.38 19.59 -3.10 144 135 127
-8.37 19.51 -3.11 144 135 127
-8.36 19.43 -3.12 144 135 127
-8.37 19.34 -3.11 144 135 127
-8.36 19.26 -3.13 144 135 127
-8.35 19.18 -3.14 144 135 127
-8.34 19.09 -3.15 144 135 127
-8.34 19.01 -3.15 144 135 127
-8.33 18.93 -3.16 144 135 127
-8.32 18.85 -3.17 146 137 129
-8.32 18.77 -3.18 148 139 131
-8.30 18.69 -3.20 148 139 131
-8.29 18.61 -3.21 148 139 131
-8.28 18.53 -3.23 148 139 131
-8.27 18.45 -3.24 148 139 131
-8.26 18.37 -3.25 148 139 131
-8.25 18.29 -3.27 148 139 131
-8.24 18.21 -3.28 147 141 134
-8.23 18.13 -3.28 147 141 134
-8.22 18.05 -3.30 146 142 134
-8.21 17.97 -3.31 146 142 134
-8.21 17.89 -3.32 146 142 134
-8.20 17.80 -3.33 146 142 134
-8.19 17.72 -3.34 146 142 134
-8.19 17.64 -3.35 146 142 134
-8.18 17.56 -3.36 146 142 134
-8.18 17.47 -3.36 146 142 134
-8.18 17.38 -3.36 147 143 135
-8.17 17.30 -3.37 148 144 136
-8.17 17.21 -3.37 148 144 136
-8.17 17.12 -3.37 148 144 136
-8.16 17.04 -3.37 148 144 136
-8.16 16.95 -3.38 148 144 136
-8.15 16.87 -3.39 148 144 136
-8.15 16.78 -3.39 148 144 136
-8.15 16.69 -3.38 148 144 136
-8.15 16.60 -3.39 149 145 137
-8.15 16.52 -3.40 150 144 137
-8.15 16.43 -3.40 150 144 137
-8.15 16.34 -3.40 150 144 137
-8.14 16.26 -3.40 150 144 137
-8.14 16.17 -3.41 150 144 137
-8.13 16.08 -3.41 150 144 137
-8.13 16.00 -3.42 151 145 138
-8.12 15.92 -3.43 153 147 140
-8.12 15.83 -3.43 153 147 140
-8.11 15.75 -3.44 153 147 140
-8.11 15.66 -3.44 153 147 140
-8.10 15.58 -3.45 153 147 140
-8.09 15.49 -3.47 153 147 140
-8.09 15.41 -3.47 153 147 140
-8.08 15.32 -3.48 154 148 141
-8.08 15.23 -3.48 154 148 141
-8.07 15.15 -3.49 154 148 141
-8.06 15.07 -3.50 154 148 141
-8.06 14.98 -3.50 154 148 141
-8.05 14.90 -3.51 154 148 141
-8.05 14.82 -3.52 154 148 141
-8.05 14.73 -3.52 155 149 142
-8.04 14.64 -3.53 155 149 142
-8.04 14.56 -3.53 156 150 143
-8.03 14.47 -3.54 156 150 143
-8.02 14.39 -3.55 156 150 143
-8.02 14.30 -3.56 155 151 143
-8.02 14.22 -3.56 156 152 144
-8.01 14.13 -3.57 156 152 144
-8.00 14.05 -3.57 157 153 145
-8.00 13.96 -3.58 158 152 147
-8.00 13.87 -3.59 158 152 147
-8.00 13.78 -3.59 159 155 147
-8.00 13.70 -3.59 159 155 147
-8.00 13.61 -3.58 159 155 147
-7.99 13.52 -3.60 159 155 147
-7.98 13.44 -3.60 159 155 147
-7.98 13.35 -3.61 159 155 147
-7.98 13.26 -3.61 159 155 147
-7.98 13.18 -3.61 160 156 148
-7.97 13.09 -3.62 160 156 148
-7.97 13.00 -3.62 160 156 148
-7.97 12.91 -3.62 160 156 148
-7.96 12.83 -3.63 160 156 148
-7.96 12.74 -3.63 160 156 148
-7.96 12.65 -3.63 160 156 148
-7.96 12.56 -3.63 161 157 149
-7.97 12.47 -3.62 162 158 150
-7.97 12.38 -3.62 163 157 150
-7.96 12.29 -3.63 163 157 150
-7.96 12.21 -3.63 163 157 150
-7.96 12.12 -3.63 163 157 150
-7.96 12.03 -3.63 162 158 150
-7.96 11.94 -3.63 162 158 150
-7.96 11.85 -3.63 162 158 150
-7.96 11.76 -3.64 164 160 152
-7.96 11.67 -3.63 164 163 154
-7.96 11.58 -3.63 164 163 154
-7.96 11.49 -3.63 164 163 154
-7.96 11.40 -3.63 164 163 154
-7.96 11.31 -3.63 163 164 154
-7.96 11.23 -3.63 163 164 154
-7.97 11.13 -3.62 164 163 154
-7.96 11.05 -3.63 165 164 155
-7.96 10.96 -3.62 167 163 155
-7.96 10.87 -3.63 167 163 155
-7.96 10.78 -3.62 167 163 155
-7.96 10.69 -3.62 168 164 156
-7.96 10.60 -3.62 168 164 156
-7.96 10.51 -3.63 168 164 156
-7.96 10.42 -3.62 168 164 156
-7.96 10.33 -3.63 168 164 156
-7.96 10.24 -3.63 168 164 156
-7.97 10.15 -3.62 168 164 156
-7.96 10.07 -3.63 166 165 156
-7.95 9.98 -3.64 167 166 157
-7.96 9.89 -3.63 167 168 158
-7.96 9.80 -3.63 167 168 158
-7.96 9.71 -3.63 167 168 158
-7.95 9.63 -3.64 167 168 158
-7.95 9.54 -3.64 167 168 158
-7.95 9.45 -3.65 167 168 158
-7.95 9.36 -3.65 167 168 158
-7.94 9.28 -3.65 167 168 158
-7.94 9.19 -3.65 167 168 158
-7.94 9.10 -3.66 168 169 159
-7.93 9.01 -3.66 170 171 161
-7.93 8.93 -3.67 170 171 161
-7.93 8.84 -3.67 170 171 161
-7.93 8.75 -3.67 170 171 161
-7.93 8.66 -3.67 170 171 161
-7.93 8.57 -3.67 170 171 161
-7.93 8.48 -3.67 170 171 163
-7.93 8.39 -3.67 171 172 164
-7.93 8.30 -3.67 171 172 164
-7.93 8.21 -3.67 171 172 164
-7.93 8.12 -3.67 172 173 165
-7.93 8.03 -3.67 172 173 165
-7.92 7.95 -3.68 172 173 165
-7.92 7.86 -3.68 172 173 165
-7.91 7.77 -3.69 172 173 165
-7.91 7.69 -3.69 172 173 165
-7.91 7.60 -3.69 172 173 165
-7.91 7.51 -3.69 173 174 166
-7.91 7.42 -3.69 173 174 166
-7.90 7.33 -3.70 173 174 166
-7.90 7.24 -3.70 173 174 166
-7.90 7.15 -3.70 173 174 166
-7.90 7.07 -3.70 173 174 166
-7.91 6.98 -3.70 173 174 166
-7.91 6.88 -3.69 173 174 166
-7.91 6.79 -3.69 173 174 166
-7.91 6.70 -3.69 173 174 166
-7.91 6.62 -3.69 173 174 166
-7.92 6.53 -3.68 173 174 166
-7.91 6.44 -3.70 173 174 166
-7.91 6.35 -3.69 173 174 166
-7.90 6.26 -3.70 173 174 166
-7.91 6.17 -3.70 173 174 166
-7.91 6.08 -3.70 173 174 166
-7.90 6.00 -3.71 173 174 166
-7.89 5.91 -3.71 173 174 166
-7.89 5.82 -3.72 173 174 166
-7.89 5.73 -3.72 173 174 166
-7.88 5.65 -3.73 173 174 166
-7.88 5.56 -3.73 173 174 166
-7.88 5.47 -3.73 173 174 166
-7.88 5.38 -3.74 173 174 166
-7.87 5.29 -3.74 173 174 166
-7.87 5.21 -3.75 173 174 166
-7.87 5.12 -3.75 173 174 166
-7.86 5.03 -3.75 173 174 166
-7.86 4.94 -3.75 173 174 166
-7.87 4.85 -3.75 173 174 166
-7.87 4.76 -3.75 173 174 166
-7.87 4.67 -3.75 173 174 166
-7.88 4.58 -3.74 173 174 166
-7.88 4.49 -3.73 173 174 166
-7.88 4.40 -3.73 173 174 166
-7.89 4.31 -3.72 173 174 166
-7.89 4.22 -3.72 173 174 166
-7.90 4.12 -3.71 173 174 166
-7.91 4.03 -3.70 173 173 168
-7.91 3.94 -3.69 173 173 168
-7.91 3.85 -3.69 173 173 168
-7.91 3.76 -3.70 173 173 168
-7.90 3.68 -3.70 173 173 168
-7.90 3.59 -3.71 173 173 168
-7.89 3.50 -3.71 173 173 168
-7.89 3.41 -3.72 173 173 168
-7.89 3.32 -3.72 173 173 168
-7.89 3.24 -3.72 172 172 167
-7.88 3.15 -3.73 172 172 167
-7.88 3.06 -3.73 172 172 167
-7.88 2.97 -3.73 172 172 167
-7.88 2.88 -3.73 172 172 167
-7.88 2.79 -3.73 172 172 167
-7.88 2.70 -3.73 172 172 167
-7.88 2.61 -3.73 170 172 167
-7.88 2.52 -3.73 170 172 167
-7.88 2.43 -3.73 170 172 167
-7.88 2.35 -3.73 170 172 167
-7.88 2.26 -3.73 170 172 167
-7.89 2.17 -3.72 170 172 167
-7.88 2.08 -3.73 170 172 167
-7.88 1.99 -3.73 170 172 167
-7.88 1.90 -3.73 170 172 167
-7.89 1.81 -3.72 170 172 167
-7.89 1.72 -3.72 170 172 167
-7.89 1.63 -3.72 170 172 167
-7.89 1.54 -3.72 170 172 167
-7.89 1.45 -3.72 170 172 167
-7.90 1.36 -3.71 170 172 167
-7.90 1.27 -3.71 170 172 167
-7.90 1.18 -3.71 172 173 165
-7.90 1.09 -3.70 172 173 165
-7.90 1.00 -3.70 172 173 165
-7.90 0.91 -3.70 172 173 165
-7.91 0.82 -3.70 172 172 167
-7.91 0.73 -3.70 172 172 167
-7.90 0.64 -3.70 172 172 167
-7.91 0.55 -3.70 172 172 167
-7.91 0.46 -3.70 172 172 167
-7.91 0.37 -3.70 172 172 167
-7.91 0.28 -3.69 172 172 167
-7.91 0.19 -3.69 172 172 167
-7.91 0.11 -3.69 172 172 167
-7.91 0.02 -3.69 172 172 167
-7.91 -0.07 -3.69 172 172 167
-7.91 -0.16 -3.69 172 172 167
-7.91 -0.25 -3.69 170 172 167
-7.91 -0.34 -3.69 170 172 167
-7.91 -0.43 -3.69 168 173 167
-7.91 -0.52 -3.69 168 173 167
-7.92 -0.61 -3.68 168 173 167
-7.91 -0.70 -3.69 168 173 167
-7.93 -0.79 -3.67 168 173 167
-7.92 -0.88 -3.68 168 173 167
-7.92 -0.97 -3.68 169 174 168
-7.92 -1.05 -3.68 169 174 168
-7.92 -1.14 -3.68 169 174 168
-7.92 -1.23 -3.68 169 174 168
-7.92 -1.32 -3.68 169 174 168
-7.92 -1.41 -3.68 169 174 168
-7.92 -1.50 -3.68 171 173 168
-7.92 -1.59 -3.68 172 174 169
-7.92 -1.68 -3.68 172 174 169
-7.92 -1.77 -3.68 172 174 169
-7.91 -1.86 -3.69 172 174 169
-7.91 -1.95 -3.69 172 174 169
-7.91 -2.03 -3.70 172 174 169
-7.91 -2.12 -3.70 172 174 169
-7.90 -2.21 -3.70 172 174 169
-7.90 -2.30 -3.71 173 175 170
-7.90 -2.39 -3.71 174 176 171
-7.89 -2.48 -3.71 174 176 171
-7.89 -2.57 -3.72 174 176 171
-7.89 -2.66 -3.72 174 176 171
-7.89 -2.74 -3.72 174 176 171
-7.90 -2.83 -3.71 174 176 171
-7.90 -2.92 -3.71 172 177 171
-7.90 -3.01 -3.71 172 177 171
-7.90 -3.10 -3.71 172 177 171
-7.90 -3.19 -3.71 172 177 171
-7.90 -3.28 -3.71 172 178 169
-7.89 -3.37 -3.72 172 178 169
-7.90 -3.46 -3.71 172 178 169
-7.89 -3.55 -3.72 172 178 169
-7.90 -3.64 -3.71 172 178 169
-7.90 -3.73 -3.71 174 180 171
-7.90 -3.82 -3.71 174 180 171
-7.90 -3.91 -3.71 174 180 171
-7.90 -4.00 -3.71 174 180 171
-7.91 -4.09 -3.70 174 180 171
-7.90 -4.17 -3.70 174 180 171
-7.90 -4.26 -3.70 174 180 171
-7.90 -4.35 -3.71 174 180 171
-7.90 -4.44 -3.70 175 181 172
-7.90 -4.53 -3.71 174 181 174
-7.90 -4.62 -3.71 174 181 174
-7.90 -4.71 -3.71 174 181 174
-7.90 -4.80 -3.71 174 181 174
-7.90 -4.89 -3.71 174 181 174
-7.90 -4.98 -3.71 174 181 174
-7.90 -5.07 -3.71 174 181 174
-7.90 -5.16 -3.70 174 181 174
-7.90 -5.24 -3.71 175 182 175
-7.90 -5.33 -3.71 175 182 175
-7.89 -5.42 -3.72 175 182 175
-7.89 -5.51 -3.72 175 182 175
-7.88 -5.60 -3.73 175 182 175
-7.89 -5.69 -3.72 175 182 175
-7.87 -5.78 -3.74 175 182 175
-7.87 -5.87 -3.74 175 182 175
-7.86 -5.96 -3.76 176 183 176
-7.85 -6.05 -3.77 176 183 176
-7.85 -6.13 -3.76 176 183 176
-7.85 -6.22 -3.77 176 183 176
-7.85 -6.31 -3.77 176 183 176
-7.84 -6.40 -3.78 176 183 176
-7.84 -6.49 -3.79 176 183 176
-7.83 -6.58 -3.79 176 183 176
-7.82 -6.67 -3.80 178 185 178
-7.82 -6.76 -3.81 178 185 178
-7.81 -6.85 -3.82 178 185 178
-7.80 -6.94 -3.84 178 185 178
-7.79 -7.03 -3.85 178 185 178
-7.79 -7.12 -3.85 178 185 178
-7.78 -7.21 -3.86 178 185 178
-7.77 -7.30 -3.86 178 185 178
-7.76 -7.39 -3.88 178 185 180
-7.75 -7.48 -3.89 178 185 180
-7.75 -7.56 -3.90 178 185 180
-7.73 -7.65 -3.91 178 185 180
-7.73 -7.74 -3.92 178 185 180
-7.72 -7.83 -3.93 178 185 180
-7.71 -7.92 -3.95 178 185 180
-7.70 -8.01 -3.95 178 185 180
-7.70 -8.10 -3.96 177 184 179
-7.72 -8.19 -3.94 180 187 182
-7.71 -8.28 -3.94 180 187 182
-7.72 -8.37 -3.93 181 188 183
-7.74 -8.46 -3.91 185 192 187
-7.72 -8.55 -3.93 182 189 184
-7.69 -8.64 -3.97 174 181 176
-7.64 -8.73 -4.03 173 180 175
-8.02 -8.81 -3.56 233 238 237
-8.64 -8.87 -2.77 244 249 248
-8.76 -8.95 -2.62 251 255 255
-8.79 -9.03 -2.58 251 255 255
-8.77 -9.12 -2.61 244 249 248
-8.78 -9.21 -2.60 245 250 249
-8.79 -9.29 -2.59 248 253 252
-8.77 -9.38 -2.60 252 255 255
-8.77 -9.47 -2.61 245 250 249
-8.78 -9.55 -2.59 249 254 253
-8.79 -9.64 -2.59 251 255 255
-8.79 -9.73 -2.59 248 253 252
-8.78 -9.81 -2.60 247 252 251
-8.76 -9.90 -2.62 249 254 253
-8.75 -9.99 -2.64 249 254 253
-8.76 -10.08 -2.62 248 253 252
-8.77 -10.16 -2.61 247 254 252
-8.70 -10.26 -2.70 241 248 246
-8.59 -10.35 -2.83 226 233 231
-8.25 -10.47 -3.26 199 206 204
-7.96 -10.59 -3.63 182 189 187
-7.80 -10.70 -3.83 182 189 187
-7.78 -10.79 -3.86 182 189 187
-7.80 -10.88 -3.83 181 188 186
-7.81 -10.96 -3.82 183 190 188
-7.80 -11.05 -3.83 184 191 189
-7.80 -11.14 -3.84 185 192 190
-7.80 -11.23 -3.84 187 194 192
-7.80 -11.32 -3.83 187 194 192
-7.81 -11.41 -3.82 185 192 190
-7.80 -11.50 -3.83 184 191 189
-7.79 -11.59 -3.85 183 190 188
-7.80 -11.68 -3.84 189 194 193
-7.80 -11.77 -3.84 189 194 193
-7.80 -11.86 -3.83 189 194 193
-7.80 -11.95 -3.84 189 194 193
-7.79 -12.04 -3.85 189 194 193
-7.78 -12.13 -3.85 188 193 192
-7.78 -12.22 -3.86 188 193 192
-7.78 -12.31 -3.85 188 193 192
-7.78 -12.40 -3.86 190 195 194
-7.78 -12.49 -3.86 190 195 194
-7.77 -12.58 -3.87 190 195 194
-7.76 -12.67 -3.89 190 195 194
-7.75 -12.76 -3.89 189 196 191
-7.75 -12.85 -3.90 189 196 191
-7.74 -12.94 -3.91 189 196 191
-7.74 -13.03 -3.91 189 196 191
-7.73 -13.13 -3.93 188 195 190
-7.72 -13.22 -3.94 188 195 190
-7.72 -13.31 -3.94 189 196 189
-7.70 -13.40 -3.95 189 196 189
-7.70 -13.49 -3.96 189 196 191
-7.69 -13.58 -3.97 187 194 189
-7.68 -13.67 -3.98 185 191 192
-7.68 -13.76 -3.99 184 190 191
-7.66 -13.86 -4.01 177 183 186
-7.66 -13.95 -4.01 171 177 180
-7.66 -14.04 -4.01 168 175 173
-7.68 -14.12 -3.99 159 166 164
-7.70 -14.21 -3.96 144 150 153
-7.70 -14.30 -3.96 148 154 157
-7.72 -14.38 -3.94 34 39 49
-7.72 -14.47 -3.93 17 22 32
-7.72 -14.56 -3.93 23 28 63
-7.71 -14.65 -3.94 25 30 65
-7.70 -14.75 -3.95 23 29 71
-7.70 -14.84 -3.96 28 34 76
-7.68 -14.93 -3.98 31 36 85
-7.67 -15.02 -4.00 37 42 91
-7.66 -15.12 -4.01 40 48 96
-7.65 -15.21 -4.03 41 49 97
-7.64 -15.30 -4.04 23 30 65
-7.63 -15.39 -4.05 30 37 72
-7.63 -15.48 -4.04 33 42 53
-7.64 -15.57 -4.03 28 37 48
-7.67 -15.65 -4.00 32 38 39
-7.69 -15.74 -3.97 40 46 47
-7.73 -15.82 -3.92 46 51 47
-7.79 -15.89 -3.85 46 51 47
-7.86 -15.96 -3.75 59 57 58
-7.92 -16.03 -3.68 58 56 57
-7.97 -16.11 -3.62 42 44 41
-8.00 -16.19 -3.58 23 25 22
-8.04 -16.27 -3.53 6 12 3
-8.07 -16.35 -3.50 16 22 13
-8.11 -16.43 -3.44 73 76 66
-8.15 -16.50 -3.38 141 144 134
-8.19 -16.58 -3.34 200 199 190
-8.23 -16.66 -3.29 216 215 206
-8.27 -16.73 -3.24 231 230 221
-8.30 -16.81 -3.20 231 230 221
-8.34 -16.89 -3.15 216 217 209
-8.37 -16.97 -3.12 199 200 192
-8.40 -17.05 -3.08 186 192 179
-8.43 -17.12 -3.03 186 192 179
-8.46 -17.20 -3.00 174 176 161
-8.50 -17.28 -2.95 172 174 159
-8.53 -17.35 -2.91 168 169 157
-8.58 -17.43 -2.85 168 169 157
-8.62 -17.50 -2.80 171 172 160
-8.67 -17.57 -2.74 172 173 161
-8.72 -17.64 -2.68 172 173 163
-8.76 -17.72 -2.62 171 172 162
-8.80 -17.79 -2.57 175 176 166
-8.83 -17.87 -2.53 175 176 166
-8.87 -17.94 -2.48 176 177 169
-8.90 -18.01 -2.44 176 177 169
-8.94 -18.09 -2.40 176 177 169
-8.98 -18.16 -2.35 178 179 171
-9.01 -18.24 -2.31 179 179 174
-9.05 -18.31 -2.26 179 179 174
-9.07 -18.39 -2.23 170 170 165
-9.11 -18.46 -2.18 168 168 163
-9.14 -18.53 -2.15 166 166 161
-9.16 -18.61 -2.11 167 167 162
-9.19 -18.69 -2.08 170 170 165
-9.20 -18.77 -2.06 170 170 165
-9.23 -18.84 -2.02 168 168 163
-9.25 -18.92 -2.00 167 167 162
-9.28 -19.00 -1.97 171 171 166
-9.30 -19.07 -1.94 165 165 160
-9.33 -19.15 -1.91 161 161 156
-9.35 -19.22 -1.87 159 159 154
-9.38 -19.30 -1.84 154 154 149
-9.40 -19.37 -1.81 150 150 145
-9.44 -19.45 -1.77 147 147 142
-9.46 -19.52 -1.74 150 150 145
-9.48 -19.60 -1.71 145 147 144
-9.51 -19.67 -1.67 143 145 142
-9.54 -19.74 -1.64 142 144 141
-9.56 -19.82 -1.61 150 152 149
-9.60 -19.89 -1.57 156 158 155
-9.63 -19.96 -1.53 149 151 148
-9.66 -20.03 -1.48 129 131 128
-9.70 -20.10 -1.44 113 115 112
-9.74 -20.17 -1.39 67 69 66
-9.78 -20.23 -1.34 50 52 49
-9.83 -20.29 -1.27 25 27 24
-9.88 -20.36 -1.21 15 17 14
-9.93 -20.42 -1.15 17 19 16
-9.99 -20.48 -1.07 25 27 24
-10.06 -20.53 -0.99 30 32 29
-10.12 -20.58 -0.90 31 33 30
-10.18 -20.64 -0.83 66 50 37
-10.20 -20.71 -0.80 56 40 27
-10.17 -20.81 -0.84 201 190 157
-9.94 -21.00 -1.14 255 248 215
-9.44 -21.31 -1.77 237 226 182
-9.19 -21.51 -2.08 226 215 171
-9.21 -21.59 -2.05 247 236 201
-9.02 -21.76 -2.29 181 170 135
-8.33 -22.17 -3.17 185 178 162
-8.24 -22.30 -3.28 226 219 203
-8.46 -22.28 -3.00 216 212 206
-8.55 -22.33 -2.89 212 208 202
-8.56 -22.41 -2.87 208 210 205
-8.57 -22.50 -2.86 212 214 209
-8.59 -22.57 -2.84 216 222 211
-8.60 -22.66 -2.83 212 218 207
-8.60 -22.74 -2.82 211 216 212
-8.62 -22.82 -2.80 211 216 212
-8.62 -22.91 -2.80 211 216 212
-8.63 -22.99 -2.79 211 216 212
-8.63 -23.08 -2.78 211 216 212
-8.64 -23.16 -2.77 211 216 212
-8.65 -23.24 -2.76 213 215 212
-8.66 -23.32 -2.74 214 216 213
-8.68 -23.40 -2.73 216 218 215
-8.68 -23.49 -2.72 216 218 215
-8.68 -23.58 -2.73 216 218 215
-8.67 -23.67 -2.74 216 218 215
-8.67 -23.76 -2.74 216 218 218
-8.67 -23.84 -2.74 216 218 218
-8.66 -23.93 -2.74 216 218 215
-8.68 -24.01 -2.73 218 220 217
-8.66 -24.11 -2.75 218 220 217
-8.67 -24.19 -2.74 218 220 217
-8.67 -24.28 -2.73 218 220 217
-8.67 -24.36 -2.74 218 220 217
-8.67 -24.45 -2.74 218 220 217
-8.67 -24.54 -2.74 218 220 217
-8.67 -24.62 -2.74 218 220 217
-8.67 -24.71 -2.73 218 220 217
-8.68 -24.79 -2.73 218 220 217
-8.69 -24.88 -2.71 218 220 217
-8.69 -24.96 -2.71 218 220 217
-8.69 -25.05 -2.71 218 220 217
-8.69 -25.13 -2.71 218 220 217
-8.69 -25.22 -2.71 218 220 217
-8.70 -25.30 -2.70 218 220 217
-8.71 -25.39 -2.69 218 220 217
-8.71 -25.47 -2.69 218 220 217
-8.71 -25.56 -2.69 218 220 217
-8.71 -25.65 -2.69 218 220 217
-8.71 -25.73 -2.68 218 220 217
-8.71 -25.82 -2.68 218 220 217
-8.71 -25.91 -2.68 218 220 217
-8.72 -25.99 -2.68 218 220 217
-8.73 -26.07 -2.67 218 220 217
-8.73 -26.16 -2.67 218 220 217
-8.73 -26.24 -2.66 218 220 217
-8.73 -26.33 -2.66 219 221 218
-8.73 -26.42 -2.66 219 221 218
-8.74 -26.50 -2.65 219 221 218
-8.74 -26.58 -2.64 219 221 218
-8.74 -26.67 -2.64 219 221 218
-8.75 -26.75 -2.64 219 221 218
-8.75 -26.84 -2.64 221 221 221
-8.75 -26.92 -2.63 221 221 221
-8.75 -27.01 -2.63 221 221 221
-8.76 -27.09 -2.62 221 221 221
-8.76 -27.18 -2.63 221 221 221
-8.76 -27.26 -2.62 221 221 221
-8.76 -27.35 -2.62 221 221 221
-8.77 -27.43 -2.60 221 221 221
-8.77 -27.52 -2.61 222 222 222
-8.77 -27.60 -2.61 222 222 222
-8.77 -27.69 -2.61 222 222 222
-8.78 -27.78 -2.60 222 222 222
-8.78 -27.86 -2.60 222 222 222
-8.78 -27.95 -2.60 222 222 222
-8.77 -28.04 -2.61 223 221 222
-8.78 -28.12 -2.60 223 221 222
-8.78 -28.21 -2.60 224 222 223
-8.78 -28.29 -2.60 224 222 223
-8.78 -28.38 -2.59 224 222 223
-8.79 -28.46 -2.58 224 222 223
-8.79 -28.55 -2.58 224 222 223
-8.79 -28.63 -2.58 224 222 223
-8.80 -28.71 -2.57 224 222 223
-8.80 -28.80 -2.57 225 223 224
-8.80 -28.88 -2.57 226 224 225
-8.80 -28.97 -2.57 226 224 225
-8.80 -29.06 -2.57 226 224 225
-8.80 -29.15 -2.57 226 224 225
-8.80 -29.23 -2.57 226 224 225
-8.80 -29.32 -2.57 226 224 225
-8.80 -29.41 -2.57 226 224 225
-8.80 -29.49 -2.57 225 223 224
-8.80 -29.58 -2.57 224 222 223
-8.81 -29.66 -2.56 224 222 223
-8.81 -29.74 -2.55 224 222 223
-8.81 -29.83 -2.55 224 222 223
-8.81 -29.92 -2.56 226 224 225
-8.81 -30.01 -2.56 228 226 227
-8.81 -30.10 -2.56 228 226 227
-8.81 -30.18 -2.56 228 226 227
-8.81 -30.27 -2.56 228 226 227
-8.80 -30.36 -2.57 228 226 227
-8.80 -30.44 -2.57 229 227 228
-8.80 -30.53 -2.57 229 227 228
-8.81 -30.62 -2.56 229 227 228
-8.81 -30.70 -2.56 229 227 228
-8.81 -30.79 -2.56 228 228 228
-8.81 -30.87 -2.55 228 228 228
-8.82 -30.95 -2.55 230 228 229
-8.82 -31.04 -2.54 230 228 229
-8.82 -31.12 -2.54 230 228 229
-8.83 -31.21 -2.54 230 228 229
-8.83 -31.29 -2.54 230 228 229
-8.82 -31.39 -2.55 230 228 229
-8.83 -31.47 -2.54 230 228 229
-8.82 -31.56 -2.55 230 228 229
-8.83 -31.64 -2.53 230 228 229
-8.83 -31.72 -2.53 231 229 230
-8.83 -31.81 -2.53 231 229 230
-8.83 -31.90 -2.54 231 229 230
-8.83 -31.98 -2.53 232 230 231
-8.83 -32.07 -2.53 232 230 231
-8.83 -32.16 -2.53 233 231 232
-8.83 -32.24 -2.53 233 231 232
-8.83 -32.33 -2.53 233 231 232
-8.84 -32.41 -2.52 233 231 232
-8.84 -32.50 -2.53 233 231 232
-8.84 -32.59 -2.53 233 231 232
-8.84 -32.67 -2.52 233 231 232
-8.84 -32.75 -2.52 233 231 232
-8.85 -32.84 -2.51 233 231 232
-8.86 -32.92 -2.50 233 231 232
-8.85 -33.00 -2.50 233 231 232
-8.85 -33.09 -2.51 233 231 232
-8.85 -33.18 -2.51 233 231 232
-8.85 -33.27 -2.51 233 231 232
-8.85 -33.35 -2.51 233 231 232
-8.85 -33.44 -2.51 233 231 232
-8.85 -33.53 -2.51 233 231 232
-8.86 -33.61 -2.50 233 231 232
-8.85 -33.70 -2.50 234 234 229
-8.86 -33.78 -2.50 234 234 229
-8.85 -33.87 -2.51 234 234 229
-8.87 -33.95 -2.49 234 234 229
-8.87 -34.03 -2.48 235 233 229
-8.88 -34.11 -2.47 235 233 229
-8.90 -34.18 -2.44 237 232 229
-8.88 -34.28 -2.46 237 232 229
-8.91 -34.34 -2.43 234 227 225
-8.91 -34.43 -2.44 241 234 232
-9.00 -34.44 -2.32 236 226 225
-8.62 20.56 -2.93 141 132 124
-8.58 20.51 -2.98 141 132 124
-8.59 20.41 -2.97 141 132 124
-8.57 20.34 -2.99 141 132 124
-8.58 20.25 -2.98 141 132 124
-8.58 20.16 -2.98 141 132 124
-8.54 20.10 -3.02 141 132 124
-8.54 20.01 -3.02 141 132 124
-8.55 19.92 -3.02 142 133 125
-8.54 19.84 -3.03 142 133 125
-8.54 19.75 -3.03 142 133 125
-8.52 19.68 -3.05 142 133 125
-8.52 19.60 -3.06 142 133 125
-8.51 19.52 -3.07 143 134 126
-8.51 19.43 -3.07 143 134 126
-8.50 19.35 -3.08 143 134 126
-8.50 19.26 -3.08 144 135 127
-8.49 19.18 -3.09 144 135 127
-8.49 19.10 -3.10 144 135 127
-8.48 19.02 -3.11 144 135 127
-8.47 18.94 -3.12 144 135 127
-8.46 18.86 -3.13 144 135 127
-8.46 18.77 -3.13 146 137 129
-8.45 18.69 -3.15 148 139 131
-8.43 18.62 -3.16 148 139 131
-8.43 18.53 -3.17 148 139 131
-8.42 18.46 -3.19 148 139 131
-8.41 18.38 -3.20 148 139 131
-8.40 18.30 -3.21 148 139 131
-8.39 18.22 -3.22 148 139 131
-8.38 18.14 -3.23 147 141 134
-8.36 18.06 -3.25 147 141 134
-8.36 17.98 -3.26 146 142 134
-8.35 17.90 -3.27 146 142 134
-8.34 17.81 -3.28 146 142 134
-8.33 17.73 -3.29 146 142 134
-8.33 17.65 -3.30 146 142 134
-8.32 17.56 -3.31 146 142 134
-8.32 17.48 -3.31 146 142 134
-8.32 17.39 -3.31 146 142 134
-8.31 17.31 -3.32 147 143 135
-8.31 17.22 -3.32 148 144 136
-8.30 17.14 -3.33 148 144 136
-8.30 17.05 -3.33 148 144 136
-8.30 16.97 -3.34 148 144 136
-8.29 16.88 -3.34 148 144 136
-8.30 16.79 -3.34 148 144 136
-8.29 16.70 -3.34 148 144 136
-8.28 16.62 -3.35 148 144 136
-8.29 16.53 -3.35 149 145 137
-8.28 16.45 -3.36 150 144 137
-8.28 16.36 -3.36 150 144 137
-8.28 16.28 -3.36 150 144 137
-8.27 16.19 -3.37 150 144 137
-8.27 16.11 -3.38 150 144 137
-8.26 16.02 -3.38 150 144 137
-8.26 15.94 -3.39 151 145 138
-8.25 15.85 -3.39 153 147 140
-8.25 15.77 -3.40 153 147 140
-8.25 15.68 -3.40 153 147 140
-8.24 15.59 -3.40 153 147 140
-8.24 15.51 -3.41 153 147 140
-8.23 15.43 -3.42 153 147 140
-8.22 15.34 -3.43 153 147 140
-8.22 15.26 -3.43 154 148 139
-8.21 15.17 -3.44 154 148 139
-8.21 15.09 -3.45 154 148 139
-8.20 15.00 -3.46 154 148 139
-8.20 14.92 -3.46 154 148 139
-8.19 14.83 -3.47 154 148 139
-8.19 14.75 -3.47 155 149 140
-8.18 14.66 -3.48 156 150 141
-8.18 14.58 -3.49 156 150 141
-8.16 14.50 -3.51 156 150 141
-8.16 14.41 -3.51 156 150 141
-8.15 14.33 -3.52 156 150 141
-8.15 14.24 -3.52 155 151 141
-8.15 14.15 -3.52 155 151 141
-8.15 14.07 -3.53 156 152 144
-8.14 13.99 -3.54 157 153 145
-8.14 13.90 -3.54 158 152 147
-8.14 13.81 -3.54 158 152 147
-8.13 13.72 -3.55 159 155 147
-8.13 13.64 -3.55 159 155 147
-8.13 13.55 -3.55 159 155 147
-8.13 13.46 -3.55 159 155 147
-8.12 13.37 -3.56 159 155 147
-8.12 13.29 -3.57 159 155 147
-8.12 13.20 -3.57 159 155 147
-8.11 13.12 -3.58 160 156 148
-8.11 13.03 -3.58 160 156 148
-8.11 12.94 -3.58 160 156 148
-8.10 12.85 -3.58 160 156 148
-8.09 12.77 -3.59 160 156 148
-8.09 12.68 -3.60 160 156 148
-8.10 12.59 -3.59 160 156 148
-8.09 12.51 -3.60 161 157 149
-8.10 12.42 -3.59 162 158 150
-8.10 12.33 -3.59 163 157 150
-8.10 12.24 -3.59 163 157 150
-8.09 12.15 -3.60 163 157 150
-8.09 12.06 -3.60 163 157 150
-8.09 11.98 -3.60 162 158 150
-8.09 11.89 -3.60 162 158 150
-8.09 11.80 -3.60 162 158 150
-8.09 11.71 -3.60 164 160 152
-8.09 11.62 -3.60 164 163 154
-8.10 11.53 -3.59 164 163 154
-8.09 11.44 -3.60 164 163 154
-8.10 11.35 -3.59 164 163 154
-8.10 11.26 -3.58 163 164 154
-8.10 11.17 -3.58 163 164 154
-8.10 11.08 -3.58 164 163 154
-8.10 10.99 -3.59 165 164 155
-8.10 10.90 -3.58 167 163 155
-8.10 10.82 -3.59 167 163 155
-8.10 10.72 -3.58 167 163 155
-8.10 10.64 -3.58 168 164 156
-8.10 10.55 -3.58 168 164 156
-8.10 10.46 -3.58 168 164 156
-8.10 10.37 -3.58 168 164 156
-8.10 10.28 -3.58 168 164 156
-8.10 10.19 -3.59 168 164 156
-8.10 10.10 -3.58 168 164 156
-8.10 10.01 -3.58 166 165 156
-8.10 9.93 -3.59 167 166 157
-8.10 9.84 -3.58 167 168 158
-8.09 9.75 -3.60 167 168 158
-8.09 9.66 -3.60 167 168 158
-8.09 9.58 -3.60 167 168 158
-8.09 9.49 -3.60 168 167 160
-8.09 9.40 -3.60 168 167 160
-8.09 9.31 -3.60 168 167 160
-8.09 9.22 -3.60 168 167 160
-8.08 9.14 -3.61 168 167 160
-8.08 9.05 -3.61 169 168 161
-8.07 8.96 -3.62 171 170 163
-8.08 8.87 -3.61 171 170 163
-8.07 8.79 -3.62 171 170 163
-8.07 8.70 -3.63 171 170 163
-8.07 8.61 -3.63 171 170 163
-8.06 8.52 -3.63 171 170 163
-8.06 8.44 -3.63 171 170 163
-8.07 8.35 -3.63 172 171 164
-8.07 8.26 -3.63 172 171 164
-8.06 8.17 -3.64 173 172 165
-8.07 8.08 -3.63 172 173 165
-8.06 7.99 -3.63 172 173 165
-8.06 7.90 -3.63 172 173 165
-8.05 7.82 -3.64 172 173 165
-8.06 7.73 -3.64 172 173 165
-8.05 7.64 -3.65 172 173 165
-8.05 7.55 -3.64 173 174 166
-8.05 7.46 -3.64 173 174 166
-8.05 7.38 -3.65 173 174 166
-8.05 7.29 -3.65 173 174 166
-8.04 7.20 -3.67 173 174 166
-8.05 7.11 -3.65 173 174 166
-8.04 7.02 -3.66 173 174 166
-8.05 6.93 -3.65 173 174 166
-8.05 6.84 -3.65 173 174 166
-8.05 6.75 -3.65 173 174 166
-8.05 6.66 -3.64 173 174 166
-8.05 6.57 -3.65 173 174 166
-8.05 6.48 -3.64 173 174 166
-8.05 6.40 -3.65 173 174 166
-8.04 6.31 -3.66 173 174 166
-8.04 6.22 -3.66 173 174 166
-8.04 6.14 -3.67 173 174 166
-8.04 6.05 -3.66 173 174 166
-8.03 5.96 -3.67 173 174 166
-8.03 5.87 -3.67 173 174 166
-8.03 5.78 -3.67 173 174 166
-8.02 5.70 -3.68 173 174 166
-8.03 5.61 -3.68 173 174 166
-8.02 5.52 -3.69 173 174 166
-8.02 5.43 -3.69 173 174 166
-8.01 5.35 -3.70 173 174 166
-8.01 5.26 -3.70 173 174 166
-8.00 5.17 -3.71 173 174 166
-8.01 5.08 -3.70 173 174 166
-8.00 4.99 -3.71 173 174 166
-8.00 4.91 -3.71 173 174 166
-8.00 4.82 -3.71 173 174 166
-8.00 4.73 -3.71 173 174 166
-8.00 4.64 -3.71 173 174 166
-8.01 4.55 -3.70 173 174 166
-8.01 4.45 -3.70 173 174 166
-8.01 4.37 -3.70 173 174 166
-8.02 4.27 -3.69 173 174 166
-8.02 4.18 -3.68 173 174 166
-8.03 4.09 -3.67 173 174 166
-8.04 4.00 -3.66 173 173 168
-8.04 3.91 -3.66 173 173 168
-8.05 3.82 -3.65 173 173 168
-8.04 3.73 -3.66 173 173 168
-8.05 3.64 -3.65 173 173 168
-8.04 3.56 -3.66 173 173 168
-8.04 3.47 -3.66 173 173 168
-8.03 3.38 -3.68 173 173 168
-8.03 3.29 -3.68 173 173 168
-8.03 3.20 -3.68 172 172 167
-8.02 3.12 -3.68 172 172 167
-8.03 3.03 -3.68 172 172 167
-8.02 2.94 -3.69 172 172 167
-8.02 2.85 -3.69 172 172 167
-8.02 2.76 -3.69 172 172 167
-8.02 2.67 -3.69 172 172 167
-8.02 2.58 -3.69 170 172 167
-8.02 2.49 -3.69 170 172 167
-8.02 2.40 -3.69 170 172 167
-8.02 2.32 -3.69 170 172 167
-8.03 2.23 -3.68 170 172 167
-8.03 2.14 -3.68 170 172 167
-8.02 2.05 -3.69 170 172 167
-8.03 1.96 -3.68 170 172 167
-8.03 1.87 -3.68 170 172 167
-8.03 1.78 -3.68 170 172 167
-8.03 1.69 -3.68 170 172 167
-8.03 1.60 -3.67 170 172 167
-8.03 1.51 -3.68 170 172 167
-8.03 1.42 -3.67 170 172 167
-8.04 1.33 -3.67 170 172 167
-8.04 1.24 -3.66 170 172 167
-8.04 1.15 -3.66 172 173 165
-8.04 1.06 -3.66 172 173 165
-8.04 0.98 -3.66 170 172 167
-8.04 0.89 -3.66 170 172 167
-8.04 0.80 -3.66 170 172 167
-8.05 0.71 -3.65 170 172 167
-8.05 0.62 -3.65 170 172 167
-8.04 0.53 -3.66 170 172 167
-8.05 0.44 -3.65 170 172 167
-8.04 0.35 -3.66 170 172 167
-8.05 0.26 -3.65 170 172 167
-8.05 0.17 -3.65 170 172 167
-8.05 0.08 -3.65 170 172 167
-8.05 -0.00 -3.65 170 172 167
-8.05 -0.09 -3.65 170 172 167
-8.05 -0.18 -3.65 170 172 167
-8.05 -0.27 -3.65 170 172 167
-8.06 -0.36 -3.64 170 172 167
-8.05 -0.45 -3.65 168 173 167
-8.05 -0.54 -3.64 168 173 167
-8.06 -0.63 -3.64 168 173 167
-8.06 -0.72 -3.64 168 173 167
-8.06 -0.81 -3.64 168 173 167
-8.06 -0.90 -3.64 168 173 167
-8.05 -0.98 -3.64 169 174 168
-8.05 -1.07 -3.64 169 174 168
-8.06 -1.16 -3.64 169 174 168
-8.06 -1.25 -3.64 169 174 168
-8.06 -1.34 -3.64 169 174 168
-8.06 -1.43 -3.64 169 174 168
-8.06 -1.52 -3.64 171 173 168
-8.06 -1.61 -3.64 172 174 169
-8.06 -1.70 -3.64 172 174 169
-8.06 -1.79 -3.63 172 174 169
-8.06 -1.87 -3.64 172 174 169
-8.06 -1.96 -3.64 172 174 169
-8.06 -2.05 -3.64 172 174 169
-8.05 -2.14 -3.65 172 174 169
-8.05 -2.23 -3.65 172 174 169
-8.05 -2.32 -3.65 173 175 170
-8.04 -2.40 -3.66 174 176 171
-8.05 -2.49 -3.65 174 176 171
-8.04 -2.58 -3.67 174 176 171
-8.04 -2.67 -3.67 174 176 171
-8.04 -2.76 -3.66 174 176 171
-8.04 -2.85 -3.66 174 176 171
-8.03 -2.94 -3.67 172 177 171
-8.04 -3.03 -3.66 172 177 171
-8.04 -3.12 -3.66 172 177 171
-8.04 -3.20 -3.67 172 177 171
-8.04 -3.29 -3.66 171 179 169
-8.04 -3.38 -3.66 171 179 169
-8.04 -3.47 -3.66 171 179 169
-8.04 -3.56 -3.66 171 179 169
-8.04 -3.65 -3.66 171 179 169
-8.04 -3.74 -3.66 173 181 171
-8.03 -3.83 -3.67 173 181 171
-8.04 -3.92 -3.66 173 181 171
-8.04 -4.01 -3.66 173 181 171
-8.04 -4.09 -3.66 173 181 171
-8.04 -4.18 -3.66 173 181 171
-8.04 -4.27 -3.66 173 181 171
-8.03 -4.36 -3.67 173 181 171
-8.03 -4.45 -3.67 173 181 171
-8.03 -4.54 -3.67 174 181 174
-8.03 -4.63 -3.67 174 181 174
-8.03 -4.72 -3.67 174 181 174
-8.04 -4.81 -3.66 174 181 174
-8.04 -4.89 -3.66 174 181 174
-8.03 -4.98 -3.67 174 181 174
-8.04 -5.07 -3.66 174 181 174
-8.04 -5.16 -3.67 174 181 174
-8.04 -5.25 -3.67 175 182 175
-8.04 -5.34 -3.67 175 182 175
-8.03 -5.43 -3.67 175 182 175
-8.03 -5.52 -3.67 175 182 175
-8.02 -5.61 -3.69 175 182 175
-8.02 -5.69 -3.69 175 182 175
-8.01 -5.78 -3.70 175 182 175
-8.00 -5.87 -3.71 175 182 175
-8.00 -5.96 -3.71 175 182 175
-7.99 -6.05 -3.72 175 182 175
-7.99 -6.14 -3.72 175 182 175
-7.99 -6.23 -3.72 175 182 175
-7.99 -6.32 -3.73 175 182 175
-7.99 -6.41 -3.73 175 182 175
-7.98 -6.49 -3.74 175 182 175
-7.98 -6.58 -3.74 175 182 175
-7.97 -6.67 -3.76 176 183 176
-7.96 -6.76 -3.76 176 183 176
-7.95 -6.85 -3.77 176 183 176
-7.95 -6.94 -3.78 176 183 176
-7.93 -7.03 -3.80 176 183 176
-7.93 -7.12 -3.81 176 183 176
-7.93 -7.21 -3.80 176 183 176
-7.91 -7.30 -3.82 176 183 176
-7.90 -7.39 -3.84 178 185 180
-7.89 -7.47 -3.85 178 185 180
-7.88 -7.56 -3.86 178 185 180
-7.87 -7.65 -3.88 178 185 180
-7.86 -7.74 -3.89 178 185 180
-7.86 -7.83 -3.89 178 185 180
-7.85 -7.92 -3.90 178 185 180
-7.84 -8.01 -3.91 178 185 180
-7.84 -8.10 -3.91 182 189 184
-7.84 -8.19 -3.91 178 185 180
-7.85 -8.28 -3.91 184 191 186
-7.84 -8.37 -3.91 181 188 183
-7.85 -8.46 -3.90 181 188 183
-7.85 -8.55 -3.91 176 183 178
-7.82 -8.64 -3.94 171 178 173
-7.93 -8.72 -3.80 199 206 201
-8.47 -8.79 -3.11 242 247 246
-8.81 -8.86 -2.69 245 250 249
-8.87 -8.94 -2.61 244 249 248
-8.89 -9.03 -2.59 248 253 252
-8.89 -9.12 -2.59 246 251 250
-8.90 -9.20 -2.57 249 254 253
-8.91 -9.29 -2.56 244 249 248
-8.91 -9.38 -2.56 241 246 245
-8.92 -9.46 -2.55 255 255 255
-8.93 -9.55 -2.54 249 254 253
-8.93 -9.63 -2.54 244 249 248
-8.91 -9.72 -2.56 246 251 250
-8.92 -9.81 -2.55 251 255 255
-8.90 -9.90 -2.57 248 253 252
-8.88 -9.98 -2.59 246 251 250
-8.87 -10.07 -2.61 244 249 248
-8.85 -10.16 -2.64 246 253 251
-8.84 -10.25 -2.66 241 248 246
-8.85 -10.33 -2.63 244 251 249
-8.71 -10.43 -2.82 246 253 251
-8.45 -10.55 -3.14 223 230 228
-8.15 -10.67 -3.53 188 195 193
-7.97 -10.77 -3.75 170 177 175
-7.93 -10.87 -3.81 174 181 179
-7.92 -10.96 -3.81 182 189 187
-7.94 -11.04 -3.79 183 190 188
-7.93 -11.13 -3.80 184 191 189
-7.92 -11.22 -3.81 185 192 190
-7.93 -11.31 -3.80 185 192 190
-7.93 -11.40 -3.80 184 191 189
-7.93 -11.49 -3.80 183 190 188
-7.93 -11.58 -3.80 182 189 187
-7.92 -11.67 -3.81 189 194 193
-7.93 -11.76 -3.80 189 194 193
-7.93 -11.85 -3.80 189 194 193
-7.93 -11.94 -3.80 189 194 193
-7.92 -12.03 -3.81 189 194 193
-7.92 -12.12 -3.81 188 193 192
-7.91 -12.21 -3.82 188 193 192
-7.91 -12.30 -3.82 188 193 192
-7.91 -12.39 -3.82 190 195 194
-7.91 -12.48 -3.83 190 195 194
-7.90 -12.57 -3.84 190 195 194
-7.89 -12.66 -3.85 190 195 194
-7.89 -12.75 -3.86 189 196 191
-7.89 -12.84 -3.86 189 196 191
-7.88 -12.93 -3.87 189 196 191
-7.88 -13.02 -3.87 189 196 191
-7.87 -13.11 -3.88 187 194 189
-7.85 -13.20 -3.90 188 195 190
-7.85 -13.29 -3.90 189 196 189
-7.83 -13.38 -3.92 189 196 189
-7.83 -13.47 -3.93 188 195 190
-7.82 -13.56 -3.94 187 194 189
-7.82 -13.65 -3.94 184 190 193
-7.81 -13.75 -3.95 183 189 192
-7.80 -13.84 -3.96 176 182 185
-7.80 -13.93 -3.96 168 174 177
-7.80 -14.02 -3.97 171 178 173
-7.82 -14.10 -3.94 160 167 162
-7.83 -14.19 -3.93 155 162 157
-7.83 -14.28 -3.93 147 154 149
-7.83 -14.37 -3.93 67 73 74
-7.83 -14.46 -3.93 25 31 32
-7.82 -14.55 -3.94 25 32 57
-7.82 -14.64 -3.94 25 32 57
-7.80 -14.74 -3.97 23 31 59
-7.79 -14.83 -3.98 27 35 63
-7.78 -14.92 -3.99 29 37 69
-7.76 -15.01 -4.01 34 42 74
-7.75 -15.10 -4.03 35 45 79
-7.73 -15.20 -4.05 39 49 83
-7.72 -15.29 -4.06 36 44 72
-7.72 -15.38 -4.07 38 46 74
-7.72 -15.47 -4.07 28 36 52
-7.71 -15.56 -4.08 14 22 38
-7.72 -15.65 -4.06 21 27 30
-7.74 -15.74 -4.04 27 33 36
-7.77 -15.82 -4.00 34 39 33
-7.81 -15.90 -3.95 42 47 41
-7.87 -15.97 -3.88 45 43 44
-7.93 -16.04 -3.80 55 53 54
-7.99 -16.11 -3.72 57 59 56
-8.03 -16.19 -3.68 57 59 56
-8.06 -16.27 -3.63 47 54 47
-8.10 -16.35 -3.59 24 31 24
-8.14 -16.43 -3.54 9 15 2
-8.18 -16.51 -3.48 13 19 6
-8.22 -16.58 -3.43 52 51 42
-8.26 -16.66 -3.38 90 89 80
-8.30 -16.74 -3.33 148 144 138
-8.34 -16.81 -3.28 200 196 190
-8.37 -16.89 -3.24 225 226 216
-8.40 -16.97 -3.20 235 236 226
-8.43 -17.05 -3.16 225 232 216
-8.46 -17.13 -3.13 219 226 210
-8.50 -17.21 -3.09 201 205 190
-8.53 -17.28 -3.04 193 197 182
-8.56 -17.36 -3.01 183 186 174
-8.60 -17.44 -2.96 180 183 171
-8.64 -17.51 -2.91 180 183 171
-8.69 -17.58 -2.84 179 182 170
-8.73 -17.65 -2.78 173 176 166
-8.78 -17.73 -2.73 168 171 161
-8.83 -17.80 -2.67 173 176 166
-8.86 -17.87 -2.62 173 176 166
-8.90 -17.94 -2.58 173 176 168
-8.94 -18.02 -2.52 173 176 168
-8.97 -18.09 -2.49 174 177 169
-9.01 -18.16 -2.43 176 179 171
-9.04 -18.24 -2.39 176 178 173
-9.09 -18.31 -2.34 176 178 173
-9.11 -18.39 -2.30 175 176 168
-9.15 -18.46 -2.26 175 176 168
-9.18 -18.54 -2.22 172 173 165
-9.20 -18.61 -2.19 174 175 167
-9.23 -18.69 -2.15 175 176 168
-9.25 -18.77 -2.13 176 177 169
-9.28 -18.84 -2.09 176 177 169
-9.30 -18.92 -2.06 173 174 166
-9.33 -18.99 -2.03 170 171 163
-9.36 -19.07 -1.99 163 164 156
-9.38 -19.14 -1.96 167 168 160
-9.41 -19.22 -1.93 164 165 157
-9.44 -19.29 -1.90 159 160 152
-9.47 -19.36 -1.85 157 158 150
-9.50 -19.44 -1.81 145 146 138
-9.53 -19.51 -1.77 146 147 139
-9.56 -19.58 -1.74 147 149 146
-9.58 -19.66 -1.71 144 146 143
-9.61 -19.73 -1.67 142 144 141
-9.64 -19.80 -1.63 142 144 141
-9.67 -19.88 -1.60 144 146 143
-9.70 -19.95 -1.56 144 146 143
-9.74 -20.01 -1.51 142 144 141
-9.77 -20.09 -1.48 140 142 139
-9.80 -20.16 -1.43 135 137 134
-9.85 -20.22 -1.37 123 125 122
-9.89 -20.29 -1.32 98 100 97
-9.94 -20.35 -1.26 66 68 65
-9.99 -20.41 -1.19 41 43 40
-10.04 -20.47 -1.13 27 29 26
-10.11 -20.52 -1.04 25 27 24
-10.18 -20.58 -0.95 29 31 28
-10.23 -20.64 -0.89 69 55 37
-10.24 -20.71 -0.88 92 78 60
-10.22 -20.81 -0.90 239 226 192
-9.95 -21.01 -1.25 248 235 201
-9.51 -21.30 -1.80 227 218 173
-9.30 -21.48 -2.07 232 223 178
-9.34 -21.55 -2.01 251 243 209
-9.38 -21.61 -1.96 133 125 91
-8.72 -22.01 -2.80 125 116 101
-8.32 -22.29 -3.31 224 215 200
-8.50 -22.29 -3.09 241 237 231
-8.70 -22.28 -2.82 203 199 193
-8.69 -22.37 -2.84 209 212 204
-8.70 -22.45 -2.83 211 214 206
-8.73 -22.53 -2.79 203 211 199
-8.74 -22.61 -2.78 209 217 205
-8.75 -22.69 -2.77 209 216 209
-8.75 -22.78 -2.76 210 217 210
-8.76 -22.86 -2.75 209 216 211
-8.77 -22.94 -2.74 209 216 211
-8.77 -23.03 -2.73 210 217 215
-8.78 -23.11 -2.72 210 217 215
-8.79 -23.19 -2.71 211 216 212
-8.80 -23.28 -2.71 211 216 212
-8.81 -23.36 -2.69 213 218 214
-8.81 -23.44 -2.69 213 218 214
-8.81 -23.53 -2.69 215 217 214
-8.81 -23.62 -2.69 215 217 214
-8.81 -23.70 -2.69 215 216 219
-8.82 -23.79 -2.68 215 216 219
-8.81 -23.88 -2.69 215 216 221
-8.82 -23.96 -2.68 216 217 222
-8.81 -24.05 -2.69 218 220 217
-8.81 -24.14 -2.69 218 220 217
-8.81 -24.22 -2.69 218 220 217
-8.81 -24.31 -2.69 218 220 217
-8.81 -24.40 -2.69 218 220 217
-8.81 -24.49 -2.69 218 220 217
-8.81 -24.57 -2.69 218 220 217
-8.81 -24.66 -2.68 218 220 217
-8.82 -24.74 -2.68 218 220 217
-8.83 -24.82 -2.67 218 220 217
-8.83 -24.91 -2.67 218 220 217
-8.84 -24.99 -2.65 218 220 217
-8.84 -25.07 -2.65 218 220 217
-8.84 -25.16 -2.65 218 220 217
-8.85 -25.24 -2.64 218 220 217
-8.85 -25.33 -2.64 218 220 217
-8.85 -25.41 -2.64 218 220 217
-8.86 -25.50 -2.63 218 220 217
-8.86 -25.58 -2.63 218 220 217
-8.85 -25.67 -2.63 218 220 217
-8.86 -25.76 -2.63 218 220 217
-8.86 -25.84 -2.63 218 220 217
-8.86 -25.93 -2.63 218 220 217
-8.86 -26.02 -2.63 218 220 217
-8.87 -26.10 -2.61 218 220 217
-8.87 -26.18 -2.61 218 220 217
-8.87 -26.27 -2.61 218 220 217
-8.88 -26.35 -2.60 218 220 217
-8.88 -26.44 -2.60 218 220 217
-8.88 -26.52 -2.60 218 220 217
-8.88 -26.61 -2.60 218 220 217
-8.88 -26.70 -2.60 218 220 217
-8.89 -26.78 -2.59 220 220 220
-8.89 -26.86 -2.58 220 220 220
-8.89 -26.95 -2.58 220 220 220
-8.90 -27.03 -2.58 220 220 220
-8.90 -27.12 -2.57 220 220 220
-8.90 -27.20 -2.57 220 220 220
-8.91 -27.28 -2.56 220 220 220
-8.91 -27.37 -2.57 221 221 221
-8.91 -27.45 -2.56 222 222 222
-8.91 -27.54 -2.56 222 222 222
-8.91 -27.63 -2.56 222 222 222
-8.92 -27.71 -2.55 222 222 222
-8.92 -27.80 -2.55 222 222 222
-8.91 -27.89 -2.56 222 222 222
-8.92 -27.97 -2.55 223 221 222
-8.92 -28.06 -2.55 223 221 222
-8.92 -28.14 -2.55 223 221 222
-8.92 -28.23 -2.55 223 221 222
-8.92 -28.31 -2.55 223 221 222
-8.93 -28.39 -2.53 223 221 222
-8.93 -28.48 -2.53 223 221 222
-8.93 -28.57 -2.53 223 221 222
-8.93 -28.65 -2.53 224 222 223
-8.94 -28.73 -2.52 225 223 224
-8.94 -28.82 -2.52 225 223 224
-8.94 -28.91 -2.52 225 223 224
-8.95 -28.99 -2.51 225 223 224
-8.94 -29.08 -2.52 225 223 224
-8.95 -29.16 -2.51 225 223 224
-8.95 -29.24 -2.51 225 223 224
-8.95 -29.33 -2.51 227 222 224
-8.95 -29.42 -2.51 227 222 224
-8.95 -29.50 -2.51 224 222 223
-8.96 -29.59 -2.50 224 222 223
-8.95 -29.67 -2.51 224 222 223
-8.96 -29.76 -2.50 224 222 223
-8.96 -29.85 -2.50 225 223 224
-8.96 -29.93 -2.50 228 226 227
-8.95 -30.02 -2.51 229 227 228
-8.95 -30.11 -2.51 229 227 228
-8.95 -30.20 -2.51 229 227 228
-8.94 -30.29 -2.52 229 227 228
-8.94 -30.37 -2.52 229 227 228
-8.94 -30.46 -2.52 229 227 228
-8.94 -30.55 -2.52 229 227 228
-8.95 -30.63 -2.51 229 227 228
-8.95 -30.71 -2.51 229 227 228
