ply
format ascii 1.0
element vertex 1591
property float x
property float y
property float z
property uchar red
property uchar green
property uchar blue
end_header
-8.34 -30.87 -2.76 230 228 229
-8.35 -30.95 -2.75 230 228 229
-8.35 -31.04 -2.75 230 228 229
-8.35 -31.12 -2.74 230 228 229
-8.36 -31.20 -2.73 230 228 229
-8.36 -31.29 -2.74 230 228 229
-8.35 -31.38 -2.74 230 228 229
-8.36 -31.46 -2.73 230 228 229
-8.36 -31.55 -2.74 230 228 229
-8.36 -31.64 -2.73 230 228 229
-8.36 -31.73 -2.74 230 228 229
-8.37 -31.81 -2.72 230 228 229
-8.37 -31.90 -2.73 230 228 229
-8.37 -31.98 -2.72 232 230 231
-8.37 -32.07 -2.72 233 231 232
-8.37 -32.16 -2.72 233 231 232
-8.38 -32.24 -2.72 235 233 234
-8.37 -32.33 -2.72 235 233 234
-8.37 -32.42 -2.72 236 234 235
-8.38 -32.50 -2.72 236 234 235
-8.38 -32.59 -2.71 236 234 235
-8.38 -32.68 -2.71 236 234 235
-8.38 -32.76 -2.71 236 234 235
-8.37 -32.86 -2.72 236 234 235
-8.38 -32.94 -2.72 236 234 235
-8.38 -33.02 -2.71 236 234 235
-8.38 -33.11 -2.71 236 234 235
-8.39 -33.19 -2.70 236 234 235
-8.39 -33.28 -2.69 236 234 235
-8.39 -33.37 -2.70 236 234 235
-8.40 -33.45 -2.69 236 234 235
-8.40 -33.54 -2.69 236 234 235
-8.40 -33.62 -2.69 236 234 235
-8.40 -33.71 -2.69 236 234 235
-8.40 -33.80 -2.69 236 234 235
-8.41 -33.88 -2.68 235 233 234
-8.41 -33.96 -2.67 234 234 229
-8.43 -34.03 -2.64 234 234 229
-8.46 -34.10 -2.61 234 234 229
-8.47 -34.17 -2.60 234 234 229
-8.48 -34.25 -2.59 235 233 229
-8.49 -34.33 -2.57 235 233 229
-8.46 -34.45 -2.62 237 232 229
-8.50 -34.50 -2.57 237 232 229
-8.40 -34.67 -2.68 234 227 225
-8.87 -34.35 -2.10 248 241 239
-8.13 20.88 -3.15 141 132 124
-8.11 20.81 -3.17 141 132 124
-8.10 20.73 -3.19 141 132 124
-8.08 20.66 -3.22 141 132 124
-8.08 20.57 -3.22 142 133 125
-8.09 20.47 -3.20 142 133 125
-8.07 20.40 -3.23 142 133 125
-8.06 20.32 -3.24 142 133 125
-8.07 20.23 -3.23 142 133 125
-8.06 20.15 -3.24 142 133 125
-8.05 20.06 -3.25 142 133 125
-8.05 19.98 -3.26 142 133 125
-8.04 19.90 -3.27 143 134 126
-8.03 19.82 -3.28 144 135 127
-8.02 19.74 -3.29 144 135 127
-8.02 19.65 -3.29 144 135 127
-8.01 19.57 -3.31 144 135 127
-8.00 19.48 -3.31 144 135 127
-7.99 19.41 -3.33 144 135 127
-7.99 19.32 -3.33 144 135 127
-7.99 19.23 -3.33 144 135 127
-7.98 19.15 -3.35 144 135 127
-7.97 19.07 -3.36 146 137 129
-7.95 19.00 -3.38 148 139 131
-7.94 18.91 -3.39 148 139 131
-7.94 18.83 -3.39 148 139 131
-7.93 18.75 -3.41 148 139 131
-7.92 18.67 -3.42 148 139 131
-7.91 18.59 -3.43 148 139 131
-7.90 18.51 -3.45 148 139 131
-7.89 18.42 -3.46 147 141 134
-7.88 18.34 -3.46 147 141 134
-7.87 18.26 -3.47 146 142 134
-7.87 18.18 -3.48 146 142 134
-7.86 18.10 -3.50 146 142 134
-7.85 18.01 -3.50 146 142 134
-7.85 17.92 -3.51 146 142 134
-7.84 17.84 -3.51 146 142 134
-7.84 17.75 -3.51 146 142 134
-7.84 17.66 -3.52 146 142 134
-7.84 17.58 -3.52 147 143 135
-7.83 17.49 -3.53 148 144 136
-7.83 17.41 -3.53 148 144 136
-7.82 17.32 -3.54 148 144 136
-7.82 17.23 -3.54 148 144 136
-7.82 17.14 -3.54 148 144 136
-7.82 17.06 -3.54 148 144 136
-7.82 16.96 -3.54 148 144 136
-7.82 16.88 -3.55 148 144 136
-7.81 16.79 -3.55 149 145 137
-7.81 16.70 -3.56 150 144 137
-7.81 16.61 -3.55 150 144 137
-7.81 16.53 -3.56 150 144 137
-7.80 16.44 -3.57 150 144 137
-7.79 16.36 -3.57 150 144 137
-7.80 16.27 -3.57 150 144 137
-7.79 16.19 -3.58 151 145 138
-7.78 16.10 -3.59 153 147 140
-7.77 16.02 -3.60 153 147 140
-7.77 15.93 -3.60 153 147 140
-7.77 15.84 -3.61 153 147 140
-7.76 15.76 -3.62 153 147 140
-7.75 15.67 -3.63 153 147 140
-7.74 15.59 -3.64 153 147 140
-7.73 15.51 -3.65 153 147 140
-7.73 15.42 -3.66 153 147 140
-7.73 15.33 -3.66 153 149 141
-7.72 15.25 -3.67 153 149 141
-7.72 15.16 -3.67 153 149 141
-7.72 15.07 -3.67 153 149 141
-7.72 14.99 -3.67 153 149 141
-7.71 14.90 -3.68 153 149 141
-7.70 14.82 -3.69 153 149 141
-7.70 14.73 -3.69 153 149 141
-7.69 14.65 -3.71 153 149 141
-7.68 14.56 -3.72 154 150 142
-7.68 14.47 -3.72 154 150 142
-7.68 14.39 -3.72 155 151 143
-7.67 14.30 -3.73 155 151 143
-7.66 14.21 -3.74 156 152 144
-7.65 14.13 -3.75 157 151 146
-7.65 14.05 -3.76 158 152 147
-7.65 13.96 -3.76 159 155 147
-7.65 13.87 -3.76 159 155 147
-7.64 13.78 -3.77 159 155 147
-7.63 13.70 -3.78 159 155 147
-7.64 13.61 -3.77 159 155 147
-7.63 13.52 -3.78 159 155 147
-7.63 13.43 -3.78 159 155 147
-7.63 13.34 -3.78 160 156 148
-7.63 13.25 -3.78 160 156 148
-7.62 13.17 -3.80 160 156 148
-7.62 13.08 -3.79 160 156 148
-7.62 12.99 -3.79 160 156 148
-7.62 12.90 -3.80 160 156 148
-7.62 12.81 -3.79 160 156 148
-7.61 12.72 -3.80 161 157 149
-7.62 12.63 -3.79 162 158 150
-7.62 12.54 -3.79 163 157 150
-7.62 12.45 -3.79 163 157 150
-7.62 12.36 -3.79 163 157 150
-7.62 12.27 -3.79 163 157 150
-7.63 12.18 -3.78 163 157 150
-7.63 12.09 -3.78 163 157 150
-7.63 12.00 -3.78 162 158 150
-7.63 11.91 -3.78 163 159 151
-7.63 11.82 -3.78 166 162 154
-7.63 11.73 -3.78 166 162 154
-7.63 11.63 -3.78 164 163 154
-7.63 11.55 -3.78 164 163 154
-7.64 11.45 -3.77 164 163 154
-7.63 11.37 -3.78 164 163 154
-7.63 11.28 -3.78 164 163 154
-7.63 11.19 -3.78 164 163 154
-7.63 11.10 -3.78 164 163 154
-7.62 11.01 -3.79 164 163 154
-7.62 10.92 -3.79 167 163 155
-7.62 10.83 -3.79 167 163 155
-7.62 10.75 -3.80 167 163 155
-7.62 10.66 -3.80 167 163 155
-7.62 10.57 -3.80 167 163 155
-7.61 10.48 -3.81 167 163 155
-7.61 10.39 -3.81 167 163 155
-7.61 10.30 -3.81 168 164 156
-7.61 10.21 -3.81 168 164 156
-7.61 10.12 -3.81 168 164 156
-7.61 10.03 -3.81 168 164 156
-7.62 9.94 -3.80 168 164 156
-7.61 9.85 -3.81 168 164 156
-7.60 9.77 -3.81 168 164 156
-7.60 9.68 -3.82 166 165 156
-7.59 9.59 -3.83 167 166 157
-7.59 9.50 -3.83 167 168 158
-7.59 9.41 -3.83 167 168 158
-7.59 9.32 -3.83 167 168 158
-7.58 9.24 -3.84 167 168 158
-7.58 9.15 -3.84 167 168 158
-7.58 9.06 -3.85 167 168 158
-7.58 8.97 -3.85 168 169 159
-7.58 8.88 -3.85 170 171 161
-7.58 8.79 -3.85 170 171 161
-7.57 8.71 -3.86 170 171 161
-7.57 8.62 -3.86 170 171 161
-7.56 8.53 -3.86 170 171 161
-7.56 8.44 -3.86 171 172 164
-7.56 8.35 -3.86 171 172 164
-7.57 8.26 -3.86 171 172 164
-7.57 8.17 -3.86 171 172 164
-7.57 8.08 -3.85 171 172 164
-7.57 7.99 -3.86 171 172 164
-7.57 7.90 -3.86 171 172 164
-7.56 7.81 -3.86 171 172 164
-7.56 7.72 -3.87 171 172 164
-7.56 7.63 -3.87 172 173 165
-7.56 7.54 -3.87 172 173 165
-7.56 7.45 -3.86 172 173 165
-7.56 7.36 -3.86 172 173 165
-7.57 7.27 -3.86 172 173 165
-7.57 7.18 -3.86 172 173 165
-7.56 7.09 -3.87 172 173 165
-7.56 7.00 -3.86 173 174 166
-7.56 6.91 -3.87 173 174 166
-7.56 6.82 -3.87 173 174 166
-7.55 6.74 -3.88 173 174 166
-7.55 6.65 -3.88 173 174 166
-7.55 6.56 -3.88 173 174 166
-7.55 6.47 -3.89 173 174 166
-7.55 6.38 -3.88 173 174 166
-7.55 6.29 -3.88 173 174 166
-7.54 6.20 -3.89 173 174 166
-7.55 6.11 -3.89 173 174 166
-7.54 6.02 -3.89 173 174 166
-7.55 5.93 -3.88 173 174 166
-7.55 5.84 -3.88 173 174 166
-7.55 5.75 -3.88 173 174 166
-7.56 5.65 -3.87 173 174 166
-7.56 5.56 -3.87 173 174 166
-7.56 5.47 -3.87 173 174 166
-7.56 5.38 -3.86 173 174 166
-7.56 5.29 -3.87 173 174 166
-7.56 5.20 -3.87 173 174 166
-7.56 5.11 -3.86 173 174 166
-7.56 5.02 -3.86 173 174 166
-7.56 4.93 -3.87 173 174 166
-7.55 4.85 -3.87 173 174 166
-7.55 4.76 -3.87 173 174 166
-7.55 4.67 -3.87 173 174 166
-7.56 4.58 -3.87 173 174 166
-7.56 4.49 -3.87 173 174 166
-7.56 4.39 -3.87 173 174 166
-7.56 4.31 -3.87 173 174 166
-7.55 4.22 -3.88 173 174 166
-7.55 4.13 -3.88 173 173 168
-7.55 4.04 -3.88 173 173 168
-7.55 3.95 -3.88 173 173 168
-7.54 3.86 -3.89 173 173 168
-7.54 3.77 -3.89 173 173 168
-7.55 3.68 -3.89 173 173 168
-7.54 3.59 -3.89 173 173 168
-7.55 3.50 -3.87 173 173 168
-7.55 3.41 -3.87 173 173 168
-7.55 3.32 -3.89 173 173 168
-7.55 3.23 -3.88 173 173 168
-7.54 3.14 -3.90 173 173 168
-7.55 3.05 -3.89 173 173 168
-7.55 2.96 -3.88 173 173 168
-7.55 2.87 -3.88 173 173 168
-7.55 2.78 -3.88 173 173 168
-7.55 2.69 -3.88 170 172 167
-7.55 2.60 -3.88 170 172 167
-7.55 2.51 -3.88 170 172 167
-7.55 2.42 -3.88 170 172 167
-7.55 2.33 -3.88 170 172 167
-7.55 2.24 -3.88 170 172 167
-7.55 2.15 -3.88 170 172 167
-7.56 2.06 -3.87 170 172 167
-7.55 1.97 -3.88 170 172 167
-7.55 1.88 -3.88 170 172 167
-7.55 1.79 -3.87 170 172 167
-7.55 1.70 -3.88 170 172 167
-7.55 1.61 -3.88 170 172 167
-7.55 1.52 -3.88 170 172 167
-7.55 1.43 -3.88 170 172 167
-7.55 1.34 -3.88 170 172 167
-7.55 1.25 -3.88 171 174 166
-7.55 1.16 -3.87 170 173 165
-7.55 1.07 -3.87 170 173 165
-7.56 0.98 -3.86 170 173 165
-7.56 0.89 -3.86 170 173 165
-7.56 0.80 -3.86 170 173 165
-7.56 0.71 -3.86 170 173 165
-7.57 0.61 -3.85 170 173 165
-7.57 0.52 -3.85 170 173 165
-7.57 0.43 -3.85 170 173 165
-7.58 0.34 -3.84 170 173 165
-7.57 0.25 -3.85 170 173 165
-7.59 0.16 -3.84 170 173 165
-7.58 0.07 -3.84 170 173 165
-7.59 -0.02 -3.84 170 173 165
-7.59 -0.11 -3.83 170 173 165
-7.59 -0.20 -3.83 170 172 167
-7.59 -0.29 -3.83 170 172 167
-7.59 -0.38 -3.83 168 173 167
-7.58 -0.47 -3.84 168 173 167
-7.58 -0.56 -3.84 168 173 167
-7.58 -0.65 -3.84 168 173 167
-7.58 -0.74 -3.85 168 173 167
-7.58 -0.82 -3.85 168 173 167
-7.58 -0.91 -3.85 169 174 168
-7.57 -1.00 -3.85 169 174 168
-7.57 -1.09 -3.86 169 174 168
-7.56 -1.18 -3.86 169 174 168
-7.56 -1.27 -3.86 169 174 168
-7.56 -1.36 -3.86 169 174 168
-7.56 -1.45 -3.86 169 174 168
-7.57 -1.54 -3.86 170 175 169
-7.57 -1.63 -3.86 170 175 169
-7.57 -1.72 -3.86 170 175 169
-7.58 -1.81 -3.85 170 175 169
-7.57 -1.90 -3.86 170 175 169
-7.57 -1.99 -3.85 170 175 169
-7.57 -2.08 -3.86 170 175 169
-7.57 -2.17 -3.86 170 175 169
-7.56 -2.26 -3.86 171 176 170
-7.56 -2.35 -3.86 172 177 171
-7.57 -2.44 -3.86 172 177 171
-7.56 -2.53 -3.86 172 177 171
-7.57 -2.62 -3.86 172 177 171
-7.56 -2.71 -3.86 172 177 171
-7.56 -2.80 -3.86 172 177 171
-7.57 -2.89 -3.86 172 177 171
-7.56 -2.98 -3.87 172 177 171
-7.56 -3.07 -3.87 172 177 173
-7.56 -3.16 -3.87 172 177 173
-7.55 -3.25 -3.87 172 177 171
-7.55 -3.34 -3.89 172 177 171
-7.54 -3.43 -3.89 172 177 171
-7.54 -3.52 -3.89 172 177 171
-7.54 -3.61 -3.89 172 177 171
-7.54 -3.70 -3.89 174 179 173
-7.55 -3.79 -3.89 174 179 173
-7.54 -3.88 -3.89 174 179 173
-7.55 -3.97 -3.88 174 179 173
-7.54 -4.06 -3.89 174 179 173
-7.54 -4.15 -3.89 174 179 173
-7.54 -4.24 -3.89 174 179 173
-7.55 -4.33 -3.89 174 179 173
-7.55 -4.42 -3.89 175 180 174
-7.54 -4.51 -3.89 174 181 174
-7.55 -4.60 -3.88 174 181 174
-7.54 -4.69 -3.89 174 181 174
-7.54 -4.78 -3.89 174 181 174
-7.54 -4.87 -3.89 174 181 174
-7.54 -4.96 -3.89 174 181 174
-7.54 -5.05 -3.89 174 181 174
-7.54 -5.14 -3.89 174 181 174
-7.54 -5.23 -3.89 175 182 175
-7.53 -5.32 -3.90 175 182 175
-7.53 -5.41 -3.90 175 182 175
-7.53 -5.50 -3.91 175 182 175
-7.53 -5.59 -3.91 175 182 175
-7.52 -5.67 -3.91 175 182 175
-7.52 -5.76 -3.92 175 182 175
-7.52 -5.85 -3.92 175 182 175
-7.51 -5.94 -3.93 176 183 176
-7.51 -6.03 -3.94 176 183 176
-7.50 -6.12 -3.94 176 183 176
-7.49 -6.21 -3.95 176 183 176
-7.49 -6.30 -3.95 176 183 176
-7.49 -6.39 -3.96 176 183 176
-7.48 -6.48 -3.97 176 183 176
-7.48 -6.57 -3.97 176 183 176
-7.47 -6.66 -3.98 178 185 178
-7.47 -6.75 -3.98 178 185 178
-7.46 -6.84 -3.99 178 185 178
-7.46 -6.93 -3.99 178 185 178
-7.45 -7.02 -4.00 178 185 178
-7.45 -7.11 -4.00 178 185 178
-7.45 -7.20 -4.01 178 185 178
-7.44 -7.30 -4.02 178 185 178
-7.43 -7.39 -4.04 178 185 180
-7.41 -7.48 -4.05 178 185 180
-7.41 -7.57 -4.05 178 185 180
-7.41 -7.66 -4.06 178 185 180
-7.39 -7.75 -4.08 178 185 180
-7.38 -7.84 -4.09 178 185 180
-7.37 -7.93 -4.11 178 185 180
-7.37 -8.02 -4.11 178 185 180
-7.35 -8.11 -4.13 181 188 183
-7.36 -8.20 -4.12 181 188 183
-7.35 -8.29 -4.13 181 188 183
-7.36 -8.38 -4.12 184 191 186
-7.34 -8.47 -4.14 183 190 185
-7.36 -8.56 -4.12 180 187 182
-7.38 -8.65 -4.09 182 189 184
-7.34 -8.74 -4.14 178 185 180
-7.31 -8.84 -4.18 164 169 168
-7.35 -8.92 -4.13 205 210 209
-7.92 -8.99 -3.42 246 251 250
-8.38 -9.05 -2.83 251 255 255
-8.39 -9.14 -2.82 251 255 255
-8.39 -9.23 -2.83 254 255 255
-8.38 -9.31 -2.84 242 247 246
-8.39 -9.40 -2.83 245 250 249
-8.40 -9.49 -2.81 246 251 250
-8.40 -9.57 -2.81 245 250 249
-8.40 -9.66 -2.81 244 249 248
-8.43 -9.75 -2.78 245 250 249
-8.44 -9.83 -2.77 249 254 253
-8.44 -9.92 -2.77 244 249 248
-8.32 -10.02 -2.91 226 231 230
-8.03 -10.13 -3.28 205 210 209
-7.71 -10.25 -3.68 183 190 188
-7.48 -10.36 -3.96 180 187 185
-7.45 -10.45 -4.00 178 185 183
-7.43 -10.55 -4.04 185 192 190
-7.44 -10.63 -4.02 188 195 193
-7.47 -10.72 -3.98 185 192 190
-7.45 -10.81 -4.01 184 191 189
-7.47 -10.90 -3.98 187 194 192
-7.47 -10.99 -3.98 189 196 194
-7.46 -11.08 -3.99 189 196 194
-7.46 -11.17 -4.00 188 195 193
-7.46 -11.26 -3.99 188 195 193
-7.46 -11.35 -3.99 188 195 193
-7.45 -11.44 -4.00 188 195 193
-7.45 -11.54 -4.00 189 196 194
-7.45 -11.63 -4.00 189 196 194
-7.44 -11.72 -4.02 189 194 193
-7.44 -11.81 -4.01 189 194 193
-7.45 -11.90 -4.01 189 194 193
-7.44 -11.99 -4.01 189 194 193
-7.44 -12.08 -4.01 189 194 193
-7.44 -12.17 -4.02 189 194 193
-7.43 -12.26 -4.03 189 194 193
-7.42 -12.35 -4.04 189 194 193
-7.42 -12.44 -4.05 191 196 195
-7.41 -12.53 -4.06 191 196 195
-7.41 -12.62 -4.06 191 196 195
-7.40 -12.72 -4.07 191 196 195
-7.39 -12.81 -4.08 190 197 192
-7.38 -12.90 -4.09 189 196 191
-7.38 -12.99 -4.10 189 196 189
-7.36 -13.08 -4.11 189 196 189
-7.35 -13.18 -4.13 189 196 191
-7.34 -13.27 -4.14 190 197 192
-7.33 -13.36 -4.15 190 197 192
-7.32 -13.45 -4.17 191 198 193
-7.31 -13.55 -4.18 190 197 195
-7.30 -13.64 -4.19 188 195 193
-7.29 -13.73 -4.20 187 193 194
-7.29 -13.82 -4.21 185 191 192
-7.28 -13.92 -4.22 177 183 184
-7.28 -14.01 -4.21 166 172 173
-7.29 -14.10 -4.21 159 166 164
-7.31 -14.18 -4.18 151 158 156
-7.33 -14.27 -4.16 158 163 173
-7.38 -14.35 -4.10 141 146 156
-7.43 -14.43 -4.02 6 8 33
-7.48 -14.51 -3.97 33 35 60
-7.49 -14.60 -3.96 32 39 90
-7.49 -14.68 -3.96 38 45 96
-7.49 -14.77 -3.95 37 45 102
-7.50 -14.86 -3.94 38 46 103
-7.50 -14.95 -3.94 46 51 118
-7.49 -15.04 -3.96 49 54 121
-7.48 -15.14 -3.97 47 53 122
-7.47 -15.23 -3.98 49 55 124
-7.46 -15.32 -3.99 43 52 95
-7.48 -15.41 -3.97 31 40 83
-7.51 -15.49 -3.94 41 52 65
-7.55 -15.57 -3.88 47 58 71
-7.59 -15.65 -3.83 38 44 45
-7.64 -15.73 -3.77 24 30 31
-7.69 -15.80 -3.70 29 33 37
-7.75 -15.88 -3.63 37 41 45
-7.79 -15.96 -3.58 72 72 72
-7.83 -16.03 -3.53 111 111 111
-7.86 -16.12 -3.49 151 153 148
-7.88 -16.20 -3.46 173 175 170
-7.93 -16.27 -3.41 186 191 185
-7.98 -16.35 -3.35 198 203 197
-8.02 -16.43 -3.29 201 204 192
-8.06 -16.50 -3.24 201 204 192
-8.09 -16.58 -3.20 194 196 181
-8.14 -16.66 -3.14 182 184 169
-8.18 -16.73 -3.09 173 172 161
-8.23 -16.81 -3.03 169 168 157
-8.27 -16.88 -2.98 174 175 167
-8.31 -16.96 -2.93 176 177 169
-8.34 -17.04 -2.89 171 177 168
-8.38 -17.11 -2.84 168 174 165
-8.40 -17.19 -2.81 174 176 159
-8.44 -17.27 -2.77 176 178 161
-8.47 -17.35 -2.73 179 181 166
-8.51 -17.42 -2.68 176 178 163
-8.56 -17.49 -2.62 176 178 163
-8.60 -17.57 -2.57 175 177 162
-8.64 -17.64 -2.51 174 175 163
-8.67 -17.72 -2.48 176 177 165
-8.70 -17.79 -2.44 179 180 168
-8.73 -17.87 -2.40 178 179 167
-8.77 -17.94 -2.35 175 176 166
-8.80 -18.02 -2.31 174 175 165
-8.83 -18.10 -2.28 172 173 163
-8.86 -18.17 -2.24 170 171 161
-8.89 -18.25 -2.21 168 169 161
-8.91 -18.33 -2.17 166 167 159
-8.94 -18.40 -2.13 167 167 167
-8.97 -18.48 -2.10 159 159 159
-8.99 -18.56 -2.07 156 156 156
-9.02 -18.63 -2.04 153 153 153
-9.04 -18.71 -2.01 153 153 153
-9.06 -18.79 -1.99 156 156 156
-9.09 -18.86 -1.95 153 153 153
-9.10 -18.94 -1.94 149 149 149
-9.13 -19.02 -1.91 152 152 152
-9.15 -19.10 -1.87 150 150 150
-9.17 -19.17 -1.85 146 146 146
-9.20 -19.25 -1.81 147 147 147
-9.23 -19.32 -1.78 152 152 152
-9.26 -19.40 -1.74 158 158 158
-9.28 -19.47 -1.71 157 157 157
-9.31 -19.55 -1.68 151 151 151
-9.33 -19.62 -1.65 144 146 143
-9.36 -19.70 -1.61 120 122 119
-9.39 -19.77 -1.58 85 87 84
-9.42 -19.84 -1.54 55 57 54
-9.46 -19.91 -1.49 35 37 34
-9.49 -19.98 -1.45 29 31 28
-9.53 -20.05 -1.40 30 32 29
-9.56 -20.12 -1.36 32 34 31
-9.59 -20.19 -1.32 37 39 36
-9.63 -20.26 -1.28 38 40 37
-9.69 -20.32 -1.20 37 39 36
-9.74 -20.38 -1.14 35 37 34
-9.78 -20.45 -1.08 31 33 30
-9.84 -20.51 -1.01 28 30 27
-9.90 -20.56 -0.94 24 26 23
-9.97 -20.61 -0.85 24 26 23
-10.01 -20.68 -0.80 47 30 31
-10.05 -20.74 -0.74 8 0 0
-10.02 -20.84 -0.79 114 100 75
-9.86 -21.00 -0.99 255 248 223
-9.31 -21.33 -1.67 242 231 187
-8.78 -21.66 -2.34 229 218 174
-8.39 -21.93 -2.82 235 224 191
-7.97 -22.21 -3.36 232 221 188
-7.88 -22.34 -3.46 224 212 200
-8.12 -22.32 -3.17 230 218 206
-8.22 -22.36 -3.04 219 212 210
-8.23 -22.44 -3.02 218 211 209
-8.24 -22.52 -3.01 214 212 208
-8.25 -22.61 -3.01 221 219 215
-8.25 -22.70 -3.00 211 213 208
-8.26 -22.78 -2.99 214 216 211
-8.25 -22.87 -3.00 214 216 213
-8.26 -22.95 -2.99 214 216 213
-8.25 -23.05 -3.00 214 216 213
-8.26 -23.13 -2.99 214 216 213
-8.27 -23.22 -2.98 214 216 213
-8.26 -23.31 -2.99 214 216 213
-8.27 -23.39 -2.98 214 216 213
-8.27 -23.48 -2.97 215 217 214
-8.29 -23.56 -2.95 216 218 215
-8.30 -23.64 -2.94 216 218 215
-8.30 -23.73 -2.94 216 218 215
-8.30 -23.81 -2.94 216 218 215
-8.30 -23.90 -2.94 216 218 215
-8.30 -23.99 -2.94 216 218 215
-8.30 -24.08 -2.94 216 218 215
-8.30 -24.16 -2.94 218 220 217
-8.30 -24.25 -2.94 218 220 217
-8.30 -24.34 -2.94 218 220 217
-8.30 -24.43 -2.94 218 220 217
-8.31 -24.51 -2.93 218 220 217
-8.31 -24.60 -2.93 218 220 217
-8.31 -24.69 -2.92 218 220 217
-8.32 -24.77 -2.92 218 220 217
-8.34 -24.85 -2.90 218 220 217
-8.33 -24.94 -2.90 218 220 217
-8.33 -25.03 -2.90 218 220 217
-8.33 -25.11 -2.90 218 220 217
-8.34 -25.20 -2.89 218 220 217
-8.34 -25.28 -2.88 218 220 217
-8.35 -25.37 -2.88 218 220 217
-8.36 -25.45 -2.87 218 220 217
-8.36 -25.54 -2.86 218 220 217
-8.37 -25.62 -2.86 218 220 217
-8.36 -25.71 -2.86 218 220 217
-8.37 -25.80 -2.86 218 220 217
-8.37 -25.88 -2.85 218 220 217
-8.37 -25.97 -2.85 218 220 217
-8.38 -26.05 -2.84 218 220 217
-8.38 -26.14 -2.84 218 220 217
-8.38 -26.23 -2.84 218 220 217
-8.38 -26.31 -2.84 218 220 217
-8.38 -26.40 -2.84 219 221 218
-8.38 -26.49 -2.84 220 222 219
-8.38 -26.58 -2.84 220 222 219
-8.38 -26.66 -2.84 220 222 219
-8.38 -26.75 -2.83 220 222 219
-8.38 -26.84 -2.84 220 222 219
-8.38 -26.93 -2.84 220 222 219
-8.38 -27.02 -2.84 222 222 222
-8.38 -27.10 -2.84 222 222 222
-8.38 -27.19 -2.84 222 222 222
-8.38 -27.28 -2.84 222 222 222
-8.38 -27.37 -2.84 222 222 222
-8.38 -27.45 -2.84 222 222 222
-8.38 -27.54 -2.84 222 222 222
-8.39 -27.62 -2.83 222 222 222
-8.39 -27.71 -2.82 222 222 222
-8.39 -27.80 -2.82 222 222 222
-8.40 -27.88 -2.82 222 222 222
-8.39 -27.97 -2.82 222 222 222
-8.40 -28.05 -2.81 222 222 222
-8.41 -28.14 -2.81 222 222 222
-8.41 -28.22 -2.80 222 222 222
-8.41 -28.31 -2.80 222 222 222
-8.41 -28.40 -2.80 224 222 223
-8.42 -28.48 -2.79 224 222 223
-8.42 -28.57 -2.79 224 222 223
-8.43 -28.65 -2.78 224 222 223
-8.43 -28.73 -2.78 224 222 223
-8.44 -28.82 -2.77 224 222 223
-8.43 -28.91 -2.78 225 223 224
-8.43 -28.99 -2.77 226 224 225
-8.44 -29.08 -2.77 226 224 225
-8.44 -29.16 -2.76 226 224 225
-8.44 -29.25 -2.76 226 224 225
-8.45 -29.33 -2.76 226 224 225
-8.45 -29.42 -2.75 226 224 225
-8.46 -29.50 -2.74 226 224 225
-8.46 -29.59 -2.74 226 224 225
-8.46 -29.67 -2.74 226 224 225
-8.47 -29.76 -2.73 226 224 225
-8.47 -29.84 -2.73 226 224 225
-8.47 -29.93 -2.73 226 224 225
-8.47 -30.02 -2.73 226 224 225
-8.47 -30.11 -2.73 226 224 225
-8.47 -30.19 -2.73 228 226 227
-8.47 -30.28 -2.73 228 226 227
-8.48 -30.36 -2.72 228 226 227
-8.47 -30.46 -2.73 228 226 227
-8.48 -30.54 -2.72 228 226 227
-8.48 -30.62 -2.72 228 226 227
-8.48 -30.71 -2.72 229 227 228
-8.49 -30.79 -2.70 230 228 229
-8.49 -30.88 -2.71 230 228 229
-8.49 -30.96 -2.70 230 228 229
-8.48 -31.06 -2.71 230 228 229
-8.50 -31.13 -2.70 230 228 229
-8.50 -31.22 -2.70 230 228 229
-8.50 -31.31 -2.70 230 228 229
-8.49 -31.40 -2.70 230 228 229
-8.49 -31.48 -2.70 230 228 229
-8.50 -31.57 -2.70 230 228 229
-8.50 -31.65 -2.69 230 228 229
-8.50 -31.74 -2.69 230 228 229
-8.50 -31.83 -2.69 230 228 229
-8.51 -31.91 -2.68 231 229 230
-8.51 -32.00 -2.68 232 230 231
-8.51 -32.09 -2.68 232 230 231
-8.51 -32.17 -2.68 233 231 232
-8.51 -32.25 -2.67 235 233 234
-8.51 -32.34 -2.67 235 233 234
-8.51 -32.43 -2.67 236 234 235
-8.52 -32.51 -2.67 235 233 234
-8.51 -32.60 -2.67 235 233 234
-8.52 -32.69 -2.67 235 233 234
-8.52 -32.77 -2.67 235 233 234
-8.52 -32.86 -2.67 235 233 234
-8.51 -32.95 -2.67 235 233 234
-8.52 -33.04 -2.67 235 233 234
-8.52 -33.12 -2.66 235 233 234
-8.52 -33.21 -2.67 235 233 234
-8.52 -33.30 -2.67 235 233 234
-8.52 -33.39 -2.67 235 233 234
-8.53 -33.46 -2.65 235 233 234
-8.53 -33.55 -2.65 235 233 234
-8.54 -33.63 -2.64 235 233 234
-8.53 -33.73 -2.66 235 233 234
-8.52 -33.82 -2.66 235 233 234
-8.53 -33.90 -2.65 234 234 229
-8.54 -33.97 -2.64 234 234 229
-8.57 -34.04 -2.61 234 234 229
-8.58 -34.12 -2.59 234 234 229
-8.60 -34.19 -2.57 235 233 229
-8.61 -34.26 -2.55 235 233 229
-8.59 -34.37 -2.58 237 232 229
-8.62 -34.44 -2.55 237 232 229
-8.55 -34.58 -2.62 236 229 227
-8.89 -34.37 -2.20 246 239 237
-8.28 20.79 -3.10 141 132 124
-8.26 20.72 -3.13 141 132 124
-8.25 20.63 -3.13 141 132 124
-8.22 20.57 -3.17 141 132 124
-8.23 20.48 -3.16 142 133 125
-8.24 20.38 -3.15 142 133 125
-8.22 20.31 -3.18 142 133 125
-8.20 20.24 -3.19 142 133 125
-8.21 20.14 -3.19 142 133 125
-8.20 20.06 -3.20 142 133 125
-8.19 19.98 -3.21 142 133 125
-8.19 19.90 -3.21 142 133 125
-8.18 19.81 -3.22 143 134 126
-8.17 19.73 -3.23 144 135 127
-8.17 19.65 -3.24 144 135 127
-8.17 19.56 -3.24 144 135 127
-8.15 19.48 -3.25 144 135 127
-8.15 19.40 -3.26 144 135 127
-8.14 19.32 -3.27 144 135 127
-8.14 19.23 -3.28 144 135 127
-8.13 19.15 -3.29 144 135 127
-8.12 19.07 -3.30 144 135 127
-8.11 18.99 -3.31 146 137 129
-8.10 18.91 -3.32 148 139 131
-8.09 18.83 -3.33 148 139 131
-8.08 18.75 -3.35 148 139 131
-8.08 18.66 -3.35 148 139 131
-8.06 18.59 -3.37 148 139 131
-8.05 18.51 -3.38 148 139 131
-8.05 18.42 -3.39 148 139 131
-8.03 18.34 -3.41 147 141 134
-8.03 18.26 -3.41 147 141 134
-8.02 18.18 -3.42 146 142 134
-8.01 18.10 -3.44 146 142 134
-8.01 18.01 -3.44 146 142 134
-7.99 17.93 -3.46 146 142 134
-7.99 17.85 -3.46 146 142 134
-7.98 17.76 -3.47 146 142 134
-7.98 17.68 -3.47 146 142 134
-7.98 17.59 -3.47 146 142 134
-7.97 17.50 -3.48 147 143 135
-7.98 17.41 -3.48 148 144 136
-7.97 17.33 -3.49 148 144 136
-7.97 17.24 -3.48 148 144 136
-7.97 17.15 -3.49 148 144 136
-7.96 17.07 -3.49 148 144 136
-7.96 16.98 -3.50 148 144 136
-7.96 16.89 -3.50 148 144 136
-7.95 16.81 -3.51 148 144 136
-7.95 16.72 -3.51 149 145 137
-7.95 16.63 -3.51 150 144 137
-7.95 16.55 -3.52 150 144 137
-7.95 16.45 -3.51 150 144 137
-7.94 16.37 -3.52 150 144 137
-7.94 16.28 -3.52 150 144 137
-7.94 16.20 -3.52 150 144 137
-7.93 16.12 -3.54 151 145 138
-7.93 16.03 -3.54 153 147 140
-7.92 15.94 -3.55 153 147 140
-7.92 15.86 -3.55 153 147 140
-7.91 15.77 -3.56 153 147 140
-7.90 15.69 -3.57 153 147 140
-7.90 15.60 -3.58 153 147 140
-7.89 15.52 -3.59 153 147 140
-7.88 15.44 -3.60 153 147 140
-7.87 15.36 -3.61 153 147 140
-7.87 15.27 -3.62 154 148 141
-7.86 15.18 -3.63 154 148 141
-7.86 15.10 -3.63 154 148 141
-7.86 15.00 -3.62 154 148 141
-7.86 14.92 -3.63 154 148 141
-7.85 14.84 -3.64 154 148 141
-7.84 14.75 -3.65 154 148 141
-7.84 14.67 -3.66 155 149 142
-7.84 14.57 -3.65 155 149 142
-7.83 14.49 -3.67 156 150 143
-7.82 14.40 -3.67 155 151 143
-7.82 14.32 -3.68 155 151 143
-7.82 14.23 -3.68 155 151 143
-7.81 14.14 -3.68 156 152 144
-7.81 14.06 -3.69 157 151 146
-7.81 13.97 -3.69 158 152 147
-7.80 13.89 -3.70 159 155 147
-7.79 13.80 -3.71 159 155 147
-7.78 13.72 -3.72 159 155 147
-7.78 13.63 -3.72 159 155 147
-7.79 13.54 -3.72 159 155 147
-7.78 13.45 -3.73 159 155 147
-7.77 13.37 -3.73 159 155 147
-7.77 13.28 -3.73 160 156 148
-7.77 13.19 -3.74 160 156 148
-7.77 13.10 -3.74 160 156 148
-7.76 13.02 -3.75 160 156 148
-7.76 12.93 -3.75 160 156 148
-7.76 12.84 -3.75 160 156 148
-7.76 12.75 -3.75 160 156 148
-7.76 12.66 -3.76 161 157 149
-7.75 12.57 -3.76 162 158 150
-7.76 12.48 -3.75 163 157 150
-7.76 12.39 -3.76 163 157 150
-7.76 12.30 -3.75 163 157 150
-7.76 12.21 -3.75 163 157 150
-7.76 12.12 -3.75 163 157 150
-7.77 12.03 -3.73 163 157 150
-7.77 11.93 -3.73 162 158 150
-7.77 11.85 -3.73 163 159 151
-7.77 11.76 -3.73 166 162 154
-7.77 11.67 -3.73 166 162 154
-7.77 11.58 -3.73 164 163 154
-7.78 11.48 -3.72 164 163 154
-7.78 11.40 -3.73 164 163 154
-7.78 11.31 -3.73 164 163 154
-7.78 11.22 -3.73 164 163 154
-7.78 11.13 -3.73 164 163 154
-7.77 11.04 -3.74 164 163 154
-7.77 10.95 -3.73 164 163 154
-7.77 10.86 -3.73 167 163 155
-7.77 10.78 -3.74 167 163 155
-7.76 10.69 -3.75 167 163 155
-7.76 10.60 -3.75 167 163 155
-7.76 10.51 -3.75 167 163 155
-7.76 10.42 -3.75 167 163 155
-7.76 10.34 -3.76 167 163 155
-7.76 10.24 -3.75 168 164 156
-7.76 10.15 -3.75 168 164 156
-7.76 10.07 -3.75 168 164 156
-7.76 9.98 -3.76 168 164 156
-7.76 9.89 -3.76 168 164 156
-7.75 9.80 -3.76 166 165 156
-7.75 9.71 -3.76 167 166 157
-7.75 9.62 -3.76 166 167 157
-7.74 9.54 -3.77 167 168 158
-7.73 9.45 -3.78 167 168 158
-7.73 9.36 -3.78 167 168 158
-7.73 9.27 -3.78 167 168 158
-7.72 9.19 -3.80 167 168 158
-7.73 9.10 -3.79 167 168 158
-7.73 9.01 -3.79 167 168 158
-7.72 8.92 -3.80 168 169 159
-7.71 8.83 -3.81 170 171 161
-7.71 8.75 -3.81 170 171 161
-7.71 8.66 -3.81 170 171 161
-7.71 8.57 -3.81 170 171 161
-7.70 8.48 -3.82 170 171 161
-7.70 8.39 -3.82 171 172 164
-7.70 8.30 -3.82 171 172 164
-7.70 8.21 -3.82 171 172 164
-7.70 8.12 -3.82 171 172 164
-7.70 8.03 -3.82 171 172 164
-7.70 7.94 -3.82 171 172 164
-7.70 7.85 -3.82 171 172 164
-7.70 7.76 -3.82 171 172 164
-7.71 7.67 -3.82 171 172 164
-7.71 7.58 -3.81 172 173 165
-7.71 7.49 -3.81 172 173 165
-7.71 7.40 -3.81 172 173 165
-7.71 7.31 -3.81 172 173 165
-7.71 7.22 -3.82 172 173 165
-7.72 7.13 -3.81 172 173 165
-7.70 7.05 -3.82 172 173 165
-7.70 6.96 -3.82 173 174 166
-7.70 6.87 -3.82 173 174 166
-7.70 6.78 -3.82 173 174 166
-7.70 6.69 -3.83 173 174 166
-7.70 6.60 -3.83 173 174 166
-7.70 6.51 -3.83 173 174 166
-7.68 6.43 -3.85 173 174 166
-7.69 6.34 -3.84 173 174 166
-7.70 6.24 -3.83 173 174 166
-7.69 6.16 -3.84 173 174 166
-7.69 6.06 -3.83 173 174 166
-7.68 5.98 -3.85 173 174 166
-7.69 5.89 -3.84 173 174 166
-7.70 5.79 -3.83 173 174 166
-7.69 5.71 -3.83 173 174 166
-7.70 5.62 -3.83 173 174 166
-7.69 5.53 -3.84 173 174 166
-7.70 5.43 -3.82 173 174 166
-7.70 5.35 -3.83 173 174 166
-7.70 5.26 -3.82 173 174 166
-7.70 5.17 -3.82 173 174 166
-7.70 5.08 -3.83 173 174 166
-7.70 4.99 -3.82 173 174 166
-7.70 4.90 -3.82 173 174 166
-7.70 4.81 -3.82 173 174 166
-7.70 4.72 -3.82 173 174 166
-7.70 4.63 -3.83 173 174 166
-7.70 4.54 -3.82 173 174 166
-7.70 4.45 -3.83 173 174 166
-7.70 4.36 -3.82 173 174 166
-7.70 4.27 -3.83 173 174 166
-7.69 4.18 -3.84 173 174 166
-7.69 4.09 -3.83 173 173 168
-7.69 4.00 -3.84 173 173 168
-7.70 3.91 -3.83 173 173 168
-7.69 3.82 -3.84 173 173 168
-7.69 3.73 -3.84 173 173 168
-7.70 3.64 -3.83 173 173 168
-7.69 3.55 -3.84 173 173 168
-7.69 3.47 -3.84 173 173 168
-7.70 3.37 -3.83 173 173 168
-7.69 3.29 -3.83 173 173 168
-7.70 3.19 -3.83 173 173 168
-7.69 3.11 -3.84 173 173 168
-7.69 3.02 -3.84 173 173 168
-7.69 2.93 -3.84 173 173 168
-7.69 2.84 -3.83 173 173 168
-7.70 2.75 -3.83 173 173 168
-7.70 2.66 -3.83 170 172 167
-7.70 2.57 -3.83 170 172 167
-7.70 2.48 -3.83 170 172 167
-7.70 2.39 -3.82 170 172 167
-7.70 2.30 -3.83 170 172 167
-7.70 2.21 -3.83 170 172 167
-7.70 2.12 -3.83 170 172 167
-7.70 2.03 -3.83 170 172 167
-7.70 1.94 -3.82 170 172 167
-7.70 1.85 -3.82 170 172 167
-7.70 1.76 -3.82 170 172 167
-7.70 1.67 -3.83 170 172 167
-7.70 1.58 -3.82 170 172 167
-7.69 1.49 -3.83 170 172 167
-7.70 1.40 -3.82 170 172 167
-7.70 1.31 -3.83 170 172 167
-7.70 1.22 -3.82 171 174 166
-7.70 1.13 -3.82 170 173 165
-7.70 1.04 -3.83 170 173 165
-7.71 0.95 -3.81 170 173 165
-7.71 0.86 -3.81 170 172 167
-7.71 0.77 -3.81 170 172 167
-7.72 0.68 -3.80 170 172 167
-7.71 0.59 -3.81 170 172 167
-7.72 0.50 -3.81 170 172 167
-7.72 0.41 -3.80 170 172 167
-7.72 0.32 -3.80 170 172 167
-7.72 0.23 -3.80 170 172 167
-7.73 0.14 -3.78 170 172 167
-7.73 0.05 -3.79 170 172 167
-7.73 -0.04 -3.79 170 172 167
-7.73 -0.13 -3.78 170 172 167
-7.73 -0.22 -3.78 170 172 167
-7.73 -0.31 -3.78 170 172 167
-7.73 -0.40 -3.78 168 173 167
-7.73 -0.49 -3.79 168 173 167
-7.73 -0.58 -3.79 168 173 167
-7.72 -0.67 -3.80 168 173 167
-7.73 -0.76 -3.79 168 173 167
-7.73 -0.85 -3.79 168 173 167
-7.73 -0.94 -3.79 169 174 168
-7.72 -1.02 -3.80 169 174 168
-7.72 -1.11 -3.80 169 174 168
-7.72 -1.20 -3.80 169 174 168
-7.72 -1.29 -3.80 169 174 168
-7.72 -1.38 -3.81 169 174 168
-7.72 -1.47 -3.81 171 173 168
-7.72 -1.56 -3.81 172 174 169
-7.71 -1.65 -3.81 172 174 169
-7.71 -1.74 -3.81 172 174 169
-7.72 -1.83 -3.81 172 174 169
-7.71 -1.92 -3.81 172 174 169
-7.72 -2.01 -3.80 172 174 169
-7.71 -2.10 -3.81 172 174 169
-7.72 -2.19 -3.80 172 174 169
-7.71 -2.28 -3.81 173 175 170
-7.71 -2.37 -3.81 174 176 171
-7.71 -2.46 -3.81 174 176 171
-7.70 -2.54 -3.82 174 176 171
-7.71 -2.64 -3.81 174 176 171
-7.71 -2.72 -3.81 174 176 171
-7.71 -2.81 -3.81 174 176 171
-7.71 -2.90 -3.81 172 177 171
-7.71 -2.99 -3.81 172 177 171
-7.71 -3.08 -3.81 172 177 173
-7.71 -3.17 -3.82 172 177 173
-7.70 -3.26 -3.82 172 177 171
-7.70 -3.35 -3.82 172 177 171
-7.70 -3.44 -3.83 172 177 171
-7.70 -3.53 -3.82 172 177 171
-7.69 -3.62 -3.84 172 177 171
-7.70 -3.71 -3.83 174 179 173
-7.70 -3.80 -3.83 174 179 173
-7.69 -3.89 -3.83 174 179 173
-7.70 -3.98 -3.83 174 179 173
-7.69 -4.07 -3.83 174 179 173
-7.69 -4.16 -3.84 174 179 173
-7.69 -4.25 -3.84 174 179 173
-7.69 -4.34 -3.84 174 179 173
-7.68 -4.43 -3.85 175 180 174
-7.68 -4.52 -3.85 174 181 174
-7.69 -4.61 -3.84 174 181 174
-7.69 -4.69 -3.84 174 181 174
-7.69 -4.78 -3.84 174 181 174
-7.68 -4.87 -3.85 174 181 174
-7.69 -4.96 -3.84 174 181 174
-7.69 -5.05 -3.84 174 181 174
-7.69 -5.14 -3.84 174 181 174
-7.68 -5.23 -3.85 175 182 175
-7.68 -5.32 -3.85 175 182 175
-7.68 -5.41 -3.86 175 182 175
-7.68 -5.50 -3.85 175 182 175
-7.67 -5.59 -3.86 175 182 175
-7.67 -5.68 -3.86 175 182 175
-7.67 -5.77 -3.87 175 182 175
-7.66 -5.86 -3.87 175 182 175
-7.66 -5.95 -3.88 176 183 176
-7.66 -6.04 -3.88 176 183 176
-7.65 -6.13 -3.89 176 183 176
-7.65 -6.22 -3.89 176 183 176
-7.64 -6.31 -3.90 176 183 176
-7.64 -6.40 -3.90 176 183 176
-7.64 -6.49 -3.90 176 183 176
-7.64 -6.58 -3.91 176 183 176
-7.63 -6.67 -3.91 178 185 178
-7.63 -6.76 -3.91 178 185 178
-7.63 -6.85 -3.92 178 185 178
-7.62 -6.94 -3.93 178 185 178
-7.62 -7.03 -3.93 178 185 178
-7.61 -7.12 -3.94 178 185 178
-7.61 -7.21 -3.94 178 185 178
-7.59 -7.30 -3.96 178 185 178
-7.58 -7.39 -3.98 178 185 180
-7.57 -7.48 -3.99 178 185 180
-7.56 -7.57 -4.00 178 185 180
-7.55 -7.66 -4.01 178 185 180
-7.55 -7.75 -4.02 178 185 180
-7.53 -7.84 -4.04 178 185 180
-7.52 -7.93 -4.06 178 185 180
-7.51 -8.02 -4.06 178 185 180
-7.51 -8.11 -4.07 176 183 178
-7.52 -8.20 -4.05 180 187 182
-7.51 -8.29 -4.07 177 184 179
-7.51 -8.38 -4.06 183 190 185
-7.51 -8.47 -4.06 185 192 187
-7.52 -8.56 -4.05 183 190 185
-7.52 -8.65 -4.05 180 187 182
-7.45 -8.74 -4.14 169 176 171
-7.55 -8.83 -4.02 176 181 180
-8.00 -8.90 -3.45 244 249 248
-8.42 -8.96 -2.92 253 255 255
-8.53 -9.05 -2.78 247 252 251
-8.52 -9.13 -2.80 252 255 255
-8.53 -9.22 -2.78 247 252 251
-8.54 -9.31 -2.77 242 247 246
-8.54 -9.39 -2.76 244 249 248
-8.57 -9.48 -2.73 245 250 249
-8.58 -9.57 -2.72 242 247 246
-8.59 -9.65 -2.71 242 247 246
-8.59 -9.74 -2.71 247 252 251
-8.57 -9.83 -2.73 246 251 250
-8.57 -9.91 -2.73 246 251 250
-8.59 -10.00 -2.71 248 253 252
-8.54 -10.09 -2.77 253 255 255
-8.39 -10.19 -2.96 226 233 231
-8.06 -10.31 -3.37 199 206 204
-7.83 -10.42 -3.66 178 185 183
-7.67 -10.53 -3.86 180 187 185
-7.59 -10.62 -3.97 185 192 190
-7.58 -10.72 -3.98 185 192 190
-7.61 -10.80 -3.94 187 194 192
-7.60 -10.89 -3.95 195 202 200
-7.61 -10.98 -3.94 187 194 192
-7.61 -11.07 -3.94 187 194 192
-7.63 -11.16 -3.91 188 195 193
-7.63 -11.25 -3.91 188 195 193
-7.62 -11.34 -3.93 188 195 193
-7.62 -11.43 -3.93 188 195 193
-7.62 -11.52 -3.93 187 194 192
-7.61 -11.61 -3.94 187 194 192
-7.61 -11.70 -3.94 189 194 193
-7.61 -11.79 -3.94 189 194 193
-7.60 -11.88 -3.95 189 194 193
-7.60 -11.97 -3.95 189 194 193
-7.59 -12.06 -3.96 189 194 193
-7.59 -12.15 -3.96 189 194 193
-7.59 -12.24 -3.96 189 194 193
-7.59 -12.33 -3.96 189 194 193
-7.58 -12.42 -3.98 191 196 195
-7.57 -12.52 -3.99 191 196 195
-7.56 -12.61 -4.00 191 196 195
-7.56 -12.70 -4.00 191 196 195
-7.56 -12.79 -4.00 190 197 192
-7.55 -12.88 -4.02 189 196 191
-7.54 -12.97 -4.03 189 196 191
-7.53 -13.06 -4.04 189 196 191
-7.51 -13.16 -4.06 188 195 190
-7.50 -13.25 -4.08 189 196 191
-7.49 -13.34 -4.08 190 197 190
-7.48 -13.43 -4.10 190 197 190
-7.47 -13.53 -4.12 189 196 191
-7.46 -13.62 -4.12 188 195 190
-7.46 -13.71 -4.13 185 191 192
-7.45 -13.80 -4.14 184 190 191
-7.44 -13.89 -4.16 177 183 186
-7.44 -13.98 -4.15 173 179 182
-7.44 -14.07 -4.15 161 168 166
-7.46 -14.16 -4.13 153 160 158
-7.47 -14.25 -4.12 139 145 148
-7.50 -14.33 -4.08 155 161 164
-7.54 -14.41 -4.03 11 16 26
-7.56 -14.50 -4.00 17 22 32
-7.57 -14.59 -3.99 25 28 64
-7.57 -14.68 -3.99 32 35 71
-7.58 -14.77 -3.98 31 35 77
-7.58 -14.85 -3.98 36 40 82
-7.57 -14.95 -3.98 43 48 97
-7.56 -15.04 -4.00 47 52 101
-7.55 -15.13 -4.02 48 56 104
-7.53 -15.23 -4.04 54 62 110
-7.52 -15.32 -4.05 36 43 78
-7.52 -15.41 -4.05 28 35 70
-7.54 -15.49 -4.03 37 46 57
-7.57 -15.58 -3.99 43 52 63
-7.60 -15.66 -3.95 40 49 49
-7.64 -15.74 -3.90 37 46 46
-7.70 -15.81 -3.83 39 46 41
-7.77 -15.88 -3.74 31 38 33
-7.83 -15.96 -3.66 30 27 33
-7.87 -16.04 -3.61 31 28 34
-7.91 -16.11 -3.57 38 40 35
-7.94 -16.19 -3.52 71 73 68
-7.96 -16.28 -3.49 122 128 117
-8.01 -16.35 -3.44 167 173 162
-8.05 -16.43 -3.39 197 199 194
-8.09 -16.51 -3.33 216 218 213
-8.13 -16.58 -3.29 219 217 213
-8.16 -16.66 -3.24 211 209 205
-8.19 -16.74 -3.20 202 201 190
-8.24 -16.82 -3.14 190 189 178
-8.28 -16.89 -3.09 182 183 173
-8.31 -16.97 -3.06 176 177 167
-8.35 -17.05 -3.01 170 176 167
-8.38 -17.13 -2.97 169 175 166
-8.41 -17.20 -2.93 172 174 159
-8.45 -17.28 -2.88 173 175 160
-8.48 -17.36 -2.85 172 173 161
-8.52 -17.43 -2.79 173 174 162
-8.57 -17.50 -2.74 173 174 162
-8.61 -17.58 -2.68 173 174 162
-8.65 -17.65 -2.63 175 176 166
-8.70 -17.72 -2.57 175 176 166
-8.73 -17.80 -2.53 176 177 167
-8.77 -17.87 -2.49 176 177 167
-8.79 -17.95 -2.45 176 177 169
-8.83 -18.02 -2.40 176 177 169
-8.86 -18.10 -2.37 176 177 169
-8.90 -18.17 -2.32 175 176 168
-8.93 -18.25 -2.28 174 174 169
-8.96 -18.32 -2.24 175 175 170
-9.00 -18.40 -2.20 170 170 165
-9.02 -18.47 -2.16 161 161 156
-9.04 -18.55 -2.13 160 160 155
-9.07 -18.63 -2.10 160 160 155
-9.10 -18.70 -2.07 161 161 156
-9.12 -18.78 -2.04 163 163 158
-9.15 -18.85 -2.00 158 158 153
-9.17 -18.93 -1.97 153 153 148
-9.20 -19.01 -1.94 158 158 153
-9.22 -19.09 -1.92 154 154 149
-9.25 -19.16 -1.88 152 152 147
-9.27 -19.24 -1.85 149 149 144
-9.30 -19.31 -1.81 146 146 141
-9.33 -19.38 -1.78 146 146 141
-9.36 -19.46 -1.74 149 149 144
-9.38 -19.54 -1.71 152 152 147
-9.40 -19.61 -1.68 157 159 156
-9.44 -19.68 -1.64 156 158 155
-9.46 -19.76 -1.61 151 153 150
-9.49 -19.83 -1.57 137 139 136
-9.52 -19.90 -1.54 116 118 115
-9.56 -19.97 -1.49 84 86 83
-9.59 -20.04 -1.45 49 51 48
-9.63 -20.11 -1.40 25 27 24
-9.65 -20.18 -1.37 27 29 26
-9.69 -20.25 -1.32 27 29 26
-9.74 -20.32 -1.26 27 29 26
-9.78 -20.38 -1.21 28 30 27
-9.83 -20.44 -1.14 28 30 27
-9.89 -20.50 -1.07 29 31 28
-9.95 -20.56 -0.99 30 32 29
-10.03 -20.61 -0.90 31 33 30
-10.07 -20.67 -0.84 50 34 21
-10.10 -20.74 -0.80 20 4 0
-10.09 -20.83 -0.82 161 150 117
-9.86 -21.02 -1.11 255 246 213
-9.32 -21.35 -1.78 247 236 192
-8.96 -21.60 -2.25 228 217 173
-8.77 -21.77 -2.48 239 228 193
-8.43 -22.02 -2.90 214 203 168
-8.03 -22.29 -3.41 209 202 186
-8.14 -22.33 -3.27 213 206 190
-8.35 -22.32 -3.01 212 208 202
-8.36 -22.40 -3.00 220 216 210
-8.38 -22.48 -2.97 208 210 205
-8.38 -22.57 -2.97 214 216 211
-8.39 -22.65 -2.96 217 223 212
-8.39 -22.74 -2.96 206 212 201
-8.40 -22.82 -2.95 211 216 212
-8.40 -22.91 -2.95 211 216 212
-8.40 -22.99 -2.94 211 216 212
-8.41 -23.08 -2.93 211 216 212
-8.42 -23.16 -2.92 211 216 212
-8.43 -23.24 -2.91 211 216 212
-8.43 -23.33 -2.91 213 215 212
-8.44 -23.42 -2.90 215 217 214
-8.45 -23.50 -2.88 216 218 215
-8.45 -23.58 -2.88 216 218 215
-8.45 -23.67 -2.88 216 218 215
-8.45 -23.76 -2.88 216 218 215
-8.45 -23.85 -2.88 216 218 218
-8.44 -23.94 -2.89 216 218 218
-8.44 -24.03 -2.89 216 218 215
-8.45 -24.11 -2.89 218 220 217
-8.45 -24.20 -2.89 218 220 217
-8.45 -24.28 -2.88 218 220 217
-8.46 -24.37 -2.87 218 220 217
-8.46 -24.45 -2.87 218 220 217
-8.46 -24.54 -2.87 218 220 217
-8.46 -24.63 -2.87 218 220 217
-8.47 -24.71 -2.86 218 220 217
-8.48 -24.79 -2.84 218 220 217
-8.48 -24.88 -2.84 218 220 217
-8.48 -24.97 -2.84 218 220 217
-8.49 -25.05 -2.83 218 220 217
-8.49 -25.14 -2.83 218 220 217
-8.50 -25.22 -2.82 218 220 217
-8.50 -25.31 -2.82 218 220 217
-8.51 -25.39 -2.81 218 220 217
-8.52 -25.47 -2.80 218 220 217
-8.51 -25.56 -2.80 218 220 217
-8.52 -25.65 -2.80 218 220 217
-8.52 -25.73 -2.80 218 220 217
-8.52 -25.82 -2.79 218 220 217
-8.53 -25.90 -2.79 218 220 217
-8.52 -25.99 -2.79 218 220 217
-8.53 -26.08 -2.78 218 220 217
-8.53 -26.16 -2.78 218 220 217
-8.53 -26.25 -2.78 218 220 217
-8.53 -26.34 -2.78 219 221 218
-8.53 -26.42 -2.78 219 221 218
-8.53 -26.51 -2.78 219 221 218
-8.54 -26.60 -2.77 219 221 218
-8.53 -26.69 -2.78 219 221 218
-8.53 -26.77 -2.78 219 221 218
-8.53 -26.86 -2.78 219 221 218
-8.53 -26.95 -2.78 222 222 222
-8.53 -27.03 -2.78 222 222 222
-8.53 -27.12 -2.78 222 222 222
-8.54 -27.21 -2.77 222 222 222
-8.54 -27.29 -2.77 222 222 222
-8.54 -27.38 -2.77 222 222 222
-8.54 -27.47 -2.77 222 222 222
-8.54 -27.55 -2.77 222 222 222
-8.54 -27.64 -2.76 222 222 222
-8.54 -27.72 -2.76 222 222 222
-8.55 -27.81 -2.76 222 222 222
-8.55 -27.90 -2.76 222 222 222
-8.55 -27.98 -2.75 222 222 222
-8.55 -28.07 -2.75 222 222 222
-8.56 -28.15 -2.74 223 221 222
-8.56 -28.24 -2.74 223 221 222
-8.57 -28.32 -2.73 224 222 223
-8.57 -28.40 -2.73 224 222 223
-8.57 -28.49 -2.73 224 222 223
-8.57 -28.58 -2.73 224 222 223
-8.58 -28.66 -2.72 224 222 223
-8.58 -28.75 -2.72 224 222 223
-8.58 -28.83 -2.72 225 223 224
-8.58 -28.92 -2.72 226 224 225
-8.59 -29.00 -2.71 226 224 225
-8.59 -29.09 -2.71 226 224 225
-8.59 -29.17 -2.70 226 224 225
-8.60 -29.26 -2.70 226 224 225
-8.61 -29.34 -2.69 226 224 225
-8.60 -29.43 -2.69 226 224 225
-8.60 -29.52 -2.69 226 224 225
-8.61 -29.60 -2.68 225 223 224
-8.62 -29.68 -2.67 226 224 225
-8.62 -29.77 -2.67 226 224 225
-8.61 -29.86 -2.68 225 223 224
-8.61 -29.94 -2.68 225 223 224
-8.62 -30.03 -2.67 225 223 224
-8.62 -30.12 -2.67 226 224 225
-8.62 -30.20 -2.67 228 226 227
-8.61 -30.29 -2.68 228 226 227
-8.62 -30.38 -2.67 228 226 227
-8.62 -30.46 -2.67 228 226 227
-8.62 -30.55 -2.67 228 226 227
-8.62 -30.64 -2.67 229 227 228
-8.62 -30.72 -2.67 230 228 229
-8.62 -30.81 -2.67 230 228 229
-8.63 -30.89 -2.66 230 228 229
-8.63 -30.98 -2.66 230 228 229
-8.64 -31.06 -2.65 230 228 229
-8.64 -31.15 -2.65 230 228 229
-8.64 -31.23 -2.65 230 228 229
-8.64 -31.31 -2.64 230 228 229
-8.64 -31.40 -2.64 230 228 229
-8.64 -31.49 -2.64 230 228 229
-8.65 -31.57 -2.64 230 228 229
-8.65 -31.66 -2.63 230 228 229
-8.65 -31.75 -2.63 230 228 229
-8.66 -31.83 -2.62 231 229 230
-8.65 -31.92 -2.63 231 229 230
-8.65 -32.00 -2.63 232 230 231
-8.66 -32.09 -2.62 232 230 231
-8.66 -32.17 -2.62 233 231 232
-8.66 -32.26 -2.61 235 233 234
-8.66 -32.35 -2.62 235 233 234
-8.66 -32.43 -2.61 235 233 234
-8.67 -32.51 -2.61 235 233 234
-8.66 -32.60 -2.61 235 233 234
-8.67 -32.69 -2.61 235 233 234
-8.66 -32.78 -2.62 235 233 234
-8.66 -32.87 -2.62 235 233 234
-8.66 -32.95 -2.62 235 233 234
-8.66 -33.04 -2.61 235 233 234
-8.67 -33.12 -2.61 235 233 234
-8.67 -33.21 -2.61 235 233 234
-8.66 -33.30 -2.61 235 233 234
-8.67 -33.38 -2.61 235 233 234
-8.67 -33.47 -2.61 235 233 234
-8.66 -33.56 -2.61 235 233 234
-8.66 -33.65 -2.61 235 233 234
-8.67 -33.73 -2.61 235 233 234
-8.68 -33.81 -2.60 234 234 229
-8.70 -33.88 -2.57 234 234 229
-8.70 -33.97 -2.57 234 234 229
-8.71 -34.04 -2.55 234 234 229
-8.72 -34.12 -2.55 235 233 229
-8.74 -34.19 -2.52 235 233 229
-8.74 -34.28 -2.52 237 232 229
-8.74 -34.36 -2.52 237 232 229
-8.72 -34.47 -2.55 235 228 226
-8.94 -34.37 -2.27 241 234 232
-8.04 -35.24 -3.40 224 214 213
-8.41 20.70 -3.06 141 132 124
-8.40 20.63 -3.08 141 132 124
-8.40 20.54 -3.07 141 132 124
-8.38 20.47 -3.10 141 132 124
-8.38 20.38 -3.10 142 133 125
-8.39 20.29 -3.09 142 133 125
-8.36 20.22 -3.13 142 133 125
-8.34 20.15 -3.15 142 133 125
-8.34 20.06 -3.15 142 133 125
-8.33 19.98 -3.16 142 133 125
-8.33 19.90 -3.16 142 133 125
-8.33 19.81 -3.17 142 133 125
-8.32 19.73 -3.18 143 134 126
-8.31 19.65 -3.19 144 135 127
-8.30 19.57 -3.20 144 135 127
-8.30 19.49 -3.21 144 135 127
-8.29 19.41 -3.22 144 135 127
-8.29 19.32 -3.21 144 135 127
-8.27 19.25 -3.24 144 135 127
-8.27 19.16 -3.24 144 135 127
-8.26 19.08 -3.25 144 135 127
-8.25 19.00 -3.27 144 135 127
-8.24 18.92 -3.27 146 137 129
-8.23 18.84 -3.29 148 139 131
-8.23 18.75 -3.29 148 139 131
-8.22 18.67 -3.30 148 139 131
-8.22 18.58 -3.31 148 139 131
-8.20 18.51 -3.32 148 139 131
-8.19 18.43 -3.34 148 139 131
-8.19 18.34 -3.35 148 139 131
-8.18 18.26 -3.36 147 141 134
-8.17 18.18 -3.37 147 141 134
-8.16 18.10 -3.38 146 142 134
-8.15 18.02 -3.39 146 142 134
-8.15 17.93 -3.40 146 142 134
-8.14 17.85 -3.41 146 142 134
-8.13 17.77 -3.42 146 142 134
-8.13 17.68 -3.42 146 142 134
-8.12 17.60 -3.43 146 142 134
-8.11 17.52 -3.44 146 142 134
-8.11 17.43 -3.44 147 143 135
-8.11 17.34 -3.44 148 144 136
-8.10 17.26 -3.45 148 144 136
-8.10 17.17 -3.45 148 144 136
-8.10 17.08 -3.45 148 144 136
-8.10 17.00 -3.46 148 144 136
-8.10 16.91 -3.45 148 144 136
-8.09 16.82 -3.47 148 144 136
-8.09 16.74 -3.47 148 144 136
-8.08 16.65 -3.48 149 145 137
-8.09 16.56 -3.47 150 144 137
-8.08 16.47 -3.47 150 144 137
-8.08 16.39 -3.48 150 144 137
-8.07 16.31 -3.49 150 144 137
-8.08 16.21 -3.48 150 144 137
-8.07 16.13 -3.49 150 144 137
-8.06 16.05 -3.50 151 145 138
-8.06 15.96 -3.50 153 147 140
-8.06 15.87 -3.50 153 147 140
-8.05 15.79 -3.51 153 147 140
-8.05 15.70 -3.52 153 147 140
-8.04 15.62 -3.53 153 147 140
-8.03 15.54 -3.54 153 147 140
-8.03 15.45 -3.54 153 147 140
-8.02 15.37 -3.56 154 148 141
-8.02 15.28 -3.56 154 148 141
-8.01 15.20 -3.57 154 148 141
-8.01 15.11 -3.56 154 148 141
-8.00 15.03 -3.58 154 148 141
-8.00 14.94 -3.58 154 148 141
-7.99 14.86 -3.60 154 148 141
-7.99 14.77 -3.60 155 149 142
-7.98 14.69 -3.61 155 149 142
-7.98 14.60 -3.61 156 150 143
-7.97 14.51 -3.61 156 150 143
-7.97 14.43 -3.62 156 150 143
-7.96 14.34 -3.63 155 151 143
-7.96 14.25 -3.63 156 152 144
-7.96 14.17 -3.63 156 152 144
-7.95 14.08 -3.64 157 153 145
-7.95 13.99 -3.65 158 152 147
-7.95 13.91 -3.65 158 152 147
-7.94 13.82 -3.66 159 155 147
-7.94 13.73 -3.66 159 155 147
-7.93 13.65 -3.67 159 155 147
-7.92 13.57 -3.68 159 155 147
-7.92 13.48 -3.68 159 155 147
-7.91 13.39 -3.69 159 155 147
-7.91 13.30 -3.69 159 155 147
-7.92 13.21 -3.68 160 156 148
-7.91 13.13 -3.69 160 156 148
-7.91 13.04 -3.70 160 156 148
-7.91 12.95 -3.70 160 156 148
-7.91 12.86 -3.70 160 156 148
-7.90 12.78 -3.71 160 156 148
-7.90 12.69 -3.71 160 156 148
-7.90 12.60 -3.70 161 157 149
-7.90 12.51 -3.71 162 158 150
-7.90 12.42 -3.71 163 157 150
-7.89 12.34 -3.72 163 157 150
-7.90 12.24 -3.71 163 157 150
-7.90 12.15 -3.71 163 157 150
-7.90 12.06 -3.71 163 157 150
-7.91 11.97 -3.69 163 157 150
-7.91 11.88 -3.69 162 158 150
-7.91 11.79 -3.70 163 159 151
-7.91 11.70 -3.69 166 162 154
-7.92 11.61 -3.68 166 162 154
-7.92 11.52 -3.68 164 163 154
-7.91 11.43 -3.69 164 163 154
-7.91 11.34 -3.69 164 163 154
-7.91 11.25 -3.69 164 163 154
-7.91 11.17 -3.70 164 163 154
-7.91 11.08 -3.70 164 163 154
-7.91 10.99 -3.70 164 163 154
-7.91 10.90 -3.70 164 163 154
-7.90 10.81 -3.70 167 163 155
-7.91 10.72 -3.70 167 163 155
-7.91 10.63 -3.70 167 163 155
-7.91 10.54 -3.70 167 163 155
-7.90 10.46 -3.71 168 164 156
-7.90 10.37 -3.70 168 164 156
-7.90 10.28 -3.71 168 164 156
-7.90 10.19 -3.71 168 164 156
-7.90 10.10 -3.71 168 164 156
-7.90 10.01 -3.70 168 164 156
-7.90 9.92 -3.71 168 164 156
-7.90 9.84 -3.71 168 164 156
-7.90 9.75 -3.71 167 166 157
-7.89 9.66 -3.72 168 167 158
-7.89 9.57 -3.72 167 168 158
-7.88 9.49 -3.73 167 168 158
-7.88 9.40 -3.73 167 168 158
-7.88 9.31 -3.74 167 168 158
-7.88 9.22 -3.74 167 168 158
-7.87 9.14 -3.75 167 168 158
-7.86 9.05 -3.75 167 168 158
-7.87 8.96 -3.74 167 168 158
-7.86 8.87 -3.75 168 169 159
-7.86 8.78 -3.75 170 171 161
-7.86 8.69 -3.75 170 171 161
-7.86 8.61 -3.76 170 171 161
-7.86 8.52 -3.76 170 171 161
-7.86 8.42 -3.75 170 171 161
-7.85 8.34 -3.76 171 172 164
-7.86 8.25 -3.76 171 172 164
-7.86 8.16 -3.76 172 173 165
-7.86 8.07 -3.75 172 173 165
-7.86 7.98 -3.75 172 173 165
-7.86 7.89 -3.75 172 173 165
-7.86 7.80 -3.76 172 173 165
-7.85 7.71 -3.76 172 173 165
-7.86 7.62 -3.76 172 173 165
-7.86 7.53 -3.76 173 174 166
-7.85 7.45 -3.77 173 174 166
-7.85 7.36 -3.77 173 174 166
-7.86 7.27 -3.76 173 174 166
-7.85 7.18 -3.77 173 174 166
-7.85 7.09 -3.77 173 174 166
-7.85 7.00 -3.77 173 174 166
-7.85 6.91 -3.77 173 174 166
-7.85 6.82 -3.77 173 174 166
-7.84 6.74 -3.78 173 174 166
-7.84 6.65 -3.78 173 174 166
-7.84 6.56 -3.79 173 174 166
-7.84 6.47 -3.79 173 174 166
-7.84 6.38 -3.79 173 174 166
-7.83 6.29 -3.79 173 174 166
-7.84 6.20 -3.79 173 174 166
-7.82 6.12 -3.80 173 174 166
-7.83 6.03 -3.79 173 174 166
-7.82 5.94 -3.80 173 174 166
-7.84 5.84 -3.79 173 174 166
-7.82 5.76 -3.80 173 174 166
-7.84 5.67 -3.79 173 174 166
-7.83 5.58 -3.79 173 174 166
-7.83 5.49 -3.79 173 174 166
-7.84 5.40 -3.79 173 174 166
-7.84 5.31 -3.78 173 174 166
-7.84 5.22 -3.78 173 174 166
-7.84 5.13 -3.78 173 174 166
-7.84 5.04 -3.79 173 174 166
-7.84 4.95 -3.79 173 174 166
-7.83 4.86 -3.79 173 174 166
-7.84 4.77 -3.78 173 174 166
-7.84 4.68 -3.78 173 174 166
-7.84 4.59 -3.78 173 174 166
-7.84 4.50 -3.78 173 174 166
-7.84 4.41 -3.78 173 174 166
-7.84 4.32 -3.78 173 174 166
-7.84 4.23 -3.78 173 174 166
-7.84 4.14 -3.78 173 174 166
-7.84 4.06 -3.78 173 173 168
-7.84 3.97 -3.78 173 173 168
-7.83 3.88 -3.79 173 173 168
-7.84 3.79 -3.79 173 173 168
-7.83 3.70 -3.79 173 173 168
-7.83 3.61 -3.79 173 173 168
-7.83 3.52 -3.80 173 173 168
-7.83 3.43 -3.79 173 173 168
-7.83 3.34 -3.79 173 173 168
-7.83 3.25 -3.80 172 172 167
-7.84 3.16 -3.78 172 172 167
-7.84 3.07 -3.79 172 172 167
-7.83 2.99 -3.79 172 172 167
-7.83 2.90 -3.80 172 172 167
-7.83 2.81 -3.80 172 172 167
-7.83 2.72 -3.79 172 172 167
-7.84 2.63 -3.79 170 172 167
-7.84 2.54 -3.78 170 172 167
-7.84 2.45 -3.79 170 172 167
-7.84 2.36 -3.79 170 172 167
-7.84 2.27 -3.79 170 172 167
-7.84 2.18 -3.79 170 172 167
-7.84 2.09 -3.79 170 172 167
-7.84 2.00 -3.78 170 172 167
-7.85 1.91 -3.77 170 172 167
-7.84 1.82 -3.78 170 172 167
-7.85 1.73 -3.77 170 172 167
-7.84 1.64 -3.78 170 172 167
-7.85 1.55 -3.77 170 172 167
-7.85 1.46 -3.77 170 172 167
-7.85 1.37 -3.77 170 172 167
-7.85 1.28 -3.77 170 172 167
-7.85 1.19 -3.77 170 173 165
-7.85 1.10 -3.77 170 173 165
-7.85 1.02 -3.77 170 173 165
-7.85 0.92 -3.76 170 173 165
-7.85 0.84 -3.77 170 172 167
-7.86 0.74 -3.76 170 172 167
-7.86 0.65 -3.76 170 172 167
-7.86 0.56 -3.75 170 172 167
-7.87 0.47 -3.75 170 172 167
-7.86 0.39 -3.75 170 172 167
-7.87 0.29 -3.75 170 172 167
-7.88 0.20 -3.74 170 172 167
-7.87 0.12 -3.74 170 172 167
-7.88 0.02 -3.73 170 172 167
-7.88 -0.06 -3.74 170 172 167
-7.88 -0.15 -3.74 170 172 167
-7.88 -0.24 -3.74 170 172 167
-7.88 -0.33 -3.74 170 172 167
-7.88 -0.42 -3.73 168 173 167
-7.88 -0.51 -3.74 168 173 167
-7.87 -0.60 -3.74 168 173 167
-7.87 -0.69 -3.75 168 173 167
-7.87 -0.78 -3.75 168 173 167
-7.87 -0.87 -3.75 168 173 167
-7.88 -0.96 -3.74 169 174 168
-7.87 -1.05 -3.74 169 174 168
-7.86 -1.13 -3.75 169 174 168
-7.86 -1.22 -3.75 169 174 168
-7.86 -1.31 -3.76 169 174 168
-7.86 -1.40 -3.75 169 174 168
-7.86 -1.49 -3.76 171 173 168
-7.86 -1.58 -3.76 172 174 169
-7.86 -1.67 -3.75 172 174 169
-7.86 -1.76 -3.76 172 174 169
-7.86 -1.85 -3.76 172 174 169
-7.86 -1.94 -3.75 172 174 169
-7.86 -2.03 -3.76 172 174 169
-7.86 -2.11 -3.76 172 174 169
-7.85 -2.20 -3.77 172 174 169
-7.85 -2.29 -3.77 173 175 170
-7.85 -2.38 -3.77 174 176 171
-7.86 -2.47 -3.76 174 176 171
-7.85 -2.56 -3.76 174 176 171
-7.85 -2.65 -3.76 174 176 171
-7.86 -2.74 -3.76 174 176 171
-7.85 -2.83 -3.76 174 176 171
-7.85 -2.92 -3.76 172 177 171
-7.86 -3.01 -3.76 172 177 171
-7.85 -3.10 -3.77 172 177 173
-7.85 -3.19 -3.77 172 177 173
-7.85 -3.28 -3.76 172 177 171
-7.85 -3.36 -3.77 172 177 171
