ply
format ascii 1.0
element vertex 1589
property float x
property float y
property float z
property uchar red
property uchar green
property uchar blue
end_header
-5.95 -10.74 -4.51 185 192 190
-5.96 -10.83 -4.49 185 192 190
-5.95 -10.92 -4.51 185 192 190
-5.94 -11.02 -4.52 185 192 190
-5.94 -11.11 -4.52 188 195 193
-5.93 -11.20 -4.53 188 195 193
-5.93 -11.30 -4.53 188 195 193
-5.93 -11.39 -4.53 188 195 193
-5.93 -11.48 -4.53 188 195 193
-5.93 -11.58 -4.53 188 195 193
-5.93 -11.67 -4.53 188 195 193
-5.92 -11.77 -4.54 188 195 193
-5.91 -11.86 -4.55 186 191 187
-5.91 -11.95 -4.55 188 193 189
-5.90 -12.05 -4.56 189 194 190
-5.91 -12.14 -4.56 190 195 191
-5.90 -12.23 -4.56 190 195 191
-5.90 -12.33 -4.56 192 197 193
-5.89 -12.42 -4.57 193 198 194
-5.88 -12.52 -4.59 193 198 194
-5.88 -12.61 -4.60 193 198 194
-5.87 -12.71 -4.60 193 198 194
-5.87 -12.80 -4.61 193 198 194
-5.85 -12.89 -4.62 195 200 196
-5.85 -12.99 -4.62 198 200 195
-5.85 -13.08 -4.62 197 199 194
-5.85 -13.18 -4.63 199 199 194
-5.84 -13.27 -4.63 199 199 194
-5.82 -13.37 -4.66 189 196 191
-5.82 -13.46 -4.67 190 197 192
-5.80 -13.56 -4.69 190 197 190
-5.80 -13.65 -4.69 191 198 191
-5.80 -13.74 -4.69 191 198 193
-5.80 -13.84 -4.68 192 199 194
-5.81 -13.93 -4.68 194 200 203
-5.82 -14.02 -4.66 194 200 203
-5.83 -14.11 -4.65 197 203 206
-5.84 -14.20 -4.64 189 195 198
-5.85 -14.30 -4.63 190 197 192
-5.88 -14.38 -4.58 191 198 193
-5.91 -14.47 -4.55 180 187 182
-5.90 -14.57 -4.56 191 198 193
-5.87 -14.67 -4.60 180 186 187
-5.85 -14.76 -4.62 189 195 196
-6.24 -14.77 -4.15 194 209 223
-6.70 -14.76 -3.59 81 96 110
-6.79 -14.83 -3.48 12 23 79
-6.79 -14.92 -3.48 28 39 95
-6.77 -15.02 -3.51 30 39 122
-6.77 -15.11 -3.51 46 55 138
-6.79 -15.19 -3.48 38 51 136
-6.79 -15.29 -3.49 35 48 133
-6.81 -15.37 -3.46 47 58 137
-6.83 -15.46 -3.44 41 52 131
-6.85 -15.54 -3.42 44 56 130
-6.88 -15.63 -3.38 46 58 132
-6.89 -15.71 -3.36 43 56 111
-6.92 -15.80 -3.33 46 59 114
-6.96 -15.88 -3.27 35 50 84
-7.05 -15.94 -3.17 24 39 73
-7.13 -16.01 -3.08 52 40 52
-7.31 -16.05 -2.85 33 21 33
-7.48 -16.10 -2.65 41 33 0
-7.64 -16.15 -2.46 188 180 144
-7.73 -16.21 -2.35 199 190 130
-7.76 -16.29 -2.31 184 175 115
-7.78 -16.37 -2.28 169 159 121
-7.80 -16.45 -2.27 174 164 126
-7.81 -16.54 -2.25 172 164 153
-7.85 -16.61 -2.20 172 164 153
-7.87 -16.70 -2.18 170 166 149
-7.88 -16.78 -2.16 170 166 149
-7.90 -16.86 -2.14 173 164 145
-7.92 -16.94 -2.12 173 164 145
-7.94 -17.03 -2.09 177 163 147
-7.97 -17.11 -2.06 177 163 147
-7.99 -17.19 -2.03 175 171 154
-8.01 -17.27 -2.00 172 168 151
-8.04 -17.35 -1.97 164 159 145
-8.06 -17.43 -1.95 148 143 129
-8.08 -17.51 -1.93 125 120 106
-8.09 -17.59 -1.91 101 96 82
-8.10 -17.68 -1.90 84 79 67
-8.11 -17.76 -1.88 75 70 58
-8.12 -17.84 -1.88 70 65 53
-8.13 -17.93 -1.87 62 57 45
-8.14 -18.01 -1.84 59 53 44
-8.18 -18.09 -1.81 66 60 51
-8.21 -18.16 -1.77 86 80 71
-8.24 -18.24 -1.73 83 77 68
-8.27 -18.31 -1.69 108 102 95
-8.31 -18.39 -1.64 128 122 115
-8.35 -18.46 -1.60 130 130 127
-8.38 -18.54 -1.56 128 128 125
-8.42 -18.61 -1.51 119 119 116
-8.45 -18.68 -1.47 105 105 102
-8.49 -18.76 -1.43 95 95 92
-8.52 -18.83 -1.39 82 82 79
-8.55 -18.91 -1.36 74 74 71
-8.58 -18.98 -1.32 75 75 72
-8.62 -19.05 -1.27 123 123 120
-8.66 -19.12 -1.22 122 122 119
-8.70 -19.19 -1.17 71 71 68
-8.74 -19.26 -1.12 129 129 126
-8.80 -19.33 -1.05 104 104 101
-8.85 -19.39 -0.99 33 33 30
-8.91 -19.45 -0.92 62 62 59
-8.94 -19.53 -0.88 68 68 65
-8.96 -19.60 -0.85 59 61 58
-8.98 -19.68 -0.83 58 60 57
-9.01 -19.75 -0.80 57 59 56
-9.03 -19.83 -0.77 57 59 56
-9.05 -19.91 -0.75 60 62 59
-9.05 -19.99 -0.74 63 65 62
-9.06 -20.07 -0.73 64 66 63
-9.06 -20.16 -0.74 62 64 61
-9.06 -20.24 -0.74 43 45 42
-9.06 -20.33 -0.74 34 36 33
-9.07 -20.41 -0.73 20 22 19
-9.09 -20.48 -0.70 8 10 7
-9.11 -20.56 -0.68 3 5 2
-9.14 -20.63 -0.64 7 9 6
-9.17 -20.70 -0.60 11 13 10
-9.18 -20.78 -0.58 17 19 16
-9.23 -20.84 -0.53 13 20 13
-9.28 -20.90 -0.47 26 33 26
-9.30 -20.98 -0.44 37 42 41
-9.34 -21.05 -0.40 37 42 41
-9.35 -21.12 -0.38 60 60 68
-9.30 -21.23 -0.44 168 168 176
-7.72 -22.04 -2.36 255 255 255
-6.79 -22.55 -3.48 211 209 219
-7.02 -22.53 -3.20 218 220 220
-6.97 -22.65 -3.26 218 220 220
-6.96 -22.74 -3.28 216 222 209
-6.94 -22.84 -3.31 216 222 209
-6.91 -22.95 -3.34 215 223 213
-6.89 -23.05 -3.36 215 223 213
-6.86 -23.15 -3.40 213 222 222
-6.84 -23.25 -3.43 213 222 222
-6.84 -23.35 -3.43 220 222 219
-6.82 -23.44 -3.45 220 222 219
-6.81 -23.54 -3.46 220 222 219
-6.81 -23.63 -3.47 220 222 219
-6.81 -23.72 -3.47 220 222 219
-6.80 -23.82 -3.47 220 222 219
-6.80 -23.91 -3.48 220 222 219
-6.79 -24.00 -3.49 221 223 220
-6.79 -24.09 -3.48 221 223 220
-6.79 -24.19 -3.49 221 223 220
-6.78 -24.28 -3.49 221 223 220
-6.78 -24.37 -3.49 221 223 220
-6.78 -24.46 -3.49 221 223 220
-6.79 -24.55 -3.49 221 223 220
-6.78 -24.64 -3.49 221 223 220
-6.79 -24.73 -3.49 221 223 220
-6.79 -24.82 -3.49 222 224 221
-6.79 -24.91 -3.49 222 224 221
-6.79 -25.00 -3.48 222 224 221
-6.79 -25.09 -3.48 222 224 221
-6.80 -25.18 -3.48 222 224 221
-6.81 -25.26 -3.47 222 224 221
-6.81 -25.35 -3.46 222 224 221
-6.81 -25.44 -3.46 222 224 221
-6.81 -25.53 -3.46 222 224 221
-6.82 -25.62 -3.45 222 224 221
-6.82 -25.71 -3.45 222 224 221
-6.83 -25.80 -3.44 222 224 221
-6.83 -25.89 -3.43 222 224 221
-6.85 -25.97 -3.42 222 224 221
-6.84 -26.06 -3.42 222 224 221
-6.85 -26.15 -3.41 222 224 221
-6.86 -26.23 -3.40 223 225 222
-6.85 -26.33 -3.41 223 225 222
-6.86 -26.42 -3.40 223 225 222
-6.86 -26.50 -3.40 223 225 222
-6.87 -26.59 -3.39 223 225 222
-6.88 -26.68 -3.38 223 225 222
-6.87 -26.77 -3.39 223 225 222
-6.87 -26.86 -3.39 223 225 222
-6.87 -26.95 -3.39 225 227 224
-6.87 -27.04 -3.39 225 227 224
-6.87 -27.13 -3.39 225 227 224
-6.87 -27.22 -3.39 225 227 224
-6.87 -27.31 -3.39 225 227 224
-6.87 -27.40 -3.39 225 227 224
-6.87 -27.49 -3.39 225 227 224
-6.88 -27.58 -3.38 225 227 224
-6.88 -27.67 -3.38 222 224 221
-6.88 -27.76 -3.38 222 224 221
-6.88 -27.85 -3.38 222 224 221
-6.88 -27.94 -3.37 222 224 221
-6.88 -28.03 -3.37 222 224 221
-6.89 -28.12 -3.37 222 224 221
-6.89 -28.21 -3.37 222 224 221
-6.88 -28.30 -3.37 222 224 221
-6.88 -28.39 -3.37 222 224 221
-6.88 -28.49 -3.38 222 224 221
-6.88 -28.57 -3.37 222 224 221
-6.88 -28.67 -3.38 222 224 221
-6.88 -28.75 -3.37 222 224 221
-6.89 -28.84 -3.36 222 224 221
-6.89 -28.93 -3.36 224 224 224
-6.90 -29.02 -3.36 225 225 225
-6.89 -29.11 -3.36 228 226 227
-6.91 -29.19 -3.34 228 226 227
-6.90 -29.29 -3.35 228 226 227
-6.91 -29.37 -3.34 228 226 227
-6.91 -29.46 -3.34 228 226 227
-6.92 -29.55 -3.33 228 226 227
-6.93 -29.63 -3.32 229 227 228
-6.93 -29.72 -3.32 230 228 229
-6.94 -29.81 -3.31 230 228 229
-6.94 -29.89 -3.30 230 228 229
-6.95 -29.98 -3.30 229 229 229
-6.95 -30.07 -3.30 229 229 229
-6.96 -30.15 -3.29 230 228 229
-6.96 -30.24 -3.28 230 228 229
-6.97 -30.32 -3.27 230 228 229
-6.98 -30.41 -3.26 231 229 230
-6.98 -30.50 -3.26 231 229 230
-6.98 -30.59 -3.26 231 229 230
-6.98 -30.68 -3.26 231 229 230
-6.98 -30.77 -3.26 232 230 231
-6.98 -30.86 -3.25 233 231 232
-7.00 -30.94 -3.24 233 231 232
-6.99 -31.03 -3.25 233 231 232
-6.99 -31.13 -3.25 233 231 232
-6.99 -31.21 -3.24 233 231 232
-6.99 -31.30 -3.24 233 231 232
-7.00 -31.39 -3.23 233 231 232
-7.01 -31.47 -3.22 233 231 232
-7.01 -31.56 -3.21 235 233 234
-7.01 -31.65 -3.22 235 233 234
-7.02 -31.73 -3.21 235 233 234
-7.01 -31.83 -3.22 235 233 234
-7.01 -31.92 -3.21 235 233 231
-7.02 -32.01 -3.21 235 233 231
-7.02 -32.09 -3.21 234 234 231
-7.02 -32.19 -3.21 234 234 231
-7.01 -32.28 -3.21 234 234 231
-7.02 -32.36 -3.21 234 234 231
-7.01 -32.46 -3.22 234 234 231
-7.01 -32.55 -3.21 234 234 231
-7.01 -32.64 -3.21 234 234 231
-7.00 -32.74 -3.23 234 234 231
-7.00 -32.83 -3.23 235 235 232
-7.00 -32.92 -3.24 235 235 232
-7.00 -33.01 -3.23 236 236 233
-7.01 -33.09 -3.22 236 236 233
-7.01 -33.19 -3.22 237 237 234
-7.01 -33.27 -3.21 237 237 234
-7.01 -33.36 -3.22 239 237 238
-7.02 -33.44 -3.20 239 237 238
-7.03 -33.53 -3.20 238 238 238
-7.03 -33.62 -3.20 238 238 238
-7.04 -33.70 -3.19 238 238 238
-7.03 -33.80 -3.19 238 238 238
-7.04 -33.88 -3.18 238 238 238
-7.04 -33.97 -3.18 238 238 238
-7.04 -34.06 -3.19 238 238 238
-7.04 -34.15 -3.19 238 238 238
-7.04 -34.24 -3.18 238 238 238
-7.06 -34.32 -3.16 238 238 238
-7.06 -34.40 -3.15 238 238 238
-7.07 -34.49 -3.15 238 238 238
-7.08 -34.57 -3.14 238 238 238
-7.08 -34.65 -3.13 238 238 238
-7.10 -34.73 -3.11 237 237 232
-7.13 -34.80 -3.07 241 241 236
-7.16 -34.87 -3.04 238 238 233
-7.17 -34.94 -3.02 237 237 232
-7.14 -35.06 -3.07 240 238 234
-7.11 -35.17 -3.09 239 237 233
-7.07 -35.29 -3.14 239 234 231
-7.20 -35.28 -2.99 242 237 234
-6.71 -35.79 -3.59 213 206 204
-6.86 21.65 -3.53 142 133 125
-6.81 21.61 -3.60 142 133 125
-6.81 21.51 -3.60 142 133 125
-6.78 21.45 -3.63 142 133 125
-6.80 21.34 -3.60 142 133 125
-6.82 21.24 -3.59 142 133 125
-6.79 21.17 -3.62 142 133 125
-6.78 21.08 -3.63 142 133 125
-6.79 20.99 -3.62 142 133 125
-6.78 20.90 -3.63 142 133 125
-6.78 20.81 -3.63 142 133 125
-6.78 20.72 -3.63 142 133 125
-6.78 20.63 -3.63 143 134 126
-6.78 20.54 -3.63 144 135 127
-6.78 20.45 -3.63 144 135 127
-6.78 20.36 -3.64 144 135 127
-6.76 20.28 -3.65 144 135 127
-6.76 20.19 -3.65 144 135 127
-6.75 20.11 -3.67 144 135 127
-6.75 20.02 -3.67 144 135 127
-6.75 19.93 -3.67 144 135 127
-6.74 19.84 -3.68 144 135 127
-6.74 19.75 -3.68 144 135 127
-6.73 19.67 -3.70 145 136 128
-6.73 19.58 -3.69 145 136 128
-6.72 19.50 -3.71 145 136 128
-6.71 19.41 -3.71 145 136 128
-6.71 19.33 -3.72 145 136 128
-6.70 19.24 -3.73 145 136 128
-6.69 19.16 -3.75 145 136 128
-6.67 19.08 -3.76 143 137 128
-6.67 18.99 -3.76 146 140 131
-6.67 18.90 -3.77 147 141 134
-6.66 18.82 -3.78 147 141 134
-6.65 18.73 -3.78 147 141 134
-6.65 18.64 -3.79 147 141 134
-6.65 18.55 -3.79 147 141 134
-6.64 18.46 -3.80 147 141 134
-6.64 18.37 -3.80 147 141 134
-6.64 18.28 -3.80 147 141 134
-6.64 18.19 -3.80 148 142 135
-6.63 18.11 -3.81 149 143 136
-6.63 18.02 -3.81 149 143 136
-6.63 17.93 -3.82 149 143 136
-6.63 17.84 -3.82 149 143 136
-6.62 17.75 -3.83 149 143 136
-6.63 17.65 -3.82 149 143 136
-6.63 17.56 -3.82 149 143 136
-6.61 17.48 -3.83 148 144 136
-6.61 17.39 -3.84 148 144 136
-6.59 17.31 -3.86 149 145 137
-6.60 17.22 -3.86 149 145 137
-6.59 17.13 -3.87 150 144 137
-6.58 17.05 -3.87 150 144 137
-6.57 16.96 -3.88 150 144 137
-6.57 16.87 -3.89 150 144 137
-6.56 16.79 -3.90 150 144 137
-6.55 16.70 -3.91 150 144 137
-6.54 16.62 -3.92 150 144 137
-6.53 16.53 -3.93 153 147 140
-6.53 16.44 -3.94 153 147 140
-6.52 16.36 -3.95 153 147 140
-6.52 16.27 -3.95 153 147 140
-6.51 16.18 -3.96 153 147 140
-6.50 16.10 -3.97 153 147 140
-6.50 16.01 -3.98 153 147 140
-6.49 15.92 -3.98 153 149 141
-6.49 15.83 -3.99 153 149 141
-6.48 15.74 -3.99 153 149 141
-6.48 15.65 -3.99 153 149 141
-6.47 15.57 -4.01 153 149 141
-6.46 15.48 -4.02 153 149 141
-6.46 15.39 -4.02 153 149 141
-6.46 15.30 -4.02 153 149 141
-6.45 15.21 -4.03 153 149 141
-6.44 15.13 -4.04 154 150 142
-6.44 15.04 -4.04 154 150 142
-6.44 14.94 -4.04 155 151 143
-6.44 14.85 -4.04 155 151 143
-6.44 14.76 -4.05 156 152 144
-6.43 14.68 -4.06 154 150 142
-6.43 14.59 -4.06 154 150 142
-6.43 14.49 -4.06 155 151 143
-6.43 14.40 -4.06 155 151 143
-6.43 14.31 -4.06 156 152 144
-6.42 14.22 -4.06 156 152 144
-6.42 14.13 -4.06 158 152 145
-6.43 14.03 -4.06 160 154 147
-6.42 13.94 -4.06 159 155 147
-6.42 13.85 -4.06 159 155 147
-6.42 13.76 -4.06 159 155 147
-6.42 13.67 -4.08 159 155 147
-6.42 13.58 -4.07 159 155 147
-6.42 13.49 -4.07 159 155 147
-6.42 13.40 -4.07 160 156 148
-6.42 13.31 -4.07 160 156 148
-6.41 13.22 -4.08 160 156 148
-6.42 13.12 -4.07 160 156 148
-6.41 13.03 -4.08 160 156 148
-6.42 12.94 -4.08 161 157 149
-6.41 12.85 -4.08 162 158 150
-6.41 12.76 -4.08 162 158 150
-6.41 12.66 -4.08 162 158 150
-6.42 12.57 -4.08 162 158 150
-6.42 12.48 -4.08 160 159 150
-6.42 12.39 -4.07 160 159 150
-6.41 12.30 -4.08 160 159 150
-6.41 12.21 -4.08 160 159 150
-6.41 12.11 -4.08 161 160 151
-6.41 12.02 -4.08 162 161 152
-6.42 11.93 -4.07 164 163 154
-6.41 11.84 -4.08 164 163 154
-6.40 11.75 -4.09 164 163 154
-6.40 11.66 -4.09 165 164 155
-6.39 11.57 -4.10 167 163 155
-6.39 11.48 -4.10 167 163 155
-6.39 11.39 -4.11 167 163 155
-6.39 11.30 -4.11 167 163 155
-6.39 11.21 -4.11 167 163 155
-6.39 11.12 -4.11 167 163 155
-6.38 11.02 -4.11 167 163 155
-6.39 10.93 -4.11 167 163 155
-6.38 10.84 -4.11 167 163 155
-6.38 10.75 -4.12 167 163 155
-6.38 10.66 -4.12 167 163 155
-6.37 10.57 -4.13 167 163 155
-6.37 10.48 -4.13 165 164 155
-6.37 10.39 -4.14 165 164 155
-6.36 10.30 -4.14 165 164 155
-6.35 10.21 -4.15 166 165 156
-6.36 10.12 -4.14 167 166 157
-6.35 10.03 -4.16 167 166 157
-6.34 9.94 -4.16 167 166 157
-6.34 9.85 -4.16 167 166 157
-6.34 9.76 -4.17 167 166 157
-6.34 9.67 -4.17 168 167 158
-6.33 9.58 -4.18 168 167 158
-6.33 9.49 -4.18 168 167 158
-6.32 9.40 -4.19 168 167 158
-6.32 9.31 -4.19 168 167 158
-6.32 9.22 -4.19 167 168 158
-6.32 9.12 -4.19 168 169 159
-6.32 9.03 -4.19 170 171 163
-6.31 8.94 -4.20 170 171 163
-6.31 8.85 -4.20 168 169 159
-6.30 8.76 -4.21 170 171 161
-6.30 8.67 -4.22 171 172 164
-6.31 8.57 -4.20 170 171 163
-6.31 8.48 -4.21 170 171 163
-6.31 8.39 -4.21 170 171 163
-6.31 8.30 -4.20 170 171 163
-6.30 8.21 -4.22 170 171 163
-6.31 8.11 -4.21 170 171 163
-6.31 8.02 -4.21 170 171 163
-6.30 7.93 -4.22 170 171 163
-6.30 7.84 -4.22 170 171 163
-6.30 7.75 -4.22 170 171 163
-6.30 7.66 -4.22 170 171 163
-6.30 7.57 -4.22 170 171 163
-6.30 7.47 -4.22 170 171 163
-6.29 7.39 -4.23 171 172 164
-6.29 7.29 -4.23 171 172 164
-6.29 7.20 -4.23 171 172 164
-6.29 7.11 -4.23 171 172 164
-6.30 7.01 -4.22 171 172 164
-6.29 6.92 -4.23 171 172 164
-6.29 6.83 -4.23 171 172 164
-6.29 6.74 -4.23 171 172 164
-6.29 6.64 -4.22 172 173 165
-6.29 6.55 -4.23 173 174 166
-6.29 6.46 -4.23 173 174 166
-6.29 6.37 -4.23 173 174 166
-6.29 6.28 -4.23 173 174 166
-6.29 6.18 -4.23 173 174 166
-6.29 6.09 -4.23 173 174 166
-6.29 6.00 -4.23 173 174 166
-6.29 5.91 -4.23 173 174 166
-6.29 5.82 -4.23 173 174 166
-6.29 5.72 -4.22 173 174 166
-6.29 5.63 -4.23 173 174 166
-6.29 5.54 -4.22 173 174 166
-6.30 5.44 -4.22 173 174 166
-6.30 5.35 -4.22 173 174 166
-6.30 5.26 -4.22 173 174 166
-6.29 5.17 -4.23 173 174 166
-6.29 5.08 -4.23 173 174 166
-6.29 4.99 -4.23 173 174 166
-6.29 4.89 -4.23 173 174 166
-6.28 4.80 -4.24 173 174 166
-6.28 4.71 -4.24 173 174 166
-6.29 4.62 -4.23 173 174 166
-6.28 4.53 -4.25 173 174 166
-6.28 4.43 -4.24 173 174 166
-6.28 4.34 -4.25 173 174 166
-6.26 4.25 -4.26 173 174 166
-6.26 4.16 -4.26 173 174 166
-6.26 4.07 -4.26 173 174 166
-6.26 3.98 -4.26 173 174 166
-6.26 3.89 -4.26 173 174 166
-6.26 3.80 -4.27 173 174 166
-6.25 3.71 -4.28 173 174 166
-6.25 3.61 -4.27 173 174 166
-6.25 3.52 -4.28 173 174 166
-6.25 3.43 -4.27 173 174 166
-6.25 3.33 -4.27 173 174 166
-6.26 3.24 -4.26 173 174 166
-6.26 3.15 -4.26 173 174 166
-6.25 3.06 -4.27 173 174 166
-6.26 2.96 -4.26 170 172 167
-6.25 2.87 -4.28 170 172 167
-6.26 2.78 -4.26 170 172 167
-6.25 2.69 -4.27 170 172 167
-6.25 2.60 -4.27 170 172 167
-6.26 2.50 -4.27 170 172 167
-6.25 2.41 -4.27 170 172 167
-6.25 2.32 -4.27 170 172 167
-6.25 2.23 -4.28 170 172 167
-6.24 2.14 -4.28 170 172 167
-6.24 2.04 -4.28 170 172 167
-6.24 1.95 -4.28 170 172 167
-6.24 1.86 -4.29 170 172 167
-6.23 1.77 -4.30 170 172 167
-6.23 1.68 -4.30 170 172 167
-6.23 1.58 -4.30 170 172 167
-6.22 1.49 -4.31 170 173 165
-6.23 1.40 -4.30 170 173 165
-6.21 1.31 -4.32 170 173 165
-6.22 1.22 -4.31 170 173 165
-6.23 1.12 -4.31 170 173 165
-6.22 1.03 -4.31 170 173 165
-6.24 0.94 -4.29 170 173 165
-6.23 0.84 -4.30 170 173 165
-6.23 0.75 -4.30 171 174 166
-6.23 0.66 -4.30 171 174 166
-6.24 0.57 -4.29 171 174 166
-6.24 0.47 -4.28 171 174 166
-6.25 0.38 -4.28 171 174 166
-6.25 0.29 -4.28 171 174 166
-6.25 0.19 -4.27 171 174 166
-6.25 0.10 -4.28 171 174 166
-6.25 0.01 -4.28 171 173 168
-6.25 -0.08 -4.28 171 173 168
-6.25 -0.18 -4.28 169 174 168
-6.25 -0.27 -4.28 169 174 168
-6.25 -0.36 -4.28 169 174 168
-6.25 -0.45 -4.27 169 174 168
-6.25 -0.55 -4.28 169 174 168
-6.25 -0.64 -4.28 169 174 168
-6.25 -0.73 -4.28 169 174 168
-6.25 -0.82 -4.28 169 174 168
-6.24 -0.91 -4.28 169 174 168
-6.24 -1.01 -4.29 169 174 168
-6.24 -1.10 -4.29 169 174 168
-6.25 -1.19 -4.27 169 174 168
-6.25 -1.29 -4.27 169 174 168
-6.26 -1.38 -4.27 172 177 171
-6.26 -1.47 -4.27 171 178 171
-6.27 -1.57 -4.25 171 178 171
-6.27 -1.66 -4.25 171 178 171
-6.27 -1.75 -4.25 171 178 171
-6.27 -1.84 -4.25 171 178 171
-6.27 -1.94 -4.25 171 178 171
-6.27 -2.03 -4.25 171 178 171
-6.27 -2.12 -4.26 173 180 173
-6.26 -2.21 -4.26 173 180 173
-6.26 -2.30 -4.26 173 180 173
-6.26 -2.40 -4.26 173 180 173
-6.26 -2.49 -4.27 173 180 173
-6.25 -2.58 -4.27 173 180 173
-6.25 -2.67 -4.27 173 180 173
-6.25 -2.76 -4.27 173 180 173
-6.24 -2.86 -4.28 173 180 173
-6.24 -2.95 -4.28 174 179 178
-6.24 -3.04 -4.29 172 177 176
-6.24 -3.13 -4.29 172 177 176
-6.24 -3.22 -4.29 172 177 176
-6.24 -3.32 -4.29 172 177 176
-6.23 -3.41 -4.30 172 177 176
-6.24 -3.50 -4.29 172 177 176
-6.24 -3.59 -4.29 174 179 178
-6.24 -3.69 -4.29 175 180 179
-6.24 -3.78 -4.29 175 180 179
-6.24 -3.87 -4.28 175 180 179
-6.24 -3.96 -4.28 175 180 179
-6.25 -4.06 -4.28 175 180 179
-6.25 -4.15 -4.28 175 180 179
-6.24 -4.24 -4.29 175 180 179
-6.24 -4.33 -4.29 176 181 180
-6.24 -4.43 -4.29 175 182 175
-6.24 -4.52 -4.29 175 182 175
-6.24 -4.61 -4.29 175 182 175
-6.23 -4.70 -4.30 175 182 175
-6.24 -4.80 -4.29 175 182 175
-6.24 -4.89 -4.29 175 182 175
-6.23 -4.98 -4.30 175 182 175
-6.24 -5.07 -4.29 175 182 175
-6.24 -5.17 -4.29 175 182 175
-6.23 -5.26 -4.30 175 182 175
-6.23 -5.35 -4.30 175 182 175
-6.23 -5.44 -4.30 175 182 175
-6.23 -5.54 -4.30 175 182 175
-6.23 -5.63 -4.30 175 182 175
-6.22 -5.72 -4.32 175 182 175
-6.21 -5.81 -4.32 175 182 175
-6.21 -5.90 -4.33 176 183 181
-6.20 -6.00 -4.34 176 183 181
-6.19 -6.09 -4.35 176 183 181
-6.18 -6.18 -4.36 176 183 181
-6.18 -6.27 -4.36 176 183 181
-6.18 -6.37 -4.37 176 183 181
-6.18 -6.46 -4.36 176 183 181
-6.17 -6.55 -4.37 176 183 181
-6.17 -6.64 -4.38 178 185 183
-6.16 -6.74 -4.38 178 185 183
-6.16 -6.83 -4.39 178 185 183
-6.15 -6.92 -4.39 178 185 183
-6.14 -7.01 -4.41 178 185 183
-6.14 -7.11 -4.41 178 185 183
-6.13 -7.20 -4.42 178 185 183
-6.13 -7.29 -4.42 178 185 183
-6.12 -7.39 -4.43 178 185 178
-6.12 -7.48 -4.44 178 185 178
-6.11 -7.57 -4.45 176 186 180
-6.10 -7.66 -4.46 176 186 180
-6.10 -7.76 -4.46 176 186 180
-6.09 -7.85 -4.47 176 186 180
-6.08 -7.94 -4.48 176 186 180
-6.08 -8.04 -4.49 176 186 180
-6.07 -8.13 -4.50 178 188 182
-6.05 -8.22 -4.52 178 188 182
-6.04 -8.32 -4.53 178 188 182
-6.03 -8.41 -4.54 178 188 182
-6.04 -8.50 -4.54 178 188 182
-6.03 -8.59 -4.54 178 188 182
-6.03 -8.69 -4.55 178 188 182
-6.02 -8.78 -4.56 178 188 182
-6.02 -8.87 -4.56 176 181 180
-6.01 -8.97 -4.57 182 187 186
-6.02 -9.06 -4.56 183 188 187
-6.02 -9.15 -4.56 184 189 188
-6.01 -9.25 -4.56 185 190 189
-6.01 -9.34 -4.57 185 190 189
-6.00 -9.43 -4.58 184 189 188
-6.00 -9.53 -4.58 179 184 183
-6.01 -9.62 -4.57 184 189 188
-6.01 -9.71 -4.57 184 189 188
-6.01 -9.81 -4.57 184 189 188
-6.02 -9.90 -4.56 184 189 188
-6.04 -9.99 -4.54 184 189 188
-6.05 -10.08 -4.52 184 189 188
-6.07 -10.17 -4.50 184 189 188
-6.07 -10.27 -4.50 184 189 188
-6.08 -10.36 -4.49 185 192 190
-6.09 -10.45 -4.47 185 192 190
-6.09 -10.54 -4.47 185 192 190
-6.09 -10.64 -4.47 185 192 190
-6.09 -10.73 -4.47 185 192 190
-6.10 -10.82 -4.46 185 192 190
-6.10 -10.91 -4.46 185 192 190
-6.10 -11.01 -4.46 185 192 190
-6.09 -11.10 -4.47 188 195 193
-6.09 -11.19 -4.47 188 195 193
-6.09 -11.28 -4.47 188 195 193
-6.09 -11.38 -4.47 188 195 193
-6.09 -11.47 -4.47 188 195 193
-6.10 -11.56 -4.46 188 195 193
-6.10 -11.66 -4.46 188 195 193
-6.10 -11.75 -4.46 188 195 193
-6.09 -11.84 -4.47 186 191 187
-6.09 -11.94 -4.47 186 191 187
-6.08 -12.03 -4.49 188 193 189
-6.08 -12.12 -4.49 189 194 190
-6.08 -12.21 -4.48 189 194 190
-6.07 -12.31 -4.49 191 196 192
-6.07 -12.40 -4.50 191 198 193
-6.05 -12.50 -4.52 191 198 193
-6.04 -12.59 -4.53 191 198 193
-6.04 -12.69 -4.54 191 198 193
-6.03 -12.78 -4.55 191 198 193
-6.02 -12.87 -4.55 192 199 194
-6.02 -12.97 -4.56 195 200 194
-6.01 -13.06 -4.56 193 198 192
-6.00 -13.16 -4.58 195 197 192
-6.00 -13.25 -4.58 195 197 192
-5.98 -13.35 -4.61 190 197 192
-5.98 -13.44 -4.61 190 197 192
-5.96 -13.54 -4.63 190 197 190
-5.96 -13.63 -4.63 191 198 191
-5.96 -13.72 -4.63 191 198 193
-5.96 -13.82 -4.63 192 199 194
-5.97 -13.91 -4.62 192 198 199
-5.98 -14.00 -4.61 192 198 199
-5.98 -14.09 -4.61 189 195 198
-5.99 -14.18 -4.59 188 194 197
-6.00 -14.27 -4.58 187 194 192
-6.01 -14.37 -4.56 189 196 194
-6.04 -14.45 -4.54 182 188 191
-6.07 -14.54 -4.50 188 194 197
-6.08 -14.63 -4.48 181 186 196
-6.19 -14.70 -4.35 205 210 220
-6.62 -14.70 -3.82 143 155 188
-6.89 -14.73 -3.50 21 33 66
-6.89 -14.82 -3.50 33 44 104
-6.86 -14.92 -3.53 43 54 114
-6.86 -15.01 -3.53 37 46 129
-6.88 -15.09 -3.51 42 51 134
-6.92 -15.17 -3.46 40 50 138
-6.93 -15.26 -3.45 47 57 145
-6.95 -15.35 -3.43 48 57 138
-6.98 -15.43 -3.39 41 50 131
-6.98 -15.52 -3.38 44 53 123
-7.01 -15.60 -3.35 40 49 119
-7.02 -15.69 -3.34 44 53 103
-7.05 -15.78 -3.30 46 55 105
-7.08 -15.86 -3.26 35 47 71
-7.13 -15.94 -3.21 22 34 58
-7.19 -16.01 -3.13 50 42 48
-7.33 -16.06 -2.96 13 5 11
-7.47 -16.11 -2.80 51 45 11
-7.62 -16.16 -2.61 189 183 149
-7.75 -16.21 -2.45 194 189 134
-7.80 -16.29 -2.39 175 170 115
-7.83 -16.37 -2.36 168 160 126
-7.85 -16.45 -2.33 177 169 135
-7.87 -16.53 -2.31 173 165 152
-7.89 -16.61 -2.28 173 165 152
-7.93 -16.69 -2.24 171 167 148
-7.94 -16.78 -2.22 171 167 148
-7.96 -16.86 -2.19 173 166 148
-8.00 -16.94 -2.15 173 166 148
-8.01 -17.02 -2.13 176 164 152
-8.04 -17.10 -2.10 176 164 152
-8.06 -17.18 -2.07 176 174 154
-8.08 -17.26 -2.05 169 167 147
-8.11 -17.34 -2.02 166 164 146
-8.13 -17.42 -1.99 167 165 147
-8.15 -17.50 -1.97 170 168 150
-8.17 -17.58 -1.95 161 159 141
-8.18 -17.67 -1.93 145 142 127
-8.19 -17.75 -1.92 127 124 109
-8.20 -17.83 -1.91 106 103 88
-8.20 -17.92 -1.90 86 83 68
-8.22 -18.00 -1.88 74 71 58
-8.24 -18.08 -1.86 60 57 44
-8.26 -18.16 -1.83 68 65 52
-8.29 -18.23 -1.79 62 59 46
-8.32 -18.31 -1.75 60 56 46
-8.36 -18.39 -1.71 69 65 55
-8.38 -18.46 -1.68 93 93 88
-8.42 -18.54 -1.64 121 121 116
-8.45 -18.61 -1.61 139 139 134
-8.48 -18.69 -1.56 140 140 135
-8.51 -18.76 -1.52 131 131 126
-8.54 -18.84 -1.49 115 115 110
-8.57 -18.91 -1.46 97 97 92
-8.59 -18.99 -1.42 83 83 78
-8.63 -19.06 -1.38 128 128 123
-8.68 -19.13 -1.32 121 121 116
-8.72 -19.20 -1.28 58 58 53
-8.76 -19.27 -1.23 117 117 112
-8.80 -19.34 -1.17 60 60 55
-8.86 -19.40 -1.10 31 31 26
-8.93 -19.46 -1.01 51 51 46
-8.99 -19.52 -0.95 47 47 42
-9.02 -19.60 -0.91 53 55 52
-9.04 -19.67 -0.88 57 59 56
-9.07 -19.75 -0.85 63 65 62
-9.10 -19.82 -0.81 67 69 66
-9.12 -19.89 -0.78 67 69 66
-9.14 -19.97 -0.76 65 67 64
-9.15 -20.05 -0.75 63 65 62
-9.15 -20.14 -0.75 60 62 59
-9.16 -20.21 -0.73 64 66 63
-9.17 -20.30 -0.73 63 65 62
-9.17 -20.38 -0.73 57 59 56
-9.18 -20.46 -0.71 43 45 42
-9.21 -20.53 -0.68 25 27 24
-9.24 -20.60 -0.64 11 13 10
-9.27 -20.67 -0.60 9 11 8
-9.31 -20.74 -0.56 8 10 7
-9.34 -20.81 -0.51 0 2 0
-9.40 -20.87 -0.45 8 10 7
-9.43 -20.94 -0.40 20 22 19
-9.46 -21.01 -0.37 7 9 6
-9.48 -21.09 -0.35 70 68 66
-9.23 -21.28 -0.65 195 193 191
-7.63 -22.10 -2.60 254 252 253
-7.01 -22.47 -3.36 219 217 218
-7.16 -22.49 -3.17 220 220 215
-7.11 -22.60 -3.23 220 220 215
-7.11 -22.69 -3.23 218 221 209
-7.09 -22.79 -3.25 218 221 209
-7.06 -22.90 -3.29 215 222 215
-7.04 -23.00 -3.31 215 222 215
-7.01 -23.10 -3.35 215 221 222
-7.00 -23.20 -3.37 215 221 222
-6.99 -23.29 -3.38 220 222 219
-6.98 -23.39 -3.39 220 222 219
-6.98 -23.48 -3.39 220 222 219
-6.96 -23.58 -3.42 220 222 219
-6.95 -23.67 -3.43 220 222 219
-6.95 -23.76 -3.42 220 222 219
-6.96 -23.85 -3.42 220 222 219
-6.95 -23.94 -3.42 221 223 220
-6.95 -24.04 -3.43 221 223 220
-6.95 -24.13 -3.43 221 223 220
-6.94 -24.22 -3.43 221 223 220
-6.94 -24.31 -3.43 221 223 220
-6.94 -24.40 -3.44 221 223 220
-6.94 -24.49 -3.43 221 223 220
-6.94 -24.58 -3.43 221 223 220
-6.95 -24.67 -3.43 221 223 220
-6.95 -24.76 -3.43 221 223 220
-6.95 -24.85 -3.43 221 223 220
-6.95 -24.94 -3.43 221 223 220
-6.95 -25.03 -3.42 221 223 220
-6.96 -25.12 -3.42 221 223 220
-6.96 -25.21 -3.41 221 223 220
-6.96 -25.29 -3.41 221 223 220
-6.98 -25.38 -3.39 221 223 220
-6.98 -25.47 -3.39 221 223 220
-6.98 -25.56 -3.38 221 223 220
-6.99 -25.64 -3.38 221 223 220
-6.99 -25.73 -3.38 221 223 220
-7.00 -25.82 -3.37 221 223 220
-7.00 -25.91 -3.37 221 223 220
-7.00 -26.00 -3.37 221 223 220
-7.01 -26.08 -3.36 221 223 220
-7.01 -26.17 -3.36 221 223 220
-7.01 -26.26 -3.36 221 223 220
-7.01 -26.35 -3.35 221 223 220
-7.01 -26.44 -3.35 221 223 220
-7.02 -26.53 -3.34 221 223 220
-7.02 -26.62 -3.34 221 223 220
-7.02 -26.71 -3.34 221 223 220
-7.03 -26.80 -3.33 221 223 220
-7.03 -26.89 -3.33 222 224 221
-7.03 -26.98 -3.33 223 225 222
-7.03 -27.07 -3.33 223 225 222
-7.02 -27.16 -3.34 223 225 222
-7.02 -27.25 -3.34 223 225 222
-7.03 -27.33 -3.32 223 225 222
-7.03 -27.43 -3.33 223 225 222
-7.03 -27.52 -3.33 223 225 222
-7.03 -27.60 -3.32 223 223 223
-7.04 -27.69 -3.32 223 223 223
-7.04 -27.78 -3.32 223 223 223
-7.04 -27.87 -3.32 223 223 223
-7.03 -27.96 -3.32 223 223 223
-7.04 -28.05 -3.32 223 223 223
-7.04 -28.14 -3.32 223 223 223
-7.04 -28.23 -3.31 223 223 223
-7.04 -28.32 -3.32 223 223 223
-7.04 -28.41 -3.32 223 223 223
-7.04 -28.50 -3.31 223 223 223
-7.05 -28.59 -3.30 223 223 223
-7.05 -28.68 -3.30 223 223 223
-7.05 -28.77 -3.30 223 223 223
-7.05 -28.86 -3.30 223 223 223
-7.06 -28.94 -3.29 224 224 224
-7.06 -29.03 -3.30 228 226 227
-7.07 -29.12 -3.28 228 226 227
-7.07 -29.21 -3.28 228 226 227
-7.08 -29.29 -3.27 228 226 227
-7.08 -29.38 -3.27 228 226 227
-7.08 -29.47 -3.27 228 226 227
-7.09 -29.55 -3.26 229 227 228
-7.09 -29.64 -3.25 230 228 229
-7.09 -29.73 -3.25 230 228 229
-7.10 -29.81 -3.24 230 228 229
-7.11 -29.90 -3.24 230 228 229
-7.10 -29.99 -3.24 230 228 229
-7.11 -30.08 -3.23 230 228 229
-7.12 -30.16 -3.22 230 228 229
-7.12 -30.25 -3.22 230 228 229
-7.13 -30.34 -3.21 231 229 230
-7.13 -30.43 -3.21 230 228 229
-7.12 -30.52 -3.21 231 229 230
-7.13 -30.60 -3.21 231 229 230
-7.13 -30.69 -3.21 232 230 231
-7.14 -30.78 -3.20 233 231 232
-7.14 -30.87 -3.20 233 231 232
-7.14 -30.96 -3.19 233 231 232
-7.15 -31.04 -3.19 233 231 232
-7.15 -31.13 -3.18 233 231 232
-7.15 -31.22 -3.18 233 231 232
-7.16 -31.30 -3.17 233 231 232
-7.17 -31.39 -3.16 233 231 232
-7.17 -31.48 -3.16 235 233 234
-7.17 -31.57 -3.16 235 233 234
-7.17 -31.65 -3.16 235 233 234
-7.17 -31.75 -3.16 235 233 234
-7.17 -31.83 -3.16 235 233 234
-7.17 -31.92 -3.16 235 233 234
-7.17 -32.01 -3.15 235 233 234
-7.17 -32.10 -3.16 235 233 234
-7.17 -32.20 -3.16 235 233 234
-7.17 -32.28 -3.16 235 233 234
-7.17 -32.37 -3.16 235 233 234
-7.17 -32.46 -3.16 235 233 234
-7.17 -32.55 -3.16 235 233 234
-7.17 -32.64 -3.16 235 233 234
-7.17 -32.73 -3.16 236 234 235
-7.17 -32.83 -3.16 236 234 235
-7.17 -32.91 -3.16 237 235 236
-7.17 -33.00 -3.16 237 235 236
-7.17 -33.09 -3.16 238 236 237
-7.17 -33.18 -3.16 238 236 237
-7.17 -33.27 -3.15 239 237 238
-7.18 -33.35 -3.14 239 237 238
-7.18 -33.44 -3.14 239 237 238
-7.19 -33.53 -3.14 239 237 238
-7.20 -33.61 -3.12 239 237 238
-7.19 -33.70 -3.13 239 237 238
-7.21 -33.78 -3.11 239 237 238
-7.21 -33.87 -3.11 239 237 238
-7.21 -33.96 -3.11 239 237 238
-7.21 -34.05 -3.11 239 237 238
-7.21 -34.14 -3.11 239 237 238
-7.21 -34.23 -3.11 239 237 238
-7.21 -34.32 -3.11 239 237 238
-7.22 -34.40 -3.10 239 237 238
-7.23 -34.48 -3.08 239 237 238
-7.24 -34.56 -3.07 239 237 238
-7.25 -34.65 -3.06 237 237 232
-7.27 -34.71 -3.03 241 241 236
-7.30 -34.78 -3.00 238 238 233
-7.34 -34.84 -2.95 237 237 232
-7.31 -34.95 -2.99 240 238 234
-7.25 -35.09 -3.06 239 237 233
-7.22 -35.21 -3.10 239 234 231
-7.27 -35.25 -3.04 242 237 234
-7.30 -35.32 -3.00 231 224 222
-7.00 21.57 -3.50 142 133 125
-6.94 21.53 -3.57 142 133 125
-6.95 21.43 -3.56 142 133 125
-6.93 21.36 -3.59 142 133 125
-6.95 21.25 -3.55 142 133 125
-6.95 21.15 -3.55 142 133 125
-6.93 21.08 -3.58 142 133 125
-6.92 21.00 -3.59 142 133 125
-6.92 20.91 -3.59 142 133 125
-6.92 20.83 -3.60 142 133 125
-6.92 20.73 -3.59 142 133 125
-6.92 20.64 -3.59 142 133 125
-6.91 20.56 -3.60 143 134 126
-6.92 20.46 -3.60 144 135 127
-6.92 20.37 -3.60 144 135 127
-6.91 20.29 -3.61 144 135 127
-6.90 20.20 -3.62 144 135 127
-6.90 20.12 -3.62 144 135 127
-6.89 20.03 -3.63 144 135 127
-6.88 19.94 -3.64 144 135 127
-6.89 19.85 -3.63 144 135 127
-6.88 19.77 -3.65 144 135 127
-6.86 19.69 -3.66 144 135 127
-6.86 19.60 -3.67 145 136 128
-6.85 19.52 -3.68 145 136 128
-6.85 19.43 -3.68 145 136 128
-6.85 19.34 -3.69 145 136 128
-6.84 19.25 -3.69 145 136 128
-6.83 19.17 -3.70 145 136 128
-6.82 19.09 -3.72 145 136 128
-6.81 19.00 -3.73 143 137 128
-6.81 18.92 -3.73 146 140 131
-6.80 18.83 -3.74 147 141 134
-6.79 18.75 -3.75 147 141 134
-6.79 18.66 -3.75 147 141 134
-6.78 18.57 -3.77 147 141 134
-6.78 18.48 -3.77 147 141 134
-6.78 18.39 -3.77 147 141 134
-6.77 18.31 -3.77 147 141 134
-6.77 18.22 -3.78 147 141 134
-6.77 18.13 -3.78 148 142 135
-6.77 18.04 -3.78 149 143 136
-6.77 17.95 -3.78 149 143 136
-6.76 17.86 -3.79 149 143 136
-6.75 17.77 -3.80 149 143 136
-6.76 17.68 -3.79 149 143 136
-6.75 17.59 -3.80 149 143 136
-6.76 17.49 -3.79 149 143 136
-6.75 17.41 -3.80 148 144 136
-6.75 17.32 -3.80 148 144 136
-6.74 17.23 -3.81 149 145 137
-6.74 17.15 -3.81 149 145 137
-6.73 17.06 -3.83 150 144 137
-6.72 16.98 -3.84 150 144 137
-6.70 16.90 -3.86 150 144 137
-6.69 16.82 -3.87 150 144 137
-6.69 16.72 -3.87 150 144 137
-6.68 16.64 -3.89 150 144 137
-6.67 16.56 -3.90 150 144 137
-6.66 16.47 -3.91 153 147 140
-6.66 16.39 -3.92 153 147 140
-6.66 16.29 -3.92 153 147 140
-6.65 16.21 -3.93 153 147 140
-6.64 16.12 -3.94 153 147 140
-6.64 16.03 -3.94 153 147 140
-6.63 15.95 -3.95 153 147 140
-6.62 15.86 -3.96 153 149 141
-6.62 15.77 -3.96 153 149 141
-6.62 15.68 -3.97 153 149 141
-6.61 15.60 -3.97 153 149 141
-6.60 15.51 -3.99 153 149 141
-6.60 15.42 -3.99 153 149 141
-6.60 15.33 -3.99 153 149 141
-6.58 15.25 -4.00 153 149 141
-6.58 15.15 -4.00 153 149 141
-6.58 15.06 -4.01 154 150 142
-6.58 14.97 -4.01 154 150 142
-6.58 14.89 -4.02 155 151 143
-6.58 14.79 -4.02 155 151 143
-6.57 14.71 -4.03 156 152 144
-6.57 14.62 -4.03 154 150 142
-6.56 14.53 -4.03 154 150 142
-6.56 14.43 -4.03 155 151 143
-6.56 14.35 -4.03 155 151 143
-6.56 14.25 -4.03 156 152 144
-6.56 14.16 -4.03 156 152 144
-6.56 14.07 -4.04 158 152 145
-6.56 13.98 -4.03 160 154 147
-6.56 13.89 -4.04 159 155 147
-6.55 13.80 -4.05 159 155 147
-6.56 13.71 -4.04 159 155 147
-6.55 13.62 -4.05 159 155 147
-6.56 13.52 -4.04 159 155 147
-6.55 13.43 -4.05 159 155 147
-6.54 13.35 -4.05 160 156 148
-6.54 13.26 -4.06 160 156 148
-6.54 13.16 -4.05 160 156 148
-6.54 13.07 -4.05 160 156 148
-6.55 12.98 -4.05 161 157 149
-6.54 12.89 -4.06 161 157 149
-6.54 12.80 -4.06 162 158 150
-6.54 12.71 -4.06 162 158 150
-6.55 12.61 -4.05 162 158 150
-6.55 12.52 -4.04 162 158 150
-6.54 12.43 -4.06 160 159 150
-6.55 12.34 -4.05 160 159 150
-6.54 12.25 -4.05 160 159 150
-6.54 12.15 -4.05 161 160 151
-6.54 12.06 -4.05 161 160 151
-6.54 11.97 -4.06 162 161 152
-6.54 11.88 -4.06 162 161 152
-6.54 11.79 -4.06 164 163 154
-6.54 11.70 -4.06 164 163 154
-6.53 11.61 -4.08 165 164 155
-6.52 11.52 -4.08 167 163 155
-6.52 11.43 -4.08 167 163 155
-6.52 11.34 -4.09 167 163 155
-6.51 11.25 -4.09 167 163 155
-6.52 11.16 -4.09 167 163 155
-6.52 11.07 -4.09 167 163 155
-6.51 10.98 -4.09 167 163 155
-6.51 10.89 -4.09 167 163 155
-6.52 10.79 -4.08 167 163 155
-6.51 10.70 -4.09 167 163 155
-6.51 10.61 -4.09 167 163 155
-6.51 10.52 -4.09 167 163 155
-6.51 10.43 -4.10 165 164 155
-6.51 10.34 -4.10 165 164 155
-6.50 10.25 -4.10 165 164 155
-6.49 10.16 -4.11 166 165 156
-6.49 10.07 -4.12 167 166 157
-6.48 9.98 -4.13 167 166 157
-6.48 9.89 -4.13 167 166 157
-6.48 9.80 -4.13 167 166 157
-6.48 9.71 -4.14 167 166 157
-6.47 9.62 -4.14 168 167 158
-6.47 9.53 -4.15 168 167 158
-6.46 9.44 -4.15 168 167 158
-6.46 9.35 -4.15 168 167 158
-6.46 9.26 -4.16 168 167 158
-6.45 9.17 -4.16 167 168 158
-6.45 9.08 -4.16 170 171 161
-6.45 8.99 -4.16 171 172 164
-6.45 8.90 -4.17 170 171 163
-6.45 8.81 -4.17 168 169 159
-6.45 8.71 -4.17 171 172 162
-6.44 8.63 -4.18 172 173 165
-6.45 8.53 -4.17 171 172 164
-6.45 8.44 -4.17 171 172 164
-6.44 8.35 -4.18 171 172 164
-6.44 8.26 -4.18 171 172 164
-6.44 8.17 -4.18 171 172 164
-6.43 8.08 -4.19 171 172 164
-6.43 7.99 -4.19 171 172 164
-6.43 7.90 -4.20 171 172 164
-6.42 7.81 -4.20 171 172 164
-6.42 7.71 -4.20 171 172 164
-6.43 7.62 -4.19 171 172 164
-6.43 7.53 -4.19 171 172 164
-6.43 7.43 -4.19 171 172 164
-6.43 7.34 -4.19 171 172 164
-6.43 7.25 -4.19 171 172 164
-6.43 7.16 -4.20 171 172 164
-6.43 7.07 -4.20 171 172 164
-6.43 6.97 -4.19 171 172 164
-6.43 6.88 -4.20 171 172 164
-6.43 6.79 -4.19 171 172 164
-6.42 6.70 -4.20 171 172 164
-6.42 6.61 -4.20 172 173 165
-6.43 6.51 -4.19 173 174 166
-6.42 6.43 -4.20 173 174 166
-6.43 6.33 -4.20 173 174 166
-6.43 6.24 -4.20 173 174 166
-6.42 6.15 -4.20 173 174 166
-6.42 6.06 -4.20 173 174 166
-6.42 5.97 -4.20 173 174 166
-6.42 5.87 -4.20 173 174 166
-6.42 5.78 -4.20 173 174 166
-6.43 5.69 -4.20 173 174 166
-6.42 5.60 -4.20 173 174 166
-6.44 5.50 -4.18 173 174 166
-6.43 5.41 -4.19 173 174 166
-6.43 5.32 -4.19 173 174 166
-6.44 5.22 -4.18 173 174 166
-6.43 5.13 -4.19 173 174 166
-6.43 5.04 -4.19 173 174 166
-6.42 4.95 -4.20 173 174 166
-6.42 4.86 -4.20 173 174 166
-6.42 4.77 -4.20 173 174 166
-6.42 4.68 -4.20 173 174 166
-6.41 4.59 -4.22 173 174 166
-6.41 4.49 -4.21 173 174 166
-6.41 4.40 -4.22 173 174 166
-6.41 4.31 -4.22 173 174 166
-6.41 4.22 -4.22 173 174 166
-6.41 4.13 -4.22 173 174 166
-6.41 4.04 -4.22 173 174 166
-6.40 3.95 -4.23 173 174 166
-6.40 3.85 -4.23 173 174 166
-6.40 3.76 -4.23 173 174 166
-6.40 3.67 -4.23 173 174 166
-6.40 3.58 -4.23 173 174 166
-6.39 3.49 -4.24 173 174 166
-6.40 3.39 -4.22 173 174 166
-6.40 3.30 -4.22 173 174 166
-6.40 3.21 -4.23 173 174 166
-6.41 3.12 -4.22 173 174 166
-6.39 3.03 -4.24 173 174 166
-6.40 2.93 -4.22 170 172 167
-6.39 2.84 -4.24 170 172 167
-6.40 2.75 -4.23 170 172 167
-6.39 2.66 -4.24 170 172 167
-6.39 2.57 -4.24 170 172 167
-6.39 2.47 -4.24 170 172 167
-6.39 2.38 -4.24 170 172 167
-6.39 2.29 -4.24 170 172 167
-6.39 2.20 -4.24 170 172 167
-6.38 2.11 -4.25 170 172 167
-6.38 2.02 -4.25 170 172 167
-6.38 1.93 -4.25 170 172 167
-6.38 1.83 -4.25 170 172 167
-6.38 1.74 -4.25 170 172 167
-6.37 1.65 -4.26 170 172 167
-6.37 1.56 -4.27 170 172 167
-6.37 1.47 -4.27 170 173 165
-6.37 1.37 -4.26 170 173 165
-6.36 1.29 -4.28 170 173 165
-6.37 1.19 -4.27 170 173 165
-6.37 1.10 -4.26 170 173 165
-6.37 1.01 -4.26 170 173 165
-6.38 0.91 -4.26 170 173 165
-6.38 0.82 -4.25 170 173 165
-6.38 0.73 -4.26 171 174 166
-6.38 0.64 -4.26 171 174 166
-6.38 0.54 -4.25 171 174 166
-6.38 0.45 -4.25 171 174 166
-6.38 0.36 -4.25 171 174 166
-6.38 0.27 -4.25 171 174 166
-6.39 0.17 -4.24 171 174 166
-6.39 0.08 -4.25 171 174 166
-6.39 -0.01 -4.24 171 173 168
-6.39 -0.11 -4.24 171 173 168
-6.39 -0.20 -4.24 169 174 168
-6.39 -0.29 -4.24 169 174 168
-6.40 -0.38 -4.23 169 174 168
-6.39 -0.47 -4.24 169 174 168
-6.39 -0.57 -4.24 169 174 168
-6.39 -0.66 -4.24 169 174 168
-6.39 -0.75 -4.24 169 174 168
-6.39 -0.84 -4.24 169 174 168
-6.39 -0.93 -4.24 169 174 168
-6.39 -1.03 -4.24 169 174 168
-6.39 -1.12 -4.25 169 174 168
-6.40 -1.21 -4.23 169 174 168
-6.40 -1.30 -4.23 169 174 168
-6.41 -1.40 -4.22 172 177 171
-6.40 -1.49 -4.23 171 178 171
-6.41 -1.58 -4.22 171 178 171
-6.41 -1.67 -4.22 171 178 171
-6.41 -1.77 -4.22 171 178 171
-6.41 -1.86 -4.22 171 178 171
-6.41 -1.95 -4.22 171 178 171
-6.41 -2.04 -4.22 171 178 171
-6.40 -2.13 -4.23 173 180 173
-6.40 -2.23 -4.23 173 180 173
-6.40 -2.32 -4.23 173 180 173
-6.40 -2.41 -4.23 173 180 173
-6.39 -2.50 -4.24 173 180 173
-6.39 -2.59 -4.24 173 180 173
-6.39 -2.69 -4.24 173 180 173
-6.39 -2.78 -4.24 173 180 173
-6.38 -2.87 -4.25 173 180 173
-6.38 -2.96 -4.25 174 179 178
-6.38 -3.05 -4.26 172 177 176
-6.38 -3.14 -4.26 172 177 176
-6.38 -3.24 -4.25 172 177 176
-6.38 -3.33 -4.25 172 177 176
-6.38 -3.42 -4.25 172 177 176
-6.38 -3.51 -4.25 172 177 176
-6.39 -3.61 -4.25 174 179 178
-6.38 -3.70 -4.25 175 180 179
-6.38 -3.79 -4.25 175 180 179
-6.38 -3.88 -4.25 175 180 179
-6.39 -3.98 -4.24 175 180 179
-6.39 -4.07 -4.24 175 180 179
-6.39 -4.16 -4.24 175 180 179
-6.39 -4.25 -4.24 175 180 179
-6.39 -4.34 -4.24 176 181 180
-6.39 -4.44 -4.24 175 182 175
-6.38 -4.53 -4.25 175 182 175
-6.38 -4.62 -4.25 175 182 175
-6.38 -4.71 -4.25 175 182 175
-6.38 -4.80 -4.26 175 182 175
-6.38 -4.90 -4.25 175 182 175
-6.38 -4.99 -4.26 175 182 175
-6.38 -5.08 -4.25 175 182 175
-6.38 -5.17 -4.26 175 182 175
-6.38 -5.26 -4.26 175 182 175
-6.38 -5.36 -4.26 175 182 175
-6.38 -5.45 -4.26 175 182 175
-6.38 -5.54 -4.26 175 182 175
-6.37 -5.63 -4.26 175 182 175
-6.37 -5.73 -4.26 175 182 175
-6.35 -5.82 -4.29 175 182 175
-6.34 -5.91 -4.30 176 183 181
-6.34 -6.00 -4.31 176 183 181
-6.34 -6.09 -4.31 176 183 181
-6.32 -6.18 -4.32 176 183 181
-6.32 -6.28 -4.33 176 183 181
-6.32 -6.37 -4.33 176 183 181
-6.32 -6.46 -4.33 176 183 181
-6.32 -6.55 -4.33 176 183 181
-6.31 -6.65 -4.34 178 185 183
-6.30 -6.74 -4.35 178 185 183
-6.30 -6.83 -4.35 178 185 183
-6.30 -6.92 -4.35 178 185 183
-6.30 -7.02 -4.36 178 185 183
-6.29 -7.11 -4.37 178 185 183
-6.28 -7.20 -4.37 178 185 183
-6.28 -7.29 -4.38 178 185 183
-6.27 -7.39 -4.38 178 185 178
-6.27 -7.48 -4.39 178 185 178
-6.26 -7.57 -4.40 176 186 180
-6.25 -7.66 -4.41 176 186 180
-6.24 -7.76 -4.42 176 186 180
-6.24 -7.85 -4.43 176 186 180
-6.23 -7.94 -4.43 176 186 180
-6.22 -8.03 -4.45 176 186 180
-6.22 -8.13 -4.45 178 188 182
-6.20 -8.22 -4.47 178 188 182
-6.19 -8.31 -4.48 178 188 182
-6.18 -8.41 -4.49 178 188 182
-6.18 -8.50 -4.50 178 188 182
-6.17 -8.59 -4.51 178 188 182
-6.17 -8.68 -4.51 178 188 182
-6.16 -8.78 -4.52 178 188 182
-6.16 -8.87 -4.52 177 182 181
-6.16 -8.96 -4.52 181 186 185
-6.17 -9.06 -4.51 184 189 188
-6.17 -9.15 -4.51 184 189 188
-6.17 -9.24 -4.51 184 189 188
-6.16 -9.33 -4.52 186 191 190
-6.15 -9.43 -4.54 184 189 188
-6.14 -9.52 -4.55 181 186 185
-6.13 -9.61 -4.55 184 189 188
-6.13 -9.71 -4.56 184 189 188
-6.13 -9.80 -4.55 184 189 188
-6.15 -9.89 -4.54 184 189 188
-6.16 -9.98 -4.52 184 189 188
-6.18 -10.07 -4.50 184 189 188
-6.19 -10.17 -4.48 184 189 188
-6.20 -10.26 -4.47 184 189 188
-6.22 -10.35 -4.45 185 192 190
-6.24 -10.44 -4.42 185 192 190
-6.24 -10.53 -4.42 185 192 190
-6.24 -10.62 -4.42 185 192 190
-6.25 -10.72 -4.41 185 192 190
-6.25 -10.81 -4.41 185 192 190
-6.25 -10.90 -4.42 185 192 190
-6.25 -10.99 -4.41 185 192 190
-6.24 -11.09 -4.42 188 195 193
-6.25 -11.18 -4.42 188 195 193
-6.25 -11.27 -4.41 188 195 193
-6.24 -11.37 -4.42 188 195 193
-6.24 -11.46 -4.42 188 195 193
-6.24 -11.55 -4.42 188 195 193
-6.24 -11.64 -4.43 188 195 193
-6.24 -11.74 -4.43 188 195 193
-6.23 -11.83 -4.43 188 193 189
-6.23 -11.92 -4.43 188 193 189
-6.23 -12.02 -4.44 189 194 190
-6.23 -12.11 -4.44 189 194 190
-6.22 -12.20 -4.45 189 194 190
-6.21 -12.30 -4.46 190 195 191
-6.20 -12.39 -4.47 190 197 192
-6.19 -12.48 -4.48 190 197 192
-6.19 -12.58 -4.48 191 198 193
-6.19 -12.67 -4.49 191 198 193
-6.18 -12.76 -4.50 191 198 193
-6.17 -12.86 -4.51 192 199 194
-6.16 -12.95 -4.52 195 200 194
-6.16 -13.04 -4.52 193 198 192
-6.16 -13.14 -4.53 195 197 192
-6.15 -13.23 -4.53 195 197 192
-6.13 -13.33 -4.56 191 198 193
-6.12 -13.42 -4.57 191 198 193
-6.12 -13.52 -4.57 191 198 191
-6.11 -13.61 -4.58 191 198 191
-6.11 -13.70 -4.59 191 198 193
-6.10 -13.80 -4.59 191 198 193
-6.11 -13.89 -4.59 191 197 198
-6.11 -13.98 -4.58 192 198 199
-6.11 -14.08 -4.58 191 197 200
-6.12 -14.17 -4.57 194 200 203
-6.13 -14.26 -4.56 187 194 192
-6.15 -14.35 -4.53 184 191 189
-6.19 -14.43 -4.49 183 189 192
-6.23 -14.52 -4.44 183 189 192
-6.37 -14.58 -4.27 190 195 205
-6.64 -14.61 -3.93 211 216 226
-6.89 -14.65 -3.63 75 87 120
-6.94 -14.73 -3.57 20 32 65
-6.95 -14.82 -3.56 52 63 123
-6.97 -14.90 -3.53 44 55 115
-7.00 -14.99 -3.50 45 54 137
-7.01 -15.07 -3.49 41 50 133
-7.04 -15.16 -3.45 44 54 142
-7.06 -15.24 -3.42 46 56 144
-7.07 -15.33 -3.41 44 53 134
-7.10 -15.41 -3.37 39 48 129
-7.12 -15.50 -3.35 40 49 119
-7.14 -15.58 -3.33 43 52 122
-7.15 -15.67 -3.31 47 56 106
-7.16 -15.76 -3.30 45 54 104
-7.20 -15.84 -3.25 33 45 69
-7.23 -15.92 -3.21 27 39 63
-7.29 -16.00 -3.15 93 85 91
-7.39 -16.06 -3.02 42 34 40
-7.48 -16.12 -2.91 61 55 21
-7.60 -16.18 -2.76 166 160 126
-7.73 -16.23 -2.60 184 179 124
-7.83 -16.29 -2.48 173 168 113
-7.88 -16.37 -2.42 174 166 132
-7.90 -16.45 -2.40 185 177 143
-7.92 -16.53 -2.37 174 166 153
-7.95 -16.61 -2.34 174 166 153
-7.98 -16.69 -2.31 172 168 149
-8.00 -16.77 -2.28 172 168 149
-8.02 -16.85 -2.25 174 167 149
-8.04 -16.93 -2.22 174 167 149
-8.07 -17.01 -2.19 177 165 153
-8.09 -17.10 -2.17 177 165 153
-8.12 -17.17 -2.13 168 166 146
-8.14 -17.25 -2.10 167 165 145
-8.17 -17.33 -2.07 166 164 146
-8.19 -17.41 -2.05 167 165 147
-8.21 -17.49 -2.02 167 165 147
-8.23 -17.58 -2.00 169 167 149
-8.24 -17.66 -1.98 168 165 150
-8.26 -17.74 -1.96 168 165 150
-8.26 -17.82 -1.95 163 160 145
-8.27 -17.91 -1.94 147 144 129
-8.29 -17.99 -1.93 128 125 112
-8.31 -18.07 -1.90 99 96 83
-8.32 -18.15 -1.88 70 67 54
-8.35 -18.23 -1.85 46 43 30
-8.38 -18.31 -1.81 39 35 25
-8.41 -18.38 -1.77 28 24 14
-8.44 -18.46 -1.74 36 36 31
-8.47 -18.54 -1.71 43 43 38
-8.49 -18.62 -1.68 57 57 52
-8.53 -18.69 -1.63 78 78 73
-8.55 -18.76 -1.60 108 108 103
-8.58 -18.84 -1.57 129 129 124
-8.61 -18.92 -1.54 123 123 118
-8.62 -19.00 -1.52 110 110 105
-8.65 -19.07 -1.48 118 118 113
-8.69 -19.14 -1.43 124 124 119
-8.74 -19.21 -1.38 68 68 63
-8.77 -19.29 -1.34 108 108 103
-8.81 -19.35 -1.29 26 26 21
-8.86 -19.42 -1.23 19 19 14
-8.93 -19.48 -1.15 24 24 19
-9.01 -19.53 -1.04 30 30 25
-9.06 -19.60 -0.99 34 36 33
-9.09 -19.67 -0.94 39 41 38
-9.11 -19.74 -0.92 49 51 48
-9.15 -19.81 -0.87 55 57 54
-9.17 -19.89 -0.85 57 59 56
-9.19 -19.97 -0.82 58 60 57
-9.21 -20.04 -0.80 60 62 59
-9.22 -20.12 -0.78 63 65 62
-9.24 -20.20 -0.76 64 66 63
-9.25 -20.28 -0.75 63 65 62
-9.26 -20.36 -0.74 65 67 64
-9.28 -20.44 -0.72 67 69 66
-9.31 -20.51 -0.68 65 67 64
-9.34 -20.58 -0.64 56 58 55
-9.37 -20.65 -0.60 41 43 40
-9.40 -20.72 -0.56 30 32 29
-9.44 -20.79 -0.52 22 24 21
-9.49 -20.85 -0.46 10 12 9
-9.52 -20.92 -0.42 6 8 5
-9.54 -20.99 -0.40 0 0 0
-9.55 -21.07 -0.38 97 95 93
-9.08 -21.37 -0.96 216 214 212
-7.46 -22.20 -2.94 232 230 231
-7.15 -22.43 -3.31 212 210 211
-7.30 -22.44 -3.13 220 220 215
-7.27 -22.55 -3.17 220 220 215
-7.25 -22.65 -3.19 218 221 209
-7.23 -22.75 -3.21 218 221 209
-7.21 -22.85 -3.24 215 222 215
-7.18 -22.95 -3.27 215 222 215
-7.15 -23.06 -3.32 215 221 222
-7.14 -23.15 -3.32 215 221 222
-7.12 -23.25 -3.35 220 222 219
-7.12 -23.34 -3.35 220 222 219
-7.11 -23.44 -3.36 220 222 219
-7.10 -23.53 -3.37 220 222 219
-7.09 -23.63 -3.39 220 222 219
-7.09 -23.72 -3.39 220 222 219
-7.08 -23.81 -3.39 220 222 219
-7.08 -23.90 -3.39 221 223 220
-7.10 -23.98 -3.38 221 223 220
-7.09 -24.08 -3.39 221 223 220
-7.08 -24.17 -3.39 221 223 220
-7.09 -24.26 -3.38 221 223 220
-7.09 -24.35 -3.39 221 223 220
-7.09 -24.44 -3.39 221 223 220
-7.08 -24.53 -3.40 221 223 220
-7.09 -24.62 -3.39 221 223 220
-7.09 -24.71 -3.39 221 223 220
-7.09 -24.80 -3.39 221 223 220
-7.09 -24.89 -3.38 221 223 220
-7.09 -24.98 -3.39 221 223 220
-7.10 -25.07 -3.38 221 223 220
-7.11 -25.15 -3.37 221 223 220
-7.12 -25.24 -3.36 221 223 220
-7.12 -25.33 -3.35 221 223 220
-7.12 -25.42 -3.35 221 223 220
-7.13 -25.50 -3.34 221 223 220
-7.13 -25.59 -3.34 221 223 220
-7.13 -25.68 -3.33 221 223 220
-7.14 -25.76 -3.32 221 223 220
-7.15 -25.85 -3.32 221 223 220
-7.15 -25.94 -3.32 221 223 220
-7.15 -26.03 -3.31 221 223 220
-7.15 -26.12 -3.31 221 223 220
-7.15 -26.21 -3.31 221 223 220
-7.15 -26.30 -3.31 221 223 220
-7.16 -26.38 -3.30 221 223 220
-7.16 -26.47 -3.30 221 223 220
-7.16 -26.56 -3.30 221 223 220
-7.17 -26.65 -3.29 221 223 220
-7.17 -26.74 -3.29 221 223 220
-7.17 -26.83 -3.29 221 223 220
-7.17 -26.92 -3.29 222 224 221
-7.17 -27.01 -3.29 223 225 222
-7.17 -27.10 -3.29 223 225 222
-7.17 -27.19 -3.29 223 225 222
-7.17 -27.28 -3.29 223 225 222
-7.17 -27.37 -3.29 223 225 222
-7.17 -27.46 -3.29 223 225 222
-7.18 -27.54 -3.28 223 223 223
-7.18 -27.63 -3.28 223 223 223
-7.18 -27.72 -3.28 223 223 223
-7.18 -27.81 -3.27 223 223 223
-7.18 -27.90 -3.28 223 223 223
-7.18 -27.99 -3.27 223 223 223
-7.19 -28.07 -3.26 223 223 223
-7.19 -28.17 -3.27 223 223 223
-7.19 -28.26 -3.27 223 223 223
-7.18 -28.35 -3.27 223 223 223
-7.19 -28.44 -3.27 223 223 223
-7.19 -28.53 -3.27 223 223 223
-7.19 -28.62 -3.27 223 223 223
-7.19 -28.70 -3.26 223 223 223
-7.20 -28.79 -3.25 223 223 223
-7.21 -28.87 -3.24 224 224 224
-7.21 -28.96 -3.25 228 226 227
-7.21 -29.05 -3.24 228 226 227
-7.21 -29.14 -3.24 228 226 227
-7.22 -29.23 -3.23 228 226 227
-7.23 -29.31 -3.22 228 226 227
-7.23 -29.40 -3.22 228 226 227
-7.23 -29.49 -3.22 229 227 228
-7.23 -29.57 -3.21 230 228 229
-7.24 -29.66 -3.21 230 228 229
-7.24 -29.75 -3.21 230 228 229
-7.24 -29.84 -3.20 230 228 229
-7.25 -29.92 -3.19 230 228 229
-7.25 -30.01 -3.19 230 228 229
-7.27 -30.09 -3.17 230 228 229
-7.26 -30.18 -3.18 230 228 229
-7.27 -30.27 -3.17 231 229 230
-7.27 -30.36 -3.16 230 228 229
-7.27 -30.44 -3.16 231 229 230
-7.29 -30.53 -3.15 231 229 230
-7.29 -30.62 -3.15 232 230 231
-7.29 -30.70 -3.15 233 231 232
-7.29 -30.79 -3.14 233 231 232
-7.29 -30.88 -3.14 233 231 232
-7.30 -30.96 -3.13 233 231 232
-7.30 -31.05 -3.13 233 231 232
-7.30 -31.14 -3.13 233 231 232
-7.30 -31.23 -3.13 233 231 232
-7.31 -31.31 -3.12 233 231 232
-7.31 -31.40 -3.12 235 233 234
-7.31 -31.49 -3.12 235 233 234
-7.31 -31.58 -3.12 235 233 234
-7.31 -31.67 -3.11 235 233 234
-7.31 -31.76 -3.11 235 233 234
-7.32 -31.85 -3.11 235 233 234
-7.31 -31.94 -3.11 235 233 234
-7.31 -32.03 -3.12 235 233 234
-7.32 -32.11 -3.11 235 233 234
-7.32 -32.20 -3.11 235 233 234
-7.32 -32.29 -3.11 235 233 234
-7.31 -32.39 -3.12 235 233 234
-7.31 -32.48 -3.12 235 233 234
-7.30 -32.57 -3.13 235 233 234
-7.31 -32.66 -3.12 236 234 235
-7.31 -32.75 -3.12 236 234 235
-7.31 -32.84 -3.12 237 235 236
-7.31 -32.93 -3.12 237 235 236
-7.31 -33.02 -3.12 238 236 237
-7.32 -33.10 -3.10 238 236 237
-7.33 -33.18 -3.10 239 237 238
-7.33 -33.27 -3.09 238 236 237
-7.34 -33.35 -3.08 238 236 237
-7.33 -33.45 -3.09 238 236 237
-7.34 -33.53 -3.08 238 236 237
-7.34 -33.62 -3.08 238 236 237
-7.35 -33.70 -3.07 238 236 237
-7.35 -33.79 -3.07 239 237 238
-7.35 -33.88 -3.07 239 237 238
-7.35 -33.97 -3.07 239 237 238
-7.36 -34.05 -3.06 239 237 238
-7.36 -34.14 -3.06 239 237 238
-7.37 -34.22 -3.05 239 237 238
-7.37 -34.31 -3.04 239 237 238
-7.38 -34.39 -3.03 239 237 238
-7.39 -34.48 -3.02 239 237 238
-7.40 -34.56 -3.01 236 236 231
-7.44 -34.61 -2.96 239 239 234
-7.46 -34.69 -2.94 237 237 232
-7.49 -34.75 -2.90 236 236 231
-7.48 -34.85 -2.91 239 237 233
-7.41 -34.99 -2.99 238 236 232
-7.42 -35.07 -2.98 238 233 230
-7.39 -35.19 -3.02 241 236 233
-7.68 -35.03 -2.66 243 236 234
-7.15 21.48 -3.45 141 132 124
-7.09 21.44 -3.52 141 132 124
-7.10 21.34 -3.51 141 132 124
-7.08 21.26 -3.53 141 132 124
-7.11 21.14 -3.49 142 133 125
-7.13 21.04 -3.48 142 133 125
-7.09 20.98 -3.52 142 133 125
-7.08 20.90 -3.53 142 133 125
-7.09 20.81 -3.52 142 133 125
-7.08 20.72 -3.53 142 133 125
-7.08 20.63 -3.53 142 133 125
-7.08 20.54 -3.53 142 133 125
-7.08 20.46 -3.54 143 134 126
-7.08 20.37 -3.54 144 135 127
-7.07 20.28 -3.54 144 135 127
-7.07 20.19 -3.55 144 135 127
-7.06 20.10 -3.55 144 135 127
-7.05 20.03 -3.57 144 135 127
-7.04 19.94 -3.58 144 135 127
-7.04 19.86 -3.58 144 135 127
-7.04 19.76 -3.58 144 135 127
-7.03 19.68 -3.60 144 135 127
-7.02 19.59 -3.60 144 135 127
-7.01 19.51 -3.62 145 136 128
-7.00 19.43 -3.63 145 136 128
-7.00 19.34 -3.63 145 136 128
-6.99 19.26 -3.64 145 136 128
-6.99 19.17 -3.64 145 136 128
-6.98 19.08 -3.65 145 136 128
-6.98 19.00 -3.65 145 136 128
-6.97 18.91 -3.66 143 137 128
-6.96 18.83 -3.68 146 140 131
-6.96 18.74 -3.68 147 141 134
-6.95 18.66 -3.69 147 141 134
-6.95 18.57 -3.69 147 141 134
-6.94 18.48 -3.70 147 141 134
-6.94 18.40 -3.71 147 141 134
-6.93 18.31 -3.72 147 141 134
-6.93 18.22 -3.72 147 141 134
-6.92 18.13 -3.72 147 141 134
-6.92 18.04 -3.73 148 142 135
-6.92 17.95 -3.73 149 143 136
-6.91 17.87 -3.73 149 143 136
-6.91 17.78 -3.73 149 143 136
-6.91 17.69 -3.73 149 143 136
-6.91 17.59 -3.73 149 143 136
