ply
format ascii 1.0
element vertex 1557
property float x
property float y
property float z
property uchar red
property uchar green
property uchar blue
end_header
-13.22 8.13 -2.17 172 170 168
-13.22 8.05 -2.17 173 171 169
-13.23 7.97 -2.16 174 172 170
-13.23 7.89 -2.16 174 172 170
-13.23 7.81 -2.16 175 173 174
-13.23 7.73 -2.15 175 173 174
-13.23 7.65 -2.16 176 174 175
-13.23 7.57 -2.16 176 174 175
-13.23 7.50 -2.16 176 174 175
-13.23 7.42 -2.16 177 175 176
-13.22 7.34 -2.17 177 175 176
-13.22 7.26 -2.17 179 177 178
-13.22 7.18 -2.17 179 177 178
-13.22 7.10 -2.18 179 177 178
-13.22 7.02 -2.17 180 178 179
-13.22 6.94 -2.17 180 178 179
-13.23 6.86 -2.16 180 178 179
-13.23 6.78 -2.16 181 179 180
-13.23 6.70 -2.16 181 181 181
-13.24 6.62 -2.15 181 181 181
-13.24 6.54 -2.15 182 182 182
-13.24 6.46 -2.15 183 183 183
-13.23 6.38 -2.15 183 183 183
-13.23 6.30 -2.15 183 183 183
-13.23 6.23 -2.15 183 183 183
-13.23 6.15 -2.15 183 183 183
-13.23 6.07 -2.15 183 183 183
-13.23 5.99 -2.16 183 183 183
-13.22 5.91 -2.17 183 183 183
-13.23 5.83 -2.16 183 183 183
-13.23 5.75 -2.15 183 183 183
-13.23 5.67 -2.15 183 183 183
-13.24 5.59 -2.15 183 183 183
-13.24 5.51 -2.14 183 183 183
-13.25 5.43 -2.13 183 183 183
-13.25 5.35 -2.13 183 183 183
-13.26 5.26 -2.12 185 184 187
-13.25 5.19 -2.13 185 184 187
-13.25 5.11 -2.13 185 184 187
-13.26 5.03 -2.12 185 184 187
-13.26 4.95 -2.12 185 184 187
-13.26 4.87 -2.12 185 184 187
-13.26 4.79 -2.12 183 182 185
-13.25 4.71 -2.13 182 181 184
-13.26 4.63 -2.12 181 180 183
-13.25 4.56 -2.13 181 180 183
-13.25 4.48 -2.13 181 180 183
-13.25 4.40 -2.13 181 180 183
-13.24 4.32 -2.14 181 180 183
-13.24 4.24 -2.14 181 180 183
-13.24 4.17 -2.14 181 180 185
-13.24 4.09 -2.14 181 180 185
-13.23 4.01 -2.15 181 180 183
-13.23 3.93 -2.16 180 179 182
-13.23 3.85 -2.16 179 178 183
-13.23 3.77 -2.16 179 178 183
-13.22 3.70 -2.17 178 177 182
-13.23 3.62 -2.16 178 177 182
-13.23 3.54 -2.16 176 175 180
-13.22 3.46 -2.17 176 175 180
-13.22 3.38 -2.17 175 174 179
-13.23 3.30 -2.16 174 173 178
-13.22 3.22 -2.18 174 173 178
-13.22 3.14 -2.17 174 173 178
-13.22 3.06 -2.17 174 173 178
-13.23 2.98 -2.16 174 173 178
-13.22 2.91 -2.17 174 173 178
-13.22 2.83 -2.17 174 173 178
-13.23 2.75 -2.16 174 172 180
-13.23 2.67 -2.16 174 172 180
-13.22 2.59 -2.17 174 173 176
-13.22 2.51 -2.17 173 172 175
-13.22 2.43 -2.17 171 173 173
-13.22 2.35 -2.17 171 173 173
-13.22 2.27 -2.17 171 173 173
-13.22 2.19 -2.17 171 173 173
-13.23 2.11 -2.16 171 173 173
-13.23 2.03 -2.16 171 173 173
-13.23 1.95 -2.15 171 173 173
-13.24 1.87 -2.15 170 172 172
-13.24 1.79 -2.14 170 172 172
-13.24 1.71 -2.14 170 172 172
-13.24 1.63 -2.14 170 172 172
-13.24 1.55 -2.14 170 172 172
-13.24 1.47 -2.14 169 170 173
-13.25 1.39 -2.14 169 170 173
-13.25 1.31 -2.13 169 170 173
-13.25 1.23 -2.13 169 170 173
-13.26 1.15 -2.12 169 170 173
-13.26 1.07 -2.11 169 170 173
-13.27 0.99 -2.10 169 170 173
-13.27 0.91 -2.10 169 170 173
-13.27 0.83 -2.10 168 169 172
-13.27 0.75 -2.10 168 169 172
-13.27 0.67 -2.10 168 169 172
-13.28 0.59 -2.09 168 169 172
-13.28 0.51 -2.09 168 169 172
-13.28 0.44 -2.09 168 169 172
-13.29 0.35 -2.08 168 169 172
-13.28 0.28 -2.08 168 169 172
-13.29 0.20 -2.08 168 170 170
-13.29 0.12 -2.08 168 170 170
-13.29 0.04 -2.08 168 170 170
-13.29 -0.04 -2.07 168 170 170
-13.30 -0.12 -2.06 168 170 170
-13.30 -0.20 -2.05 168 170 170
-13.30 -0.28 -2.05 168 170 170
-13.31 -0.36 -2.04 168 170 170
-13.31 -0.44 -2.05 168 170 170
-13.32 -0.52 -2.03 168 170 170
-13.32 -0.60 -2.02 168 170 170
-13.33 -0.68 -2.01 168 170 170
-13.34 -0.76 -2.01 168 170 170
-13.34 -0.84 -2.00 168 170 170
-13.34 -0.92 -2.00 168 169 172
-13.35 -1.00 -1.98 168 169 172
-13.36 -1.08 -1.97 168 169 172
-13.36 -1.16 -1.97 168 169 172
-13.37 -1.24 -1.96 168 169 172
-13.37 -1.32 -1.96 168 169 172
-13.37 -1.40 -1.96 168 169 172
-13.37 -1.48 -1.96 168 169 172
-13.37 -1.56 -1.95 168 169 172
-13.37 -1.64 -1.96 168 169 172
-13.37 -1.72 -1.95 168 169 172
-13.37 -1.80 -1.95 168 169 172
-13.37 -1.88 -1.95 168 169 172
-13.38 -1.96 -1.94 168 169 172
-13.38 -2.04 -1.93 168 169 172
-13.39 -2.12 -1.93 168 169 172
-13.40 -2.20 -1.92 168 170 170
-13.40 -2.27 -1.92 168 170 170
-13.39 -2.35 -1.92 168 170 170
-13.39 -2.43 -1.92 168 170 170
-13.40 -2.51 -1.92 168 170 170
-13.40 -2.59 -1.92 168 170 170
-13.40 -2.67 -1.91 168 170 170
-13.40 -2.75 -1.91 168 170 170
-13.40 -2.83 -1.91 168 170 170
-13.41 -2.90 -1.90 169 171 171
-13.40 -2.98 -1.91 169 171 171
-13.40 -3.06 -1.91 169 171 171
-13.39 -3.14 -1.92 169 171 171
-13.40 -3.22 -1.91 169 171 171
-13.40 -3.30 -1.91 169 171 171
-13.40 -3.38 -1.91 169 171 171
-13.41 -3.46 -1.90 169 170 173
-13.41 -3.53 -1.90 170 171 174
-13.41 -3.61 -1.90 171 172 175
-13.41 -3.69 -1.90 171 172 175
-13.41 -3.77 -1.90 171 172 175
-13.41 -3.85 -1.90 170 171 174
-13.41 -3.93 -1.89 170 171 174
-13.41 -4.01 -1.89 170 171 174
-13.41 -4.09 -1.89 170 171 174
-13.42 -4.16 -1.89 170 171 174
-13.41 -4.24 -1.90 170 171 174
-13.41 -4.32 -1.90 170 171 174
-13.41 -4.40 -1.89 170 171 174
-13.42 -4.48 -1.88 170 171 174
-13.42 -4.56 -1.89 171 172 175
-13.41 -4.64 -1.89 171 172 175
-13.41 -4.71 -1.89 171 172 175
-13.41 -4.79 -1.90 171 172 175
-13.40 -4.87 -1.91 169 173 175
-13.40 -4.95 -1.91 169 173 175
-13.40 -5.03 -1.91 169 173 175
-13.39 -5.11 -1.92 169 173 175
-13.40 -5.18 -1.91 169 173 175
-13.39 -5.26 -1.93 169 173 175
-13.40 -5.34 -1.92 169 173 175
-13.41 -5.42 -1.90 169 173 175
-13.41 -5.50 -1.89 167 171 173
-13.42 -5.58 -1.88 174 178 180
-13.39 -5.66 -1.93 168 172 174
-13.35 -5.73 -1.99 169 173 175
-13.34 -5.81 -2.00 156 160 162
-13.44 -5.89 -1.85 163 167 169
-13.63 -5.98 -1.58 191 195 197
-13.88 -6.07 -1.22 237 241 243
-14.00 -6.16 -1.04 246 251 250
-14.03 -6.24 -1.00 246 251 250
-14.03 -6.31 -1.00 246 251 250
-14.04 -6.39 -0.98 246 251 250
-14.06 -6.47 -0.95 246 251 250
-14.06 -6.54 -0.95 246 251 250
-14.07 -6.62 -0.94 246 251 250
-14.07 -6.70 -0.94 246 251 250
-14.07 -6.77 -0.94 247 252 251
-14.06 -6.85 -0.95 247 252 251
-14.05 -6.93 -0.96 247 252 251
-14.05 -7.00 -0.97 247 252 251
-14.04 -7.08 -0.98 247 252 251
-14.04 -7.16 -0.99 247 252 251
-14.04 -7.23 -0.98 247 252 251
-14.03 -7.31 -0.99 247 252 251
-14.04 -7.39 -0.99 245 252 250
-14.03 -7.46 -1.00 245 252 250
-14.02 -7.54 -1.00 245 252 250
-14.01 -7.62 -1.02 245 252 250
-14.00 -7.69 -1.03 245 252 250
-14.00 -7.77 -1.03 245 252 250
-14.00 -7.85 -1.04 245 252 250
-13.99 -7.92 -1.05 245 252 250
-13.99 -8.00 -1.06 245 252 250
-13.99 -8.08 -1.06 245 252 250
-13.98 -8.16 -1.06 245 252 250
-13.98 -8.23 -1.07 245 252 250
-13.97 -8.31 -1.08 245 252 250
-13.98 -8.39 -1.07 245 252 250
-13.97 -8.46 -1.08 245 252 250
-13.97 -8.54 -1.08 245 252 250
-13.96 -8.62 -1.09 246 253 251
-13.97 -8.69 -1.09 246 253 251
-13.96 -8.77 -1.09 246 253 251
-13.96 -8.85 -1.09 246 253 251
-13.97 -8.93 -1.09 246 253 251
-13.97 -9.00 -1.08 246 253 251
-13.97 -9.08 -1.09 246 253 251
-13.96 -9.16 -1.09 246 253 251
-13.96 -9.23 -1.10 246 253 251
-13.95 -9.31 -1.11 246 253 251
-13.94 -9.39 -1.12 246 253 251
-13.95 -9.47 -1.11 246 253 251
-13.95 -9.54 -1.11 246 253 251
-13.95 -9.62 -1.11 246 253 251
-13.96 -9.70 -1.10 246 253 251
-13.96 -9.77 -1.09 246 253 251
-13.97 -9.85 -1.08 246 253 251
-13.98 -9.93 -1.07 246 253 251
-13.99 -10.00 -1.05 246 253 251
-14.00 -10.08 -1.03 246 253 251
-14.02 -10.15 -1.01 246 253 251
-14.03 -10.23 -1.00 246 253 251
-14.04 -10.30 -0.97 246 253 251
-14.06 -10.38 -0.95 246 253 251
-14.07 -10.45 -0.94 248 255 253
-14.08 -10.53 -0.92 245 252 250
-14.08 -10.60 -0.92 245 252 250
-14.09 -10.68 -0.91 244 251 249
-14.10 -10.76 -0.90 246 253 251
-14.10 -10.83 -0.89 246 253 251
-14.11 -10.91 -0.88 240 247 245
-14.11 -10.98 -0.87 238 245 243
-14.11 -11.06 -0.87 246 251 250
-14.12 -11.14 -0.86 241 246 245
-14.12 -11.21 -0.86 244 249 248
-14.13 -11.29 -0.85 244 249 248
-14.12 -11.36 -0.86 244 249 248
-14.12 -11.44 -0.86 246 251 250
-14.14 -11.51 -0.83 249 254 253
-14.20 -11.58 -0.75 245 250 249
-14.26 -11.65 -0.66 246 251 250
-14.38 -11.70 -0.49 237 242 241
-14.55 -11.75 -0.24 218 223 222
-14.72 -11.79 0.02 192 197 196
-14.94 -11.83 0.33 154 159 158
-15.07 -11.88 0.52 96 101 100
-15.13 -11.94 0.60 40 45 44
-15.13 -12.02 0.61 14 19 18
-15.11 -12.09 0.58 14 17 26
-15.08 -12.17 0.54 16 19 28
-15.04 -12.25 0.48 33 36 45
-15.04 -12.33 0.47 47 50 59
-15.04 -12.40 0.48 42 45 54
-15.07 -12.47 0.52 33 36 45
-15.09 -12.54 0.55 34 37 46
-15.10 -12.61 0.57 35 38 47
-15.12 -12.68 0.59 34 37 46
-15.13 -12.75 0.61 36 39 48
-15.14 -12.82 0.62 36 39 48
-15.13 -12.90 0.61 39 42 51
-15.14 -12.97 0.62 37 40 49
-15.13 -13.04 0.61 36 39 48
-15.13 -13.12 0.61 37 40 49
-15.12 -13.20 0.59 39 42 51
-15.10 -13.27 0.56 34 38 42
-15.06 -13.36 0.51 34 38 42
-15.01 -13.44 0.43 18 22 24
-14.96 -13.53 0.36 21 25 27
-14.94 -13.61 0.34 26 30 32
-14.75 -13.73 0.05 106 110 112
-14.45 -13.88 -0.38 247 252 251
-14.36 -13.98 -0.52 242 247 246
-14.33 -14.06 -0.56 246 251 250
-14.32 -14.14 -0.57 246 251 250
-14.29 -14.23 -0.61 246 251 247
-14.26 -14.31 -0.65 246 251 247
-14.25 -14.39 -0.67 246 251 247
-14.24 -14.47 -0.69 246 251 247
-14.22 -14.55 -0.71 246 251 245
-14.22 -14.63 -0.72 246 251 245
-14.21 -14.71 -0.74 248 250 247
-14.19 -14.79 -0.76 248 250 247
-14.18 -14.87 -0.78 248 250 247
-14.18 -14.94 -0.78 248 250 247
-14.19 -15.02 -0.76 248 250 247
-14.20 -15.09 -0.75 248 250 247
-14.20 -15.16 -0.74 248 250 247
-14.22 -15.24 -0.72 248 250 247
-14.23 -15.31 -0.71 248 250 247
-14.24 -15.38 -0.69 248 250 247
-14.23 -15.46 -0.70 248 250 247
-14.24 -15.53 -0.69 248 250 247
-14.26 -15.60 -0.66 248 250 247
-14.26 -15.68 -0.66 248 250 247
-14.26 -15.75 -0.65 248 250 247
-14.26 -15.83 -0.66 248 250 247
-14.21 -15.93 -0.74 243 242 245
-14.12 -16.03 -0.86 241 240 243
-13.99 -16.15 -1.05 228 227 230
-13.87 -16.27 -1.23 208 207 210
-13.77 -16.38 -1.37 190 189 192
-13.74 -16.47 -1.42 185 184 187
-13.72 -16.55 -1.45 187 186 189
-13.73 -16.63 -1.44 189 188 191
-13.73 -16.71 -1.44 192 191 194
-13.72 -16.79 -1.44 192 191 194
-13.71 -16.87 -1.46 193 192 195
-13.71 -16.95 -1.46 192 191 194
-13.72 -17.02 -1.44 192 191 194
-13.72 -17.10 -1.44 190 189 192
-13.72 -17.18 -1.44 192 191 194
-13.72 -17.25 -1.45 192 191 194
-13.72 -17.33 -1.45 195 194 197
-13.72 -17.41 -1.45 195 194 197
-13.72 -17.49 -1.45 195 194 197
-13.72 -17.57 -1.45 195 194 197
-13.72 -17.64 -1.45 195 194 197
-13.72 -17.72 -1.45 195 194 197
-13.72 -17.80 -1.45 195 194 197
-13.71 -17.88 -1.46 195 194 197
-13.72 -17.95 -1.45 194 193 196
-13.71 -18.03 -1.46 194 193 196
-13.71 -18.11 -1.47 194 193 196
-13.71 -18.19 -1.47 194 193 196
-13.70 -18.27 -1.47 194 193 196
-13.71 -18.35 -1.46 194 193 196
-13.70 -18.43 -1.47 194 193 198
-13.70 -18.50 -1.47 197 196 201
-13.70 -18.58 -1.48 194 193 198
-13.69 -18.66 -1.48 194 193 198
-13.69 -18.74 -1.49 194 193 198
-13.69 -18.82 -1.48 194 193 198
-13.69 -18.90 -1.48 194 193 198
-13.70 -18.97 -1.47 194 193 198
-13.70 -19.05 -1.47 194 193 198
-13.70 -19.13 -1.47 194 193 198
-13.71 -19.20 -1.46 193 192 197
-13.72 -19.28 -1.45 190 189 194
-13.72 -19.35 -1.44 186 185 190
-13.73 -19.43 -1.44 183 182 187
-13.74 -19.50 -1.42 183 182 187
-13.75 -19.57 -1.40 181 180 185
-13.76 -19.64 -1.38 176 175 180
-13.80 -19.70 -1.34 174 173 178
-13.81 -19.77 -1.31 175 175 175
-13.81 -19.85 -1.31 166 166 166
-13.81 -19.93 -1.31 163 162 165
-13.81 -20.01 -1.31 154 153 156
-13.85 -20.07 -1.26 154 153 156
-13.88 -20.13 -1.22 139 138 141
-13.87 -20.21 -1.23 72 71 76
-13.83 -20.31 -1.28 18 17 22
-13.73 -20.44 -1.44 44 43 48
-13.66 -20.54 -1.53 46 45 50
-13.65 -20.63 -1.54 48 46 54
-13.68 -20.69 -1.50 51 49 57
-13.77 -20.72 -1.37 52 50 58
-14.09 -20.64 -0.90 53 51 59
-14.78 -20.36 0.09 52 50 60
-15.12 -20.25 0.59 52 50 60
-15.06 -20.36 0.51 45 55 49
-14.98 -20.47 0.39 36 46 40
-15.06 -20.51 0.51 16 23 35
-15.12 -20.55 0.59 0 5 17
-15.13 -20.62 0.61 9 17 47
-15.13 -20.69 0.61 47 55 85
-15.11 -20.77 0.58 43 51 99
-15.10 -20.85 0.56 41 49 97
-15.09 -20.93 0.54 31 37 97
-15.05 -21.03 0.49 32 38 98
-15.02 -21.12 0.44 29 32 91
-15.00 -21.20 0.42 24 27 86
-15.02 -21.26 0.45 15 18 67
-15.03 -21.33 0.47 23 26 75
-15.03 -21.41 0.47 46 48 93
-15.03 -21.48 0.47 38 40 85
-14.99 -21.58 0.40 34 40 80
-14.95 -21.68 0.34 41 47 87
-14.92 -21.77 0.30 30 36 76
-14.91 -21.84 0.29 33 39 79
-14.92 -21.91 0.30 31 36 73
-14.91 -21.99 0.29 33 38 75
-14.90 -22.07 0.27 36 39 75
-14.87 -22.17 0.23 38 41 77
-14.71 -22.33 -0.00 53 54 86
-14.30 -22.65 -0.60 71 72 104
-13.82 -23.02 -1.31 141 142 165
-13.72 -23.16 -1.45 156 157 180
-13.72 -23.24 -1.45 163 162 179
-13.67 -23.34 -1.51 165 164 181
-13.66 -23.43 -1.53 173 173 181
-13.67 -23.50 -1.52 174 174 182
-13.68 -23.57 -1.50 167 161 168
-13.69 -23.64 -1.48 160 154 161
-13.71 -23.71 -1.47 150 144 151
-13.71 -23.79 -1.47 143 137 144
-13.71 -23.87 -1.47 142 136 143
-13.70 -23.95 -1.47 143 137 144
-13.70 -24.03 -1.47 145 139 146
-13.71 -24.10 -1.47 147 141 148
-13.69 -24.18 -1.48 145 139 146
-13.69 -24.27 -1.49 128 122 129
-13.69 -24.34 -1.49 104 98 105
-13.69 -24.42 -1.48 83 77 84
-13.72 -24.48 -1.44 70 64 71
-13.77 -24.52 -1.37 69 63 70
-13.82 -24.57 -1.30 62 56 63
-13.89 -24.60 -1.19 57 51 58
-13.96 -24.63 -1.09 61 53 61
-14.00 -24.68 -1.04 64 56 64
-14.02 -24.74 -1.01 68 60 68
-14.08 -24.78 -0.92 68 60 68
-14.14 -24.82 -0.84 69 61 69
-14.19 -24.86 -0.76 76 68 76
-14.23 -24.91 -0.71 71 63 71
-14.25 -24.97 -0.68 55 47 55
-14.26 -25.04 -0.66 48 40 48
-14.26 -25.11 -0.66 57 49 57
-14.27 -25.18 -0.65 71 63 71
-14.28 -25.25 -0.63 92 84 92
-14.30 -25.32 -0.61 114 106 114
-14.30 -25.39 -0.60 150 142 150
-14.32 -25.45 -0.58 180 172 180
-14.33 -25.52 -0.56 201 193 201
-14.34 -25.59 -0.55 214 208 213
-14.35 -25.66 -0.53 217 211 216
-14.35 -25.73 -0.52 218 212 217
-14.36 -25.80 -0.52 225 219 224
-14.36 -25.88 -0.51 213 207 212
-14.36 -25.95 -0.51 209 203 208
-14.37 -26.02 -0.50 200 194 199
-14.36 -26.10 -0.51 204 198 203
-14.36 -26.18 -0.51 211 205 210
-14.36 -26.26 -0.52 207 201 206
-14.35 -26.34 -0.53 209 203 208
-14.35 -26.41 -0.52 210 204 209
-14.35 -26.49 -0.53 213 207 212
-14.35 -26.57 -0.52 213 207 212
-14.35 -26.65 -0.53 213 207 212
-14.35 -26.72 -0.52 214 208 213
-14.34 -26.80 -0.54 206 201 200
-14.34 -26.88 -0.54 205 200 199
-14.34 -26.95 -0.54 204 199 198
-14.34 -27.03 -0.54 206 201 200
-14.34 -27.11 -0.54 212 207 206
-14.34 -27.18 -0.54 214 209 208
-14.34 -27.26 -0.54 211 206 205
-14.35 -27.33 -0.53 206 201 200
-14.34 -27.41 -0.54 212 207 206
-14.33 -27.49 -0.56 212 207 206
-14.33 -27.57 -0.56 212 207 206
-14.33 -27.65 -0.56 212 207 206
-14.32 -27.73 -0.57 212 207 206
-14.32 -27.81 -0.58 212 207 206
-14.31 -27.89 -0.59 212 207 206
-14.31 -27.97 -0.59 212 207 206
-14.30 -28.05 -0.60 212 207 209
-14.30 -28.13 -0.60 212 207 209
-14.30 -28.20 -0.61 212 207 209
-14.30 -28.28 -0.61 212 207 209
-14.30 -28.35 -0.60 212 207 209
-14.29 -28.43 -0.61 212 207 209
-14.29 -28.51 -0.61 212 207 209
-14.29 -28.59 -0.61 212 207 209
-14.28 -28.67 -0.62 212 207 209
-14.28 -28.75 -0.63 212 207 209
-14.28 -28.82 -0.63 212 207 209
-14.28 -28.90 -0.63 212 207 209
-14.28 -28.98 -0.63 212 207 209
-14.28 -29.05 -0.63 213 208 210
-14.28 -29.13 -0.62 214 209 211
-14.29 -29.20 -0.61 214 209 211
-14.29 -29.27 -0.61 214 209 211
-14.30 -29.34 -0.61 214 209 211
-14.30 -29.41 -0.60 214 209 211
-14.31 -29.48 -0.58 214 209 211
-14.32 -29.55 -0.57 214 209 211
-14.32 -29.63 -0.57 214 209 211
-14.33 -29.69 -0.56 214 209 211
-14.34 -29.76 -0.55 214 209 211
-14.34 -29.84 -0.55 214 209 211
-14.34 -29.91 -0.54 214 209 211
-14.35 -29.98 -0.53 214 209 211
-14.35 -30.05 -0.52 214 209 211
-14.36 -30.12 -0.51 214 209 211
-14.36 -30.19 -0.51 214 209 211
-14.37 -30.27 -0.50 214 209 211
-14.38 -30.33 -0.48 214 209 211
-14.39 -30.40 -0.47 215 208 206
-14.40 -30.46 -0.45 213 206 204
-14.42 -30.52 -0.43 220 213 211
-14.45 -30.57 -0.39 224 217 215
-14.48 -30.62 -0.34 209 204 201
-14.52 -30.66 -0.29 207 202 199
-14.54 -30.72 -0.25 244 242 238
-14.59 -30.74 -0.18 246 244 240
-14.67 -30.74 -0.06 202 202 197
-14.84 -30.66 0.19 192 192 187
-15.00 -30.59 0.42 184 186 181
-15.07 -30.60 0.52 242 244 239
-15.09 -30.65 0.55 241 246 240
-15.13 -30.68 0.61 246 251 245
-15.18 -30.71 0.68 211 218 211
-15.10 -30.86 0.56 183 190 183
-13.94 17.30 -1.24 123 124 129
-13.92 17.24 -1.27 123 124 129
-13.94 17.15 -1.25 125 124 129
-13.91 17.10 -1.29 126 125 130
-13.90 17.03 -1.30 126 125 130
-13.91 16.94 -1.29 125 124 129
-13.88 16.89 -1.33 126 123 127
-13.88 16.81 -1.33 126 123 127
-13.87 16.75 -1.35 129 127 125
-13.85 16.69 -1.38 127 125 123
-13.83 16.63 -1.40 129 124 121
-13.80 16.59 -1.46 127 122 119
-13.75 16.55 -1.52 128 124 118
-13.72 16.50 -1.58 129 125 119
-13.69 16.45 -1.62 134 128 123
-13.65 16.41 -1.67 135 129 124
-13.63 16.35 -1.71 135 121 134
-13.60 16.30 -1.75 133 119 132
-13.58 16.24 -1.77 133 119 132
-13.58 16.16 -1.78 133 119 132
-13.57 16.09 -1.79 135 124 133
-13.57 16.02 -1.79 137 126 135
-13.58 15.92 -1.77 137 130 133
-13.59 15.84 -1.76 139 132 135
-13.62 15.73 -1.72 126 126 121
-13.64 15.63 -1.68 130 130 125
-13.70 15.51 -1.60 136 140 144
-14.10 15.08 -1.02 128 132 136
-14.97 14.24 0.26 115 121 140
-15.53 13.68 1.08 102 108 127
-15.71 13.46 1.34 88 96 128
-15.68 13.41 1.29 95 103 135
-15.28 13.68 0.72 127 128 158
-14.28 14.46 -0.75 127 128 158
-13.55 15.01 -1.81 129 134 133
-13.56 14.92 -1.80 133 138 137
-13.54 14.87 -1.84 137 137 132
-13.49 14.82 -1.90 135 135 130
-13.48 14.76 -1.92 139 133 140
-13.48 14.68 -1.91 143 137 144
-13.49 14.59 -1.91 143 132 139
-13.49 14.51 -1.90 143 132 139
-13.49 14.44 -1.91 147 136 133
-13.48 14.36 -1.91 147 136 133
-13.48 14.28 -1.91 153 136 137
-13.48 14.21 -1.92 153 136 137
-13.47 14.14 -1.94 147 134 142
-13.47 14.06 -1.94 149 136 144
-13.46 13.99 -1.94 149 137 142
-13.47 13.90 -1.94 149 137 142
-13.46 13.83 -1.95 148 138 139
-13.46 13.75 -1.95 148 138 139
-13.46 13.67 -1.95 146 139 139
-13.45 13.60 -1.96 147 140 140
-13.45 13.53 -1.97 147 140 140
-13.44 13.45 -1.97 147 140 140
-13.44 13.38 -1.98 148 141 141
-13.43 13.30 -1.99 148 141 141
-13.43 13.23 -2.00 149 142 142
-13.43 13.15 -1.99 150 143 143
-13.43 13.07 -2.00 150 143 143
-13.42 13.00 -2.01 150 143 143
-13.42 12.92 -2.01 150 143 143
-13.41 12.84 -2.02 151 144 144
-13.42 12.76 -2.01 153 146 144
-13.41 12.69 -2.02 153 146 144
-13.41 12.61 -2.02 153 146 146
-13.41 12.53 -2.02 153 146 146
-13.40 12.46 -2.03 153 146 146
-13.41 12.38 -2.02 154 147 147
-13.41 12.30 -2.02 154 147 150
-13.41 12.22 -2.02 154 147 150
-13.41 12.14 -2.02 154 147 150
-13.41 12.06 -2.02 154 147 150
-13.41 11.98 -2.02 154 146 152
-13.40 11.91 -2.03 154 146 152
-13.40 11.83 -2.04 155 147 153
-13.40 11.76 -2.04 156 148 154
-13.40 11.68 -2.04 155 149 156
-13.39 11.60 -2.06 156 150 157
-13.39 11.52 -2.05 155 153 154
-13.39 11.44 -2.05 155 153 154
-13.39 11.37 -2.06 157 155 156
-13.39 11.29 -2.06 158 156 157
-13.39 11.21 -2.06 158 156 157
-13.39 11.13 -2.06 159 157 158
-13.39 11.05 -2.06 159 157 158
-13.38 10.98 -2.06 159 157 158
-13.39 10.90 -2.06 158 156 157
-13.39 10.81 -2.05 158 156 157
-13.39 10.74 -2.05 158 156 157
-13.39 10.66 -2.05 158 156 157
-13.39 10.58 -2.06 161 156 158
-13.39 10.50 -2.06 162 157 159
-13.38 10.43 -2.06 162 157 159
-13.37 10.35 -2.07 162 157 159
-13.37 10.27 -2.07 162 157 159
-13.37 10.20 -2.08 162 157 159
-13.37 10.12 -2.08 163 158 160
-13.37 10.04 -2.09 163 158 160
-13.36 9.97 -2.09 164 159 161
-13.36 9.89 -2.09 164 159 161
-13.36 9.81 -2.10 166 161 163
-13.36 9.73 -2.09 167 162 164
-13.36 9.65 -2.10 167 162 164
-13.35 9.58 -2.11 167 162 164
-13.35 9.50 -2.10 167 162 164
-13.36 9.42 -2.10 167 162 164
-13.35 9.34 -2.11 167 162 164
-13.35 9.26 -2.10 167 162 164
-13.35 9.18 -2.10 167 162 161
-13.35 9.10 -2.10 169 164 163
-13.35 9.03 -2.11 168 163 165
-13.34 8.95 -2.12 168 163 165
-13.34 8.87 -2.12 168 163 165
-13.34 8.80 -2.13 168 163 165
-13.33 8.72 -2.13 168 163 165
-13.33 8.64 -2.14 170 165 167
-13.33 8.57 -2.14 171 166 168
-13.33 8.49 -2.15 173 168 170
-13.32 8.41 -2.15 174 169 171
-13.33 8.33 -2.15 174 169 171
-13.32 8.26 -2.16 172 170 171
-13.32 8.18 -2.15 172 170 171
-13.32 8.10 -2.15 172 170 171
-13.33 8.01 -2.14 173 171 172
-13.33 7.93 -2.14 174 172 173
-13.33 7.85 -2.14 174 172 173
-13.33 7.77 -2.14 175 172 176
-13.33 7.70 -2.14 176 173 177
-13.33 7.62 -2.13 177 174 178
-13.33 7.54 -2.13 179 176 180
-13.33 7.46 -2.14 179 176 180
-13.33 7.38 -2.14 180 177 181
-13.33 7.30 -2.15 180 177 181
-13.33 7.23 -2.15 180 177 181
-13.32 7.15 -2.15 180 177 181
-13.33 7.07 -2.15 181 178 182
-13.33 6.99 -2.14 181 178 182
-13.33 6.91 -2.15 182 179 183
-13.33 6.83 -2.14 182 180 181
-13.33 6.75 -2.14 183 181 182
-13.34 6.66 -2.12 182 182 182
-13.34 6.59 -2.12 182 182 182
-13.34 6.51 -2.12 183 183 183
-13.34 6.43 -2.13 185 185 185
-13.34 6.35 -2.13 185 185 185
-13.33 6.27 -2.13 185 185 185
-13.33 6.20 -2.14 185 185 185
-13.33 6.12 -2.13 185 185 185
-13.33 6.04 -2.15 185 185 185
-13.33 5.96 -2.14 185 185 185
-13.32 5.88 -2.15 185 185 185
-13.33 5.80 -2.14 185 185 185
-13.33 5.72 -2.14 185 185 185
-13.33 5.64 -2.13 185 185 185
-13.34 5.56 -2.12 185 185 185
-13.34 5.48 -2.12 185 185 185
-13.36 5.39 -2.10 185 185 185
-13.36 5.32 -2.10 185 185 185
-13.37 5.23 -2.09 185 184 187
-13.36 5.16 -2.10 185 184 187
-13.36 5.08 -2.10 185 184 187
-13.36 5.00 -2.10 185 184 187
-13.36 4.92 -2.10 185 184 187
-13.36 4.84 -2.10 185 184 187
-13.36 4.76 -2.10 183 182 185
-13.35 4.69 -2.10 182 181 184
-13.35 4.61 -2.10 181 180 183
-13.35 4.53 -2.10 181 180 183
-13.35 4.45 -2.11 181 180 183
-13.35 4.37 -2.11 181 180 183
-13.34 4.30 -2.12 181 180 183
-13.34 4.22 -2.13 181 180 183
-13.34 4.14 -2.12 181 180 185
-13.34 4.06 -2.13 181 180 185
-13.33 3.98 -2.13 181 180 185
-13.33 3.91 -2.14 180 179 184
-13.33 3.83 -2.14 179 178 183
-13.33 3.75 -2.14 179 178 183
-13.33 3.67 -2.15 178 177 182
-13.33 3.59 -2.15 178 177 182
-13.33 3.51 -2.14 176 175 180
-13.32 3.44 -2.15 176 175 180
-13.32 3.36 -2.15 175 174 179
-13.33 3.28 -2.15 174 173 178
-13.33 3.20 -2.14 174 173 178
-13.33 3.12 -2.15 174 173 178
-13.33 3.04 -2.14 174 173 178
-13.33 2.96 -2.14 174 173 178
-13.33 2.88 -2.13 174 173 178
-13.33 2.80 -2.14 174 173 178
-13.33 2.72 -2.14 174 172 180
-13.33 2.64 -2.14 174 172 180
-13.33 2.56 -2.13 174 173 178
-13.33 2.49 -2.14 173 172 177
-13.33 2.41 -2.14 171 172 175
-13.33 2.33 -2.14 171 172 175
-13.33 2.25 -2.14 171 172 175
-13.33 2.17 -2.13 171 172 175
-13.33 2.09 -2.13 171 172 175
-13.33 2.01 -2.13 171 172 175
-13.33 1.93 -2.13 170 171 174
-13.34 1.85 -2.13 170 171 174
-13.34 1.77 -2.12 170 171 174
-13.34 1.69 -2.12 170 171 174
-13.34 1.61 -2.12 170 171 174
-13.34 1.53 -2.12 170 171 174
-13.35 1.45 -2.11 169 170 173
-13.35 1.37 -2.11 169 170 173
-13.35 1.29 -2.11 169 170 173
-13.36 1.21 -2.10 169 170 173
-13.36 1.13 -2.09 169 170 173
-13.36 1.05 -2.09 169 170 173
-13.37 0.97 -2.09 169 170 173
-13.37 0.89 -2.08 169 170 173
-13.37 0.81 -2.07 168 169 172
-13.37 0.73 -2.07 168 169 172
-13.37 0.65 -2.07 168 169 172
-13.38 0.57 -2.06 168 169 172
-13.38 0.50 -2.06 168 169 172
-13.38 0.42 -2.06 168 169 172
-13.38 0.34 -2.06 168 169 172
-13.38 0.26 -2.06 168 169 172
-13.39 0.18 -2.06 168 170 170
-13.39 0.10 -2.05 168 170 170
-13.39 0.02 -2.05 168 170 170
-13.40 -0.06 -2.04 168 170 170
-13.40 -0.14 -2.03 168 170 170
-13.40 -0.22 -2.03 168 170 170
-13.41 -0.30 -2.02 168 170 170
-13.42 -0.38 -2.01 168 170 170
-13.42 -0.46 -2.01 168 170 170
-13.43 -0.54 -2.00 168 170 170
-13.43 -0.62 -1.99 168 170 170
-13.44 -0.70 -1.98 168 170 170
-13.44 -0.78 -1.98 168 170 170
-13.44 -0.86 -1.97 168 170 170
-13.45 -0.94 -1.96 168 169 172
-13.46 -1.02 -1.95 168 169 172
-13.46 -1.10 -1.94 168 169 172
-13.46 -1.18 -1.94 168 169 172
-13.47 -1.26 -1.94 168 169 172
-13.47 -1.34 -1.94 168 169 172
-13.47 -1.42 -1.94 168 169 172
-13.47 -1.50 -1.93 168 169 172
-13.47 -1.57 -1.93 168 169 172
-13.47 -1.65 -1.94 168 169 172
-13.47 -1.73 -1.94 168 169 172
-13.47 -1.81 -1.93 168 169 172
-13.48 -1.89 -1.92 168 169 172
-13.48 -1.97 -1.91 168 169 172
-13.49 -2.05 -1.90 168 169 172
-13.49 -2.13 -1.90 168 169 172
-13.50 -2.21 -1.90 168 169 172
-13.50 -2.29 -1.90 168 169 172
-13.49 -2.36 -1.90 168 170 170
-13.49 -2.44 -1.90 168 170 170
-13.50 -2.52 -1.89 168 170 170
-13.50 -2.60 -1.89 168 170 170
-13.50 -2.68 -1.89 168 170 170
-13.50 -2.76 -1.89 168 170 170
-13.50 -2.84 -1.89 168 170 170
-13.50 -2.91 -1.89 169 171 171
-13.50 -2.99 -1.89 169 171 171
-13.50 -3.07 -1.89 169 171 171
-13.50 -3.15 -1.89 169 171 171
-13.50 -3.23 -1.89 169 171 171
-13.50 -3.31 -1.89 169 171 171
-13.51 -3.39 -1.88 169 171 171
-13.51 -3.47 -1.87 169 170 173
-13.51 -3.54 -1.87 170 171 174
-13.51 -3.62 -1.87 170 171 174
-13.52 -3.70 -1.87 170 171 174
-13.51 -3.78 -1.87 171 172 177
-13.52 -3.86 -1.87 170 171 176
-13.52 -3.94 -1.87 170 171 176
-13.52 -4.02 -1.86 170 171 176
-13.52 -4.09 -1.86 170 171 176
-13.52 -4.17 -1.86 170 171 176
-13.52 -4.25 -1.87 170 171 176
-13.52 -4.33 -1.87 170 171 176
-13.51 -4.41 -1.87 170 171 176
-13.51 -4.48 -1.87 170 171 176
-13.51 -4.56 -1.87 171 172 177
-13.51 -4.64 -1.87 171 172 177
-13.51 -4.72 -1.88 171 172 177
-13.51 -4.80 -1.88 171 172 177
-13.51 -4.88 -1.88 169 173 175
-13.50 -4.95 -1.89 169 173 175
-13.50 -5.03 -1.89 169 173 175
-13.50 -5.11 -1.89 169 173 175
-13.50 -5.19 -1.89 169 173 175
-13.51 -5.27 -1.88 169 173 175
-13.52 -5.35 -1.87 169 173 175
-13.53 -5.43 -1.85 169 173 175
-13.53 -5.51 -1.85 166 170 172
-13.50 -5.58 -1.89 168 172 174
-13.48 -5.66 -1.92 172 176 178
-13.47 -5.74 -1.94 170 174 176
-13.53 -5.82 -1.85 162 166 168
-13.84 -5.92 -1.39 174 178 180
-14.06 -6.00 -1.07 241 245 247
-14.10 -6.08 -1.01 247 251 253
-14.11 -6.16 -1.00 246 251 250
-14.11 -6.24 -1.00 246 251 250
-14.13 -6.31 -0.97 246 251 250
-14.14 -6.39 -0.96 246 251 250
-14.14 -6.47 -0.95 246 251 250
-14.15 -6.54 -0.95 246 251 250
-14.16 -6.62 -0.93 246 251 250
-14.16 -6.70 -0.93 246 251 250
-14.16 -6.77 -0.92 247 252 251
-14.16 -6.85 -0.93 247 252 251
-14.14 -6.93 -0.95 247 252 251
-14.14 -7.00 -0.96 247 252 251
-14.14 -7.08 -0.96 247 252 251
-14.14 -7.16 -0.96 247 252 251
-14.14 -7.23 -0.96 247 252 251
-14.14 -7.31 -0.96 247 252 251
-14.14 -7.39 -0.96 245 252 250
-14.13 -7.46 -0.96 245 252 250
-14.12 -7.54 -0.98 245 252 250
-14.12 -7.62 -0.99 245 252 250
-14.11 -7.69 -1.00 245 252 250
-14.11 -7.77 -1.00 245 252 250
-14.10 -7.85 -1.01 245 252 250
-14.09 -7.92 -1.02 245 252 250
-14.08 -8.00 -1.04 245 252 250
-14.08 -8.08 -1.05 245 252 250
-14.07 -8.15 -1.05 245 252 250
-14.07 -8.23 -1.06 245 252 250
-14.06 -8.31 -1.07 245 252 250
-14.07 -8.38 -1.06 245 252 250
-14.06 -8.46 -1.07 245 252 250
-14.06 -8.54 -1.07 245 252 250
-14.06 -8.62 -1.07 246 253 251
-14.06 -8.69 -1.07 246 253 251
-14.07 -8.77 -1.06 246 253 251
-14.06 -8.85 -1.07 246 253 251
-14.06 -8.92 -1.07 246 253 251
-14.07 -9.00 -1.06 246 253 251
-14.06 -9.08 -1.07 246 253 251
-14.06 -9.15 -1.07 246 253 251
-14.06 -9.23 -1.07 246 253 251
-14.06 -9.31 -1.07 246 253 251
-14.05 -9.38 -1.09 246 253 251
-14.05 -9.46 -1.09 246 253 251
-14.05 -9.54 -1.09 246 253 251
-14.05 -9.61 -1.09 246 253 251
-14.06 -9.69 -1.08 246 253 251
-14.06 -9.77 -1.07 246 253 251
-14.08 -9.84 -1.04 246 253 251
-14.09 -9.92 -1.03 246 253 251
-14.10 -9.99 -1.01 246 253 251
-14.11 -10.07 -1.00 246 253 251
-14.13 -10.14 -0.98 246 253 251
-14.14 -10.22 -0.96 246 253 251
-14.15 -10.29 -0.94 246 253 251
-14.17 -10.37 -0.91 246 253 251
-14.18 -10.44 -0.90 244 251 249
-14.18 -10.52 -0.89 246 253 251
-14.19 -10.60 -0.88 251 255 255
-14.20 -10.67 -0.86 251 255 255
-14.21 -10.75 -0.86 250 255 255
-14.22 -10.82 -0.83 244 251 249
-14.23 -10.90 -0.83 240 247 245
-14.24 -10.97 -0.81 237 244 242
-14.23 -11.05 -0.82 251 252 255
-14.23 -11.12 -0.82 246 247 250
-14.23 -11.20 -0.82 249 250 253
-14.24 -11.28 -0.81 246 247 250
-14.27 -11.35 -0.77 249 250 253
-14.28 -11.42 -0.75 246 247 250
-14.40 -11.48 -0.57 253 254 255
-14.59 -11.52 -0.29 248 249 252
-14.85 -11.56 0.08 206 207 210
-15.09 -11.59 0.44 165 166 169
-15.20 -11.64 0.59 110 111 114
-15.23 -11.71 0.64 67 68 71
-15.23 -11.79 0.64 32 33 36
-15.20 -11.86 0.59 6 7 10
-15.19 -11.94 0.59 8 9 12
-15.15 -12.02 0.53 32 33 36
-15.15 -12.09 0.52 34 37 48
-15.13 -12.17 0.50 35 38 49
-15.12 -12.25 0.48 42 45 56
-15.12 -12.32 0.48 46 49 60
-15.14 -12.39 0.50 36 39 50
-15.16 -12.46 0.54 27 30 41
-15.18 -12.53 0.56 30 33 44
-15.18 -12.60 0.57 36 39 50
-15.19 -12.67 0.59 36 39 50
-15.20 -12.75 0.59 40 43 54
-15.20 -12.82 0.60 39 42 53
-15.19 -12.89 0.58 34 37 48
-15.19 -12.97 0.57 30 33 44
-15.19 -13.04 0.58 30 33 44
-15.18 -13.12 0.56 32 35 46
-15.17 -13.19 0.55 30 33 44
-15.13 -13.27 0.50 22 26 30
-15.08 -13.36 0.42 32 36 40
-15.02 -13.45 0.33 27 31 33
-14.94 -13.54 0.22 42 46 48
-14.87 -13.63 0.11 108 112 114
-14.73 -13.74 -0.09 179 183 185
-14.56 -13.86 -0.34 251 255 255
-14.48 -13.96 -0.46 244 249 248
-14.43 -14.05 -0.54 246 251 250
-14.42 -14.13 -0.55 246 251 250
-14.39 -14.21 -0.59 246 251 247
-14.37 -14.29 -0.62 246 251 247
-14.35 -14.37 -0.66 246 251 247
-14.32 -14.46 -0.69 246 251 247
-14.31 -14.54 -0.71 246 251 245
-14.30 -14.61 -0.73 246 251 245
-14.29 -14.69 -0.73 248 250 247
-14.29 -14.77 -0.74 248 250 247
-14.27 -14.85 -0.76 248 250 247
-14.27 -14.93 -0.76 248 250 247
-14.28 -15.00 -0.75 248 250 247
-14.29 -15.07 -0.74 248 250 247
-14.30 -15.15 -0.72 248 250 247
-14.31 -15.22 -0.71 248 250 247
-14.32 -15.29 -0.69 248 250 247
-14.33 -15.36 -0.67 248 250 247
-14.34 -15.44 -0.66 248 250 247
-14.35 -15.51 -0.65 248 250 247
-14.37 -15.58 -0.63 248 250 247
-14.38 -15.65 -0.61 248 250 247
-14.38 -15.73 -0.60 248 250 247
-14.39 -15.80 -0.59 248 250 247
-14.40 -15.87 -0.58 250 249 252
-14.39 -15.95 -0.59 249 248 251
-14.36 -16.04 -0.63 248 247 250
-14.27 -16.14 -0.76 239 238 241
-14.13 -16.27 -0.96 224 223 226
-14.00 -16.39 -1.15 202 201 204
-13.90 -16.50 -1.30 190 189 192
-13.86 -16.59 -1.36 188 187 190
-13.83 -16.68 -1.40 185 184 187
-13.84 -16.76 -1.39 188 187 190
-13.84 -16.84 -1.40 194 193 196
-13.83 -16.92 -1.40 193 192 195
-13.84 -16.99 -1.39 193 192 195
-13.85 -17.07 -1.39 189 188 191
-13.85 -17.14 -1.38 190 189 192
-13.85 -17.22 -1.39 190 189 192
-13.84 -17.30 -1.39 195 194 199
-13.84 -17.38 -1.39 195 194 199
-13.84 -17.46 -1.40 195 194 199
-13.84 -17.53 -1.40 195 194 199
-13.84 -17.61 -1.40 195 194 199
-13.83 -17.69 -1.40 195 194 199
-13.83 -17.77 -1.41 195 194 199
-13.83 -17.84 -1.40 195 194 199
-13.84 -17.92 -1.39 194 193 198
-13.84 -18.00 -1.40 194 193 198
-13.84 -18.08 -1.40 194 193 198
-13.84 -18.15 -1.40 194 193 198
-13.84 -18.23 -1.40 194 193 198
-13.83 -18.31 -1.40 194 193 198
-13.83 -18.39 -1.41 194 193 198
-13.82 -18.47 -1.42 197 196 201
-13.82 -18.55 -1.43 194 193 198
-13.82 -18.63 -1.43 194 193 198
-13.81 -18.71 -1.44 194 193 198
-13.81 -18.78 -1.44 194 193 198
-13.81 -18.86 -1.44 194 193 198
-13.81 -18.94 -1.44 194 193 198
-13.81 -19.02 -1.43 194 193 198
-13.81 -19.09 -1.43 194 193 198
-13.82 -19.17 -1.42 193 192 197
-13.83 -19.24 -1.41 190 189 194
-13.83 -19.32 -1.40 186 185 190
-13.84 -19.39 -1.39 183 182 187
-13.85 -19.46 -1.37 183 182 187
-13.87 -19.53 -1.35 181 180 185
-13.88 -19.60 -1.33 176 175 180
-13.90 -19.67 -1.30 174 173 178
-13.92 -19.74 -1.28 169 167 168
-13.92 -19.82 -1.28 173 171 172
-13.92 -19.90 -1.28 162 159 163
-13.92 -19.97 -1.28 166 163 167
-13.94 -20.04 -1.25 159 156 160
-13.95 -20.11 -1.23 120 117 121
-13.94 -20.20 -1.25 34 31 37
-13.90 -20.29 -1.30 31 28 34
-13.81 -20.41 -1.44 46 43 49
-13.72 -20.53 -1.56 47 44 50
-13.69 -20.63 -1.61 49 45 54
-13.74 -20.68 -1.53 52 48 57
-13.92 -20.66 -1.27 53 49 58
-14.16 -20.62 -0.92 53 49 58
-14.74 -20.40 -0.08 53 49 60
-15.09 -20.29 0.43 52 48 59
-15.07 -20.37 0.40 46 53 48
-15.14 -20.41 0.50 35 42 37
-15.21 -20.45 0.61 20 27 41
-15.18 -20.54 0.56 5 12 26
-15.18 -20.61 0.56 12 18 58
-15.14 -20.70 0.51 48 54 94
-15.13 -20.78 0.49 48 54 116
-15.11 -20.87 0.46 42 48 110
-15.09 -20.95 0.43 36 40 110
-15.08 -21.03 0.41 40 44 114
-15.07 -21.11 0.41 34 39 106
-15.06 -21.19 0.38 26 31 98
-15.06 -21.26 0.39 12 15 74
-15.06 -21.34 0.39 19 22 81
-15.04 -21.42 0.36 44 46 98
-15.02 -21.51 0.33 39 41 93
-14.94 -21.63 0.22 31 43 65
-14.87 -21.74 0.12 34 46 68
-14.80 -21.86 0.01 24 36 60
-14.77 -21.95 -0.04 24 36 60
-14.77 -22.02 -0.03 30 37 62
-14.76 -22.10 -0.05 31 38 63
-14.74 -22.19 -0.08 36 42 63
-14.63 -22.33 -0.24 41 47 68
-14.33 -22.59 -0.68 63 66 84
-13.97 -22.88 -1.21 109 112 130
-13.84 -23.03 -1.40 155 158 169
-13.82 -23.12 -1.42 150 153 164
-13.81 -23.20 -1.44 151 151 161
-13.80 -23.29 -1.45 155 155 165
-13.77 -23.38 -1.50 163 161 171
-13.78 -23.45 -1.48 165 163 173
-13.79 -23.53 -1.47 167 161 168
-13.80 -23.60 -1.45 173 167 174
-13.82 -23.67 -1.43 177 171 178
-13.82 -23.74 -1.42 175 169 176
-13.81 -23.82 -1.44 167 161 168
-13.81 -23.90 -1.44 156 150 157
-13.81 -23.98 -1.44 143 137 144
-13.81 -24.06 -1.44 139 133 140
-13.80 -24.14 -1.45 135 129 136
-13.80 -24.22 -1.45 145 139 146
-13.80 -24.30 -1.46 150 144 151
-13.79 -24.38 -1.47 146 140 147
-13.80 -24.45 -1.45 134 128 135
-13.82 -24.52 -1.42 113 107 114
-13.85 -24.57 -1.38 94 88 95
-13.88 -24.63 -1.33 79 73 80
-13.92 -24.68 -1.27 66 57 68
-13.96 -24.73 -1.22 57 48 59
-13.99 -24.79 -1.18 56 47 58
-14.02 -24.85 -1.14 57 48 59
-14.08 -24.88 -1.05 59 50 61
-14.15 -24.91 -0.94 66 57 68
-14.22 -24.94 -0.84 75 66 77
-14.27 -24.98 -0.77 77 68 79
-14.32 -25.02 -0.69 73 64 75
-14.35 -25.08 -0.65 69 60 71
-14.37 -25.14 -0.62 64 55 66
-14.38 -25.21 -0.60 49 40 51
-14.40 -25.27 -0.58 44 35 46
-14.42 -25.34 -0.55 51 42 53
-14.42 -25.41 -0.55 78 69 80
-14.43 -25.47 -0.53 99 90 101
-14.44 -25.55 -0.52 143 135 143
-14.46 -25.61 -0.49 167 159 167
-14.47 -25.68 -0.48 191 183 191
-14.47 -25.75 -0.47 211 203 211
-14.48 -25.82 -0.47 214 206 214
-14.48 -25.90 -0.46 221 213 221
-14.48 -25.97 -0.46 218 210 218
-14.48 -26.05 -0.46 212 204 212
-14.48 -26.12 -0.47 214 206 214
-14.47 -26.20 -0.47 214 206 214
-14.47 -26.28 -0.47 212 204 212
-14.47 -26.36 -0.47 212 204 212
-14.47 -26.43 -0.47 207 199 207
-14.47 -26.50 -0.47 212 204 212
-14.47 -26.58 -0.47 211 203 211
-14.47 -26.66 -0.47 210 202 210
-14.47 -26.74 -0.48 205 200 199
-14.46 -26.81 -0.48 210 205 204
-14.46 -26.89 -0.48 210 205 204
-14.46 -26.97 -0.49 209 204 203
-14.46 -27.04 -0.49 210 205 204
-14.46 -27.12 -0.49 213 208 207
-14.46 -27.19 -0.49 211 206 205
-14.46 -27.27 -0.49 206 201 200
-14.46 -27.35 -0.49 212 207 206
-14.45 -27.43 -0.50 212 207 206
-14.45 -27.51 -0.51 212 207 206
-14.44 -27.59 -0.52 212 207 206
-14.43 -27.67 -0.53 212 207 206
-14.43 -27.75 -0.54 212 207 206
-14.42 -27.83 -0.54 212 207 206
-14.41 -27.91 -0.56 212 207 206
-14.41 -27.99 -0.56 212 207 209
-14.40 -28.07 -0.57 212 207 209
-14.41 -28.14 -0.56 212 207 209
-14.40 -28.22 -0.57 212 207 209
-14.41 -28.30 -0.56 212 207 209
-14.40 -28.37 -0.57 212 207 209
-14.40 -28.45 -0.57 212 207 209
-14.40 -28.53 -0.58 212 207 209
-14.40 -28.61 -0.58 212 207 209
-14.39 -28.69 -0.59 212 207 209
-14.39 -28.77 -0.59 212 207 209
-14.39 -28.84 -0.59 212 207 209
-14.38 -28.92 -0.60 212 207 209
-14.39 -28.99 -0.59 213 208 210
-14.39 -29.07 -0.59 214 209 211
-14.39 -29.14 -0.59 214 209 211
-14.40 -29.21 -0.58 214 209 211
-14.40 -29.29 -0.57 214 209 211
-14.40 -29.36 -0.57 214 209 211
-14.42 -29.42 -0.55 214 209 211
-14.42 -29.50 -0.55 214 209 211
-14.42 -29.57 -0.54 214 209 211
-14.43 -29.64 -0.53 214 209 211
-14.44 -29.71 -0.52 214 209 211
-14.44 -29.78 -0.52 214 209 211
-14.44 -29.85 -0.51 214 209 211
-14.45 -29.93 -0.51 214 209 211
-14.46 -30.00 -0.49 214 209 211
-14.46 -30.06 -0.48 214 209 211
-14.48 -30.13 -0.47 214 209 211
-14.48 -30.20 -0.45 214 209 211
-14.49 -30.27 -0.45 214 209 211
-14.50 -30.33 -0.43 214 207 205
-14.51 -30.40 -0.41 211 204 202
-14.53 -30.46 -0.38 218 211 209
-14.55 -30.51 -0.35 221 214 212
-14.57 -30.57 -0.33 209 204 201
-14.61 -30.61 -0.27 205 200 197
-14.64 -30.66 -0.23 235 233 229
-14.69 -30.68 -0.14 245 243 239
-14.79 -30.66 -0.00 204 204 199
-14.92 -30.62 0.19 199 199 194
-15.03 -30.59 0.34 176 178 173
-15.09 -30.61 0.43 249 251 246
-15.13 -30.64 0.50 241 246 240
-15.18 -30.67 0.57 242 247 241
-15.22 -30.70 0.63 233 240 233
-15.17 -30.83 0.55 208 215 208
-13.99 17.29 -1.30 124 125 130
-14.00 17.20 -1.28 126 127 132
-14.03 17.10 -1.23 128 127 132
-14.02 17.03 -1.25 130 129 134
-14.04 16.93 -1.22 131 130 135
-14.05 16.85 -1.21 130 129 134
-14.04 16.78 -1.23 130 127 131
-14.03 16.71 -1.24 129 126 130
-14.01 16.66 -1.27 126 124 122
-13.98 16.60 -1.31 126 124 122
-13.97 16.54 -1.33 132 127 124
-13.94 16.49 -1.37 133 128 125
-13.87 16.47 -1.47 129 125 119
-13.84 16.43 -1.52 128 124 118
-13.82 16.37 -1.55 129 123 118
-13.78 16.32 -1.60 134 128 123
-13.75 16.28 -1.65 133 119 132
-13.72 16.22 -1.69 135 121 134
-13.69 16.17 -1.74 136 122 135
-13.69 16.10 -1.74 137 123 136
-13.67 16.03 -1.77 136 125 134
-13.67 15.95 -1.76 135 124 133
-13.72 15.83 -1.69 132 125 128
-13.78 15.70 -1.60 130 123 126
-13.85 15.57 -1.51 129 129 124
-13.92 15.43 -1.40 128 128 123
-14.27 15.04 -0.88 127 131 135
-15.18 14.17 0.44 124 128 132
-15.84 13.51 1.42 95 101 120
-15.98 13.32 1.62 60 66 85
-15.91 13.31 1.52 38 46 78
-15.86 13.28 1.45 47 55 87
-15.73 13.32 1.26 124 125 155
-14.99 13.89 0.17 132 133 163
-13.92 14.73 -1.40 132 137 136
-13.66 14.88 -1.79 132 137 136
-13.63 14.82 -1.82 136 136 131
-13.59 14.77 -1.88 135 135 130
-13.56 14.72 -1.92 138 132 139
-13.57 14.64 -1.91 142 136 143
-13.57 14.56 -1.91 143 132 139
-13.57 14.48 -1.92 143 132 139
-13.57 14.40 -1.91 147 136 133
-13.57 14.32 -1.91 147 136 133
-13.56 14.25 -1.92 153 136 137
-13.55 14.18 -1.94 153 136 137
-13.55 14.11 -1.95 147 134 142
-13.54 14.03 -1.95 149 136 144
-13.53 13.96 -1.97 149 137 142
-13.53 13.88 -1.97 149 137 142
-13.53 13.81 -1.97 148 138 139
-13.53 13.73 -1.97 148 138 139
-13.53 13.65 -1.98 146 139 139
-13.52 13.58 -1.98 147 140 140
-13.52 13.50 -1.99 147 140 140
-13.51 13.43 -1.99 147 140 140
-13.51 13.35 -2.00 147 140 140
-13.51 13.27 -2.00 148 141 141
-13.51 13.19 -2.00 148 141 141
-13.51 13.12 -2.00 149 142 142
-13.50 13.04 -2.01 149 142 142
-13.50 12.97 -2.02 150 143 143
-13.50 12.89 -2.02 150 143 143
-13.50 12.81 -2.02 151 144 144
-13.50 12.73 -2.02 153 146 144
-13.49 12.66 -2.03 153 146 144
-13.49 12.58 -2.03 153 146 146
-13.49 12.50 -2.03 153 146 146
-13.49 12.42 -2.03 153 146 146
-13.49 12.34 -2.03 154 147 147
-13.49 12.26 -2.03 154 147 150
-13.50 12.18 -2.02 154 147 150
-13.49 12.11 -2.03 154 147 150
-13.49 12.03 -2.03 154 147 150
-13.50 11.95 -2.02 154 146 152
-13.49 11.87 -2.03 154 146 152
-13.48 11.80 -2.04 155 147 153
-13.48 11.72 -2.04 156 148 154
-13.47 11.65 -2.05 155 149 156
-13.47 11.57 -2.06 155 149 156
-13.47 11.49 -2.05 154 152 153
-13.47 11.41 -2.05 155 153 154
-13.47 11.34 -2.06 155 153 154
-13.47 11.26 -2.06 157 155 156
-13.47 11.18 -2.06 158 156 157
-13.47 11.10 -2.06 159 157 158
-13.48 11.02 -2.05 159 157 158
-13.47 10.94 -2.06 159 157 158
-13.47 10.86 -2.05 158 156 157
-13.47 10.78 -2.05 158 156 157
-13.48 10.70 -2.04 158 156 157
-13.47 10.63 -2.05 158 156 157
-13.48 10.54 -2.05 161 156 158
-13.47 10.47 -2.05 162 157 159
-13.47 10.39 -2.06 162 157 159
-13.47 10.31 -2.06 162 157 159
-13.46 10.24 -2.07 162 157 159
-13.46 10.16 -2.07 162 157 159
-13.46 10.09 -2.07 163 158 160
-13.46 10.01 -2.07 163 158 160
-13.46 9.93 -2.08 164 159 161
-13.46 9.85 -2.08 164 159 161
-13.45 9.78 -2.09 166 161 163
-13.45 9.70 -2.09 167 162 164
-13.45 9.62 -2.08 167 162 164
-13.45 9.54 -2.09 167 162 164
-13.45 9.46 -2.09 167 162 164
-13.45 9.38 -2.09 167 162 164
-13.45 9.30 -2.09 167 162 164
-13.45 9.23 -2.09 167 162 164
-13.44 9.15 -2.10 167 162 161
-13.44 9.07 -2.10 169 164 163
-13.44 8.99 -2.10 168 163 165
-13.44 8.92 -2.11 168 163 165
-13.43 8.84 -2.11 168 163 165
-13.43 8.76 -2.11 168 163 165
-13.43 8.69 -2.12 168 163 165
-13.43 8.61 -2.12 170 165 167
-13.42 8.53 -2.13 171 166 168
-13.42 8.46 -2.13 173 168 170
-13.42 8.38 -2.13 174 169 171
-13.42 8.30 -2.14 174 169 171
-13.42 8.22 -2.14 172 170 171
-13.42 8.14 -2.13 172 170 171
-13.42 8.06 -2.14 172 170 171
-13.42 7.98 -2.13 173 171 172
-13.43 7.90 -2.12 174 172 173
-13.43 7.82 -2.12 174 172 173
-13.43 7.74 -2.11 175 172 176
-13.43 7.66 -2.11 176 173 177
-13.44 7.58 -2.11 179 176 180
-13.43 7.50 -2.11 180 177 181
-13.43 7.42 -2.11 180 177 181
-13.43 7.35 -2.12 181 178 182
-13.43 7.27 -2.12 181 178 182
-13.42 7.20 -2.13 181 178 182
-13.42 7.12 -2.14 181 178 182
-13.42 7.04 -2.13 182 179 183
-13.43 6.96 -2.12 182 179 183
-13.42 6.88 -2.13 183 180 184
-13.43 6.80 -2.12 183 181 182
-13.43 6.71 -2.11 184 182 183
-13.43 6.64 -2.11 183 183 183
-13.44 6.55 -2.11 183 183 183
-13.43 6.48 -2.11 185 185 185
-13.43 6.40 -2.11 186 186 186
-13.43 6.32 -2.11 186 186 186
-13.43 6.24 -2.11 186 186 186
-13.43 6.16 -2.11 186 186 186
-13.43 6.09 -2.12 186 186 186
-13.42 6.01 -2.13 186 186 186
-13.42 5.94 -2.14 186 186 186
-13.42 5.86 -2.14 186 186 186
-13.42 5.77 -2.13 186 186 186
-13.43 5.69 -2.12 186 186 186
-13.43 5.61 -2.12 186 186 186
-13.43 5.53 -2.11 186 186 186
-13.44 5.45 -2.10 186 186 186
-13.45 5.37 -2.08 186 186 186
-13.45 5.29 -2.08 186 186 186
-13.46 5.21 -2.08 185 184 187
-13.46 5.13 -2.07 185 184 187
-13.45 5.05 -2.08 185 184 187
-13.46 4.97 -2.08 185 184 187
-13.46 4.89 -2.08 185 184 187
-13.45 4.81 -2.08 185 184 187
-13.45 4.74 -2.08 183 182 185
-13.45 4.66 -2.08 182 181 184
-13.45 4.58 -2.09 181 180 183
-13.45 4.50 -2.09 181 180 183
-13.44 4.43 -2.10 181 180 183
-13.44 4.35 -2.11 181 180 183
-13.43 4.27 -2.11 181 180 183
-13.43 4.19 -2.11 181 180 183
-13.43 4.12 -2.11 181 180 185
-13.43 4.04 -2.12 181 180 185
-13.43 3.96 -2.12 181 180 185
-13.42 3.88 -2.13 180 179 184
-13.42 3.80 -2.13 179 178 183
-13.43 3.72 -2.12 179 178 183
-13.43 3.65 -2.12 178 177 182
-13.42 3.57 -2.13 178 177 182
-13.42 3.49 -2.13 176 175 180
-13.42 3.41 -2.13 176 175 180
-13.42 3.33 -2.13 175 174 179
-13.42 3.25 -2.13 174 173 178
-13.42 3.17 -2.13 174 173 178
-13.43 3.09 -2.12 174 173 178
-13.43 3.02 -2.12 174 173 178
-13.43 2.94 -2.12 174 173 178
-13.43 2.86 -2.12 174 173 178
-13.43 2.78 -2.11 174 173 178
-13.43 2.70 -2.11 174 172 180
-13.43 2.62 -2.12 174 172 180
-13.43 2.54 -2.12 174 173 178
-13.43 2.46 -2.12 173 172 177
-13.42 2.39 -2.13 171 172 175
-13.43 2.31 -2.12 171 172 175
-13.43 2.23 -2.12 171 172 175
-13.43 2.15 -2.12 171 172 175
-13.42 2.07 -2.13 171 172 175
-13.43 1.99 -2.12 171 172 175
-13.43 1.91 -2.12 170 171 174
-13.43 1.83 -2.11 170 171 174
-13.43 1.75 -2.11 170 171 174
-13.44 1.67 -2.11 170 171 174
-13.44 1.59 -2.11 170 171 174
-13.44 1.51 -2.11 170 171 174
-13.44 1.44 -2.11 169 170 173
-13.44 1.36 -2.10 169 170 173
-13.44 1.28 -2.10 169 170 173
-13.45 1.20 -2.09 169 170 173
-13.46 1.11 -2.08 169 170 173
-13.46 1.04 -2.08 169 170 173
-13.46 0.96 -2.07 169 170 173
-13.47 0.88 -2.07 169 170 173
-13.47 0.80 -2.06 168 169 172
-13.47 0.72 -2.06 168 169 172
-13.47 0.64 -2.06 168 169 172
-13.48 0.56 -2.05 168 169 172
-13.47 0.48 -2.06 168 169 172
-13.47 0.40 -2.06 168 169 172
-13.47 0.32 -2.05 168 169 172
-13.47 0.24 -2.05 168 169 172
-13.48 0.16 -2.05 168 170 170
-13.48 0.08 -2.04 168 170 170
-13.48 0.00 -2.04 168 170 170
-13.49 -0.07 -2.03 168 170 170
-13.49 -0.16 -2.03 168 170 170
-13.50 -0.23 -2.02 168 170 170
-13.50 -0.31 -2.02 168 170 170
-13.51 -0.40 -2.00 168 170 170
-13.51 -0.47 -2.00 168 170 170
-13.52 -0.55 -1.99 168 170 170
-13.53 -0.64 -1.97 168 170 170
-13.53 -0.71 -1.97 168 170 170
-13.54 -0.80 -1.96 168 170 170
-13.54 -0.87 -1.96 168 170 170
-13.54 -0.95 -1.95 168 169 172
-13.55 -1.03 -1.94 168 169 172
-13.55 -1.11 -1.94 168 169 172
-13.55 -1.19 -1.94 168 169 172
-13.56 -1.27 -1.93 168 169 172
-13.56 -1.35 -1.93 168 169 172
-13.56 -1.43 -1.93 168 169 172
-13.56 -1.51 -1.93 168 169 172
-13.56 -1.58 -1.93 168 169 172
-13.56 -1.66 -1.93 168 169 172
-13.56 -1.74 -1.93 166 167 170
-13.57 -1.82 -1.92 166 167 170
-13.57 -1.90 -1.91 166 167 170
-13.58 -1.98 -1.90 166 167 170
-13.58 -2.06 -1.90 166 167 170
-13.58 -2.14 -1.90 166 167 170
-13.59 -2.22 -1.89 166 167 170
-13.59 -2.30 -1.88 168 169 172
-13.60 -2.38 -1.88 168 170 170
-13.59 -2.45 -1.89 168 170 170
-13.59 -2.53 -1.88 168 170 170
-13.59 -2.61 -1.88 168 170 170
-13.59 -2.69 -1.89 168 170 170
-13.59 -2.77 -1.88 168 170 170
-13.59 -2.84 -1.89 168 170 170
-13.59 -2.92 -1.89 169 171 171
-13.58 -3.00 -1.89 169 171 171
-13.59 -3.08 -1.88 169 171 171
-13.59 -3.16 -1.89 169 171 171
-13.59 -3.24 -1.89 169 171 171
-13.59 -3.31 -1.88 169 171 171
-13.59 -3.39 -1.88 169 171 171
-13.60 -3.47 -1.87 169 170 173
-13.59 -3.55 -1.88 170 171 174
-13.60 -3.63 -1.88 169 170 173
-13.60 -3.71 -1.87 169 170 173
-13.60 -3.79 -1.86 170 171 176
-13.60 -3.86 -1.87 170 171 176
-13.60 -3.94 -1.87 170 171 176
-13.60 -4.02 -1.87 170 171 176
-13.60 -4.10 -1.87 170 171 176
-13.60 -4.18 -1.87 170 171 176
-13.60 -4.25 -1.88 170 171 176
-13.60 -4.33 -1.88 170 171 176
-13.59 -4.41 -1.88 170 171 176
-13.59 -4.49 -1.89 170 171 176
-13.59 -4.57 -1.89 171 172 177
-13.58 -4.64 -1.90 171 172 177
-13.57 -4.72 -1.91 171 172 177
-13.58 -4.80 -1.90 171 172 177
-13.57 -4.88 -1.91 169 173 175
-13.58 -4.96 -1.90 169 173 175
-13.58 -5.04 -1.90 169 173 175
-13.57 -5.11 -1.91 169 173 175
-13.57 -5.19 -1.91 169 173 175
-13.59 -5.27 -1.88 169 173 175
-13.59 -5.35 -1.88 169 173 175
-13.61 -5.43 -1.86 169 173 175
-13.62 -5.51 -1.84 171 175 177
-13.62 -5.59 -1.84 166 170 172
-13.60 -5.66 -1.86 168 172 174
-13.63 -5.74 -1.82 167 171 173
-13.81 -5.83 -1.56 174 178 180
-14.11 -5.93 -1.12 226 230 232
-14.24 -6.01 -0.92 251 255 255
-14.23 -6.09 -0.94 246 250 252
-14.21 -6.16 -0.98 246 251 250
-14.20 -6.24 -0.98 246 251 250
-14.23 -6.32 -0.95 246 251 250
-14.24 -6.39 -0.93 246 251 250
-14.24 -6.47 -0.94 246 251 250
-14.23 -6.55 -0.95 246 251 250
-14.24 -6.62 -0.93 246 251 250
-14.25 -6.70 -0.91 246 251 250
-14.24 -6.78 -0.92 247 252 251
-14.24 -6.85 -0.92 247 252 251
-14.24 -6.93 -0.94 247 252 251
-14.22 -7.00 -0.96 247 252 251
-14.22 -7.08 -0.96 247 252 251
-14.22 -7.16 -0.96 247 252 251
-14.23 -7.23 -0.95 247 252 251
-14.23 -7.31 -0.95 247 252 251
-14.22 -7.39 -0.95 245 252 250
-14.22 -7.46 -0.96 245 252 250
-14.21 -7.54 -0.97 245 252 250
-14.21 -7.62 -0.98 245 252 250
-14.19 -7.69 -1.00 245 252 250
-14.19 -7.77 -1.00 245 252 250
-14.18 -7.85 -1.01 245 252 250
-14.18 -7.92 -1.02 245 252 250
-14.17 -8.00 -1.04 245 252 250
-14.16 -8.08 -1.05 245 252 250
-14.15 -8.15 -1.06 245 252 250
-14.15 -8.23 -1.06 245 252 250
-14.15 -8.31 -1.07 245 252 250
-14.15 -8.38 -1.07 245 252 250
-14.14 -8.46 -1.07 245 252 250
-14.14 -8.54 -1.08 245 252 250
-14.14 -8.61 -1.08 246 253 251
-14.14 -8.69 -1.08 246 253 251
-14.14 -8.77 -1.07 246 253 251
-14.14 -8.84 -1.07 246 253 251
-14.15 -8.92 -1.06 246 253 251
-14.15 -9.00 -1.06 246 253 251
-14.15 -9.07 -1.06 246 253 251
-14.14 -9.15 -1.07 246 253 251
-14.14 -9.23 -1.07 246 253 251
-14.14 -9.30 -1.08 246 253 251
-14.13 -9.38 -1.08 246 253 251
-14.14 -9.46 -1.08 246 253 251
-14.14 -9.53 -1.08 246 253 251
-14.14 -9.61 -1.08 246 253 251
-14.15 -9.69 -1.06 246 253 251
-14.15 -9.76 -1.06 246 253 251
-14.17 -9.84 -1.04 246 253 251
-14.17 -9.91 -1.03 246 253 251
-14.19 -9.99 -1.00 246 253 251
-14.21 -10.06 -0.98 246 253 251
-14.21 -10.14 -0.97 246 253 251
-14.23 -10.21 -0.95 246 253 251
-14.24 -10.29 -0.93 246 253 251
-14.26 -10.36 -0.91 246 253 251
-14.26 -10.44 -0.90 244 251 249
-14.27 -10.51 -0.89 244 251 249
-14.28 -10.59 -0.88 250 255 255
-14.28 -10.66 -0.87 248 255 253
-14.29 -10.74 -0.85 247 254 252
-14.31 -10.81 -0.83 247 254 252
-14.31 -10.89 -0.83 240 247 245
-14.32 -10.96 -0.81 241 248 246
-14.33 -11.04 -0.80 251 252 255
-14.35 -11.11 -0.77 243 244 247
-14.37 -11.19 -0.74 248 249 252
-14.40 -11.26 -0.70 247 248 251
-14.48 -11.32 -0.57 247 248 251
-14.53 -11.39 -0.50 225 226 229
-14.83 -11.42 -0.06 201 202 205
-15.05 -11.45 0.26 172 173 176
-15.27 -11.49 0.58 86 87 90
-15.37 -11.55 0.72 41 42 45
-15.38 -11.62 0.74 8 9 12
-15.34 -11.70 0.69 7 8 11
-15.31 -11.78 0.64 17 18 21
-15.29 -11.85 0.60 27 28 31
-15.26 -11.93 0.56 37 38 41
-15.25 -12.01 0.55 45 46 49
-15.22 -12.09 0.51 40 43 54
-15.21 -12.16 0.49 39 42 53
-15.20 -12.24 0.48 37 40 51
-15.22 -12.31 0.50 36 39 50
-15.23 -12.38 0.52 29 32 43
-15.25 -12.45 0.55 25 28 39
-15.27 -12.52 0.58 30 33 44
-15.26 -12.59 0.56 40 43 54
-15.26 -12.67 0.56 35 38 49
-15.26 -12.74 0.57 37 40 51
-15.26 -12.81 0.57 34 37 48
-15.26 -12.89 0.57 30 33 44
-15.24 -12.96 0.53 33 36 47
-15.23 -13.04 0.52 34 37 48
-15.21 -13.12 0.49 29 32 43
-15.18 -13.20 0.44 25 28 39
-15.13 -13.28 0.38 23 27 31
