ply
format ascii 1.0
element vertex 1585
property float x
property float y
property float z
property uchar red
property uchar green
property uchar blue
end_header
-2.87 6.07 -5.35 173 173 168
-2.86 5.97 -5.35 173 173 168
-2.86 5.87 -5.36 173 173 168
-2.86 5.77 -5.36 173 173 168
-2.86 5.67 -5.36 173 173 168
-2.86 5.57 -5.36 173 173 168
-2.86 5.48 -5.36 171 173 168
-2.85 5.38 -5.37 171 173 168
-2.85 5.28 -5.38 173 173 168
-2.85 5.18 -5.38 173 173 168
-2.84 5.09 -5.38 173 173 168
-2.84 4.99 -5.39 173 173 168
-2.84 4.89 -5.38 173 173 168
-2.82 4.79 -5.40 173 173 168
-2.83 4.69 -5.40 173 173 168
-2.82 4.60 -5.41 173 173 168
-2.82 4.50 -5.41 173 173 168
-2.82 4.40 -5.40 173 173 168
-2.81 4.30 -5.41 173 173 168
-2.81 4.20 -5.41 173 173 168
-2.80 4.11 -5.43 173 173 168
-2.80 4.01 -5.42 173 173 168
-2.81 3.91 -5.42 173 173 168
-2.81 3.81 -5.42 173 173 168
-2.80 3.71 -5.42 171 173 168
-2.80 3.61 -5.42 171 173 168
-2.79 3.52 -5.43 171 173 168
-2.79 3.42 -5.44 171 173 168
-2.79 3.32 -5.44 171 173 168
-2.79 3.22 -5.44 171 173 168
-2.78 3.12 -5.45 171 173 168
-2.79 3.02 -5.44 171 173 168
-2.79 2.92 -5.44 172 174 169
-2.79 2.82 -5.44 172 174 169
-2.79 2.72 -5.44 172 174 169
-2.78 2.63 -5.45 172 174 169
-2.79 2.53 -5.44 172 174 169
-2.78 0.54 -5.45 172 177 171
-2.78 0.45 -5.45 172 177 171
-2.78 0.35 -5.45 172 177 171
-2.78 0.25 -5.45 172 177 171
-2.79 0.15 -5.44 171 178 171
-2.78 0.05 -5.45 171 178 171
-2.78 -0.05 -5.45 169 179 173
-2.78 -0.25 -5.45 169 179 173
-4.18 -16.83 -3.86 150 152 152
-4.70 -16.78 -3.28 25 27 24
-4.28 -16.99 -3.75 98 100 97
-3.88 -17.20 -4.20 148 151 143
-3.37 -17.43 -4.79 198 201 193
-2.89 -17.66 -5.33 239 242 234
-2.93 -17.85 -5.28 228 231 219
-4.67 -17.45 -3.31 201 204 192
-5.94 -17.18 -1.86 177 180 168
-6.22 -17.19 -1.54 198 201 189
-6.22 -17.28 -1.55 188 192 175
-6.28 -17.35 -1.48 162 166 149
-6.30 -17.43 -1.46 225 227 224
-6.36 -17.50 -1.39 244 246 243
-6.38 -17.59 -1.36 250 252 249
-6.40 -17.67 -1.34 223 225 222
-6.42 -17.75 -1.32 186 188 185
-6.52 -17.81 -1.21 170 172 169
-6.54 -17.89 -1.18 176 178 175
-6.25 -18.08 -1.52 184 186 183
-5.38 -18.45 -2.50 199 201 198
-4.15 -18.93 -3.89 205 207 204
-3.30 -19.31 -4.86 220 222 219
-2.84 -19.95 -5.38 218 220 217
-2.83 -20.06 -5.39 221 223 220
-2.81 -20.16 -5.42 222 224 221
-2.81 -20.26 -5.41 222 224 221
-2.83 -20.35 -5.39 223 225 222
-2.87 -20.44 -5.35 225 227 224
-2.88 -20.53 -5.34 226 228 225
-2.90 -20.62 -5.31 227 229 226
-2.91 -20.72 -5.30 227 229 226
-2.92 -20.81 -5.29 228 230 227
-2.94 -20.91 -5.27 228 230 227
-2.95 -21.00 -5.26 228 230 227
-2.98 -21.09 -5.22 228 230 227
-2.98 -21.19 -5.22 228 230 227
-3.01 -21.28 -5.19 228 230 227
-3.02 -21.37 -5.18 228 230 227
-3.04 -21.46 -5.15 228 230 227
-3.06 -21.55 -5.13 228 230 227
-3.09 -21.64 -5.10 228 230 227
-3.10 -21.73 -5.09 228 230 227
-3.11 -21.83 -5.08 228 230 227
-3.11 -21.92 -5.08 228 230 227
-3.12 -22.02 -5.06 228 230 227
-3.11 -22.12 -5.07 228 230 227
-3.13 -22.21 -5.06 228 230 227
-3.14 -22.31 -5.05 228 230 227
-3.15 -22.40 -5.03 229 231 228
-3.15 -22.50 -5.03 229 231 228
-3.14 -22.60 -5.05 229 231 228
-3.14 -22.70 -5.04 229 231 228
-3.14 -22.79 -5.04 229 231 228
-3.14 -22.90 -5.05 229 231 228
-3.14 -22.99 -5.05 229 231 228
-3.14 -23.09 -5.04 230 232 229
-3.14 -23.19 -5.04 230 232 229
-3.13 -23.29 -5.05 230 232 229
-3.13 -23.39 -5.05 230 232 229
-3.12 -23.49 -5.06 230 232 229
-3.13 -23.59 -5.06 230 232 229
-3.14 -23.68 -5.04 232 234 231
-3.14 -23.78 -5.04 233 235 232
-3.14 -23.88 -5.04 234 236 233
-3.14 -23.97 -5.04 234 236 233
-3.14 -24.07 -5.04 234 236 233
-3.14 -24.17 -5.05 234 236 233
-3.14 -24.27 -5.04 234 236 233
-3.13 -24.37 -5.05 234 236 233
-3.13 -24.47 -5.05 234 236 233
-3.14 -24.56 -5.04 234 236 233
-3.14 -24.66 -5.04 234 236 233
-3.15 -24.75 -5.03 234 236 233
-3.15 -24.85 -5.03 234 236 233
-3.15 -24.95 -5.03 234 236 233
-3.16 -25.04 -5.02 234 236 233
-3.16 -25.14 -5.02 234 236 233
-3.17 -25.24 -5.01 234 236 233
-3.17 -25.33 -5.01 234 236 233
-3.18 -25.43 -5.00 234 236 233
-3.19 -25.52 -4.98 234 236 233
-3.19 -25.62 -4.99 234 236 233
-3.20 -25.71 -4.97 234 236 233
-3.20 -25.81 -4.97 234 236 233
-3.21 -25.90 -4.96 234 236 233
-3.22 -26.00 -4.95 234 236 233
-3.23 -26.09 -4.95 234 236 233
-3.22 -26.19 -4.95 234 236 233
-3.22 -26.29 -4.95 234 236 233
-3.22 -26.39 -4.95 234 236 233
-3.23 -26.48 -4.94 234 236 233
-3.24 -26.57 -4.93 234 236 233
-3.25 -26.67 -4.92 234 236 233
-3.24 -26.77 -4.92 234 236 233
-3.25 -26.86 -4.91 234 236 233
-3.26 -26.95 -4.91 234 236 233
-3.27 -27.04 -4.89 234 236 233
-3.28 -27.14 -4.88 234 236 233
-3.29 -27.23 -4.87 234 236 233
-3.30 -27.32 -4.86 234 236 233
-3.30 -27.42 -4.86 234 236 233
-3.31 -27.51 -4.84 234 236 233
-3.32 -27.61 -4.84 234 236 233
-3.31 -27.71 -4.85 234 236 233
-3.32 -27.80 -4.84 235 237 234
-3.31 -27.90 -4.84 235 237 234
-3.31 -28.00 -4.85 235 237 234
-3.31 -28.10 -4.84 235 237 234
-3.31 -28.20 -4.85 235 237 234
-3.31 -28.29 -4.85 235 237 234
-3.31 -28.39 -4.85 235 237 234
-3.31 -28.49 -4.84 235 237 234
-3.31 -28.58 -4.84 235 237 234
-3.32 -28.68 -4.84 235 237 234
-3.32 -28.78 -4.84 235 237 234
-3.32 -28.87 -4.84 235 237 234
-3.32 -28.97 -4.84 235 237 234
-3.32 -29.07 -4.83 235 237 234
-3.33 -29.16 -4.83 235 237 234
-3.32 -29.26 -4.84 235 237 234
-3.33 -29.36 -4.83 235 237 234
-3.32 -29.46 -4.83 235 237 234
-3.32 -29.56 -4.83 235 237 234
-3.32 -29.65 -4.84 235 237 234
-3.32 -29.75 -4.83 235 237 234
-3.32 -29.85 -4.83 235 237 234
-3.34 -29.94 -4.82 235 237 234
-3.35 -30.03 -4.81 235 237 234
-3.37 -30.11 -4.78 235 237 234
-3.37 -30.21 -4.78 235 237 234
-3.38 -30.30 -4.76 234 236 233
-3.39 -30.40 -4.76 234 236 233
-3.40 -30.49 -4.75 234 236 233
-3.42 -30.57 -4.73 234 236 233
-3.42 -30.67 -4.72 234 236 233
-3.43 -30.76 -4.71 235 237 234
-3.44 -30.85 -4.71 235 237 234
-3.44 -30.94 -4.70 235 237 234
-3.45 -31.04 -4.69 235 237 234
-3.46 -31.13 -4.68 235 237 234
-3.47 -31.22 -4.67 235 237 234
-3.47 -31.32 -4.67 235 237 234
-3.48 -31.41 -4.66 236 238 235
-3.48 -31.51 -4.66 236 238 235
-3.48 -31.60 -4.65 236 238 235
-3.48 -31.70 -4.66 236 238 235
-3.49 -31.79 -4.65 236 238 235
-3.50 -31.88 -4.64 236 238 235
-3.49 -31.98 -4.65 236 238 235
-3.49 -32.08 -4.65 236 238 235
-3.49 -32.17 -4.64 237 239 236
-3.50 -32.27 -4.63 239 241 238
-3.49 -32.37 -4.64 239 241 238
-3.50 -32.46 -4.63 240 242 239
-3.49 -32.57 -4.65 241 243 240
-3.49 -32.67 -4.65 241 243 240
-3.48 -32.77 -4.65 241 243 240
-3.48 -32.86 -4.65 241 243 240
-3.48 -32.96 -4.66 241 243 240
-3.48 -33.06 -4.66 241 243 240
-3.49 -33.15 -4.64 241 243 240
-3.49 -33.25 -4.65 242 244 241
-3.50 -33.34 -4.63 242 244 241
-3.49 -33.44 -4.64 242 244 241
-3.51 -33.53 -4.63 242 244 241
-3.51 -33.62 -4.62 242 244 241
-3.51 -33.72 -4.62 242 244 241
-3.51 -33.82 -4.62 244 246 243
-3.51 -33.92 -4.63 244 246 243
-3.51 -34.01 -4.62 244 246 243
-3.51 -34.11 -4.62 244 246 243
-3.52 -34.20 -4.61 244 246 243
-3.52 -34.30 -4.61 244 246 243
-3.53 -34.38 -4.60 244 246 243
-3.53 -34.48 -4.59 244 246 243
-3.53 -34.58 -4.60 243 245 242
-3.54 -34.67 -4.59 243 245 242
-3.54 -34.76 -4.59 243 245 242
-3.55 -34.85 -4.58 243 245 242
-3.56 -34.94 -4.56 243 245 242
-3.57 -35.03 -4.56 243 245 242
-3.58 -35.13 -4.55 243 245 242
-3.59 -35.21 -4.53 246 248 245
-3.59 -35.31 -4.53 248 250 247
-3.60 -35.40 -4.52 248 250 247
-3.60 -35.50 -4.52 248 250 247
-3.60 -35.59 -4.52 248 250 247
-3.61 -35.68 -4.51 248 250 247
-3.61 -35.78 -4.51 248 250 247
-3.62 -35.87 -4.50 248 250 247
-3.62 -35.96 -4.49 248 250 247
-3.62 -36.06 -4.50 248 250 247
-3.62 -36.16 -4.50 248 250 247
-3.60 -36.27 -4.52 248 250 247
-3.60 -36.36 -4.52 248 250 247
-3.61 -36.45 -4.50 248 250 247
-3.62 -36.55 -4.50 248 250 247
-3.62 -36.64 -4.49 248 250 247
-3.63 -36.73 -4.49 248 250 247
-3.60 -36.85 -4.52 250 250 247
-3.58 -36.96 -4.54 245 245 242
-3.57 -37.07 -4.55 245 243 241
-3.56 -37.18 -4.57 253 251 249
-3.52 -37.30 -4.61 238 231 231
-3.70 23.59 -4.54 142 133 125
-3.65 23.53 -4.60 142 133 125
-3.66 23.43 -4.59 142 133 125
-3.64 23.35 -4.61 142 133 125
-3.66 23.24 -4.59 142 133 125
-3.66 23.14 -4.59 142 133 125
-3.64 23.06 -4.61 142 133 125
-3.64 22.96 -4.62 143 134 126
-3.65 22.85 -4.60 143 134 126
-3.65 22.76 -4.60 143 134 126
-3.66 22.66 -4.60 143 134 126
-3.66 22.56 -4.60 143 134 126
-3.65 22.47 -4.60 144 135 127
-3.65 22.37 -4.60 144 135 127
-3.66 22.27 -4.59 144 135 127
-3.65 22.18 -4.60 144 135 127
-3.67 22.07 -4.58 142 136 127
-3.67 21.97 -4.58 143 137 128
-3.67 21.87 -4.58 143 137 128
-3.67 21.77 -4.58 143 137 128
-3.67 21.68 -4.58 143 137 128
-3.67 21.58 -4.58 143 137 128
-3.67 21.49 -4.58 143 137 128
-3.66 21.40 -4.59 144 138 129
-3.65 21.31 -4.60 146 140 131
-3.64 21.21 -4.61 146 140 131
-3.63 21.12 -4.62 146 140 131
-3.63 21.03 -4.63 146 140 131
-3.62 20.94 -4.63 146 140 131
-3.61 20.85 -4.65 146 140 131
-3.60 20.76 -4.65 145 141 131
-3.58 20.68 -4.68 145 141 131
-3.58 20.59 -4.69 146 142 134
-3.56 20.50 -4.70 146 142 134
-3.54 20.42 -4.72 147 141 134
-3.54 20.33 -4.73 147 141 134
-3.53 20.23 -4.74 147 141 134
-3.51 20.15 -4.76 147 141 134
-3.50 20.06 -4.77 148 142 135
-3.49 19.97 -4.78 148 142 135
-3.48 19.88 -4.79 147 141 134
-3.47 19.79 -4.80 147 141 134
-3.47 19.70 -4.81 147 141 134
-3.46 19.60 -4.81 147 141 134
-3.45 19.51 -4.82 147 141 134
-3.45 19.42 -4.82 147 141 134
-3.44 19.33 -4.84 148 142 135
-3.44 19.23 -4.84 148 142 135
-3.43 19.14 -4.86 147 143 135
-3.41 19.06 -4.87 148 144 136
-3.41 18.96 -4.87 148 144 136
-3.40 18.87 -4.89 149 145 137
-3.40 18.77 -4.89 149 145 137
-3.38 18.69 -4.90 150 146 138
-3.38 18.59 -4.91 150 146 138
-3.36 18.51 -4.93 152 148 140
-3.35 18.41 -4.94 152 148 140
-3.36 18.31 -4.93 152 148 140
-3.35 18.22 -4.95 152 148 140
-3.35 18.13 -4.95 152 148 140
-3.34 18.03 -4.95 152 148 138
-3.34 17.94 -4.96 152 148 138
-3.34 17.84 -4.96 152 148 138
-3.33 17.75 -4.96 152 148 138
-3.33 17.65 -4.97 152 148 138
-3.32 17.56 -4.98 153 149 139
-3.32 17.46 -4.98 153 149 139
-3.32 17.36 -4.98 153 149 139
-3.32 17.27 -4.98 153 149 139
-3.32 17.17 -4.98 153 149 139
-3.31 17.08 -4.99 154 150 140
-3.31 16.98 -4.98 154 150 140
-3.31 16.88 -4.99 154 150 140
-3.31 16.78 -4.99 154 150 140
-3.31 16.69 -4.99 154 150 142
-3.29 16.60 -5.01 154 150 142
-3.29 16.50 -5.01 154 150 142
-3.28 16.41 -5.02 154 150 142
-3.28 16.31 -5.02 155 151 143
-3.27 16.22 -5.03 156 152 144
-3.27 16.12 -5.03 153 152 143
-3.27 16.03 -5.04 153 152 143
-3.26 15.93 -5.04 153 152 143
-3.26 15.83 -5.04 153 152 143
-3.25 15.74 -5.06 153 152 143
-3.26 15.64 -5.04 153 152 143
-3.26 15.54 -5.05 153 152 143
-3.26 15.44 -5.05 155 154 145
-3.26 15.35 -5.05 157 156 147
-3.25 15.25 -5.05 157 156 147
-3.25 15.15 -5.05 157 156 147
-3.25 15.06 -5.06 157 156 147
-3.25 14.96 -5.05 157 156 147
-3.24 14.87 -5.07 157 156 147
-3.24 14.77 -5.06 157 156 147
-3.24 14.67 -5.07 158 157 148
-3.23 14.58 -5.08 159 155 147
-3.23 14.48 -5.07 160 156 148
-3.22 14.39 -5.09 160 156 148
-3.23 14.29 -5.08 160 156 148
-3.22 14.20 -5.10 160 156 148
-3.22 14.10 -5.09 160 156 148
-3.22 14.00 -5.10 160 156 148
-3.22 13.90 -5.09 160 156 148
-3.22 13.80 -5.09 160 156 148
-3.22 13.70 -5.09 161 157 149
-3.22 13.61 -5.09 161 157 149
-3.21 13.51 -5.10 161 157 149
-3.22 13.41 -5.10 161 157 149
-3.22 13.31 -5.09 161 157 149
-3.22 13.21 -5.09 161 157 149
-3.22 13.11 -5.09 161 157 149
-3.22 13.02 -5.09 160 159 150
-3.21 12.92 -5.10 160 159 150
-3.22 12.82 -5.10 160 159 150
-3.22 12.72 -5.10 160 159 150
-3.21 12.63 -5.10 160 159 150
-3.21 12.53 -5.11 162 161 152
-3.20 12.44 -5.12 164 163 154
-3.19 12.35 -5.13 164 163 154
-3.18 12.25 -5.13 164 163 154
-3.17 12.16 -5.14 164 163 154
-3.17 12.06 -5.15 163 164 154
-3.16 11.97 -5.16 163 164 154
-3.16 11.87 -5.16 163 164 152
-3.15 11.78 -5.17 164 165 153
-3.14 11.68 -5.18 165 164 153
-3.14 11.59 -5.18 165 164 153
-3.14 11.49 -5.19 165 164 153
-3.13 11.39 -5.19 165 164 153
-3.13 11.30 -5.19 165 164 153
-3.13 11.20 -5.20 165 164 153
-3.12 11.10 -5.20 165 164 153
-3.11 11.01 -5.21 165 164 153
-3.12 10.91 -5.21 165 164 153
-3.11 10.82 -5.22 165 164 153
-3.11 10.72 -5.22 165 164 153
-3.11 10.62 -5.22 165 164 153
-3.11 10.52 -5.22 165 164 153
-3.11 10.42 -5.22 165 164 153
-3.10 10.33 -5.23 165 164 153
-3.10 10.23 -5.23 165 164 153
-3.09 10.13 -5.23 165 164 153
-3.10 10.03 -5.23 165 164 153
-3.09 9.94 -5.24 166 167 157
-3.09 9.84 -5.24 166 167 157
-3.10 9.74 -5.23 166 167 157
-3.10 9.64 -5.23 166 167 157
-3.11 9.54 -5.22 166 167 157
-3.10 9.44 -5.22 166 167 157
-3.10 9.34 -5.23 166 167 157
-3.09 9.25 -5.24 167 168 158
-3.09 9.15 -5.24 168 169 159
-3.09 9.05 -5.24 168 169 159
-3.08 8.96 -5.25 168 169 159
-3.08 8.86 -5.25 168 169 159
-3.08 8.76 -5.25 168 169 159
-3.07 8.67 -5.26 170 171 161
-3.07 8.57 -5.26 170 171 163
-3.06 8.48 -5.27 170 171 163
-3.07 8.37 -5.27 170 171 163
-3.07 8.28 -5.27 170 171 163
-3.06 8.18 -5.27 170 171 163
-3.06 8.08 -5.27 170 171 163
-3.05 7.99 -5.28 170 171 163
-3.05 7.89 -5.28 170 171 163
-3.05 7.79 -5.28 170 171 163
-3.06 7.69 -5.28 170 171 163
-3.05 7.59 -5.28 170 171 163
-3.04 7.50 -5.29 170 171 163
-3.04 7.40 -5.29 170 171 163
-3.04 7.30 -5.30 170 171 163
-3.03 7.21 -5.30 170 171 163
-3.03 7.11 -5.31 171 172 164
-3.03 7.01 -5.31 171 172 164
-3.03 6.91 -5.31 171 172 164
-3.03 6.81 -5.31 171 171 166
-3.03 6.71 -5.30 171 171 166
-3.03 6.61 -5.31 171 171 166
-3.03 6.52 -5.30 171 171 166
-3.03 6.42 -5.31 171 171 166
-3.03 6.32 -5.30 171 171 166
-3.03 6.22 -5.31 171 171 166
-3.02 6.12 -5.31 172 172 167
-3.02 6.03 -5.31 173 173 168
-3.02 5.93 -5.31 173 173 168
-3.02 5.83 -5.32 173 173 168
-3.02 5.73 -5.32 173 173 168
-3.02 5.63 -5.31 173 173 168
-3.03 5.53 -5.31 173 173 168
-3.02 5.44 -5.32 173 173 168
-3.01 5.34 -5.33 174 174 169
-3.00 5.24 -5.34 173 173 168
-3.00 5.15 -5.35 173 173 168
-3.00 5.05 -5.35 173 173 168
-2.99 4.95 -5.35 173 173 168
-2.99 4.85 -5.35 173 173 168
-2.98 4.76 -5.37 173 173 168
-2.98 4.66 -5.36 173 173 168
-2.98 4.56 -5.37 173 173 168
-2.98 4.46 -5.37 173 173 168
-2.98 4.36 -5.37 173 173 168
-2.98 4.27 -5.37 173 173 168
-2.98 4.17 -5.36 173 173 168
-2.97 4.07 -5.38 173 173 168
-2.97 3.97 -5.38 173 173 168
-2.97 3.87 -5.38 173 173 168
-2.97 3.77 -5.37 173 173 168
-2.97 3.68 -5.38 171 173 168
-2.96 3.58 -5.38 171 173 168
-2.96 3.48 -5.39 171 173 168
-2.96 3.38 -5.39 171 173 168
-2.96 3.28 -5.39 171 173 168
-2.96 3.19 -5.39 171 173 168
-2.94 3.09 -5.41 171 173 168
-2.94 2.99 -5.41 171 173 168
-2.95 2.89 -5.40 172 174 169
-2.94 2.79 -5.41 172 174 169
-2.95 2.69 -5.40 172 174 169
-2.93 2.60 -5.42 172 174 169
-2.95 2.50 -5.40 172 174 169
-2.93 2.40 -5.42 172 174 169
-2.94 2.30 -5.41 170 175 169
-2.93 2.21 -5.42 170 175 169
-2.93 2.11 -5.42 170 175 169
-2.93 2.01 -5.42 171 176 170
-2.92 1.91 -5.43 172 177 171
-2.93 1.81 -5.42 172 177 171
-2.93 1.71 -5.42 172 177 171
-2.94 1.61 -5.41 172 177 171
-2.93 1.51 -5.42 172 177 171
-2.94 1.41 -5.41 172 177 171
-2.94 1.31 -5.41 172 177 171
-2.94 1.21 -5.41 172 177 171
-2.94 1.11 -5.41 171 176 170
-2.94 1.02 -5.41 171 176 170
-2.94 0.92 -5.41 171 176 170
-2.94 0.82 -5.41 171 176 170
-2.95 0.72 -5.40 171 176 170
-2.94 0.62 -5.41 171 176 170
-2.95 0.52 -5.40 172 177 171
-2.95 0.42 -5.39 172 177 171
-2.95 0.32 -5.39 172 177 171
-2.95 0.22 -5.40 172 177 171
-2.95 0.13 -5.40 171 178 171
-2.95 0.03 -5.40 171 178 171
-2.95 -0.07 -5.40 169 179 173
-2.94 -0.17 -5.41 169 179 173
-2.94 -0.27 -5.41 169 179 173
-2.94 -0.37 -5.41 169 179 173
-2.94 -0.47 -5.41 169 179 173
-2.94 -0.57 -5.41 169 179 173
-2.94 -0.66 -5.41 169 179 173
-2.93 -0.76 -5.42 171 181 175
-2.94 -0.86 -5.41 171 181 173
-2.94 -0.96 -5.41 171 181 173
-2.93 -1.06 -5.42 171 181 175
-2.94 -1.16 -5.41 171 181 175
-2.93 -1.26 -5.42 171 181 175
-2.93 -1.35 -5.42 171 181 175
-2.94 -1.45 -5.41 171 181 175
-2.94 -1.55 -5.41 171 181 175
-2.94 -1.65 -5.41 171 181 175
-2.94 -1.75 -5.41 171 181 175
-2.94 -1.85 -5.41 172 182 176
-2.93 -1.95 -5.42 172 182 176
-2.94 -2.05 -5.41 172 182 176
-2.93 -2.15 -5.42 172 182 176
-2.92 -2.24 -5.43 172 182 176
-2.92 -2.34 -5.43 172 182 176
-2.91 -2.44 -5.44 172 182 176
-2.92 -2.54 -5.44 172 182 176
-2.91 -2.64 -5.44 172 182 176
-2.91 -2.74 -5.44 172 182 176
-2.91 -2.83 -5.44 172 182 176
-2.91 -2.93 -5.45 172 182 176
-2.92 -3.03 -5.44 175 182 177
-2.91 -3.13 -5.45 175 182 177
-2.91 -3.23 -5.45 175 182 177
-2.91 -3.33 -5.45 175 182 177
-3.03 -17.05 -5.31 243 243 240
-4.57 -16.74 -3.55 114 114 111
-5.12 -16.68 -2.93 53 53 48
-4.82 -16.86 -3.27 111 111 106
-4.57 -17.02 -3.56 93 94 84
-3.95 -17.29 -4.26 131 132 122
-3.26 -17.57 -5.04 208 209 199
-3.23 -17.68 -5.08 210 211 201
-4.32 -17.47 -3.84 211 213 198
-5.81 -17.14 -2.14 193 195 180
-6.34 -17.07 -1.54 186 188 171
-6.38 -17.15 -1.50 197 199 182
-6.37 -17.24 -1.50 178 181 161
-6.39 -17.33 -1.48 179 182 162
-6.46 -17.40 -1.40 186 188 185
-6.49 -17.48 -1.36 213 215 212
-6.54 -17.55 -1.31 247 249 246
-6.59 -17.63 -1.26 255 255 254
-6.59 -17.72 -1.26 243 245 242
-6.60 -17.80 -1.25 240 242 239
-6.63 -17.88 -1.21 240 242 239
-6.66 -17.96 -1.17 228 230 227
-6.64 -18.06 -1.20 192 194 191
-6.31 -18.25 -1.58 187 189 186
-5.70 -18.54 -2.27 185 187 184
-4.66 -18.97 -3.45 197 199 196
-3.91 -19.32 -4.31 218 220 217
-3.23 -19.64 -5.08 229 231 228
-2.98 -19.82 -5.37 223 225 222
-3.02 -19.91 -5.32 221 223 220
-3.11 -19.98 -5.22 219 221 218
-3.09 -20.08 -5.24 220 222 219
-3.08 -20.18 -5.25 222 224 221
-3.05 -20.29 -5.28 223 225 222
-3.06 -20.39 -5.28 223 225 222
-3.05 -20.49 -5.29 226 228 225
-3.04 -20.59 -5.29 227 229 226
-3.05 -20.69 -5.28 228 230 227
-3.08 -20.77 -5.25 227 229 226
-3.09 -20.87 -5.24 227 229 226
-3.13 -20.95 -5.20 227 229 226
-3.15 -21.04 -5.17 227 229 226
-3.16 -21.14 -5.16 227 229 226
-3.17 -21.23 -5.15 227 229 226
-3.21 -21.32 -5.11 227 229 226
-3.23 -21.41 -5.08 228 230 227
-3.26 -21.49 -5.05 227 229 226
-3.27 -21.59 -5.03 228 230 227
-3.29 -21.68 -5.01 228 230 227
-3.30 -21.77 -5.00 228 230 227
-3.31 -21.87 -4.99 228 230 227
-3.32 -21.96 -4.98 228 230 227
-3.32 -22.06 -4.98 228 230 227
-3.32 -22.15 -4.97 228 230 227
-3.33 -22.25 -4.97 228 230 227
-3.34 -22.34 -4.96 229 231 228
-3.34 -22.44 -4.95 229 231 228
-3.34 -22.54 -4.96 229 231 228
-3.33 -22.64 -4.97 229 231 228
-3.34 -22.73 -4.96 229 231 228
-3.33 -22.84 -4.97 229 231 228
-3.32 -22.94 -4.98 229 231 228
-3.32 -23.04 -4.98 230 232 229
-3.32 -23.13 -4.98 230 232 229
-3.32 -23.23 -4.98 230 232 229
-3.31 -23.33 -4.98 230 232 229
-3.31 -23.43 -4.99 230 232 229
-3.31 -23.53 -4.99 230 232 229
-3.33 -23.62 -4.97 230 232 229
-3.32 -23.72 -4.98 233 235 232
-3.31 -23.82 -4.99 234 236 233
-3.30 -23.92 -5.00 234 236 233
-3.31 -24.02 -4.99 234 236 233
-3.32 -24.11 -4.98 234 236 233
-3.31 -24.21 -4.98 234 236 233
-3.31 -24.31 -4.98 234 236 233
-3.31 -24.41 -4.99 234 236 233
-3.31 -24.50 -4.98 234 236 233
-3.31 -24.60 -4.99 234 236 233
-3.31 -24.70 -4.98 234 236 233
-3.31 -24.80 -4.98 234 236 233
-3.32 -24.89 -4.98 234 236 233
-3.33 -24.99 -4.97 234 236 233
-3.33 -25.08 -4.96 234 236 233
-3.33 -25.18 -4.96 234 236 233
-3.34 -25.28 -4.96 234 236 233
-3.35 -25.37 -4.95 234 236 233
-3.36 -25.46 -4.93 234 236 233
-3.37 -25.55 -4.93 233 235 232
-3.38 -25.65 -4.91 233 235 232
-3.38 -25.74 -4.91 233 235 232
-3.39 -25.83 -4.90 233 235 232
-3.39 -25.93 -4.90 233 235 232
-3.39 -26.03 -4.89 233 235 232
-3.39 -26.13 -4.89 233 235 232
-3.39 -26.23 -4.90 233 235 232
-3.40 -26.32 -4.89 233 235 232
-3.40 -26.42 -4.89 233 235 232
-3.41 -26.51 -4.87 233 235 232
-3.42 -26.60 -4.86 233 235 232
-3.42 -26.70 -4.86 233 235 232
-3.43 -26.79 -4.85 233 235 232
-3.43 -26.89 -4.85 233 235 232
-3.45 -26.98 -4.83 233 235 232
-3.45 -27.07 -4.83 233 235 232
-3.46 -27.16 -4.81 233 235 232
-3.47 -27.25 -4.80 233 235 232
-3.48 -27.35 -4.80 233 235 232
-3.48 -27.44 -4.79 233 235 232
-3.49 -27.54 -4.79 233 235 232
-3.49 -27.64 -4.79 233 235 232
-3.49 -27.73 -4.78 234 236 233
-3.49 -27.83 -4.79 235 237 234
-3.49 -27.93 -4.79 235 237 234
-3.48 -28.03 -4.80 235 237 234
-3.48 -28.13 -4.79 235 237 234
-3.48 -28.23 -4.80 235 237 234
-3.48 -28.32 -4.80 235 237 234
-3.48 -28.42 -4.79 235 237 234
-3.48 -28.52 -4.79 235 237 234
-3.48 -28.61 -4.79 235 237 234
-3.49 -28.71 -4.78 235 237 234
-3.49 -28.80 -4.78 235 237 234
-3.50 -28.90 -4.78 235 237 234
-3.50 -28.99 -4.77 235 237 234
-3.50 -29.09 -4.77 235 237 234
-3.50 -29.19 -4.77 234 236 233
-3.50 -29.28 -4.77 234 236 233
-3.50 -29.38 -4.77 235 237 234
-3.50 -29.48 -4.77 235 237 234
-3.51 -29.57 -4.77 235 237 234
-3.51 -29.67 -4.76 235 237 234
-3.51 -29.76 -4.76 235 237 234
-3.51 -29.86 -4.76 235 237 234
-3.52 -29.95 -4.75 235 237 234
-3.53 -30.04 -4.73 235 237 234
-3.54 -30.13 -4.72 235 237 234
-3.57 -30.22 -4.70 234 236 233
-3.57 -30.31 -4.70 234 236 233
-3.57 -30.41 -4.69 234 236 233
-3.58 -30.50 -4.68 234 236 233
-3.58 -30.59 -4.68 234 236 233
-3.60 -30.68 -4.66 235 237 234
-3.60 -30.78 -4.66 235 237 234
-3.61 -30.87 -4.65 235 237 234
-3.61 -30.96 -4.64 235 237 234
-3.61 -31.06 -4.64 235 237 234
-3.63 -31.15 -4.62 235 237 234
-3.63 -31.24 -4.62 235 237 234
-3.63 -31.34 -4.62 235 237 234
-3.63 -31.43 -4.62 235 237 234
-3.64 -31.52 -4.61 235 237 234
-3.64 -31.62 -4.61 235 237 234
-3.65 -31.71 -4.60 235 237 234
-3.66 -31.81 -4.60 235 237 234
-3.66 -31.90 -4.60 235 237 234
-3.66 -32.00 -4.59 235 237 234
-3.67 -32.09 -4.58 236 238 235
-3.67 -32.19 -4.58 236 238 235
-3.66 -32.29 -4.59 237 239 236
-3.67 -32.38 -4.58 240 242 239
-3.66 -32.48 -4.59 241 243 240
-3.67 -32.57 -4.58 241 243 240
-3.66 -32.68 -4.59 241 243 240
-3.66 -32.77 -4.59 241 243 240
-3.66 -32.87 -4.60 241 243 240
-3.66 -32.97 -4.60 241 243 240
-3.66 -33.06 -4.59 241 243 240
-3.66 -33.16 -4.59 242 244 241
-3.67 -33.25 -4.58 242 244 241
-3.67 -33.35 -4.58 242 244 241
-3.69 -33.43 -4.56 242 244 241
-3.68 -33.53 -4.56 242 244 241
-3.69 -33.63 -4.56 242 244 241
-3.69 -33.72 -4.55 244 246 243
-3.68 -33.82 -4.56 244 246 243
-3.69 -33.91 -4.55 244 246 243
-3.68 -34.02 -4.56 244 246 243
-3.70 -34.10 -4.55 244 246 243
-3.69 -34.20 -4.56 244 246 243
-3.70 -34.29 -4.54 244 246 243
-3.71 -34.39 -4.54 244 246 243
-3.71 -34.48 -4.53 243 245 242
-3.72 -34.57 -4.53 243 245 242
-3.72 -34.66 -4.52 243 245 242
-3.72 -34.76 -4.52 243 245 242
-3.74 -34.84 -4.50 243 245 242
-3.74 -34.94 -4.50 243 245 242
-3.75 -35.03 -4.48 243 245 242
-3.76 -35.12 -4.48 246 248 245
-3.76 -35.21 -4.48 248 250 247
-3.77 -35.30 -4.46 248 250 247
-3.77 -35.40 -4.46 248 250 247
-3.78 -35.49 -4.46 248 250 247
-3.79 -35.58 -4.44 248 250 247
-3.80 -35.67 -4.43 248 250 247
-3.80 -35.76 -4.43 248 250 247
-3.82 -35.85 -4.41 248 250 247
-3.81 -35.95 -4.42 248 250 247
-3.80 -36.06 -4.44 248 250 247
-3.79 -36.16 -4.45 248 250 247
-3.79 -36.26 -4.45 248 250 247
-3.79 -36.35 -4.44 248 250 247
-3.80 -36.44 -4.43 248 250 247
-3.80 -36.53 -4.43 248 250 247
-3.82 -36.61 -4.41 248 250 247
-3.80 -36.73 -4.43 248 250 247
-3.76 -36.86 -4.48 241 243 240
-3.77 -36.94 -4.46 246 246 243
-3.71 -37.09 -4.53 249 249 246
-4.01 -36.94 -4.20 244 242 240
-3.86 23.49 -4.50 142 133 125
-3.81 23.44 -4.56 142 133 125
-3.82 23.34 -4.55 142 133 125
-3.79 23.26 -4.58 142 133 125
-3.81 23.15 -4.56 142 133 125
-3.81 23.05 -4.55 142 133 125
-3.80 22.97 -4.57 142 133 125
-3.79 22.87 -4.58 143 134 126
-3.81 22.77 -4.56 143 134 126
-3.81 22.67 -4.56 143 134 126
-3.81 22.57 -4.56 143 134 126
-3.81 22.48 -4.56 143 134 126
-3.80 22.38 -4.56 143 134 126
-3.80 22.29 -4.57 143 134 126
-3.80 22.19 -4.56 143 134 126
-3.79 22.10 -4.58 144 135 127
-3.80 22.00 -4.56 142 136 127
-3.80 21.90 -4.57 143 137 128
-3.81 21.80 -4.56 143 137 128
-3.81 21.70 -4.56 143 137 128
-3.81 21.60 -4.56 143 137 128
-3.81 21.51 -4.56 143 137 128
-3.81 21.41 -4.56 143 137 128
-3.80 21.32 -4.56 144 138 129
-3.80 21.22 -4.57 146 140 131
-3.79 21.14 -4.58 146 140 131
-3.78 21.05 -4.59 146 140 131
-3.77 20.95 -4.60 146 140 131
-3.76 20.87 -4.61 146 140 131
-3.75 20.78 -4.62 146 140 131
-3.74 20.69 -4.63 145 141 131
-3.73 20.60 -4.64 145 141 131
-3.72 20.51 -4.66 145 141 133
-3.71 20.43 -4.68 146 142 134
-3.69 20.34 -4.69 147 141 134
-3.68 20.25 -4.70 147 141 134
-3.68 20.16 -4.71 147 141 134
-3.66 20.07 -4.73 148 142 135
-3.65 19.99 -4.74 148 142 135
-3.64 19.90 -4.76 148 142 135
-3.62 19.81 -4.77 148 142 135
-3.62 19.71 -4.77 147 141 134
-3.61 19.62 -4.78 147 141 134
-3.61 19.53 -4.78 147 141 134
-3.60 19.44 -4.80 147 141 134
-3.60 19.34 -4.80 148 142 135
-3.59 19.25 -4.81 149 143 136
-3.59 19.16 -4.81 149 143 136
-3.58 19.06 -4.82 147 143 135
-3.57 18.98 -4.83 148 144 136
-3.56 18.88 -4.84 148 144 136
-3.55 18.80 -4.86 149 145 137
-3.55 18.70 -4.86 149 145 137
-3.54 18.61 -4.87 150 146 138
-3.53 18.52 -4.88 150 146 138
-3.51 18.43 -4.90 152 148 140
-3.50 18.35 -4.91 152 148 140
-3.50 18.24 -4.91 152 148 140
-3.49 18.15 -4.92 152 148 140
-3.50 18.05 -4.91 152 148 140
-3.50 17.96 -4.91 152 148 138
-3.49 17.86 -4.92 152 148 138
-3.49 17.77 -4.93 152 148 138
-3.48 17.68 -4.94 152 148 138
-3.48 17.58 -4.94 153 149 139
-3.48 17.48 -4.94 153 149 139
-3.47 17.39 -4.94 153 149 139
-3.47 17.29 -4.94 154 150 140
-3.47 17.19 -4.94 154 150 140
-3.48 17.09 -4.94 154 150 140
-3.47 17.00 -4.95 154 150 140
-3.47 16.90 -4.95 154 150 140
-3.46 16.81 -4.95 154 150 140
-3.45 16.72 -4.96 154 150 140
-3.45 16.62 -4.97 154 150 142
-3.45 16.53 -4.97 154 150 142
-3.44 16.44 -4.98 155 151 143
-3.43 16.34 -4.99 155 151 143
-3.43 16.24 -4.99 155 151 143
-3.42 16.15 -5.00 155 151 143
-3.42 16.06 -5.00 153 152 143
-3.42 15.96 -5.01 153 152 143
-3.41 15.87 -5.01 153 152 143
-3.42 15.76 -5.00 153 152 143
-3.41 15.68 -5.02 153 152 143
-3.42 15.57 -5.00 153 152 143
-3.41 15.48 -5.01 153 152 143
-3.42 15.37 -5.00 155 154 145
-3.42 15.28 -5.01 157 156 147
-3.40 15.19 -5.02 157 156 147
-3.41 15.09 -5.02 157 156 147
-3.40 14.99 -5.02 157 156 147
-3.40 14.90 -5.03 157 156 147
-3.40 14.80 -5.03 157 156 147
-3.39 14.71 -5.03 157 156 147
-3.39 14.61 -5.04 158 157 148
-3.38 14.52 -5.05 159 155 147
-3.39 14.42 -5.04 159 155 147
-3.37 14.33 -5.06 159 155 147
-3.37 14.23 -5.06 159 155 147
-3.37 14.13 -5.05 159 155 147
-3.37 14.04 -5.06 160 156 148
-3.37 13.94 -5.06 160 156 148
-3.37 13.84 -5.06 160 156 148
-3.37 13.74 -5.06 160 156 148
-3.37 13.64 -5.06 160 156 148
-3.37 13.55 -5.06 160 156 148
-3.37 13.45 -5.06 161 157 149
-3.37 13.35 -5.06 161 157 149
-3.37 13.25 -5.06 161 157 149
-3.37 13.15 -5.05 161 157 149
-3.37 13.06 -5.06 161 157 149
-3.37 12.96 -5.06 160 159 150
-3.37 12.86 -5.06 160 159 150
-3.37 12.76 -5.06 160 159 150
-3.36 12.67 -5.07 161 160 151
-3.36 12.58 -5.07 161 160 151
-3.36 12.48 -5.07 161 160 151
-3.35 12.38 -5.08 162 161 152
-3.34 12.29 -5.09 164 163 154
-3.34 12.20 -5.10 164 163 154
-3.33 12.10 -5.11 164 163 154
-3.32 12.01 -5.12 163 164 154
-3.30 11.92 -5.13 163 164 154
-3.31 11.82 -5.13 163 164 152
-3.30 11.72 -5.14 163 164 152
-3.30 11.63 -5.14 165 164 153
-3.30 11.53 -5.14 165 164 153
-3.29 11.44 -5.15 165 164 153
-3.29 11.34 -5.15 165 164 153
-3.29 11.24 -5.16 165 164 153
-3.28 11.15 -5.17 165 164 153
-3.27 11.05 -5.17 165 164 153
-3.26 10.96 -5.18 165 164 153
-3.27 10.86 -5.18 165 164 153
-3.25 10.77 -5.19 165 164 153
-3.26 10.67 -5.19 165 164 153
-3.26 10.57 -5.19 165 164 153
-3.25 10.47 -5.19 165 164 153
-3.26 10.37 -5.19 165 164 153
-3.25 10.28 -5.19 165 164 153
-3.25 10.18 -5.19 165 164 153
-3.25 10.08 -5.19 165 164 153
-3.25 9.98 -5.19 165 164 153
-3.25 9.89 -5.20 165 166 156
-3.24 9.79 -5.20 165 166 156
-3.24 9.70 -5.21 165 166 156
-3.25 9.59 -5.19 165 166 156
-3.26 9.49 -5.19 166 167 157
-3.25 9.39 -5.19 166 167 157
-3.25 9.30 -5.19 166 167 157
-3.25 9.20 -5.19 167 168 158
-3.25 9.10 -5.20 167 168 158
-3.25 9.00 -5.20 167 168 158
-3.24 8.91 -5.21 167 168 158
-3.24 8.81 -5.21 167 168 158
-3.24 8.72 -5.21 168 169 159
-3.23 8.62 -5.22 170 171 161
-3.23 8.52 -5.22 170 171 163
-3.23 8.43 -5.22 170 171 163
-3.22 8.33 -5.23 170 171 163
-3.22 8.23 -5.23 170 171 163
-3.21 8.13 -5.24 170 171 163
-3.23 8.03 -5.22 170 171 163
-3.21 7.94 -5.24 170 171 163
-3.21 7.84 -5.24 170 171 163
-3.21 7.74 -5.24 170 171 163
-3.21 7.64 -5.24 170 171 163
-3.21 7.55 -5.24 170 171 163
-3.21 7.45 -5.25 170 171 163
-3.20 7.35 -5.25 170 171 163
-3.19 7.26 -5.26 170 171 163
-3.19 7.16 -5.27 170 171 163
-3.18 7.07 -5.27 171 172 164
-3.19 6.97 -5.27 171 172 164
-3.19 6.87 -5.27 171 172 164
-3.18 6.77 -5.28 171 171 166
-3.19 6.67 -5.27 171 171 166
-3.19 6.57 -5.27 171 171 166
-3.19 6.47 -5.26 171 171 166
-3.19 6.38 -5.27 171 171 166
-3.19 6.28 -5.26 171 171 166
-3.19 6.18 -5.27 171 171 166
-3.18 6.08 -5.28 172 172 167
-3.19 5.98 -5.27 172 172 167
-3.18 5.89 -5.28 172 172 167
-3.18 5.79 -5.28 172 172 167
-3.18 5.69 -5.28 172 172 167
-3.18 5.59 -5.27 172 172 167
-3.18 5.49 -5.28 172 172 167
-3.18 5.40 -5.28 172 172 167
-3.17 5.30 -5.29 173 173 168
-3.16 5.21 -5.29 173 173 168
-3.16 5.11 -5.30 173 173 168
-3.15 5.01 -5.31 173 173 168
-3.14 4.92 -5.32 173 173 168
-3.14 4.82 -5.32 173 173 168
-3.13 4.73 -5.33 173 173 168
-3.13 4.63 -5.33 173 173 168
-3.14 4.53 -5.33 173 173 168
-3.13 4.43 -5.33 173 173 168
-3.13 4.33 -5.33 173 173 168
-3.13 4.23 -5.34 173 173 168
-3.13 4.13 -5.33 173 173 168
-3.14 4.03 -5.33 173 173 168
-3.13 3.94 -5.33 173 173 168
-3.13 3.84 -5.33 173 173 168
-3.12 3.74 -5.34 173 173 168
-3.12 3.64 -5.34 171 173 168
-3.12 3.55 -5.34 171 173 168
-3.12 3.45 -5.35 171 173 168
-3.12 3.35 -5.34 171 173 168
-3.11 3.25 -5.35 171 173 168
-3.12 3.15 -5.35 171 173 168
-3.11 3.06 -5.35 171 173 168
-3.10 2.96 -5.36 171 173 168
-3.11 2.86 -5.36 171 173 168
-3.10 2.76 -5.37 171 173 168
-3.10 2.67 -5.37 171 173 168
-3.09 2.57 -5.38 171 173 168
-3.10 2.47 -5.37 171 173 168
-3.09 2.37 -5.38 171 173 168
-3.09 2.27 -5.38 169 174 168
-3.09 2.18 -5.38 170 175 169
-3.08 2.08 -5.39 170 175 169
-3.09 1.98 -5.38 170 175 169
-3.08 1.88 -5.39 172 177 171
-3.09 1.78 -5.38 172 177 171
-3.09 1.68 -5.38 172 177 171
-3.09 1.58 -5.38 172 177 171
-3.09 1.49 -5.38 172 177 171
-3.10 1.39 -5.37 172 177 171
-3.10 1.29 -5.36 172 177 171
-3.10 1.19 -5.37 172 177 171
-3.10 1.09 -5.36 171 176 170
-3.09 0.99 -5.38 171 176 170
-3.10 0.89 -5.37 171 176 170
-3.10 0.79 -5.37 171 176 170
-3.10 0.69 -5.36 171 176 170
-3.10 0.60 -5.36 171 176 170
-3.11 0.50 -5.36 171 176 170
-3.11 0.40 -5.36 171 176 170
-3.11 0.30 -5.36 171 176 170
-3.11 0.20 -5.35 171 176 170
-3.11 0.10 -5.36 171 178 171
-3.10 0.00 -5.36 171 178 171
-3.10 -0.09 -5.37 169 179 173
-3.10 -0.19 -5.37 169 179 173
-3.10 -0.29 -5.37 169 179 173
-3.10 -0.39 -5.37 169 179 173
-3.09 -0.49 -5.38 169 179 173
-3.10 -0.58 -5.37 169 179 173
-3.10 -0.68 -5.37 169 179 173
-3.09 -0.78 -5.38 171 181 175
-3.10 -0.88 -5.37 171 181 173
-3.09 -0.98 -5.38 171 181 173
-3.08 -1.08 -5.39 171 181 175
-3.09 -1.18 -5.38 171 181 175
-3.09 -1.27 -5.38 171 181 175
-3.09 -1.37 -5.38 171 181 175
-3.09 -1.47 -5.38 171 181 175
-3.09 -1.57 -5.38 171 181 175
-3.09 -1.67 -5.38 171 181 175
-3.10 -1.77 -5.37 171 181 175
-3.10 -1.87 -5.37 172 182 176
-3.09 -1.96 -5.38 172 182 176
-3.09 -2.06 -5.38 172 182 176
-3.09 -2.16 -5.38 172 182 176
-3.09 -2.26 -5.38 172 182 176
-3.09 -2.36 -5.38 172 182 176
-3.08 -2.45 -5.39 172 182 176
-3.08 -2.55 -5.39 172 182 176
-3.08 -2.65 -5.39 172 182 176
-3.08 -2.75 -5.39 172 182 176
-3.08 -2.85 -5.39 171 181 175
-3.07 -2.95 -5.40 172 182 176
-3.08 -3.05 -5.39 174 181 176
-3.07 -3.14 -5.40 174 181 176
-3.07 -3.24 -5.40 175 182 177
-3.06 -3.34 -5.41 175 182 177
-3.06 -3.44 -5.42 175 182 177
-3.06 -3.54 -5.41 175 182 177
-3.05 -3.63 -5.43 175 182 177
-3.05 -3.73 -5.43 175 182 177
-3.04 -3.83 -5.43 175 182 177
-3.03 -3.93 -5.44 175 182 177
-3.30 -16.99 -5.14 224 224 221
-4.73 -16.71 -3.50 66 66 63
-5.07 -16.71 -3.12 82 82 77
-5.03 -16.81 -3.17 128 128 123
-5.08 -16.89 -3.10 118 119 109
-4.45 -17.16 -3.82 166 167 157
-3.93 -17.40 -4.42 168 169 159
-4.33 -17.38 -3.96 179 180 170
-5.64 -17.11 -2.47 183 185 170
-6.37 -16.99 -1.63 179 181 166
-6.44 -17.06 -1.55 187 189 172
-6.46 -17.14 -1.53 202 204 187
-6.50 -17.22 -1.49 185 188 168
-6.54 -17.30 -1.44 196 199 179
-6.59 -17.37 -1.39 213 215 212
-6.62 -17.45 -1.35 202 204 201
-6.67 -17.53 -1.29 223 225 222
-6.72 -17.60 -1.23 250 252 249
-6.76 -17.68 -1.19 251 253 250
-6.79 -17.76 -1.16 244 246 243
-6.82 -17.83 -1.12 248 250 247
-6.79 -17.93 -1.16 251 253 250
-6.77 -18.03 -1.18 248 250 247
-6.88 -18.08 -1.05 227 229 226
-6.92 -18.16 -1.01 176 178 175
-6.68 -18.32 -1.28 150 152 149
-6.22 -18.57 -1.81 163 165 162
-5.28 -18.97 -2.88 179 181 178
-4.36 -19.37 -3.93 195 197 194
-3.60 -19.73 -4.80 221 223 220
-3.31 -19.92 -5.12 225 227 224
-3.14 -20.08 -5.32 227 229 226
-3.20 -20.16 -5.25 226 228 225
-3.22 -20.25 -5.23 223 225 222
-3.31 -20.32 -5.13 222 224 221
-3.34 -20.40 -5.09 220 222 219
-3.32 -20.51 -5.11 220 222 219
-3.36 -20.59 -5.07 221 223 220
-3.35 -20.69 -5.08 225 227 224
-3.34 -20.80 -5.10 227 229 226
-3.32 -20.90 -5.11 227 229 226
-3.34 -20.99 -5.10 227 229 226
-3.37 -21.08 -5.06 227 229 226
-3.36 -21.18 -5.07 227 229 226
-3.40 -21.26 -5.03 227 229 226
-3.43 -21.35 -4.99 227 229 226
-3.45 -21.44 -4.97 227 229 226
-3.46 -21.53 -4.96 228 230 227
-3.46 -21.63 -4.96 228 230 227
-3.47 -21.72 -4.95 228 230 227
-3.48 -21.82 -4.93 227 229 226
-3.50 -21.91 -4.91 228 230 227
-3.50 -22.00 -4.91 228 230 227
-3.50 -22.10 -4.91 228 230 227
-3.50 -22.20 -4.91 228 230 227
-3.51 -22.29 -4.90 228 230 227
-3.51 -22.39 -4.90 228 230 227
-3.51 -22.49 -4.90 228 230 227
-3.50 -22.59 -4.91 228 230 227
-3.51 -22.68 -4.90 228 230 227
-3.50 -22.78 -4.91 228 230 227
-3.49 -22.88 -4.92 228 230 227
-3.49 -22.98 -4.92 229 231 228
-3.49 -23.08 -4.92 229 231 228
-3.49 -23.18 -4.92 229 231 228
-3.48 -23.28 -4.93 229 231 228
-3.48 -23.38 -4.94 229 231 228
-3.48 -23.47 -4.94 229 231 228
-3.50 -23.56 -4.91 229 231 228
-3.49 -23.67 -4.92 232 234 231
-3.48 -23.77 -4.94 233 235 232
-3.47 -23.87 -4.94 233 235 232
-3.47 -23.97 -4.95 233 235 232
-3.47 -24.06 -4.94 233 235 232
-3.48 -24.16 -4.93 233 235 232
-3.48 -24.25 -4.94 233 235 232
-3.48 -24.35 -4.94 233 235 232
-3.48 -24.45 -4.94 234 236 233
-3.48 -24.55 -4.94 234 236 233
-3.48 -24.64 -4.93 234 236 233
-3.48 -24.74 -4.93 234 236 233
-3.48 -24.84 -4.94 234 236 233
-3.49 -24.93 -4.92 234 236 233
-3.49 -25.03 -4.92 234 236 233
-3.50 -25.12 -4.91 234 236 233
-3.51 -25.22 -4.90 233 235 232
-3.51 -25.31 -4.90 233 235 232
-3.53 -25.40 -4.88 233 235 232
-3.53 -25.50 -4.87 233 235 232
-3.55 -25.59 -4.86 233 235 232
-3.55 -25.68 -4.86 233 235 232
-3.55 -25.78 -4.85 233 235 232
-3.56 -25.87 -4.85 233 235 232
-3.56 -25.97 -4.84 232 234 231
-3.56 -26.07 -4.84 233 235 232
-3.56 -26.16 -4.85 233 235 232
-3.56 -26.26 -4.84 233 235 232
-3.57 -26.35 -4.83 233 235 232
-3.58 -26.44 -4.82 233 235 232
-3.59 -26.54 -4.81 233 235 232
-3.59 -26.63 -4.81 233 235 232
-3.60 -26.72 -4.79 233 235 232
-3.60 -26.82 -4.79 233 235 232
-3.62 -26.91 -4.78 233 235 232
-3.63 -27.00 -4.76 233 235 232
-3.64 -27.09 -4.76 233 235 232
-3.65 -27.18 -4.74 233 235 232
-3.65 -27.28 -4.74 233 235 232
-3.65 -27.38 -4.73 233 235 232
-3.66 -27.47 -4.73 233 235 232
-3.66 -27.56 -4.72 233 235 232
-3.66 -27.66 -4.73 233 235 232
-3.66 -27.76 -4.73 234 236 233
-3.66 -27.86 -4.73 234 236 233
-3.65 -27.96 -4.73 234 236 233
-3.66 -28.05 -4.73 234 236 233
-3.65 -28.15 -4.74 234 236 233
-3.65 -28.25 -4.74 234 236 233
-3.65 -28.35 -4.74 234 236 233
-3.65 -28.44 -4.74 234 236 233
-3.65 -28.54 -4.73 234 236 233
-3.66 -28.64 -4.73 234 236 233
-3.66 -28.73 -4.73 234 236 233
-3.66 -28.83 -4.72 234 236 233
-3.67 -28.92 -4.72 234 236 233
-3.67 -29.02 -4.72 234 236 233
-3.67 -29.11 -4.72 234 236 233
-3.66 -29.21 -4.72 234 236 233
-3.66 -29.31 -4.72 234 236 233
-3.66 -29.41 -4.73 234 236 233
-3.66 -29.50 -4.72 234 236 233
-3.66 -29.60 -4.73 234 236 233
-3.67 -29.70 -4.72 234 236 233
-3.67 -29.79 -4.72 234 236 233
-3.68 -29.89 -4.71 234 236 233
-3.70 -29.97 -4.69 233 235 232
-3.70 -30.06 -4.68 233 235 232
-3.73 -30.14 -4.65 233 235 232
-3.73 -30.24 -4.65 233 235 232
-3.74 -30.33 -4.64 233 235 232
-3.75 -30.42 -4.63 233 235 232
-3.75 -30.52 -4.63 233 235 232
-3.76 -30.61 -4.61 234 236 233
-3.77 -30.70 -4.61 235 237 234
-3.78 -30.79 -4.59 235 237 234
-3.78 -30.88 -4.59 235 237 234
-3.78 -30.98 -4.59 235 237 234
-3.80 -31.07 -4.57 235 237 234
-3.80 -31.16 -4.57 235 237 234
-3.81 -31.25 -4.56 235 237 234
-3.80 -31.35 -4.56 235 237 234
-3.81 -31.44 -4.55 234 236 233
-3.81 -31.54 -4.56 234 236 233
-3.81 -31.64 -4.56 234 236 233
-3.82 -31.73 -4.54 234 236 233
-3.82 -31.83 -4.55 234 236 233
-3.82 -31.92 -4.54 234 236 233
-3.83 -32.01 -4.54 235 237 234
-3.83 -32.10 -4.53 235 237 234
-3.82 -32.21 -4.54 236 238 235
-3.83 -32.30 -4.54 240 242 239
-3.83 -32.40 -4.54 241 243 240
-3.82 -32.50 -4.54 241 243 240
-3.82 -32.60 -4.54 241 243 240
-3.82 -32.69 -4.54 241 243 240
-3.82 -32.79 -4.54 241 243 240
-3.82 -32.89 -4.55 241 243 240
-3.83 -32.98 -4.54 241 243 240
-3.83 -33.07 -4.54 242 244 241
-3.85 -33.16 -4.52 242 244 241
-3.84 -33.26 -4.52 242 244 241
-3.85 -33.35 -4.51 242 244 241
-3.85 -33.44 -4.51 242 244 241
-3.85 -33.54 -4.51 242 244 241
-3.86 -33.63 -4.50 244 246 243
-3.85 -33.74 -4.51 244 246 243
-3.86 -33.82 -4.50 244 246 243
-3.85 -33.93 -4.51 244 246 243
-3.86 -34.01 -4.50 244 246 243
-3.85 -34.12 -4.51 244 246 243
-3.86 -34.21 -4.50 244 246 243
-3.87 -34.30 -4.48 243 245 242
-3.88 -34.39 -4.48 242 244 241
-3.88 -34.48 -4.47 242 244 241
-3.89 -34.58 -4.47 242 244 241
-3.89 -34.67 -4.46 242 244 241
-3.91 -34.75 -4.45 242 244 241
-3.91 -34.85 -4.44 242 244 241
-3.93 -34.93 -4.43 242 244 241
-3.93 -35.02 -4.42 243 245 242
-3.93 -35.12 -4.42 243 245 242
-3.93 -35.21 -4.42 244 246 243
-3.94 -35.31 -4.41 244 246 243
-3.94 -35.40 -4.41 244 246 243
-3.95 -35.49 -4.39 244 246 243
-3.96 -35.58 -4.39 244 246 243
-3.97 -35.67 -4.38 244 246 243
-3.99 -35.75 -4.36 244 246 243
-3.98 -35.85 -4.36 246 248 245
-3.98 -35.95 -4.37 246 248 245
-3.97 -36.06 -4.38 246 248 245
-3.96 -36.16 -4.39 246 248 245
-3.96 -36.25 -4.39 246 248 245
-3.98 -36.34 -4.37 246 248 245
-3.98 -36.43 -4.37 246 248 245
-3.99 -36.51 -4.35 246 248 245
-3.99 -36.61 -4.35 246 248 245
-3.97 -36.73 -4.38 241 243 240
-3.97 -36.82 -4.38 246 246 243
-3.89 -36.99 -4.47 249 249 246
-4.40 -36.66 -3.88 250 248 246
-4.04 23.38 -4.44 142 133 125
-3.98 23.34 -4.50 142 133 125
-4.01 23.21 -4.47 142 133 125
-4.00 23.12 -4.47 142 133 125
-4.03 23.00 -4.44 142 133 125
-4.05 22.89 -4.42 142 133 125
-4.02 22.82 -4.46 142 133 125
-4.01 22.73 -4.46 142 133 125
-4.01 22.63 -4.46 144 135 127
-4.01 22.54 -4.47 144 135 127
-4.02 22.44 -4.46 144 135 127
-4.01 22.35 -4.47 144 135 127
-4.00 22.26 -4.48 144 135 127
-4.00 22.16 -4.47 144 135 127
-4.01 22.06 -4.47 144 135 127
-3.99 21.98 -4.49 144 135 127
-4.00 21.88 -4.48 144 135 127
-3.99 21.78 -4.49 144 135 127
-3.99 21.69 -4.49 144 135 127
-4.00 21.59 -4.48 144 135 127
-3.99 21.49 -4.49 144 135 127
-3.99 21.40 -4.49 144 135 127
-3.99 21.31 -4.49 146 137 129
-3.99 21.21 -4.49 148 139 131
-3.98 21.12 -4.51 148 139 131
-3.97 21.03 -4.51 148 139 131
-3.96 20.94 -4.52 148 139 131
-3.95 20.85 -4.53 148 139 131
-3.94 20.77 -4.55 148 139 131
-3.93 20.67 -4.55 148 139 131
-3.92 20.59 -4.56 147 141 134
-3.91 20.50 -4.58 147 141 134
-3.90 20.41 -4.59 146 142 134
-3.89 20.33 -4.61 147 143 135
-3.87 20.24 -4.62 147 143 135
-3.86 20.15 -4.63 147 143 135
-3.85 20.06 -4.65 147 143 135
-3.84 19.98 -4.66 147 143 135
-3.83 19.88 -4.67 147 143 135
-3.82 19.79 -4.68 147 143 135
-3.81 19.71 -4.69 147 143 135
-3.81 19.61 -4.70 147 143 135
-3.79 19.52 -4.71 147 143 135
-3.80 19.43 -4.71 147 143 135
-3.78 19.34 -4.72 147 143 135
-3.78 19.24 -4.72 147 143 135
-3.78 19.15 -4.73 147 143 135
-3.77 19.06 -4.74 147 143 135
-3.76 18.97 -4.75 148 144 136
-3.75 18.88 -4.77 149 145 137
-3.75 18.78 -4.76 149 145 137
-3.73 18.70 -4.78 149 145 137
-3.74 18.60 -4.78 149 145 137
-3.73 18.51 -4.79 150 146 138
-3.72 18.42 -4.80 150 146 138
-3.71 18.32 -4.81 150 146 138
-3.70 18.24 -4.82 150 146 138
-3.70 18.14 -4.82 152 148 140
-3.68 18.05 -4.84 152 148 140
-3.70 17.95 -4.83 152 148 140
-3.69 17.85 -4.83 152 148 140
-3.69 17.76 -4.83 152 148 140
-3.68 17.67 -4.84 152 148 138
-3.67 17.58 -4.85 152 148 138
-3.66 17.49 -4.87 153 149 139
-3.66 17.39 -4.87 153 149 139
-3.67 17.29 -4.85 153 149 139
-3.66 17.20 -4.87 154 150 140
-3.66 17.10 -4.87 154 150 140
-3.66 17.00 -4.86 154 150 140
-3.66 16.90 -4.86 154 150 140
-3.66 16.81 -4.87 154 150 140
-3.66 16.71 -4.87 154 150 140
-3.65 16.62 -4.88 154 150 140
-3.64 16.53 -4.89 154 150 142
-3.64 16.43 -4.89 154 150 142
-3.63 16.34 -4.90 155 151 143
-3.63 16.25 -4.91 155 151 143
-3.61 16.16 -4.92 155 151 143
-3.61 16.06 -4.92 155 151 143
-3.61 15.97 -4.93 155 151 141
-3.61 15.87 -4.92 156 152 142
-3.60 15.78 -4.94 156 152 142
-3.61 15.67 -4.92 156 152 142
-3.60 15.58 -4.94 155 151 143
-3.60 15.48 -4.93 156 152 144
-3.60 15.39 -4.94 156 152 144
-3.60 15.29 -4.94 156 152 144
-3.61 15.19 -4.93 156 152 144
-3.59 15.10 -4.94 156 152 144
-3.60 15.00 -4.93 156 152 144
-3.59 14.91 -4.94 156 152 144
-3.59 14.81 -4.94 157 153 145
-3.59 14.72 -4.95 159 155 147
-3.59 14.62 -4.95 159 155 147
-3.58 14.53 -4.96 159 155 147
-3.57 14.43 -4.97 159 155 147
-3.57 14.34 -4.97 160 156 148
-3.56 14.25 -4.99 160 156 148
-3.56 14.15 -4.98 160 156 148
-3.56 14.05 -4.98 160 156 148
-3.56 13.95 -4.98 160 156 148
-3.56 13.85 -4.98 160 156 148
-3.56 13.76 -4.98 160 156 148
-3.56 13.66 -4.98 161 157 149
-3.56 13.56 -4.98 162 158 150
-3.57 13.46 -4.97 162 158 150
-3.57 13.36 -4.97 162 158 150
-3.57 13.26 -4.97 162 158 150
-3.57 13.16 -4.97 162 158 150
-3.57 13.07 -4.97 162 158 150
-3.57 12.97 -4.97 162 158 150
-3.57 12.87 -4.97 163 159 151
-3.57 12.78 -4.97 162 158 150
-3.57 12.68 -4.97 162 158 150
-3.56 12.59 -4.98 163 159 151
-3.56 12.49 -4.98 162 161 152
-3.56 12.39 -4.98 161 160 151
-3.55 12.30 -5.00 162 161 152
-3.54 12.21 -5.00 161 160 151
-3.53 12.12 -5.01 164 163 154
-3.52 12.02 -5.02 164 163 154
-3.52 11.93 -5.02 164 163 154
-3.51 11.83 -5.04 164 163 154
-3.51 11.74 -5.04 164 163 154
-3.51 11.64 -5.04 164 163 154
-3.50 11.55 -5.05 164 163 154
-3.50 11.45 -5.05 164 163 154
-3.49 11.36 -5.07 167 163 157
-3.48 11.27 -5.08 167 163 157
-3.48 11.17 -5.08 167 161 156
-3.46 11.08 -5.09 168 162 157
-3.47 10.98 -5.09 168 162 157
-3.46 10.89 -5.10 168 162 157
-3.45 10.79 -5.10 169 163 158
-3.45 10.70 -5.11 169 163 158
-3.45 10.59 -5.10 169 163 158
-3.45 10.50 -5.11 169 163 158
-3.45 10.40 -5.11 168 164 158
-3.45 10.30 -5.11 168 164 158
-3.44 10.21 -5.12 168 164 158
-3.45 10.11 -5.11 168 164 158
-3.44 10.01 -5.12 167 166 157
-3.44 9.92 -5.11 166 165 156
-3.44 9.82 -5.12 165 166 156
-3.44 9.72 -5.12 165 166 156
-3.44 9.62 -5.12 165 166 156
-3.44 9.53 -5.12 165 166 156
-3.45 9.43 -5.11 165 166 156
-3.45 9.33 -5.11 166 167 157
-3.45 9.23 -5.11 166 167 157
-3.44 9.14 -5.12 166 167 157
-3.44 9.04 -5.12 167 168 158
-3.44 8.94 -5.12 167 168 158
-3.44 8.84 -5.12 167 168 158
-3.44 8.75 -5.12 167 168 158
-3.44 8.65 -5.12 167 168 158
-3.43 8.55 -5.13 168 169 159
-3.43 8.45 -5.13 170 171 161
-3.43 8.36 -5.14 170 171 161
-3.42 8.26 -5.14 168 169 161
-3.42 8.17 -5.14 170 171 163
-3.41 8.07 -5.15 168 171 163
-3.42 7.97 -5.15 168 171 163
-3.41 7.88 -5.15 168 171 163
-3.41 7.78 -5.15 168 171 163
-3.42 7.68 -5.15 168 171 163
-3.41 7.58 -5.16 168 171 163
-3.41 7.49 -5.16 169 172 164
-3.39 7.39 -5.17 169 172 164
-3.40 7.30 -5.17 169 172 164
-3.39 7.20 -5.17 169 172 164
-3.39 7.10 -5.18 169 172 164
-3.38 7.01 -5.19 169 172 164
-3.38 6.91 -5.19 169 172 164
-3.38 6.81 -5.18 169 172 164
-3.38 6.71 -5.18 171 171 166
-3.38 6.62 -5.19 171 171 166
-3.38 6.52 -5.18 171 171 166
-3.39 6.42 -5.18 171 171 166
-3.38 6.32 -5.18 171 171 166
-3.39 6.22 -5.18 171 171 166
-3.38 6.13 -5.19 171 171 166
-3.37 6.03 -5.20 172 172 167
-3.37 5.94 -5.20 172 172 167
-3.37 5.84 -5.20 172 172 167
-3.37 5.74 -5.20 172 172 167
-3.37 5.64 -5.20 172 172 167
-3.37 5.54 -5.20 172 172 167
-3.37 5.45 -5.20 172 172 167
-3.36 5.35 -5.21 172 172 167
-3.36 5.25 -5.21 173 173 168
-3.35 5.16 -5.22 173 174 166
-3.34 5.06 -5.23 173 174 166
-3.33 4.97 -5.24 173 174 166
-3.33 4.87 -5.24 173 174 166
-3.34 4.77 -5.24 173 174 166
-3.33 4.67 -5.24 173 174 166
-3.33 4.58 -5.25 173 174 166
-3.33 4.48 -5.25 173 174 166
-3.32 4.38 -5.25 173 174 166
-3.32 4.28 -5.25 173 174 166
-3.33 4.19 -5.25 173 174 166
-3.32 4.09 -5.25 173 174 166
-3.33 3.99 -5.25 173 174 166
-3.32 3.89 -5.26 173 174 166
-3.33 3.79 -5.24 173 174 166
-3.32 3.70 -5.25 173 174 166
-3.32 3.60 -5.25 171 173 168
-3.32 3.50 -5.26 171 173 168
-3.32 3.40 -5.26 171 173 168
-3.32 3.31 -5.26 171 173 168
-3.31 3.21 -5.26 171 173 168
-3.31 3.11 -5.26 171 173 168
-3.31 3.01 -5.27 171 173 168
-3.30 2.92 -5.28 171 173 168
-3.30 2.82 -5.28 171 173 168
-3.30 2.72 -5.28 171 173 168
-3.29 2.63 -5.29 171 173 168
-3.29 2.53 -5.29 171 173 168
-3.30 2.43 -5.28 171 173 168
-3.29 2.33 -5.29 171 173 168
-3.28 2.24 -5.30 169 174 168
-3.29 2.14 -5.29 170 175 169
-3.28 2.04 -5.30 170 176 167
-3.29 1.94 -5.29 170 176 167
-3.28 1.84 -5.30 170 175 169
-3.29 1.74 -5.29 170 175 169
-3.30 1.64 -5.28 170 175 169
-3.30 1.55 -5.28 170 175 169
-3.30 1.45 -5.28 170 175 171
-3.29 1.35 -5.29 170 175 171
-3.30 1.25 -5.28 172 177 173
-3.30 1.15 -5.28 172 177 173
-3.31 1.05 -5.27 172 177 176
-3.30 0.96 -5.28 172 177 176
-3.30 0.86 -5.28 172 177 176
-3.31 0.76 -5.27 172 177 176
-3.31 0.66 -5.27 172 176 178
-3.31 0.56 -5.26 172 176 178
-3.31 0.46 -5.26 172 177 176
-3.31 0.37 -5.27 172 177 176
-3.31 0.27 -5.27 172 177 176
-3.32 0.17 -5.26 172 177 176
-3.32 0.07 -5.26 171 178 176
-3.31 -0.03 -5.27 171 178 176
-3.31 -0.13 -5.26 171 178 176
-3.30 -0.22 -5.28 171 178 176
-3.30 -0.32 -5.28 171 178 176
-3.30 -0.42 -5.28 171 178 176
-3.30 -0.52 -5.28 171 178 176
-3.30 -0.61 -5.28 173 180 178
-3.30 -0.71 -5.28 171 181 178
-3.30 -0.81 -5.28 171 181 178
-3.30 -0.91 -5.28 171 181 178
-3.30 -1.01 -5.28 171 181 178
-3.30 -1.10 -5.28 171 181 175
-3.30 -1.20 -5.28 171 181 175
-3.30 -1.30 -5.28 171 181 175
-3.30 -1.40 -5.28 171 181 175
-3.30 -1.50 -5.28 171 181 175
-3.30 -1.59 -5.28 171 181 175
-3.30 -1.69 -5.28 171 181 175
-3.30 -1.79 -5.28 171 181 175
-3.30 -1.89 -5.28 172 182 176
-3.29 -1.99 -5.29 172 182 176
-3.29 -2.08 -5.29 172 182 176
-3.30 -2.18 -5.28 172 182 176
-3.29 -2.28 -5.29 172 182 176
-3.29 -2.38 -5.29 172 182 176
-3.29 -2.48 -5.29 172 182 176
-3.29 -2.57 -5.29 172 182 176
-3.28 -2.67 -5.30 174 181 176
-3.28 -2.77 -5.31 174 181 176
-3.28 -2.87 -5.30 174 181 176
-3.27 -2.97 -5.31 174 181 176
-3.28 -3.06 -5.31 175 182 177
-3.27 -3.16 -5.31 175 182 177
-3.27 -3.26 -5.32 175 182 177
-3.26 -3.36 -5.32 175 182 177
-3.25 -3.45 -5.33 175 182 177
-3.26 -3.55 -5.33 175 182 177
-3.25 -3.65 -5.34 175 182 177
-3.25 -3.75 -5.34 175 182 177
-3.24 -3.85 -5.35 175 182 177
-3.23 -3.94 -5.35 175 182 177
-3.23 -4.04 -5.36 175 182 177
-3.22 -4.14 -5.37 176 183 178
-3.22 -4.24 -5.37 174 184 178
-3.21 -4.34 -5.38 174 184 178
-3.21 -4.43 -5.38 174 184 178
-3.21 -4.53 -5.38 174 184 178
-3.20 -4.63 -5.39 174 184 178
-3.20 -4.73 -5.39 174 184 178
-3.19 -4.83 -5.40 174 184 178
-3.19 -4.92 -5.40 174 184 178
-3.19 -5.02 -5.41 175 185 179
-3.18 -5.12 -5.41 176 186 180
-3.17 -5.22 -5.42 176 186 180
-3.19 -5.32 -5.40 176 186 180
-3.19 -5.42 -5.40 176 186 180
-3.19 -5.51 -5.40 176 186 180
-3.20 -5.61 -5.39 176 186 180
-3.19 -5.71 -5.41 176 186 180
-3.19 -5.81 -5.41 176 186 183
-3.19 -5.91 -5.41 176 186 183
-3.19 -6.01 -5.40 176 185 185
-3.18 -6.10 -5.42 176 185 185
-3.18 -6.20 -5.41 178 187 187
-3.18 -6.30 -5.42 178 187 187
-3.17 -6.40 -5.42 178 187 187
-3.17 -6.50 -5.42 178 187 187
-3.16 -6.60 -5.44 178 187 187
-3.16 -6.70 -5.44 178 187 187
-3.16 -6.79 -5.45 178 187 187
-3.16 -6.89 -5.44 178 187 187
-3.16 -6.99 -5.45 178 187 187
-3.16 -16.84 -5.45 186 200 193
-3.72 -16.89 -4.80 141 149 126
-5.17 -16.60 -3.14 4 12 0
-5.45 -16.62 -2.82 14 12 0
-5.12 -16.80 -3.19 40 38 16
-5.03 -16.92 -3.30 81 76 46
-5.00 -17.02 -3.34 184 179 149
-5.45 -16.99 -2.82 186 169 134
-6.13 -16.89 -2.04 182 165 130
-6.39 -16.91 -1.74 200 166 136
-6.48 -16.97 -1.63 213 179 149
-6.55 -17.04 -1.56 219 185 153
-6.58 -17.12 -1.53 220 186 154
-6.60 -17.20 -1.49 197 183 140
-6.64 -17.28 -1.45 224 210 167
-6.68 -17.36 -1.40 228 224 214
-6.73 -17.43 -1.35 225 221 211
-6.78 -17.51 -1.29 219 218 207
-6.82 -17.58 -1.25 232 231 220
-6.86 -17.66 -1.20 208 209 197
-6.89 -17.74 -1.17 201 202 190
-6.93 -17.81 -1.13 204 206 203
-6.99 -17.88 -1.06 253 255 252
-7.02 -17.96 -1.02 243 244 247
-7.03 -18.05 -1.01 247 248 251
-7.03 -18.14 -1.01 243 242 245
-7.03 -18.22 -1.00 245 244 247
-7.03 -18.31 -1.01 247 245 241
-7.01 -18.41 -1.03 204 202 198
-7.00 -18.50 -1.04 164 161 148
