ply
format ascii 1.0
element vertex 1545
property float x
property float y
property float z
property uchar red
property uchar green
property uchar blue
end_header
-10.54 14.58 -2.88 153 147 140
-10.54 14.50 -2.88 153 147 140
-10.54 14.42 -2.88 153 147 140
-10.54 14.33 -2.88 153 147 140
-10.54 14.25 -2.88 153 147 140
-10.53 14.17 -2.89 154 148 141
-10.54 14.08 -2.88 154 148 141
-10.53 14.00 -2.89 154 148 141
-10.54 13.91 -2.88 154 148 141
-10.53 13.83 -2.89 154 148 141
-10.53 13.75 -2.90 154 148 141
-10.52 13.67 -2.90 154 148 141
-10.51 13.59 -2.91 154 148 141
-10.51 13.51 -2.92 157 151 144
-10.50 13.43 -2.93 157 151 144
-10.50 13.35 -2.93 157 151 144
-10.50 13.27 -2.94 157 151 144
-10.50 13.18 -2.93 157 151 144
-10.50 13.10 -2.93 157 151 144
-10.50 13.01 -2.94 157 151 144
-10.49 12.93 -2.94 157 151 144
-10.48 12.85 -2.95 157 156 147
-10.48 12.77 -2.96 157 156 147
-10.47 12.69 -2.97 157 156 147
-10.48 12.61 -2.96 157 156 147
-10.47 12.52 -2.97 157 156 147
-10.48 12.44 -2.96 157 156 147
-10.47 12.36 -2.97 157 156 147
-10.46 12.28 -2.99 157 156 147
-10.46 12.20 -2.99 159 158 149
-10.45 12.12 -3.00 159 158 149
-10.45 12.04 -3.00 159 158 149
-10.44 11.96 -3.02 159 158 149
-10.43 11.88 -3.02 159 158 149
-10.43 11.79 -3.03 159 158 149
-10.43 11.71 -3.02 159 158 149
-10.42 11.63 -3.04 159 158 149
-10.42 11.54 -3.04 162 158 150
-10.42 11.46 -3.04 163 159 151
-10.42 11.38 -3.04 163 159 151
-10.42 11.29 -3.04 164 160 152
-10.42 11.21 -3.03 164 160 152
-10.42 11.12 -3.04 166 162 154
-10.42 11.04 -3.04 166 162 154
-10.41 10.96 -3.05 167 163 155
-10.41 10.88 -3.05 167 163 155
-10.41 10.79 -3.05 167 163 155
-10.41 10.71 -3.05 167 163 155
-10.41 10.62 -3.06 167 163 155
-10.41 10.54 -3.06 167 163 155
-10.41 10.45 -3.06 167 163 155
-10.41 10.37 -3.06 167 163 155
-10.41 10.29 -3.06 167 163 155
-10.41 10.20 -3.06 169 163 158
-10.41 10.12 -3.06 169 163 158
-10.40 10.03 -3.06 168 164 158
-10.40 9.95 -3.06 168 164 158
-10.41 9.86 -3.06 168 164 158
-10.41 9.77 -3.05 168 164 158
-10.41 9.69 -3.05 166 165 158
-10.41 9.61 -3.05 166 165 158
-10.41 9.52 -3.06 167 166 159
-10.41 9.44 -3.05 168 167 160
-10.41 9.36 -3.06 168 169 161
-10.41 9.27 -3.05 168 169 161
-10.41 9.19 -3.05 170 171 163
-10.41 9.10 -3.05 171 172 164
-10.41 9.02 -3.06 170 173 165
-10.41 8.93 -3.05 171 174 166
-10.41 8.85 -3.05 175 171 165
-10.41 8.76 -3.06 175 171 165
-10.41 8.68 -3.05 175 171 165
-10.41 8.59 -3.05 175 171 165
-10.41 8.51 -3.05 175 171 165
-10.41 8.42 -3.05 175 171 165
-10.41 8.34 -3.05 175 171 165
-10.41 8.26 -3.05 175 171 165
-10.41 8.17 -3.05 176 172 166
-10.42 8.08 -3.05 176 172 166
-10.42 8.00 -3.04 176 172 166
-10.42 7.91 -3.04 176 172 166
-10.42 7.83 -3.05 176 172 166
-10.43 7.74 -3.02 176 172 166
-10.42 7.66 -3.03 176 172 166
-10.43 7.57 -3.03 176 172 166
-10.43 7.49 -3.03 177 176 169
-10.42 7.40 -3.03 177 176 169
-10.43 7.32 -3.03 177 176 169
-10.42 7.23 -3.03 177 176 169
-10.42 7.15 -3.04 177 176 169
-10.43 7.06 -3.03 177 176 169
-10.43 6.98 -3.03 177 176 169
-10.42 6.90 -3.04 177 176 169
-10.42 6.81 -3.04 179 178 171
-10.42 6.73 -3.04 179 178 171
-10.42 6.64 -3.04 179 178 171
-10.42 6.56 -3.04 179 178 171
-10.42 6.47 -3.04 179 178 171
-10.42 6.39 -3.04 179 178 171
-10.42 6.31 -3.04 179 178 171
-10.41 6.23 -3.06 179 178 171
-10.41 6.14 -3.05 179 179 174
-10.41 6.06 -3.06 179 179 174
-10.41 5.97 -3.06 179 179 174
-10.41 5.89 -3.06 179 179 174
-10.40 5.81 -3.06 179 179 174
-10.41 5.72 -3.05 179 179 174
-10.41 5.64 -3.06 179 179 174
-10.41 5.55 -3.06 179 179 174
-10.40 5.47 -3.07 178 178 173
-10.40 5.39 -3.07 178 178 173
-10.40 5.30 -3.07 178 178 173
-10.40 5.22 -3.07 178 178 173
-10.40 5.13 -3.07 178 178 173
-10.40 5.05 -3.07 178 178 173
-10.39 4.96 -3.08 178 178 173
-10.40 4.88 -3.07 178 178 173
-10.40 4.79 -3.07 178 178 173
-10.40 4.71 -3.07 178 178 173
-10.39 4.63 -3.08 178 178 173
-10.40 4.54 -3.07 178 178 173
-10.39 4.46 -3.08 178 178 173
-10.40 4.37 -3.07 178 178 173
-10.40 4.29 -3.07 178 178 173
-10.40 4.20 -3.07 178 178 173
-10.40 4.12 -3.07 176 176 171
-10.39 4.04 -3.08 176 176 171
-10.39 3.95 -3.08 176 176 171
-10.39 3.87 -3.08 176 176 171
-10.39 3.78 -3.08 176 176 171
-10.40 3.69 -3.07 176 176 171
-10.40 3.61 -3.07 176 176 171
-10.39 3.53 -3.08 176 176 171
-10.38 3.45 -3.09 174 174 169
-10.39 3.36 -3.08 174 174 169
-10.39 3.27 -3.08 174 174 169
-10.40 3.19 -3.07 174 174 169
-10.40 3.10 -3.06 174 174 169
-10.40 3.02 -3.07 174 174 169
-10.40 2.93 -3.07 174 174 169
-10.40 2.85 -3.07 174 174 169
-10.40 2.76 -3.07 173 173 168
-10.39 2.68 -3.08 173 173 168
-10.39 2.60 -3.08 173 173 168
-10.40 2.51 -3.06 173 173 168
-10.40 2.42 -3.06 173 173 168
-10.41 2.34 -3.05 173 173 168
-10.41 2.25 -3.05 173 173 168
-10.41 2.17 -3.05 173 173 168
-10.42 2.08 -3.03 172 172 167
-10.42 1.99 -3.03 172 172 167
-10.43 1.91 -3.03 172 172 167
-10.44 1.82 -3.02 172 172 167
-10.44 1.74 -3.01 172 172 167
-10.44 1.65 -3.01 172 172 167
-10.45 1.56 -3.00 172 172 167
-10.44 1.48 -3.02 172 172 167
-10.45 1.40 -3.00 172 172 167
-10.44 1.31 -3.01 172 172 167
-10.44 1.23 -3.01 172 172 167
-10.44 1.14 -3.01 172 172 167
-10.44 1.06 -3.01 172 172 167
-10.45 0.97 -3.00 172 172 167
-10.45 0.89 -3.00 172 172 167
-10.45 0.80 -3.00 172 172 167
-10.45 0.72 -3.00 170 172 167
-10.45 0.63 -2.99 170 172 167
-10.45 0.55 -2.99 170 172 167
-10.45 0.47 -2.99 170 172 167
-10.46 0.38 -2.98 170 172 167
-10.46 0.29 -2.98 170 172 167
-10.47 0.21 -2.97 170 172 167
-10.47 0.12 -2.97 170 172 167
-10.47 0.04 -2.97 169 171 166
-10.47 -0.05 -2.97 169 171 166
-10.48 -0.13 -2.96 169 171 166
-10.48 -0.22 -2.96 169 171 166
-10.48 -0.30 -2.96 169 171 166
-10.48 -0.39 -2.95 169 171 166
-10.48 -0.47 -2.95 169 171 166
-10.48 -0.55 -2.96 169 171 166
-10.49 -0.64 -2.95 165 176 163
-10.48 -0.72 -2.96 165 176 163
-10.48 -0.81 -2.96 165 176 163
-10.47 -0.89 -2.97 165 176 163
-10.48 -0.98 -2.96 165 176 163
-10.48 -1.06 -2.95 165 176 163
-10.48 -1.14 -2.96 165 176 163
-10.48 -1.23 -2.96 165 176 163
-10.48 -1.31 -2.96 166 177 164
-10.48 -1.40 -2.96 166 177 164
-10.49 -1.48 -2.95 166 177 164
-10.50 -1.57 -2.94 166 177 164
-10.50 -1.65 -2.94 166 177 164
-10.50 -1.74 -2.93 166 177 164
-10.51 -1.82 -2.92 166 177 164
-10.50 -1.91 -2.93 166 177 164
-10.51 -1.99 -2.92 169 174 170
-10.50 -2.08 -2.94 169 174 170
-10.49 -2.16 -2.94 169 174 170
-10.50 -2.24 -2.94 169 174 170
-10.50 -2.33 -2.94 169 174 170
-10.50 -2.41 -2.94 169 174 170
-10.50 -2.50 -2.94 169 174 170
-10.49 -2.58 -2.94 169 174 170
-10.49 -2.66 -2.94 170 175 171
-10.49 -2.75 -2.95 170 175 171
-10.48 -2.83 -2.96 170 175 171
-10.48 -2.92 -2.95 170 175 171
-10.48 -3.00 -2.95 170 175 171
-10.49 -3.09 -2.95 170 175 171
-10.49 -3.17 -2.95 170 175 171
-10.49 -3.25 -2.95 170 175 171
-10.49 -3.34 -2.95 171 173 168
-10.48 -3.42 -2.96 172 174 169
-10.49 -3.51 -2.95 172 174 169
-10.49 -3.59 -2.95 173 175 170
-10.49 -3.68 -2.94 173 175 170
-10.49 -3.76 -2.95 174 176 171
-10.48 -3.84 -2.96 174 176 171
-10.48 -3.93 -2.95 176 178 173
-10.48 -4.01 -2.96 174 176 171
-10.48 -4.10 -2.96 174 176 171
-10.48 -4.18 -2.96 174 176 171
-10.48 -4.26 -2.96 174 176 171
-10.47 -4.35 -2.97 174 176 171
-10.47 -4.43 -2.97 174 176 171
-10.47 -4.52 -2.97 174 176 171
-10.48 -4.60 -2.96 174 176 171
-10.47 -4.69 -2.97 171 176 175
-10.47 -4.77 -2.98 171 176 175
-10.47 -4.85 -2.97 171 176 175
-10.47 -4.94 -2.98 171 176 175
-10.47 -5.02 -2.97 171 176 175
-10.47 -5.11 -2.98 171 176 175
-10.47 -5.19 -2.98 171 176 175
-10.47 -5.28 -2.98 171 176 175
-10.46 -5.36 -2.98 174 179 178
-10.46 -5.44 -2.98 174 179 178
-10.46 -5.53 -2.99 174 179 178
-10.46 -5.61 -2.98 174 179 178
-10.46 -5.70 -2.98 174 179 178
-10.45 -5.78 -3.00 174 179 178
-10.45 -5.87 -3.00 174 179 178
-10.45 -5.95 -3.00 174 179 178
-10.44 -6.03 -3.01 174 179 173
-10.43 -6.12 -3.03 174 179 173
-10.42 -6.20 -3.04 174 179 173
-10.42 -6.29 -3.04 174 179 173
-10.41 -6.37 -3.05 174 179 173
-10.41 -6.46 -3.06 174 179 173
-10.40 -6.54 -3.07 174 179 173
-10.39 -6.62 -3.08 174 179 173
-10.38 -6.71 -3.09 171 176 170
-10.38 -6.79 -3.09 176 181 175
-10.38 -6.88 -3.09 166 171 165
-10.38 -6.96 -3.09 172 177 171
-10.39 -7.05 -3.08 179 184 178
-10.38 -7.13 -3.09 175 180 174
-10.33 -7.22 -3.16 176 181 175
-10.25 -7.30 -3.26 177 182 176
-10.31 -7.39 -3.19 166 167 159
-10.78 -7.47 -2.55 214 215 207
-11.16 -7.55 -2.05 244 245 237
-11.21 -7.63 -1.98 250 251 243
-11.19 -7.72 -2.00 249 250 242
-11.19 -7.80 -2.00 252 253 245
-11.21 -7.88 -1.98 253 254 246
-11.20 -7.96 -1.99 245 246 238
-11.19 -8.04 -2.00 251 252 244
-11.20 -8.13 -1.99 251 252 244
-11.19 -8.21 -2.00 251 252 244
-11.19 -8.29 -2.00 251 252 244
-11.18 -8.37 -2.02 251 252 244
-11.16 -8.46 -2.04 251 252 244
-11.15 -8.54 -2.06 251 252 244
-11.14 -8.62 -2.07 251 252 244
-11.13 -8.71 -2.08 246 253 251
-11.13 -8.79 -2.08 246 253 251
-11.12 -8.87 -2.10 246 253 251
-11.11 -8.95 -2.11 246 253 251
-11.11 -9.04 -2.12 246 253 251
-11.10 -9.12 -2.13 246 253 251
-11.08 -9.20 -2.14 246 253 251
-11.08 -9.29 -2.15 246 253 251
-11.08 -9.37 -2.15 246 253 251
-11.08 -9.45 -2.15 246 253 251
-11.07 -9.53 -2.16 246 253 251
-11.07 -9.62 -2.16 246 253 251
-11.06 -9.70 -2.17 246 253 251
-11.07 -9.78 -2.17 246 253 251
-11.06 -9.87 -2.18 246 253 251
-11.07 -9.95 -2.16 246 253 251
-11.06 -10.03 -2.17 246 253 251
-11.07 -10.11 -2.17 246 253 251
-11.07 -10.20 -2.16 246 253 251
-11.07 -10.28 -2.16 246 253 251
-11.08 -10.36 -2.15 246 253 251
-11.08 -10.44 -2.14 246 253 251
-11.09 -10.52 -2.14 246 253 251
-11.09 -10.61 -2.14 246 253 251
-11.10 -10.69 -2.13 246 253 251
-11.10 -10.77 -2.13 246 253 251
-11.11 -10.85 -2.12 246 253 251
-11.11 -10.94 -2.11 246 253 251
-11.11 -11.02 -2.11 246 253 251
-11.12 -11.10 -2.10 246 253 251
-11.12 -11.18 -2.10 246 253 251
-11.12 -11.26 -2.10 246 253 251
-11.12 -11.35 -2.10 246 253 251
-11.12 -11.43 -2.10 246 253 251
-11.12 -11.51 -2.09 246 253 251
-11.12 -11.59 -2.10 246 253 251
-11.13 -11.68 -2.09 246 253 251
-11.12 -11.76 -2.09 246 253 251
-11.12 -11.84 -2.09 246 253 251
-11.12 -11.92 -2.10 246 253 251
-11.11 -12.01 -2.11 246 253 251
-11.11 -12.09 -2.11 246 253 251
-11.12 -12.17 -2.10 246 253 251
-11.12 -12.25 -2.10 246 253 251
-11.12 -12.34 -2.09 246 253 251
-11.13 -12.42 -2.09 246 253 251
-11.12 -12.50 -2.09 246 253 251
-11.13 -12.58 -2.09 246 253 251
-11.13 -12.67 -2.09 239 246 244
-11.11 -12.75 -2.11 243 250 248
-11.10 -12.84 -2.13 247 254 252
-11.08 -12.92 -2.15 248 255 253
-11.07 -13.01 -2.16 243 250 248
-11.01 -13.10 -2.24 231 238 236
-10.90 -13.21 -2.39 218 225 223
-10.71 -13.33 -2.65 210 217 215
-10.55 -13.45 -2.87 184 191 189
-10.44 -13.55 -3.01 183 190 188
-10.41 -13.64 -3.05 182 189 187
-10.43 -13.72 -3.02 187 194 192
-10.45 -13.80 -3.00 189 196 194
-10.46 -13.88 -2.98 187 194 192
-10.47 -13.97 -2.98 188 195 193
-10.48 -14.05 -2.96 194 201 199
-10.49 -14.13 -2.95 185 193 183
-10.49 -14.22 -2.95 185 193 183
-10.48 -14.30 -2.96 186 192 183
-10.49 -14.39 -2.95 188 194 185
-10.49 -14.47 -2.95 189 195 186
-10.49 -14.55 -2.94 190 196 187
-10.49 -14.64 -2.95 193 196 188
-10.48 -14.72 -2.95 192 195 187
-10.48 -14.81 -2.96 194 197 189
-10.47 -14.89 -2.97 194 197 189
-10.47 -14.98 -2.97 196 197 189
-10.46 -15.07 -2.98 196 197 189
-10.46 -15.15 -2.99 196 197 189
-10.46 -15.23 -2.98 196 197 189
-10.46 -15.32 -2.99 197 196 189
-10.46 -15.40 -2.99 197 196 189
-10.45 -15.49 -2.99 194 196 193
-10.45 -15.58 -3.00 194 196 193
-10.44 -15.66 -3.01 194 196 193
-10.44 -15.75 -3.01 194 196 193
-10.44 -15.83 -3.01 194 196 193
-10.44 -15.92 -3.01 194 196 193
-10.44 -16.00 -3.02 194 196 193
-10.43 -16.09 -3.03 194 196 193
-10.42 -16.18 -3.04 199 201 198
-10.42 -16.26 -3.05 198 200 197
-10.41 -16.35 -3.06 195 197 194
-10.40 -16.43 -3.06 193 195 192
-10.39 -16.52 -3.08 190 192 189
-10.38 -16.61 -3.09 187 189 186
-10.38 -16.69 -3.09 185 187 184
-10.37 -16.78 -3.10 184 186 183
-10.36 -16.87 -3.11 172 172 169
-10.35 -16.96 -3.13 173 173 170
-10.35 -17.04 -3.14 174 174 171
-10.34 -17.13 -3.15 175 175 172
-10.34 -17.22 -3.15 174 174 171
-10.34 -17.30 -3.15 172 172 169
-10.32 -17.39 -3.17 170 170 167
-10.32 -17.48 -3.18 167 167 164
-10.30 -17.57 -3.20 170 170 167
-10.30 -17.65 -3.20 170 170 167
-10.29 -17.74 -3.22 168 168 165
-10.29 -17.83 -3.22 167 167 164
-10.28 -17.92 -3.23 166 166 163
-10.27 -18.01 -3.25 164 164 161
-10.26 -18.09 -3.26 161 161 158
-10.25 -18.18 -3.26 161 161 158
-10.24 -18.27 -3.28 161 161 158
-10.23 -18.36 -3.29 164 164 161
-10.22 -18.45 -3.31 167 167 164
-10.21 -18.54 -3.32 173 173 170
-10.21 -18.62 -3.33 178 178 175
-10.20 -18.71 -3.33 182 182 179
-10.20 -18.80 -3.33 186 186 183
-10.20 -18.88 -3.34 188 188 185
-10.19 -18.97 -3.35 168 168 165
-10.18 -19.06 -3.36 158 158 155
-10.18 -19.14 -3.36 144 144 141
-10.20 -19.22 -3.34 133 133 130
-10.21 -19.30 -3.33 129 129 126
-10.22 -19.38 -3.31 133 133 130
-10.23 -19.46 -3.29 150 150 147
-10.23 -19.55 -3.29 166 166 163
-10.25 -19.63 -3.27 165 165 162
-10.27 -19.70 -3.24 151 151 148
-10.30 -19.78 -3.20 122 122 119
-10.33 -19.85 -3.16 78 78 75
-10.36 -19.92 -3.12 33 33 30
-10.42 -19.98 -3.04 12 12 9
-10.48 -20.04 -2.96 24 24 21
-10.55 -20.09 -2.86 45 45 42
-10.61 -20.15 -2.78 54 54 51
-10.66 -20.21 -2.71 65 65 62
-10.72 -20.27 -2.64 60 60 57
-10.77 -20.33 -2.57 58 58 55
-10.82 -20.39 -2.50 59 59 56
-10.86 -20.46 -2.45 54 54 51
-10.89 -20.52 -2.40 50 50 47
-10.94 -20.59 -2.34 47 47 44
-10.98 -20.65 -2.29 46 44 45
-11.07 -20.69 -2.17 65 63 64
-11.15 -20.74 -2.05 78 77 80
-11.20 -20.80 -1.99 95 94 97
-11.30 -20.83 -1.85 110 109 112
-11.52 -20.81 -1.56 93 92 95
-11.83 -20.74 -1.14 58 60 60
-12.27 -20.61 -0.55 45 47 47
-12.55 -20.56 -0.17 32 33 38
-12.77 -20.53 0.13 17 18 23
-12.94 -20.52 0.36 37 38 57
-13.01 -20.57 0.44 71 72 91
-13.02 -20.64 0.47 55 55 81
-13.00 -20.73 0.43 20 20 46
-12.94 -20.83 0.36 42 45 67
-12.94 -20.91 0.35 55 58 80
-12.94 -20.99 0.35 49 50 71
-12.97 -21.05 0.39 36 37 58
-13.01 -21.10 0.45 42 43 73
-13.04 -21.17 0.48 28 29 59
-13.08 -21.22 0.54 17 20 56
-13.10 -21.29 0.57 16 19 55
-13.13 -21.35 0.61 31 36 71
-13.14 -21.42 0.63 36 41 76
-13.14 -21.50 0.63 37 42 79
-13.14 -21.58 0.62 29 34 71
-13.19 -21.63 0.69 31 31 70
-13.06 -21.77 0.52 18 18 57
-12.64 -22.08 -0.05 29 26 55
-12.03 -22.49 -0.87 80 77 106
-11.56 -22.82 -1.50 159 157 167
-11.42 -22.98 -1.70 211 209 219
-11.38 -23.08 -1.75 245 241 254
-11.38 -23.17 -1.75 224 220 233
-11.39 -23.24 -1.73 209 207 208
-11.37 -23.33 -1.76 205 203 204
-11.34 -23.43 -1.80 211 211 211
-11.34 -23.51 -1.80 214 214 214
-11.34 -23.60 -1.80 207 209 206
-11.35 -23.68 -1.79 208 210 207
-11.35 -23.76 -1.79 207 210 200
-11.37 -23.83 -1.76 209 212 202
-11.37 -23.91 -1.76 211 211 208
-11.37 -23.99 -1.76 209 209 206
-11.38 -24.06 -1.75 211 208 214
-11.38 -24.14 -1.74 215 212 218
-11.39 -24.22 -1.73 216 210 215
-11.40 -24.30 -1.72 212 206 211
-11.40 -24.38 -1.72 214 209 211
-11.40 -24.46 -1.72 214 209 211
-11.39 -24.55 -1.73 214 209 211
-11.39 -24.63 -1.73 214 209 211
-11.39 -24.71 -1.73 214 209 211
-11.39 -24.79 -1.73 214 209 211
-11.38 -24.88 -1.74 214 209 211
-11.38 -24.96 -1.74 214 209 211
-11.37 -25.05 -1.76 217 212 214
-11.37 -25.13 -1.76 217 212 214
-11.37 -25.22 -1.76 217 212 214
-11.37 -25.30 -1.76 217 212 214
-11.37 -25.38 -1.76 217 212 214
-11.37 -25.46 -1.76 217 212 214
-11.36 -25.55 -1.77 217 212 214
-11.37 -25.63 -1.76 217 212 214
-11.36 -25.71 -1.77 217 212 209
-11.36 -25.80 -1.78 217 212 209
-11.35 -25.88 -1.79 217 212 209
-11.35 -25.97 -1.79 217 212 209
-11.35 -26.05 -1.79 217 212 209
-11.35 -26.13 -1.78 217 212 209
-11.35 -26.21 -1.79 217 212 209
-11.35 -26.29 -1.79 217 212 209
-11.35 -26.37 -1.79 217 212 209
-11.35 -26.45 -1.78 217 212 209
-11.35 -26.54 -1.79 217 212 209
-11.35 -26.62 -1.78 217 212 209
-11.35 -26.70 -1.79 217 212 209
-11.35 -26.78 -1.78 217 212 209
-11.35 -26.87 -1.79 217 212 209
-11.35 -26.95 -1.79 217 212 209
-11.34 -27.03 -1.80 217 212 214
-11.34 -27.12 -1.80 217 212 214
-11.35 -27.19 -1.79 217 212 214
-11.34 -27.28 -1.80 217 212 214
-11.35 -27.36 -1.79 217 212 214
-11.35 -27.44 -1.79 217 212 214
-11.35 -27.52 -1.78 217 212 214
-11.35 -27.60 -1.78 217 212 214
-11.35 -27.68 -1.78 218 213 215
-11.36 -27.76 -1.78 218 213 215
-11.36 -27.84 -1.77 218 213 215
-11.36 -27.92 -1.77 218 213 215
-11.36 -28.00 -1.77 218 213 215
-11.37 -28.08 -1.76 218 213 215
-11.37 -28.16 -1.76 218 213 215
-11.37 -28.24 -1.76 218 213 215
-11.37 -28.32 -1.76 218 213 210
-11.37 -28.40 -1.76 218 213 210
-11.37 -28.48 -1.76 218 213 210
-11.37 -28.57 -1.76 218 213 210
-11.37 -28.65 -1.76 218 213 210
-11.37 -28.73 -1.76 218 213 210
-11.37 -28.81 -1.76 218 213 210
-11.37 -28.90 -1.76 218 213 210
-11.37 -28.97 -1.76 220 215 212
-11.36 -29.06 -1.77 220 215 212
-11.36 -29.15 -1.77 220 215 212
-11.36 -29.23 -1.77 220 215 212
-11.36 -29.31 -1.77 220 215 212
-11.37 -29.39 -1.76 220 215 212
-11.37 -29.47 -1.76 220 215 212
-11.37 -29.55 -1.76 220 215 212
-11.37 -29.63 -1.76 222 215 213
-11.37 -29.71 -1.76 222 215 213
-11.37 -29.80 -1.76 222 215 213
-11.37 -29.88 -1.76 222 215 213
-11.37 -29.96 -1.76 222 215 213
-11.37 -30.04 -1.76 222 215 213
-11.37 -30.12 -1.76 222 215 213
-11.37 -30.21 -1.76 222 215 213
-11.37 -30.29 -1.76 224 217 215
-11.37 -30.37 -1.76 224 217 215
-11.37 -30.45 -1.76 224 217 215
-11.37 -30.53 -1.76 224 217 215
-11.38 -30.60 -1.75 224 217 215
-11.38 -30.68 -1.74 224 217 215
-11.39 -30.76 -1.73 224 217 215
-11.39 -30.84 -1.73 224 217 215
-11.39 -30.92 -1.73 226 219 217
-11.40 -31.00 -1.72 226 219 217
-11.40 -31.08 -1.72 226 219 217
-11.40 -31.16 -1.72 226 219 217
-11.40 -31.24 -1.72 226 219 217
-11.40 -31.32 -1.72 226 219 217
-11.41 -31.40 -1.71 226 219 217
-11.41 -31.48 -1.71 226 219 217
-11.41 -31.56 -1.70 225 218 216
-11.43 -31.63 -1.68 225 218 216
-11.43 -31.71 -1.68 225 218 216
-11.44 -31.78 -1.67 226 219 217
-11.44 -31.87 -1.67 227 220 218
-11.43 -31.95 -1.68 227 220 218
-11.42 -32.04 -1.69 228 221 219
-11.45 -32.10 -1.65 228 221 219
-11.47 -32.16 -1.63 224 224 224
-11.49 -32.22 -1.60 222 222 222
-11.52 -32.28 -1.56 251 251 251
-11.56 -32.33 -1.51 244 244 244
-11.76 -32.23 -1.24 248 248 248
-12.22 -31.90 -0.61 248 248 248
-12.52 -31.72 -0.22 244 244 244
-12.61 -31.72 -0.10 246 246 246
-12.57 -31.83 -0.15 249 249 249
-12.47 -32.00 -0.28 251 251 251
-12.15 -32.36 -0.71 252 252 252
-12.03 -32.55 -0.88 252 252 252
-11.83 -32.81 -1.14 244 244 244
-11.97 -32.76 -0.95 250 250 250
-12.00 -32.82 -0.92 217 217 217
-11.02 19.14 -2.35 137 131 122
-11.01 19.07 -2.37 137 131 122
-11.01 18.99 -2.37 137 131 122
-10.96 18.95 -2.44 137 131 122
-10.96 18.87 -2.44 137 131 122
-10.96 18.78 -2.44 137 131 122
-10.93 18.73 -2.48 137 131 122
-10.92 18.65 -2.49 137 131 122
-10.92 18.57 -2.49 139 133 124
-10.91 18.50 -2.50 139 133 124
-10.91 18.41 -2.50 139 133 124
-10.91 18.33 -2.51 139 133 124
-10.91 18.25 -2.51 139 133 124
-10.90 18.17 -2.52 139 133 124
-10.90 18.09 -2.53 139 133 124
-10.90 18.01 -2.53 139 133 124
-10.89 17.93 -2.53 143 134 126
-10.88 17.86 -2.54 143 134 126
-10.88 17.77 -2.54 143 134 126
-10.88 17.69 -2.55 143 134 126
-10.88 17.61 -2.55 143 134 126
-10.87 17.54 -2.56 143 134 126
-10.87 17.45 -2.57 143 134 126
-10.86 17.38 -2.58 143 134 126
-10.85 17.30 -2.59 143 134 126
-10.84 17.23 -2.60 144 135 127
-10.83 17.15 -2.61 144 135 127
-10.83 17.07 -2.62 145 136 128
-10.83 16.98 -2.62 145 136 128
-10.82 16.91 -2.63 146 137 129
-10.82 16.83 -2.63 146 137 129
-10.81 16.75 -2.64 148 139 131
-10.81 16.67 -2.65 148 139 133
-10.80 16.59 -2.66 148 139 133
-10.79 16.52 -2.67 148 139 133
-10.79 16.44 -2.67 148 139 133
-10.78 16.36 -2.68 148 139 133
-10.78 16.28 -2.69 148 139 133
-10.78 16.19 -2.68 148 139 133
-10.77 16.12 -2.70 148 139 133
-10.77 16.03 -2.70 150 141 135
-10.76 15.96 -2.71 150 141 135
-10.75 15.88 -2.72 150 141 135
-10.75 15.80 -2.73 150 141 135
-10.74 15.72 -2.73 150 141 135
-10.74 15.64 -2.74 150 141 135
-10.74 15.56 -2.74 150 141 135
-10.73 15.48 -2.75 150 141 135
-10.73 15.40 -2.76 147 141 134
-10.72 15.32 -2.76 148 142 135
-10.71 15.24 -2.77 148 142 135
-10.72 15.15 -2.77 149 143 136
-10.71 15.07 -2.78 149 143 136
-10.71 14.99 -2.78 150 144 137
-10.70 14.91 -2.79 150 144 137
-10.69 14.83 -2.80 151 145 138
-10.68 14.76 -2.82 153 147 140
-10.68 14.68 -2.82 153 147 140
-10.67 14.60 -2.83 153 147 140
-10.67 14.52 -2.83 153 147 140
-10.67 14.44 -2.84 153 147 140
-10.67 14.35 -2.84 153 147 140
-10.67 14.27 -2.84 153 147 140
-10.66 14.19 -2.84 153 147 140
-10.66 14.10 -2.84 154 148 141
-10.66 14.02 -2.84 154 148 141
-10.66 13.94 -2.84 154 148 141
-10.65 13.86 -2.86 154 148 141
-10.65 13.78 -2.86 154 148 141
-10.64 13.70 -2.87 154 148 141
-10.65 13.61 -2.86 154 148 141
-10.64 13.53 -2.87 154 148 141
-10.64 13.45 -2.87 157 151 144
-10.63 13.37 -2.88 157 151 144
-10.63 13.29 -2.89 157 151 144
-10.62 13.21 -2.89 157 151 144
-10.62 13.12 -2.89 157 151 144
-10.62 13.04 -2.91 157 151 144
-10.62 12.96 -2.90 157 151 144
-10.62 12.88 -2.90 157 151 144
-10.61 12.80 -2.91 157 156 147
-10.61 12.71 -2.92 157 156 147
-10.60 12.64 -2.93 157 156 147
-10.59 12.56 -2.94 157 156 147
-10.60 12.47 -2.93 157 156 147
-10.59 12.39 -2.93 157 156 147
-10.60 12.30 -2.93 157 156 147
-10.59 12.22 -2.94 157 156 147
-10.58 12.14 -2.95 159 158 149
-10.58 12.06 -2.96 159 158 149
-10.58 11.97 -2.95 159 158 149
-10.57 11.90 -2.97 159 158 149
-10.57 11.82 -2.97 159 158 149
-10.56 11.74 -2.98 159 158 149
-10.56 11.65 -2.97 159 158 149
-10.56 11.57 -2.99 159 158 149
-10.55 11.49 -2.99 162 158 150
-10.55 11.41 -3.00 163 159 151
-10.54 11.32 -3.00 163 159 151
-10.54 11.24 -3.00 164 160 152
-10.55 11.15 -2.99 164 160 152
-10.55 11.07 -3.00 166 162 154
-10.54 10.99 -3.01 166 162 154
-10.54 10.90 -3.00 167 163 155
-10.53 10.83 -3.02 167 163 155
-10.53 10.74 -3.02 167 163 155
-10.53 10.66 -3.03 167 163 155
-10.53 10.58 -3.03 167 163 155
-10.53 10.49 -3.03 167 163 155
-10.53 10.41 -3.02 167 163 155
-10.53 10.32 -3.02 167 163 155
-10.52 10.24 -3.03 167 163 155
-10.53 10.15 -3.02 169 163 158
-10.53 10.07 -3.03 169 163 158
-10.52 9.99 -3.03 168 164 158
-10.53 9.90 -3.02 168 164 158
-10.53 9.82 -3.02 168 164 158
-10.53 9.73 -3.02 168 164 158
-10.53 9.64 -3.02 166 165 158
-10.53 9.56 -3.02 166 165 158
-10.53 9.48 -3.02 167 166 159
-10.53 9.39 -3.02 168 167 160
-10.53 9.31 -3.02 168 169 161
-10.53 9.22 -3.02 168 169 161
-10.54 9.14 -3.01 170 171 163
-10.54 9.05 -3.01 171 172 164
-10.54 8.97 -3.01 170 173 165
-10.54 8.88 -3.01 171 174 166
-10.54 8.80 -3.01 175 171 165
-10.53 8.72 -3.02 175 171 165
-10.54 8.63 -3.01 175 171 165
-10.54 8.55 -3.01 175 171 165
-10.54 8.46 -3.01 175 171 165
-10.54 8.38 -3.01 175 171 165
-10.54 8.29 -3.00 175 171 165
-10.54 8.21 -3.01 175 171 165
-10.54 8.13 -3.01 176 172 166
-10.54 8.04 -3.01 176 172 166
-10.54 7.96 -3.01 176 172 166
-10.54 7.87 -3.01 176 172 166
-10.54 7.79 -3.00 176 172 166
-10.54 7.70 -3.00 176 172 166
-10.54 7.62 -3.00 176 172 166
-10.55 7.53 -3.00 176 172 166
-10.55 7.44 -2.99 177 175 171
-10.54 7.36 -3.00 177 175 171
-10.56 7.27 -2.99 177 175 171
-10.55 7.19 -2.99 177 175 171
-10.55 7.11 -2.99 177 175 171
-10.55 7.02 -2.99 177 175 171
-10.55 6.94 -2.99 177 175 171
-10.55 6.85 -2.99 177 175 171
-10.55 6.77 -2.99 179 177 173
-10.55 6.69 -2.99 179 177 173
-10.54 6.61 -3.00 179 177 173
-10.54 6.52 -3.01 179 177 173
-10.54 6.44 -3.01 179 177 173
-10.53 6.36 -3.02 179 177 173
-10.54 6.27 -3.01 179 177 173
-10.53 6.19 -3.03 179 177 173
-10.53 6.11 -3.03 179 179 174
-10.52 6.02 -3.03 179 179 174
-10.53 5.94 -3.03 179 179 174
-10.52 5.86 -3.03 179 179 174
-10.52 5.77 -3.03 179 179 174
-10.53 5.69 -3.03 179 179 174
-10.53 5.60 -3.02 179 179 174
-10.52 5.52 -3.03 179 179 174
-10.52 5.43 -3.03 178 178 173
-10.52 5.35 -3.03 178 178 173
-10.52 5.27 -3.03 178 178 173
-10.52 5.18 -3.04 178 178 173
-10.52 5.10 -3.03 178 178 173
-10.52 5.01 -3.03 178 178 173
-10.52 4.93 -3.03 178 178 173
-10.53 4.84 -3.02 178 178 173
-10.52 4.76 -3.03 178 178 173
-10.52 4.67 -3.03 178 178 173
-10.52 4.59 -3.03 178 178 173
-10.52 4.51 -3.03 178 178 173
-10.53 4.42 -3.03 178 178 173
-10.53 4.34 -3.02 178 178 173
-10.53 4.25 -3.03 178 178 173
-10.53 4.17 -3.02 178 178 173
-10.53 4.08 -3.02 176 176 171
-10.52 4.00 -3.03 176 176 171
-10.52 3.92 -3.03 176 176 171
-10.52 3.83 -3.03 176 176 171
-10.52 3.75 -3.03 176 176 171
-10.53 3.66 -3.03 176 176 171
-10.52 3.58 -3.03 176 176 171
-10.52 3.49 -3.03 176 176 171
-10.52 3.41 -3.03 174 174 169
-10.52 3.32 -3.03 174 174 169
-10.52 3.24 -3.03 174 174 169
-10.52 3.16 -3.03 174 174 169
-10.53 3.07 -3.02 174 174 169
-10.53 2.99 -3.02 174 174 169
-10.54 2.90 -3.01 174 174 169
-10.53 2.82 -3.02 174 174 169
-10.53 2.73 -3.03 173 173 168
-10.52 2.65 -3.03 173 173 168
-10.52 2.57 -3.03 173 173 168
-10.53 2.48 -3.03 173 173 168
-10.53 2.39 -3.02 173 173 168
-10.54 2.31 -3.01 173 173 168
-10.54 2.22 -3.01 173 173 168
-10.54 2.14 -3.01 173 173 168
-10.54 2.05 -3.00 172 172 167
-10.54 1.97 -3.00 172 172 167
-10.55 1.88 -3.00 172 172 167
-10.55 1.80 -2.99 172 172 167
-10.55 1.71 -2.99 172 172 167
-10.56 1.63 -2.98 172 172 167
-10.56 1.54 -2.97 172 172 167
-10.56 1.46 -2.98 172 172 167
-10.57 1.37 -2.97 172 172 167
-10.56 1.29 -2.97 172 172 167
-10.57 1.20 -2.97 172 172 167
-10.57 1.12 -2.97 172 172 167
-10.57 1.04 -2.97 172 172 167
-10.57 0.95 -2.97 172 172 167
-10.57 0.87 -2.97 172 172 167
-10.57 0.78 -2.96 172 172 167
-10.57 0.70 -2.97 170 172 167
-10.57 0.61 -2.96 170 172 167
-10.57 0.53 -2.96 170 172 167
-10.57 0.44 -2.96 170 172 167
-10.59 0.36 -2.94 170 172 167
-10.59 0.27 -2.94 170 172 167
-10.59 0.19 -2.94 170 172 167
-10.59 0.10 -2.94 170 172 167
-10.60 0.02 -2.93 169 171 166
-10.61 -0.07 -2.92 169 171 166
-10.60 -0.15 -2.93 169 171 166
-10.61 -0.24 -2.91 169 171 166
-10.61 -0.32 -2.91 169 171 166
-10.61 -0.41 -2.91 169 171 166
-10.62 -0.49 -2.91 169 171 166
-10.62 -0.58 -2.91 169 171 166
-10.62 -0.66 -2.91 167 175 165
-10.61 -0.74 -2.92 167 175 165
-10.61 -0.83 -2.92 167 175 165
-10.61 -0.91 -2.91 167 175 165
-10.61 -0.99 -2.92 167 175 165
-10.61 -1.08 -2.91 167 175 165
-10.60 -1.16 -2.92 167 175 165
-10.61 -1.25 -2.92 167 175 165
-10.61 -1.33 -2.92 168 176 166
-10.61 -1.41 -2.92 168 176 166
-10.61 -1.50 -2.91 168 176 166
-10.62 -1.58 -2.91 168 176 166
-10.62 -1.67 -2.90 168 176 166
-10.62 -1.75 -2.89 168 176 166
-10.63 -1.84 -2.89 168 176 166
-10.63 -1.92 -2.89 168 176 166
-10.63 -2.01 -2.89 169 174 170
-10.63 -2.09 -2.89 169 174 170
-10.62 -2.17 -2.90 169 174 170
-10.62 -2.26 -2.90 169 174 170
-10.63 -2.34 -2.89 169 174 170
-10.62 -2.43 -2.89 169 174 170
-10.63 -2.51 -2.89 169 174 170
-10.63 -2.60 -2.89 169 174 170
-10.62 -2.68 -2.89 170 175 171
-10.62 -2.76 -2.89 170 175 171
-10.63 -2.85 -2.89 170 175 171
-10.62 -2.93 -2.90 170 175 171
-10.62 -3.01 -2.90 170 175 171
-10.62 -3.10 -2.91 170 175 171
-10.62 -3.18 -2.91 170 175 171
-10.62 -3.27 -2.90 170 175 171
-10.62 -3.35 -2.91 171 173 168
-10.62 -3.44 -2.90 172 174 169
-10.62 -3.52 -2.90 172 174 169
-10.62 -3.60 -2.90 173 175 170
-10.62 -3.69 -2.89 173 175 170
-10.63 -3.77 -2.89 174 176 171
-10.62 -3.86 -2.90 174 176 171
-10.62 -3.94 -2.90 176 178 173
-10.61 -4.02 -2.91 174 176 171
-10.61 -4.11 -2.91 174 176 171
-10.61 -4.19 -2.91 174 176 171
-10.61 -4.27 -2.92 174 176 171
-10.61 -4.36 -2.91 174 176 171
-10.61 -4.44 -2.91 174 176 171
-10.61 -4.53 -2.92 174 176 171
-10.61 -4.61 -2.92 174 176 171
-10.60 -4.69 -2.93 171 176 175
-10.60 -4.78 -2.93 171 176 175
-10.60 -4.86 -2.92 171 176 175
-10.60 -4.95 -2.93 171 176 175
-10.60 -5.03 -2.93 171 176 175
-10.60 -5.11 -2.93 171 176 175
-10.59 -5.20 -2.93 171 176 175
-10.59 -5.28 -2.94 171 176 175
-10.59 -5.37 -2.94 174 179 178
-10.59 -5.45 -2.94 174 179 178
-10.58 -5.53 -2.95 174 179 178
-10.59 -5.62 -2.94 174 179 178
-10.59 -5.70 -2.94 174 179 178
-10.58 -5.79 -2.95 174 179 178
-10.58 -5.87 -2.95 174 179 178
-10.58 -5.95 -2.95 174 179 178
-10.57 -6.04 -2.97 174 179 173
-10.56 -6.12 -2.97 174 179 173
-10.56 -6.21 -2.98 174 179 173
-10.55 -6.29 -2.99 174 179 173
-10.55 -6.37 -2.99 174 179 173
-10.54 -6.46 -3.00 174 179 173
-10.53 -6.54 -3.02 174 179 173
-10.53 -6.63 -3.02 174 179 173
-10.51 -6.71 -3.04 176 181 175
-10.50 -6.80 -3.05 178 183 177
-10.50 -6.88 -3.06 167 172 166
-10.49 -6.96 -3.08 175 180 174
-10.49 -7.05 -3.07 171 176 170
-10.47 -7.13 -3.10 178 183 177
-10.43 -7.22 -3.15 176 181 175
-10.42 -7.30 -3.16 160 165 159
-10.65 -7.39 -2.86 183 185 180
-11.16 -7.47 -2.17 243 245 240
-11.34 -7.55 -1.93 247 249 244
-11.33 -7.63 -1.94 250 252 247
-11.31 -7.71 -1.96 247 249 244
-11.32 -7.80 -1.95 247 249 244
-11.33 -7.88 -1.94 254 255 251
-11.33 -7.96 -1.95 248 250 245
-11.32 -8.04 -1.96 249 251 246
-11.32 -8.12 -1.96 249 251 246
-11.31 -8.21 -1.96 249 251 246
-11.31 -8.29 -1.97 249 251 246
-11.29 -8.37 -1.99 249 251 246
-11.28 -8.45 -2.01 249 251 246
-11.28 -8.54 -2.01 249 251 246
-11.27 -8.62 -2.02 249 251 246
-11.26 -8.70 -2.03 246 253 251
-11.25 -8.78 -2.04 246 253 251
-11.24 -8.87 -2.06 246 253 251
-11.23 -8.95 -2.07 246 253 251
-11.24 -9.03 -2.07 246 253 251
-11.23 -9.11 -2.08 246 253 251
-11.22 -9.20 -2.09 246 253 251
-11.21 -9.28 -2.10 246 253 251
-11.21 -9.36 -2.10 246 253 251
-11.21 -9.45 -2.11 246 253 251
-11.21 -9.53 -2.11 246 253 251
-11.20 -9.61 -2.12 246 253 251
-11.19 -9.69 -2.13 246 253 251
-11.19 -9.78 -2.13 246 253 251
-11.19 -9.86 -2.13 246 253 251
-11.20 -9.94 -2.12 246 253 251
-11.20 -10.02 -2.12 246 253 251
-11.20 -10.11 -2.12 246 253 251
-11.20 -10.19 -2.12 246 253 251
-11.20 -10.27 -2.12 246 253 251
-11.21 -10.35 -2.11 246 253 251
-11.21 -10.43 -2.10 246 253 251
-11.21 -10.52 -2.10 246 253 251
-11.22 -10.60 -2.09 246 253 251
-11.22 -10.68 -2.09 246 253 251
-11.22 -10.76 -2.09 246 253 251
-11.23 -10.84 -2.08 246 253 251
-11.23 -10.93 -2.08 246 253 251
-11.23 -11.01 -2.08 246 253 251
-11.23 -11.09 -2.07 246 253 251
-11.24 -11.17 -2.06 246 253 251
-11.24 -11.25 -2.06 246 253 251
-11.24 -11.34 -2.06 246 253 251
-11.24 -11.42 -2.07 246 253 251
-11.24 -11.50 -2.06 246 253 251
-11.24 -11.58 -2.07 246 253 251
-11.24 -11.67 -2.07 246 253 251
-11.24 -11.75 -2.07 246 253 251
-11.23 -11.83 -2.07 246 253 251
-11.23 -11.91 -2.07 246 253 251
-11.23 -12.00 -2.08 246 253 251
-11.23 -12.08 -2.08 246 253 251
-11.23 -12.16 -2.07 246 253 251
-11.24 -12.24 -2.07 246 253 251
-11.25 -12.32 -2.05 246 253 251
-11.25 -12.40 -2.05 246 253 251
-11.26 -12.48 -2.03 246 253 251
-11.26 -12.57 -2.04 246 253 251
-11.26 -12.65 -2.03 240 247 245
-11.25 -12.73 -2.04 243 250 248
-11.24 -12.82 -2.06 247 254 252
-11.23 -12.90 -2.08 251 255 255
-11.21 -12.99 -2.10 250 255 255
-11.19 -13.07 -2.13 246 253 251
-11.16 -13.16 -2.16 241 248 246
-11.07 -13.26 -2.29 238 245 243
-10.91 -13.38 -2.50 229 236 234
-10.75 -13.50 -2.73 208 215 213
-10.62 -13.61 -2.90 185 192 190
-10.56 -13.70 -2.98 177 184 182
-10.56 -13.79 -2.99 181 188 186
-10.58 -13.87 -2.95 190 197 195
-10.60 -13.95 -2.93 192 199 197
-10.60 -14.03 -2.92 187 194 192
-10.61 -14.11 -2.91 184 191 184
-10.60 -14.20 -2.92 188 195 188
-10.61 -14.28 -2.92 190 195 189
-10.62 -14.36 -2.91 189 194 188
-10.61 -14.45 -2.91 188 193 187
-10.61 -14.53 -2.91 186 191 185
-10.61 -14.62 -2.91 192 194 189
-10.61 -14.70 -2.91 194 196 191
-10.61 -14.79 -2.91 194 196 191
-10.61 -14.87 -2.92 194 196 191
-10.61 -14.96 -2.92 196 196 191
-10.60 -15.04 -2.93 196 196 191
-10.60 -15.12 -2.92 196 196 191
-10.60 -15.21 -2.93 196 196 191
-10.60 -15.29 -2.93 197 195 191
-10.60 -15.38 -2.92 197 195 191
-10.60 -15.46 -2.92 194 196 193
-10.60 -15.55 -2.93 194 196 193
-10.60 -15.63 -2.93 194 196 193
-10.59 -15.72 -2.94 194 196 193
-10.59 -15.80 -2.94 194 196 193
-10.59 -15.89 -2.94 194 196 193
-10.60 -15.97 -2.93 194 196 193
-10.58 -16.05 -2.95 194 196 193
-10.58 -16.14 -2.96 198 200 197
-10.57 -16.23 -2.96 198 200 197
-10.56 -16.32 -2.99 197 199 196
-10.55 -16.40 -2.99 197 199 196
-10.54 -16.49 -3.00 197 199 196
-10.54 -16.57 -3.01 197 199 196
-10.54 -16.66 -3.01 197 199 196
-10.53 -16.75 -3.03 197 199 196
-10.52 -16.83 -3.03 188 188 185
-10.51 -16.92 -3.05 183 183 180
-10.51 -17.01 -3.05 179 179 176
-10.50 -17.09 -3.06 173 173 170
-10.49 -17.18 -3.07 171 171 168
-10.48 -17.27 -3.08 171 171 168
-10.47 -17.35 -3.10 173 173 170
-10.47 -17.44 -3.10 174 174 171
-10.46 -17.53 -3.12 171 171 168
-10.45 -17.62 -3.12 171 171 168
-10.44 -17.70 -3.14 172 172 169
-10.44 -17.79 -3.14 172 172 169
-10.43 -17.88 -3.15 171 171 168
-10.43 -17.96 -3.15 168 168 165
-10.42 -18.05 -3.16 166 166 163
-10.41 -18.14 -3.18 164 164 161
-10.40 -18.23 -3.19 170 170 167
-10.39 -18.32 -3.21 165 165 162
-10.38 -18.40 -3.23 160 160 157
-10.38 -18.49 -3.23 158 158 155
-10.36 -18.58 -3.25 161 161 158
-10.35 -18.67 -3.26 170 170 167
-10.34 -18.76 -3.27 179 179 176
-10.34 -18.84 -3.27 186 186 183
-10.34 -18.93 -3.27 187 187 184
-10.34 -19.01 -3.28 187 187 184
-10.32 -19.10 -3.30 183 183 180
-10.34 -19.18 -3.28 174 174 171
-10.34 -19.27 -3.27 156 156 153
-10.35 -19.35 -3.26 140 140 137
-10.36 -19.43 -3.25 138 138 135
-10.36 -19.52 -3.25 144 144 141
-10.36 -19.60 -3.25 138 138 135
-10.37 -19.68 -3.24 152 152 149
-10.38 -19.76 -3.22 163 163 160
-10.40 -19.84 -3.19 164 164 161
-10.42 -19.91 -3.17 160 160 157
-10.47 -19.98 -3.10 136 136 133
-10.52 -20.04 -3.04 78 78 75
-10.56 -20.10 -2.97 20 20 17
-10.62 -20.17 -2.91 9 9 6
-10.67 -20.23 -2.83 31 31 28
-10.73 -20.28 -2.75 47 47 44
-10.79 -20.34 -2.67 53 53 50
-10.85 -20.40 -2.59 64 64 61
-10.89 -20.46 -2.53 67 67 64
-10.94 -20.52 -2.46 62 62 59
-10.99 -20.58 -2.39 71 71 68
-11.04 -20.64 -2.34 60 59 52
-11.11 -20.69 -2.24 56 55 48
-11.20 -20.73 -2.12 47 47 42
-11.26 -20.79 -2.04 51 51 46
-11.36 -20.82 -1.89 65 65 60
-11.59 -20.79 -1.58 68 68 63
-11.91 -20.73 -1.16 56 58 55
-12.34 -20.60 -0.57 49 51 48
-12.65 -20.52 -0.15 34 34 46
-12.88 -20.50 0.15 10 10 22
-13.04 -20.49 0.37 57 57 83
-13.13 -20.52 0.49 72 72 98
-13.16 -20.59 0.53 41 40 71
-13.14 -20.67 0.51 30 29 60
-13.10 -20.77 0.45 43 46 68
-13.07 -20.86 0.41 54 57 79
-13.06 -20.95 0.39 64 61 78
-13.09 -21.01 0.43 37 34 51
-13.14 -21.06 0.51 93 91 101
-13.18 -21.11 0.56 133 131 141
-13.23 -21.17 0.63 92 94 91
-13.25 -21.23 0.66 45 47 44
-13.29 -21.29 0.71 17 18 10
-13.31 -21.35 0.74 16 17 9
-13.33 -21.42 0.76 12 11 14
-13.33 -21.49 0.77 34 33 36
-13.34 -21.57 0.78 41 35 58
-13.35 -21.64 0.79 42 36 59
-13.31 -21.73 0.74 48 37 73
-13.06 -21.95 0.39 34 23 59
-12.63 -22.26 -0.19 31 18 57
-12.14 -22.60 -0.84 95 82 121
-11.77 -22.89 -1.34 196 185 212
-11.59 -23.07 -1.58 240 229 255
-11.54 -23.18 -1.65 249 242 254
-11.56 -23.25 -1.63 234 227 239
-11.52 -23.35 -1.68 210 207 211
-11.49 -23.45 -1.72 210 207 211
-11.48 -23.54 -1.74 206 206 203
-11.48 -23.62 -1.74 207 207 204
-11.49 -23.70 -1.72 205 208 198
-11.49 -23.78 -1.73 208 211 201
-11.49 -23.86 -1.72 211 211 206
-11.50 -23.94 -1.71 210 210 205
-11.51 -24.01 -1.70 210 208 209
-11.51 -24.09 -1.70 211 209 210
-11.51 -24.18 -1.70 213 209 203
-11.52 -24.25 -1.69 211 207 201
-11.52 -24.33 -1.68 214 209 211
-11.52 -24.41 -1.68 214 209 211
-11.52 -24.50 -1.68 214 209 211
-11.52 -24.58 -1.68 214 209 211
-11.51 -24.66 -1.70 214 209 211
-11.51 -24.75 -1.70 214 209 211
-11.51 -24.83 -1.69 214 209 211
-11.51 -24.91 -1.70 214 209 211
-11.50 -25.00 -1.71 217 212 214
-11.50 -25.08 -1.71 217 212 214
-11.49 -25.16 -1.72 217 212 214
-11.49 -25.25 -1.72 217 212 214
-11.49 -25.33 -1.72 217 212 214
-11.49 -25.41 -1.72 217 212 214
-11.49 -25.49 -1.72 217 212 214
-11.49 -25.57 -1.72 217 212 214
-11.49 -25.66 -1.73 217 212 209
-11.49 -25.74 -1.73 217 212 209
-11.48 -25.83 -1.74 217 212 209
-11.48 -25.91 -1.74 217 212 209
-11.47 -25.99 -1.75 217 212 209
-11.48 -26.07 -1.74 217 212 209
-11.47 -26.16 -1.75 217 212 209
-11.47 -26.24 -1.75 217 212 209
-11.48 -26.32 -1.74 217 212 209
-11.47 -26.40 -1.75 217 212 209
-11.47 -26.48 -1.75 217 212 209
-11.48 -26.56 -1.74 217 212 209
-11.48 -26.64 -1.74 217 212 209
-11.47 -26.73 -1.75 217 212 209
-11.48 -26.81 -1.74 217 212 209
-11.48 -26.89 -1.74 217 212 209
-11.48 -26.97 -1.74 217 212 214
-11.47 -27.05 -1.75 217 212 214
-11.47 -27.14 -1.75 217 212 214
-11.47 -27.22 -1.75 217 212 214
-11.48 -27.29 -1.74 217 212 214
-11.48 -27.37 -1.73 217 212 214
-11.48 -27.45 -1.73 217 212 214
-11.48 -27.54 -1.73 217 212 214
-11.48 -27.62 -1.73 218 213 215
-11.48 -27.70 -1.73 218 213 215
-11.49 -27.78 -1.73 218 213 215
-11.49 -27.86 -1.72 218 213 215
-11.49 -27.94 -1.72 218 213 215
-11.49 -28.02 -1.72 218 213 215
-11.50 -28.10 -1.71 218 213 215
-11.50 -28.18 -1.72 218 213 215
-11.50 -28.26 -1.72 218 213 210
-11.50 -28.34 -1.71 218 213 210
-11.50 -28.42 -1.71 218 213 210
-11.50 -28.50 -1.71 218 213 210
-11.50 -28.58 -1.71 218 213 210
-11.50 -28.67 -1.72 218 213 210
-11.50 -28.75 -1.71 218 213 210
-11.50 -28.83 -1.71 218 213 210
-11.50 -28.91 -1.72 220 215 212
-11.50 -28.99 -1.72 220 215 212
-11.50 -29.08 -1.72 220 215 212
-11.49 -29.16 -1.72 220 215 212
-11.49 -29.24 -1.72 220 215 212
-11.50 -29.32 -1.72 220 215 212
-11.50 -29.40 -1.71 220 215 212
-11.50 -29.48 -1.72 220 215 212
-11.50 -29.56 -1.71 222 215 213
-11.50 -29.65 -1.72 222 215 213
-11.50 -29.73 -1.72 222 215 213
-11.50 -29.81 -1.72 222 215 213
-11.49 -29.89 -1.72 222 215 213
-11.49 -29.98 -1.72 222 215 213
-11.49 -30.06 -1.72 222 215 213
-11.49 -30.14 -1.72 222 215 213
-11.49 -30.22 -1.72 224 217 215
-11.49 -30.30 -1.72 224 217 215
-11.49 -30.39 -1.72 224 217 215
-11.50 -30.46 -1.72 224 217 215
-11.50 -30.54 -1.71 224 217 215
-11.51 -30.61 -1.70 224 217 215
-11.52 -30.69 -1.69 224 217 215
-11.52 -30.77 -1.68 224 217 215
-11.52 -30.85 -1.69 226 219 217
-11.52 -30.93 -1.68 226 219 217
-11.53 -31.01 -1.67 226 219 217
-11.53 -31.09 -1.67 226 219 217
-11.52 -31.17 -1.68 226 219 217
-11.53 -31.25 -1.67 226 219 217
-11.53 -31.33 -1.67 226 219 217
-11.53 -31.41 -1.67 226 219 217
-11.53 -31.50 -1.67 224 217 215
-11.54 -31.57 -1.66 225 218 216
-11.54 -31.65 -1.66 225 218 216
-11.55 -31.72 -1.65 226 219 217
-11.55 -31.80 -1.64 226 219 217
-11.55 -31.88 -1.64 227 220 218
-11.55 -31.96 -1.64 227 220 218
-11.56 -32.03 -1.62 227 220 218
-11.59 -32.09 -1.59 223 223 223
-11.62 -32.14 -1.54 222 222 222
-11.66 -32.19 -1.49 248 248 248
-11.69 -32.25 -1.46 246 246 246
-11.91 -32.13 -1.16 250 250 250
-12.38 -31.80 -0.52 251 251 251
-12.68 -31.61 -0.12 249 249 249
-12.77 -31.60 0.01 251 251 251
-12.78 -31.67 0.02 250 250 250
-12.69 -31.84 -0.11 252 252 252
-12.38 -32.19 -0.52 252 252 252
-12.10 -32.53 -0.90 255 255 255
-11.92 -32.77 -1.14 250 250 250
-12.10 -32.68 -0.90 248 248 248
-12.00 -32.85 -1.03 235 235 235
-11.15 19.07 -2.31 137 131 122
-11.13 19.00 -2.33 137 131 122
-11.13 18.91 -2.33 137 131 122
-11.07 18.89 -2.41 137 131 122
-11.07 18.80 -2.41 137 131 122
-11.08 18.72 -2.41 137 131 122
-11.05 18.66 -2.44 137 131 122
-11.05 18.58 -2.45 137 131 122
-11.04 18.50 -2.46 139 133 124
-11.03 18.43 -2.48 139 133 124
-11.02 18.35 -2.48 139 133 124
-11.02 18.27 -2.49 139 133 124
-11.02 18.19 -2.49 139 133 124
-11.02 18.11 -2.49 139 133 124
-11.01 18.03 -2.49 139 133 124
-11.01 17.95 -2.50 139 133 124
-11.00 17.87 -2.51 143 134 126
-11.00 17.79 -2.52 143 134 126
-11.00 17.71 -2.52 143 134 126
-10.99 17.63 -2.53 143 134 126
-10.98 17.55 -2.53 143 134 126
-10.98 17.47 -2.54 143 134 126
-10.98 17.39 -2.54 143 134 126
-10.97 17.31 -2.55 143 134 126
-10.96 17.24 -2.57 143 134 126
-10.96 17.16 -2.57 144 135 127
-10.95 17.08 -2.58 144 135 127
-10.94 17.01 -2.59 145 136 128
-10.94 16.92 -2.59 145 136 128
-10.93 16.85 -2.60 146 137 129
-10.92 16.77 -2.62 146 137 129
-10.92 16.70 -2.63 148 139 131
-10.91 16.62 -2.64 148 139 133
-10.91 16.54 -2.64 148 139 133
-10.90 16.46 -2.65 148 139 133
-10.90 16.38 -2.65 148 139 133
-10.89 16.30 -2.67 148 139 133
-10.88 16.22 -2.67 148 139 133
-10.88 16.14 -2.67 148 139 133
-10.88 16.06 -2.67 148 139 133
-10.88 15.98 -2.68 150 141 135
-10.87 15.90 -2.69 150 141 135
-10.87 15.82 -2.69 150 141 135
-10.86 15.74 -2.71 150 141 135
-10.86 15.66 -2.71 150 141 135
-10.86 15.58 -2.71 150 141 135
-10.85 15.50 -2.72 150 141 135
-10.84 15.42 -2.72 150 141 135
-10.84 15.34 -2.73 147 141 134
-10.84 15.26 -2.73 148 142 135
-10.83 15.18 -2.74 148 142 135
-10.83 15.10 -2.75 149 143 136
-10.82 15.02 -2.75 149 143 136
-10.82 14.94 -2.76 150 144 137
-10.81 14.86 -2.77 150 144 137
-10.80 14.79 -2.79 151 145 138
-10.79 14.71 -2.79 153 147 140
-10.79 14.63 -2.80 153 147 140
-10.79 14.55 -2.80 153 147 140
-10.79 14.46 -2.79 153 147 140
-10.79 14.38 -2.80 153 147 140
-10.79 14.29 -2.80 153 147 140
-10.78 14.22 -2.81 153 147 140
-10.78 14.13 -2.81 153 147 140
-10.78 14.05 -2.81 154 148 141
-10.77 13.97 -2.82 154 148 141
-10.77 13.88 -2.82 154 148 141
-10.77 13.80 -2.82 154 148 141
-10.77 13.72 -2.82 154 148 141
-10.76 13.64 -2.84 154 148 141
-10.76 13.56 -2.84 154 148 141
-10.75 13.48 -2.85 154 148 141
-10.75 13.40 -2.85 157 151 144
-10.75 13.31 -2.85 157 151 144
-10.74 13.23 -2.86 157 151 144
-10.74 13.15 -2.86 157 151 144
-10.74 13.07 -2.86 157 151 144
-10.74 12.98 -2.86 157 151 144
-10.74 12.90 -2.87 157 151 144
-10.73 12.82 -2.87 157 151 144
-10.73 12.74 -2.88 157 156 147
-10.72 12.66 -2.89 157 156 147
-10.72 12.58 -2.90 157 156 147
-10.72 12.50 -2.90 157 156 147
-10.71 12.42 -2.90 157 156 147
-10.71 12.34 -2.91 157 156 147
-10.71 12.26 -2.91 157 156 147
-10.70 12.17 -2.91 157 156 147
-10.69 12.10 -2.93 159 158 149
-10.69 12.01 -2.93 159 158 149
-10.69 11.93 -2.93 159 158 149
-10.69 11.85 -2.94 159 158 149
-10.68 11.77 -2.94 159 158 149
-10.68 11.68 -2.95 159 158 149
-10.68 11.60 -2.95 159 158 149
-10.68 11.52 -2.95 159 158 149
-10.67 11.44 -2.96 162 158 150
-10.67 11.36 -2.96 163 159 151
-10.66 11.27 -2.97 163 159 151
-10.66 11.19 -2.97 164 160 152
-10.67 11.11 -2.97 164 160 152
-10.67 11.02 -2.96 166 162 154
-10.67 10.94 -2.96 166 162 154
-10.66 10.86 -2.97 167 163 155
-10.66 10.77 -2.98 167 163 155
-10.65 10.69 -2.98 167 163 155
-10.65 10.61 -2.99 167 163 155
-10.65 10.53 -2.99 167 163 155
-10.65 10.45 -2.99 167 163 155
-10.64 10.36 -3.00 167 163 155
-10.65 10.28 -2.99 167 163 155
-10.64 10.19 -3.00 167 163 155
-10.65 10.11 -2.99 169 163 158
-10.65 10.02 -2.99 169 163 158
-10.65 9.94 -2.99 168 164 158
-10.65 9.85 -2.99 168 164 158
-10.65 9.77 -2.98 168 164 158
-10.65 9.68 -2.98 168 164 158
-10.66 9.60 -2.98 166 165 158
-10.65 9.52 -2.99 166 165 158
-10.65 9.43 -2.99 167 166 159
-10.65 9.35 -2.99 168 167 160
-10.65 9.26 -2.99 168 169 161
-10.65 9.18 -2.98 168 169 161
-10.66 9.09 -2.98 170 171 163
-10.65 9.01 -2.98 171 172 164
-10.65 8.93 -2.98 170 173 165
-10.65 8.84 -2.98 171 174 166
-10.65 8.76 -2.98 175 171 165
-10.65 8.68 -2.99 175 171 165
-10.65 8.59 -2.98 175 171 165
-10.65 8.51 -2.98 175 171 165
-10.66 8.42 -2.98 175 171 165
-10.65 8.34 -2.98 175 171 165
-10.66 8.25 -2.98 175 171 165
-10.65 8.17 -2.99 175 171 165
-10.66 8.08 -2.98 176 172 166
-10.65 8.00 -2.98 176 172 166
-10.66 7.91 -2.97 176 172 166
-10.66 7.83 -2.97 176 172 166
-10.66 7.75 -2.98 176 172 166
-10.67 7.66 -2.96 176 172 166
-10.66 7.58 -2.97 176 172 166
-10.67 7.49 -2.96 176 172 166
-10.67 7.40 -2.95 177 175 171
-10.67 7.32 -2.96 177 175 171
-10.67 7.24 -2.96 177 175 171
-10.66 7.16 -2.97 177 175 171
-10.67 7.07 -2.97 177 175 171
-10.66 6.99 -2.97 177 175 171
-10.66 6.91 -2.97 177 175 171
-10.67 6.82 -2.97 177 175 171
-10.67 6.73 -2.97 179 177 173
-10.66 6.65 -2.97 179 177 173
-10.66 6.57 -2.98 179 177 173
-10.66 6.49 -2.97 179 177 173
-10.66 6.40 -2.97 179 177 173
-10.65 6.32 -2.99 179 177 173
-10.65 6.24 -2.99 179 177 173
-10.64 6.16 -3.00 179 177 173
-10.64 6.07 -3.00 179 179 174
-10.64 5.99 -3.00 179 179 174
-10.64 5.91 -3.00 179 179 174
-10.64 5.82 -3.00 179 179 174
-10.64 5.74 -3.00 179 179 174
-10.64 5.65 -3.00 179 179 174
-10.64 5.57 -3.00 179 179 174
-10.64 5.49 -3.00 179 179 174
-10.64 5.40 -3.01 178 178 173
-10.63 5.32 -3.01 178 178 173
-10.63 5.24 -3.01 178 178 173
-10.64 5.15 -3.01 178 178 173
-10.64 5.07 -3.01 178 178 173
-10.64 4.98 -3.00 178 178 173
-10.64 4.90 -3.00 178 178 173
-10.64 4.81 -3.00 178 178 173
-10.64 4.73 -3.00 178 178 173
-10.65 4.64 -2.99 178 178 173
-10.64 4.56 -3.00 178 178 173
-10.64 4.47 -3.00 178 178 173
-10.65 4.39 -2.99 178 178 173
-10.65 4.31 -2.99 178 178 173
-10.64 4.22 -3.00 178 178 173
-10.64 4.14 -3.00 178 178 173
-10.64 4.05 -3.00 176 176 171
-10.64 3.97 -3.00 176 176 171
-10.65 3.88 -2.99 176 176 171
-10.64 3.80 -3.00 176 176 171
-10.64 3.72 -3.00 176 176 171
-10.64 3.63 -3.00 176 176 171
-10.64 3.55 -3.00 176 176 171
-10.65 3.46 -2.99 176 176 171
-10.64 3.38 -3.00 174 174 169
-10.64 3.30 -3.00 174 174 169
-10.64 3.21 -3.00 174 174 169
-10.64 3.13 -3.00 174 174 169
-10.65 3.04 -2.99 174 174 169
-10.65 2.96 -2.99 174 174 169
-10.65 2.87 -2.98 174 174 169
-10.65 2.79 -2.99 174 174 169
-10.65 2.71 -2.99 173 173 168
-10.64 2.62 -3.00 173 173 168
-10.64 2.54 -3.00 173 173 168
-10.65 2.45 -2.98 173 173 168
-10.65 2.37 -2.99 173 173 168
-10.66 2.28 -2.98 173 173 168
-10.66 2.20 -2.98 173 173 168
-10.66 2.11 -2.98 173 173 168
-10.66 2.03 -2.97 172 172 167
-10.67 1.94 -2.96 172 172 167
-10.67 1.86 -2.96 172 172 167
-10.67 1.78 -2.96 172 172 167
-10.67 1.69 -2.96 172 172 167
-10.67 1.60 -2.95 172 172 167
-10.68 1.52 -2.95 172 172 167
-10.68 1.44 -2.95 172 172 167
-10.68 1.35 -2.95 172 172 167
-10.68 1.27 -2.95 172 172 167
-10.69 1.18 -2.94 172 172 167
-10.68 1.10 -2.95 172 172 167
-10.68 1.02 -2.95 172 172 167
-10.68 0.93 -2.95 172 172 167
-10.68 0.85 -2.94 172 172 167
-10.69 0.76 -2.94 172 172 167
-10.69 0.68 -2.94 170 172 167
-10.69 0.59 -2.93 170 172 167
-10.70 0.51 -2.92 170 172 167
-10.69 0.42 -2.93 170 172 167
-10.70 0.34 -2.91 170 172 167
-10.70 0.25 -2.92 170 172 167
-10.71 0.17 -2.90 170 172 167
-10.71 0.08 -2.91 170 172 167
-10.71 -0.00 -2.90 169 171 166
-10.71 -0.09 -2.90 169 171 166
-10.72 -0.17 -2.89 169 171 166
-10.73 -0.26 -2.88 169 171 166
-10.73 -0.34 -2.88 169 171 166
-10.73 -0.42 -2.88 169 171 166
-10.73 -0.51 -2.87 169 171 166
-10.73 -0.59 -2.88 169 171 166
-10.73 -0.68 -2.88 167 175 165
-10.72 -0.76 -2.89 167 175 165
-10.73 -0.84 -2.88 167 175 165
-10.73 -0.93 -2.88 167 175 165
-10.73 -1.01 -2.88 167 175 165
-10.73 -1.10 -2.88 167 175 165
-10.73 -1.18 -2.88 167 175 165
-10.73 -1.26 -2.88 167 175 165
-10.73 -1.35 -2.88 168 176 166
-10.73 -1.43 -2.87 168 176 166
-10.73 -1.52 -2.87 168 176 166
-10.73 -1.60 -2.87 168 176 166
-10.74 -1.69 -2.86 168 176 166
-10.75 -1.77 -2.85 168 176 166
-10.76 -1.86 -2.84 168 176 166
-10.75 -1.94 -2.85 168 176 166
-10.75 -2.02 -2.85 169 174 170
-10.75 -2.11 -2.85 169 174 170
-10.75 -2.19 -2.85 169 174 170
-10.75 -2.27 -2.86 169 174 170
-10.74 -2.36 -2.86 169 174 170
-10.75 -2.44 -2.85 169 174 170
-10.75 -2.52 -2.86 169 174 170
-10.75 -2.61 -2.86 169 174 170
-10.74 -2.69 -2.86 170 175 171
-10.74 -2.78 -2.86 170 175 171
-10.75 -2.86 -2.86 170 175 171
-10.74 -2.94 -2.86 170 175 171
-10.74 -3.03 -2.86 170 175 171
-10.74 -3.11 -2.86 170 175 171
-10.74 -3.19 -2.87 170 175 171
-10.74 -3.28 -2.86 170 175 171
-10.74 -3.36 -2.87 171 173 168
-10.75 -3.45 -2.86 172 174 169
-10.75 -3.53 -2.86 172 174 169
-10.75 -3.61 -2.86 173 175 170
-10.75 -3.70 -2.85 173 175 170
-10.74 -3.78 -2.86 174 176 171
-10.74 -3.86 -2.86 174 176 171
-10.74 -3.95 -2.87 176 178 173
-10.74 -4.03 -2.87 174 176 171
-10.73 -4.12 -2.87 174 176 171
-10.73 -4.20 -2.88 174 176 171
-10.73 -4.28 -2.88 174 176 171
-10.73 -4.37 -2.88 174 176 171
-10.73 -4.45 -2.88 174 176 171
-10.73 -4.53 -2.88 174 176 171
-10.73 -4.62 -2.88 174 176 171
-10.72 -4.70 -2.89 171 176 175
-10.72 -4.79 -2.89 171 176 175
-10.72 -4.87 -2.89 171 176 175
-10.72 -4.95 -2.89 171 176 175
-10.72 -5.04 -2.89 171 176 175
-10.72 -5.12 -2.89 171 176 175
-10.71 -5.20 -2.90 171 176 175
-10.71 -5.29 -2.91 171 176 175
-10.71 -5.37 -2.90 174 179 178
-10.71 -5.46 -2.90 174 179 178
-10.71 -5.54 -2.91 174 179 178
-10.70 -5.62 -2.92 174 179 178
-10.70 -5.71 -2.92 174 179 178
-10.70 -5.79 -2.92 174 179 178
-10.70 -5.87 -2.92 174 179 178
-10.70 -5.96 -2.91 174 179 178
-10.69 -6.04 -2.93 174 179 173
-10.68 -6.13 -2.95 174 179 173
-10.68 -6.21 -2.95 174 179 173
-10.67 -6.29 -2.96 174 179 173
-10.67 -6.38 -2.96 174 179 173
-10.66 -6.46 -2.98 174 179 173
-10.65 -6.54 -2.99 174 179 173
-10.64 -6.63 -3.00 174 179 173
-10.64 -6.71 -3.00 179 184 178
-10.65 -6.80 -2.99 172 177 171
-10.62 -6.88 -3.02 175 180 174
-10.62 -6.97 -3.02 175 180 174
-10.61 -7.05 -3.04 174 179 173
-10.57 -7.13 -3.10 179 184 178
-10.57 -7.22 -3.10 167 172 166
-10.76 -7.30 -2.84 167 172 166
-11.16 -7.39 -2.30 226 228 223
-11.43 -7.47 -1.93 246 248 243
-11.46 -7.55 -1.90 246 248 243
-11.48 -7.63 -1.87 249 251 246
-11.46 -7.71 -1.89 246 248 243
-11.46 -7.80 -1.90 244 246 241
