ply
format ascii 1.0
element vertex 1621
property float x
property float y
property float z
property uchar red
property uchar green
property uchar blue
end_header
-3.82 -3.88 13.54 0 56 162
-4.00 -3.98 13.65 1 57 163
-4.10 -4.06 13.72 0 59 168
-4.13 -4.15 13.74 1 62 171
-4.20 -4.23 13.78 0 64 181
-4.24 -4.31 13.81 1 68 185
-4.30 -4.40 13.85 1 74 196
-4.35 -4.48 13.88 6 79 201
-4.44 -4.57 13.94 7 84 200
-4.51 -4.65 13.98 10 87 203
-4.57 -4.73 14.02 14 89 201
-4.60 -4.81 14.03 15 90 202
-4.64 -4.89 14.06 15 94 197
-4.70 -4.98 14.10 18 97 200
-4.64 -5.05 14.06 21 99 210
-4.74 -5.13 14.12 23 101 212
-4.76 -5.21 14.14 23 105 215
-4.81 -5.29 14.17 26 108 218
-4.85 -5.37 14.20 19 114 214
-4.86 -5.45 14.20 19 114 214
-4.85 -5.53 14.20 19 119 215
-4.85 -5.61 14.20 20 120 216
-4.84 -5.68 14.19 14 110 201
-4.86 -5.76 14.20 12 108 199
-4.86 -5.84 14.20 34 110 196
-4.88 -5.92 14.22 30 106 192
-4.91 -6.00 14.23 49 100 161
-4.88 -6.07 14.21 47 98 159
-4.76 -6.14 14.14 51 100 114
-4.66 -6.22 14.07 80 129 143
-4.47 -6.29 13.95 124 165 161
-4.26 -6.36 13.82 144 185 181
-3.80 -6.43 13.52 139 169 148
-2.59 -6.48 12.75 119 149 128
5.01 -1.82 7.78 59 126 172
-3.39 -2.95 13.17 48 115 161
-2.34 -2.90 12.49 34 98 156
-2.50 -3.00 12.59 23 87 145
-2.74 -3.11 12.75 18 72 143
-2.91 -3.21 12.86 8 62 133
-3.02 -3.31 12.93 7 55 133
-3.23 -3.41 13.06 6 54 132
-3.35 -3.51 13.14 0 50 135
-3.39 -3.59 13.17 3 55 140
-3.55 -3.69 13.27 3 55 153
-3.69 -3.78 13.36 2 54 152
-3.87 -3.88 13.48 0 51 157
-3.96 -3.97 13.54 0 54 160
-4.10 -4.06 13.62 0 56 165
-4.18 -4.15 13.67 0 58 167
-4.25 -4.23 13.72 0 61 178
-4.28 -4.31 13.74 0 65 182
-4.36 -4.40 13.79 0 71 193
-4.37 -4.48 13.80 2 75 197
-4.50 -4.57 13.88 4 81 197
-4.57 -4.65 13.92 6 83 199
-4.64 -4.74 13.97 9 84 196
-4.69 -4.82 14.00 10 85 197
-4.72 -4.90 14.02 8 87 190
-4.76 -4.98 14.05 12 91 194
-4.75 -5.05 14.04 15 93 204
-4.76 -5.13 14.04 18 96 207
-4.82 -5.21 14.09 17 99 209
-4.82 -5.29 14.09 19 101 211
-4.91 -5.37 14.14 15 110 210
-4.92 -5.45 14.15 16 111 211
-4.89 -5.53 14.13 20 120 216
-4.90 -5.61 14.14 18 118 214
-4.90 -5.68 14.13 17 113 204
-4.90 -5.76 14.13 12 108 199
-4.88 -5.84 14.12 36 112 198
-4.85 -5.91 14.11 32 108 194
-4.87 -5.99 14.12 42 93 154
-4.91 -6.07 14.14 52 103 164
-4.86 -6.15 14.11 121 170 184
-4.80 -6.22 14.08 122 171 185
-4.64 -6.29 13.97 134 175 171
-4.45 -6.37 13.85 132 173 169
-3.86 -6.43 13.47 141 171 150
-3.42 -6.50 13.19 141 171 150
10.65 -1.11 4.02 52 119 165
-2.51 -2.83 12.50 47 114 160
-2.40 -2.90 12.44 41 106 164
-2.37 -2.98 12.41 35 100 158
-2.81 -3.12 12.70 30 86 156
-3.01 -3.22 12.83 16 72 142
-3.17 -3.32 12.93 8 59 133
-3.30 -3.41 13.01 3 54 128
-3.44 -3.51 13.10 0 52 137
-3.50 -3.60 13.14 1 53 138
-3.59 -3.69 13.20 0 53 146
-3.74 -3.78 13.30 0 51 144
-3.89 -3.88 13.39 0 50 152
-4.07 -3.98 13.51 0 51 153
-4.13 -4.06 13.55 0 54 162
-4.27 -4.15 13.64 0 56 164
-4.32 -4.24 13.67 0 58 172
-4.36 -4.32 13.70 0 63 177
-4.42 -4.40 13.74 0 68 184
-4.49 -4.49 13.78 3 73 189
-4.59 -4.57 13.85 5 77 192
-4.65 -4.65 13.88 8 80 195
-4.71 -4.74 13.92 6 81 195
-4.76 -4.82 13.95 8 83 197
-4.79 -4.90 13.98 6 80 199
-4.84 -4.98 14.00 10 84 203
-4.87 -5.06 14.03 16 90 207
-4.81 -5.13 13.99 17 91 208
-4.85 -5.21 14.01 16 95 208
-4.87 -5.29 14.03 17 96 209
-4.93 -5.37 14.06 13 103 210
-4.95 -5.45 14.08 17 107 214
-4.95 -5.53 14.08 6 97 198
-4.94 -5.61 14.07 21 112 213
-4.92 -5.68 14.06 39 122 201
-4.92 -5.76 14.06 28 111 190
-4.89 -5.84 14.04 35 100 156
-4.84 -5.91 14.01 35 100 156
-4.84 -5.99 14.01 76 121 148
-4.86 -6.07 14.02 123 168 195
-4.80 -6.14 13.98 141 186 176
-4.74 -6.22 13.94 128 173 163
-4.67 -6.29 13.90 135 170 149
-4.38 -6.36 13.71 131 166 145
-4.31 -6.44 13.67 149 174 143
-1.36 -6.45 11.77 146 171 140
2.77 -2.18 8.99 51 118 164
-3.01 -2.97 12.73 43 108 166
-2.73 -3.02 12.55 34 99 157
-2.84 -3.11 12.62 31 87 157
-3.18 -3.24 12.84 21 77 147
-3.30 -3.33 12.92 14 65 139
-3.42 -3.42 13.00 10 61 135
-3.56 -3.52 13.09 0 52 137
-3.65 -3.61 13.15 0 52 137
-3.74 -3.70 13.20 0 51 144
-3.80 -3.79 13.24 0 50 143
-3.93 -3.88 13.33 0 50 152
-4.11 -3.98 13.45 0 51 153
-4.21 -4.06 13.50 0 51 159
-4.30 -4.15 13.56 0 52 160
-4.38 -4.24 13.62 0 57 171
-4.41 -4.32 13.64 0 60 174
-4.50 -4.40 13.69 0 67 183
-4.55 -4.49 13.73 1 71 187
-4.67 -4.58 13.80 2 74 189
-4.73 -4.66 13.84 3 75 190
-4.79 -4.74 13.88 3 78 192
-4.82 -4.82 13.90 5 80 194
-4.86 -4.90 13.93 1 75 194
-4.89 -4.98 13.94 8 82 201
-4.89 -5.06 13.95 13 87 204
-4.91 -5.14 13.96 16 90 207
-4.87 -5.21 13.93 13 92 205
-4.93 -5.29 13.97 13 92 205
-4.93 -5.37 13.97 10 100 207
-4.98 -5.45 14.00 14 104 211
-5.02 -5.53 14.03 3 94 195
-4.99 -5.61 14.01 21 112 213
-4.93 -5.68 13.97 29 112 191
-4.91 -5.76 13.96 22 105 184
-4.87 -5.83 13.94 37 102 158
-4.88 -5.91 13.94 58 123 179
-4.84 -5.99 13.92 125 170 197
-4.87 -6.07 13.93 166 211 238
-4.78 -6.14 13.88 158 203 193
-4.69 -6.22 13.82 134 179 169
-4.55 -6.29 13.73 137 172 151
-4.38 -6.36 13.62 127 162 141
-4.66 -6.45 13.80 124 149 118
3.87 -6.32 8.28 110 135 104
1.91 -2.37 9.43 48 110 164
-3.17 -3.07 12.73 43 105 159
-2.92 -3.12 12.57 35 93 153
-3.07 -3.22 12.67 24 82 142
-3.37 -3.33 12.87 18 73 139
-3.49 -3.43 12.94 14 69 135
-3.70 -3.53 13.08 3 58 137
-3.82 -3.62 13.16 0 55 134
-3.91 -3.71 13.22 0 51 132
-3.99 -3.80 13.27 0 51 132
-4.08 -3.89 13.33 0 52 142
-4.22 -3.98 13.42 0 51 141
-4.30 -4.07 13.47 0 49 149
-4.38 -4.15 13.52 0 51 151
-4.44 -4.24 13.56 0 54 160
-4.53 -4.33 13.62 0 57 163
-4.60 -4.41 13.66 0 63 173
-4.60 -4.49 13.67 3 67 177
-4.70 -4.58 13.74 1 68 183
-4.78 -4.66 13.78 4 71 186
-4.84 -4.74 13.83 2 70 194
-4.87 -4.82 13.84 4 72 196
-4.89 -4.90 13.86 2 72 197
-4.93 -4.98 13.88 7 77 202
-4.92 -5.06 13.88 9 82 208
-4.98 -5.14 13.91 13 86 212
-4.92 -5.21 13.87 11 88 209
-4.92 -5.29 13.87 12 89 210
-4.98 -5.37 13.91 13 97 208
-4.97 -5.45 13.91 15 99 210
-5.03 -5.53 13.94 19 105 192
-5.02 -5.61 13.94 20 106 193
-4.91 -5.68 13.87 24 102 151
-4.88 -5.75 13.85 27 105 154
-4.84 -5.83 13.83 61 124 142
-4.84 -5.91 13.82 97 160 178
-4.85 -5.99 13.83 148 190 195
-4.82 -6.06 13.81 156 198 203
-4.72 -6.14 13.75 175 218 190
-4.55 -6.21 13.64 155 198 170
-4.33 -6.28 13.49 153 187 153
-4.84 -6.38 13.83 125 159 125
-0.49 -6.34 11.00 97 118 84
16.95 -0.56 -0.48 54 116 170
2.01 -2.45 9.26 51 113 167
-3.22 -3.15 12.68 43 101 161
-3.35 -3.24 12.76 30 88 148
-3.34 -3.32 12.75 24 79 145
-3.54 -3.43 12.88 17 72 138
-3.74 -3.53 13.01 4 59 138
-3.88 -3.62 13.10 0 54 133
-3.97 -3.71 13.16 0 53 134
-4.11 -3.81 13.25 0 52 133
-4.14 -3.89 13.28 0 52 142
-4.27 -3.98 13.36 0 51 141
-4.33 -4.07 13.40 0 49 149
-4.42 -4.15 13.45 0 49 149
-4.50 -4.24 13.51 0 52 158
-4.56 -4.32 13.55 0 56 162
-4.65 -4.41 13.61 0 61 171
-4.69 -4.49 13.63 1 65 175
-4.76 -4.58 13.68 0 67 182
-4.81 -4.66 13.71 3 70 185
-4.89 -4.74 13.76 1 69 193
-4.92 -4.82 13.79 1 69 193
-4.95 -4.90 13.80 1 71 196
-4.97 -4.98 13.82 3 73 198
-4.98 -5.06 13.82 5 78 204
-5.00 -5.14 13.83 9 82 208
-4.99 -5.22 13.83 10 87 208
-4.93 -5.29 13.79 13 90 211
-4.99 -5.37 13.83 13 97 208
-5.00 -5.45 13.83 14 98 209
-5.04 -5.53 13.86 10 96 183
-5.01 -5.60 13.84 1 87 174
-4.93 -5.68 13.79 28 106 155
-4.85 -5.75 13.74 48 126 175
-4.78 -5.83 13.69 75 138 156
-4.80 -5.91 13.70 97 160 178
-4.77 -5.98 13.68 134 176 181
-4.63 -6.05 13.60 152 194 199
-4.62 -6.13 13.59 158 201 173
-4.68 -6.21 13.63 155 198 170
-4.47 -6.28 13.49 155 189 155
-2.83 -6.32 12.42 125 159 125
19.24 -5.80 -1.98 81 102 68
18.82 -0.45 -1.86 55 118 165
0.37 -2.73 10.23 47 109 159
-3.55 -3.26 12.80 38 100 150
-3.40 -3.33 12.69 28 90 144
-3.63 -3.43 12.85 16 78 132
-3.80 -3.53 12.96 7 67 133
-3.98 -3.63 13.07 1 61 127
-4.07 -3.72 13.13 0 56 125
-4.17 -3.81 13.20 0 56 125
-4.25 -3.90 13.25 0 54 126
-4.36 -3.99 13.32 0 53 125
-4.42 -4.07 13.36 0 51 135
-4.48 -4.16 13.40 0 51 135
-4.56 -4.24 13.46 0 52 147
-4.64 -4.33 13.51 0 55 150
-4.69 -4.41 13.54 0 57 163
-4.81 -4.50 13.62 4 61 167
-4.86 -4.58 13.65 4 64 183
-4.85 -4.66 13.65 6 66 185
-4.93 -4.74 13.70 2 65 197
-4.96 -4.82 13.72 2 65 197
-4.99 -4.90 13.74 1 69 195
-5.02 -4.98 13.76 1 69 195
-5.02 -5.06 13.75 1 70 202
-5.03 -5.14 13.76 5 74 206
-5.04 -5.22 13.77 15 84 205
-5.03 -5.29 13.76 19 88 209
-4.99 -5.37 13.74 22 92 189
-5.00 -5.45 13.74 24 94 191
-4.98 -5.52 13.73 17 92 156
-4.94 -5.60 13.70 24 99 163
-4.88 -5.67 13.67 61 133 162
-4.73 -5.74 13.56 82 154 183
-4.65 -5.82 13.51 87 148 160
-4.58 -5.89 13.47 86 147 159
-4.48 -5.97 13.40 112 161 177
-4.53 -6.05 13.43 141 190 206
-4.76 -6.14 13.59 139 190 168
-4.60 -6.21 13.48 144 195 173
-0.87 -6.17 11.04 142 182 157
9.43 -5.96 4.29 123 163 138
11.72 -1.40 2.65 51 113 163
0.27 -2.82 10.19 46 108 158
-3.51 -3.34 12.67 37 99 153
-3.84 -3.45 12.89 21 83 137
-3.92 -3.54 12.94 15 75 141
-4.05 -3.64 13.03 7 67 133
-4.13 -3.72 13.08 1 60 129
-4.24 -3.81 13.15 0 57 126
-4.36 -3.91 13.23 0 54 126
-4.44 -3.99 13.28 0 53 125
-4.51 -4.08 13.33 0 50 134
-4.57 -4.16 13.37 0 51 135
-4.63 -4.25 13.41 0 52 147
-4.70 -4.33 13.45 0 55 150
-4.76 -4.41 13.50 0 55 161
-4.84 -4.50 13.55 1 58 164
-4.92 -4.58 13.60 2 62 181
-4.91 -4.66 13.59 4 64 183
-4.96 -4.74 13.63 0 63 195
-5.00 -4.82 13.65 1 64 196
-5.03 -4.90 13.67 1 69 195
-5.06 -4.98 13.69 0 66 192
-5.05 -5.06 13.69 0 67 199
-5.06 -5.14 13.69 8 77 209
-5.05 -5.21 13.68 15 84 205
-5.08 -5.29 13.71 13 82 203
-4.98 -5.37 13.64 17 87 184
-4.94 -5.44 13.61 28 98 195
-4.94 -5.52 13.61 39 114 178
-4.88 -5.59 13.58 77 152 216
-4.73 -5.66 13.48 106 178 207
-4.65 -5.74 13.42 105 177 206
-4.37 -5.80 13.23 94 155 167
-4.21 -5.88 13.13 79 140 152
-4.39 -5.96 13.25 96 145 161
-3.90 -6.02 12.93 107 156 172
-2.77 -6.06 12.18 115 166 144
0.68 -6.03 9.91 123 174 152
11.47 -5.78 2.82 133 173 148
4.09 -2.48 7.56 40 102 152
-4.37 -3.51 13.15 29 91 141
-4.10 -3.56 12.96 30 91 148
-4.07 -3.63 12.94 17 78 135
-4.27 -3.73 13.07 8 69 128
-4.34 -3.82 13.13 1 62 121
-4.43 -3.91 13.19 0 56 121
-4.52 -4.00 13.24 0 56 121
-4.59 -4.08 13.29 3 56 132
-4.68 -4.17 13.35 4 57 133
-4.72 -4.25 13.37 0 52 136
-4.77 -4.33 13.41 0 52 136
-4.84 -4.42 13.45 0 53 150
-4.89 -4.50 13.49 2 57 154
-4.92 -4.58 13.50 2 57 174
-4.98 -4.66 13.55 6 61 178
-4.98 -4.74 13.54 4 62 189
-4.96 -4.82 13.53 4 62 189
-5.03 -4.90 13.58 6 68 191
-5.05 -4.98 13.60 4 66 189
-5.07 -5.06 13.61 2 67 187
-5.08 -5.14 13.61 7 72 192
-5.06 -5.21 13.60 13 75 168
-5.05 -5.29 13.60 17 79 172
-4.98 -5.36 13.54 31 89 149
-4.88 -5.43 13.48 45 103 163
-4.74 -5.51 13.38 93 157 199
-4.56 -5.57 13.27 111 175 217
-4.84 -5.67 13.45 106 172 200
-4.58 -5.73 13.28 88 154 182
-2.35 -5.71 11.81 81 144 173
0.97 -5.65 9.62 74 137 166
2.53 -5.68 8.59 69 129 164
7.96 -5.57 5.00 62 122 157
16.34 -5.37 -0.54 81 143 150
18.48 -0.86 -2.10 50 112 162
0.59 -2.96 9.76 39 101 151
-4.31 -3.57 13.01 36 97 154
-4.23 -3.65 12.95 23 84 141
-4.34 -3.74 13.03 14 75 134
-4.44 -3.83 13.10 5 66 125
-4.51 -3.91 13.14 3 60 125
-4.63 -4.00 13.22 2 59 124
-4.71 -4.09 13.27 1 54 130
-4.79 -4.17 13.32 1 54 130
-4.80 -4.25 13.34 0 50 134
-4.84 -4.34 13.36 0 53 137
-4.89 -4.42 13.40 1 56 153
-4.95 -4.50 13.43 2 57 154
-4.96 -4.58 13.44 0 54 171
-5.01 -4.66 13.47 0 54 171
-5.08 -4.74 13.52 0 56 183
-5.04 -4.82 13.49 3 61 188
-5.07 -4.90 13.51 8 70 193
-5.10 -4.98 13.53 9 71 194
-5.12 -5.06 13.54 12 77 197
-5.12 -5.14 13.55 13 78 198
-5.07 -5.21 13.51 6 68 161
-5.03 -5.29 13.49 14 76 169
-4.95 -5.36 13.43 57 115 175
-4.68 -5.42 13.25 92 150 210
-4.59 -5.50 13.19 107 171 213
-4.83 -5.59 13.35 100 164 206
-1.71 -5.51 11.29 87 153 181
4.96 -5.28 6.86 75 141 169
14.00 -4.97 0.87 74 137 166
17.11 -1.14 -1.34 48 114 158
-1.37 -3.25 10.96 40 102 154
-4.44 -3.66 13.00 31 93 145
-4.34 -3.73 12.93 22 84 138
-4.50 -3.83 13.04 14 76 130
-4.60 -3.92 13.11 7 65 125
-4.70 -4.01 13.17 4 62 122
-4.75 -4.09 13.21 2 58 130
-4.81 -4.17 13.25 0 56 128
-4.88 -4.26 13.29 0 51 130
-4.91 -4.34 13.32 0 55 134
-4.96 -4.42 13.35 3 55 149
-4.98 -4.50 13.36 4 56 150
-5.01 -4.58 13.38 0 51 160
-5.05 -4.66 13.41 0 51 160
-5.08 -4.74 13.42 1 55 172
-5.10 -4.82 13.44 7 61 178
-5.10 -4.90 13.44 12 67 178
-5.10 -4.98 13.44 22 77 188
-5.14 -5.06 13.47 21 85 166
-5.08 -5.13 13.43 16 80 161
-5.09 -5.21 13.43 21 82 125
-4.97 -5.28 13.36 55 116 159
-4.77 -5.35 13.22 104 159 186
-4.72 -5.42 13.19 125 180 207
-4.47 -5.49 13.02 91 148 186
-2.21 -5.45 11.52 80 137 175
12.84 -4.79 1.50 73 137 179
10.13 -2.01 3.17 48 110 162
-2.12 -3.41 11.36 40 102 154
-4.49 -3.74 12.94 31 93 147
-4.60 -3.83 13.01 21 83 137
-4.69 -3.92 13.07 14 72 132
-4.76 -4.01 13.12 6 64 124
-4.79 -4.09 13.14 4 60 132
-4.89 -4.18 13.21 2 58 130
-4.95 -4.26 13.25 0 54 133
-4.98 -4.34 13.27 0 54 133
-5.00 -4.42 13.28 0 52 146
-5.02 -4.50 13.29 0 52 146
-5.05 -4.58 13.31 0 53 162
-5.08 -4.66 13.33 0 53 162
-5.10 -4.74 13.35 0 53 170
-5.14 -4.82 13.37 2 56 173
-5.16 -4.90 13.39 9 64 175
-5.16 -4.98 13.39 12 67 178
-5.16 -5.06 13.39 4 68 149
-5.15 -5.13 13.38 13 77 158
-4.98 -5.20 13.27 57 118 161
-4.84 -5.27 13.17 111 172 215
-4.87 -5.35 13.19 138 193 220
-3.77 -5.37 12.46 125 180 207
1.49 -5.16 8.94 77 134 172
14.59 -4.58 0.19 72 129 167
10.70 -2.05 2.65 51 112 169
-3.31 -3.62 12.06 40 101 158
-4.82 -3.85 13.07 26 87 144
-4.71 -3.92 12.99 16 76 142
-4.86 -4.01 13.09 7 67 133
-4.89 -4.09 13.11 4 59 134
-4.92 -4.18 13.14 4 59 134
-4.99 -4.26 13.18 4 58 140
-5.01 -4.34 13.20 0 53 135
-5.03 -4.42 13.21 0 48 139
-5.05 -4.50 13.22 0 50 141
-5.06 -4.58 13.23 1 56 153
-5.09 -4.66 13.25 1 56 153
-5.10 -4.74 13.25 1 56 153
-5.12 -4.82 13.27 0 55 152
-5.15 -4.90 13.29 7 60 138
-5.11 -4.97 13.26 8 61 139
-5.13 -5.05 13.27 21 82 123
-4.97 -5.12 13.17 60 121 162
-4.85 -5.19 13.09 113 172 185
-5.05 -5.28 13.22 145 204 217
-2.97 -5.24 11.83 139 196 209
7.28 -4.74 4.95 112 169 182
3.87 -2.87 7.12 48 109 166
-4.54 -3.82 12.79 36 97 154
-4.89 -3.93 13.02 25 85 151
-4.90 -4.01 13.03 15 75 141
-4.94 -4.10 13.05 9 64 139
-4.98 -4.18 13.08 6 61 136
-5.01 -4.26 13.10 6 60 142
-5.07 -4.34 13.14 0 53 135
-5.09 -4.42 13.15 0 48 139
-5.09 -4.50 13.16 0 49 140
-5.12 -4.58 13.18 0 52 149
-5.13 -4.66 13.18 1 56 153
-5.12 -4.74 13.17 2 57 154
-5.13 -4.81 13.18 7 62 159
-5.14 -4.89 13.19 1 54 132
-5.11 -4.97 13.17 40 93 171
-4.97 -5.04 13.07 88 149 190
-4.95 -5.12 13.06 119 180 221
-5.09 -5.20 13.15 131 190 203
-3.66 -5.19 12.19 123 182 195
7.65 -4.61 4.57 102 159 172
1.43 -3.21 8.65 45 105 169
-4.69 -3.91 12.79 37 97 161
-4.91 -4.01 12.94 25 85 149
-4.95 -4.09 12.97 16 75 146
-4.99 -4.18 13.00 8 67 138
-5.00 -4.25 13.00 3 61 139
-5.05 -4.34 13.03 0 58 136
-5.13 -4.42 13.09 0 55 138
-5.14 -4.50 13.09 0 53 136
-5.13 -4.58 13.09 0 51 133
-5.11 -4.65 13.08 0 52 134
-5.09 -4.73 13.06 2 62 144
-5.07 -4.81 13.05 19 79 161
-5.04 -4.88 13.03 52 104 146
-4.95 -4.96 12.97 101 153 195
-5.02 -5.04 13.02 131 191 210
-4.59 -5.09 12.72 123 183 202
-0.88 -4.93 10.22 95 156 170
9.51 -4.39 3.19 83 144 158
15.75 -1.75 -1.19 51 111 175
-2.26 -3.66 11.04 41 101 165
-5.05 -4.02 12.94 33 93 157
-4.94 -4.09 12.86 24 83 154
-4.99 -4.17 12.90 15 74 145
-5.01 -4.25 12.91 5 63 141
-5.05 -4.33 12.94 3 61 139
-5.09 -4.42 12.97 2 59 142
-5.14 -4.50 13.00 0 54 137
-5.08 -4.57 12.96 0 46 128
-5.04 -4.65 12.94 0 47 129
-4.96 -4.72 12.88 7 67 149
-4.87 -4.79 12.82 33 93 175
-4.88 -4.87 12.83 121 173 215
-5.05 -4.96 12.94 131 183 225
-4.16 -4.98 12.34 112 172 191
1.66 -4.68 8.38 81 141 160
19.35 -3.65 -3.63 62 123 137
9.90 -2.45 2.66 45 106 165
-3.57 -3.87 11.84 37 98 157
-5.00 -4.09 12.82 30 93 156
-4.96 -4.16 12.79 23 86 149
-5.03 -4.25 12.83 20 82 152
-5.09 -4.33 12.87 5 67 137
-5.07 -4.41 12.86 0 62 127
-5.07 -4.49 12.86 0 62 127
-5.07 -4.57 12.86 0 59 115
-4.92 -4.63 12.76 12 76 132
-4.79 -4.70 12.67 45 110 161
-4.83 -4.78 12.69 84 149 200
-4.84 -4.86 12.71 84 154 197
-3.96 -4.88 12.10 75 145 188
4.32 -4.40 6.46 66 136 181
4.09 -3.12 6.50 47 108 167
-4.15 -4.01 12.14 42 105 168
-4.92 -4.16 12.67 35 98 161
-4.99 -4.24 12.71 20 82 152
-5.02 -4.32 12.73 14 76 146
-4.97 -4.40 12.70 5 68 133
-4.89 -4.47 12.65 0 63 128
-4.87 -4.55 12.63 14 78 134
-4.96 -4.63 12.69 64 128 184
-4.95 -4.71 12.68 83 148 199
-3.70 -4.70 11.83 87 152 203
0.39 -4.48 9.03 80 150 193
10.38 -3.87 2.19 73 143 186
2.51 -3.37 7.47 50 115 171
-4.49 -4.11 12.28 41 106 162
-4.84 -4.23 12.51 35 99 160
-4.75 -4.30 12.45 18 82 143
-4.75 -4.38 12.45 13 81 136
-4.84 -4.46 12.51 30 98 153
-4.85 -4.54 12.52 50 119 167
-4.70 -4.61 12.42 73 142 190
-1.90 -4.47 10.49 70 142 186
7.80 -3.83 3.83 72 144 188
13.20 -2.35 -0.03 52 117 173
-1.55 -3.84 10.15 48 113 169
-4.48 -4.19 12.17 42 106 167
-4.47 -4.27 12.16 34 98 159
-4.58 -4.36 12.24 38 106 161
-4.20 -4.41 11.98 55 123 178
-2.86 -4.38 11.05 68 137 185
1.49 -4.12 8.05 64 133 181
13.59 -3.27 -0.30 61 133 177
12.08 -2.56 0.60 55 119 180
-1.68 -3.93 10.14 46 113 173
-3.34 -4.16 11.29 53 120 180
-1.24 -4.07 9.83 60 131 182
5.06 -3.62 5.47 63 134 185
14.39 -2.96 -1.00 64 139 182
13.29 -2.57 -0.38 53 120 180
9.67 -3.01 2.14 59 126 186
15.45 -2.62 -1.88 63 134 185
-0.32 25.61 -5.45 142 133 125
-0.49 25.51 -5.41 142 133 125
-0.50 -38.63 -5.40 249 244 246
-0.66 25.41 -5.37 142 133 125
-0.60 25.26 -5.44 142 133 125
-0.59 25.16 -5.45 142 133 125
-0.61 25.04 -5.42 142 133 125
-0.62 24.93 -5.42 142 133 125
-0.60 24.85 -5.44 142 133 125
-0.60 24.75 -5.44 142 133 125
-0.61 24.63 -5.43 143 134 126
-0.61 24.53 -5.43 143 134 126
-0.62 24.42 -5.42 143 134 126
-0.62 24.32 -5.42 143 134 126
-0.61 24.22 -5.43 143 134 126
-0.62 24.11 -5.42 143 134 126
-0.62 24.01 -5.42 143 134 126
-0.61 23.91 -5.42 143 134 126
-0.62 23.80 -5.42 143 137 130
-0.62 23.70 -5.42 143 137 130
-0.60 23.61 -5.43 143 137 130
-0.60 23.51 -5.44 143 137 130
-0.60 23.41 -5.44 143 137 130
-0.59 23.21 -5.45 143 137 130
-0.70 -38.51 -5.33 255 253 255
-0.83 25.31 -5.33 142 133 125
-0.76 25.27 -5.41 142 133 125
-0.78 25.15 -5.39 142 133 125
-0.78 25.05 -5.39 142 133 125
-0.80 24.93 -5.37 142 133 125
-0.80 24.82 -5.37 142 133 125
-0.76 24.75 -5.41 142 133 125
-0.76 24.65 -5.41 142 133 125
-0.78 24.54 -5.39 143 134 126
-0.78 24.44 -5.39 143 134 126
-0.78 24.33 -5.39 143 134 126
-0.79 24.22 -5.38 143 134 126
-0.79 24.12 -5.38 143 134 126
-0.79 24.01 -5.38 143 134 126
-0.79 23.91 -5.37 143 134 126
-0.79 23.81 -5.38 143 134 126
-0.79 23.71 -5.38 143 137 130
-0.78 23.61 -5.39 143 137 130
-0.78 23.51 -5.39 143 137 130
-0.77 23.41 -5.40 143 137 130
-0.77 23.31 -5.40 143 137 130
-0.75 23.23 -5.42 143 137 130
-0.77 23.11 -5.40 143 137 130
-0.77 23.01 -5.40 143 137 130
-0.76 22.91 -5.41 146 140 133
-0.76 22.81 -5.41 146 140 133
-0.74 22.72 -5.43 146 140 133
-0.74 22.62 -5.43 146 140 133
-0.73 22.53 -5.45 146 140 133
-1.00 25.21 -5.29 142 133 125
-0.93 25.17 -5.37 142 133 125
-0.95 25.05 -5.35 142 133 125
-0.95 24.95 -5.35 142 133 125
-0.97 24.83 -5.33 142 133 125
-0.97 24.72 -5.32 142 133 125
-0.94 24.65 -5.36 142 133 125
-0.94 24.55 -5.36 142 133 125
-0.95 24.43 -5.34 143 134 126
-0.95 24.34 -5.35 143 134 126
-0.96 24.22 -5.33 143 134 126
-0.97 24.11 -5.32 143 134 126
-0.96 24.02 -5.34 143 134 126
-0.97 23.91 -5.33 143 134 126
-0.97 23.81 -5.32 143 134 126
-0.96 23.71 -5.33 143 134 126
-0.97 23.60 -5.33 143 137 130
-0.96 23.51 -5.34 143 137 130
-0.96 23.41 -5.34 143 137 130
-0.95 23.31 -5.34 143 137 130
-0.95 23.21 -5.34 143 137 130
-0.94 23.12 -5.36 143 137 130
-0.94 23.02 -5.36 143 137 130
-0.94 22.91 -5.36 143 137 130
-0.93 22.82 -5.37 146 140 133
-0.93 22.72 -5.37 146 140 133
-0.91 22.63 -5.39 146 140 133
-0.91 22.53 -5.39 146 140 133
-0.90 22.43 -5.40 146 140 133
-0.89 22.34 -5.41 146 140 133
-0.88 22.25 -5.42 146 140 133
-0.87 22.16 -5.44 146 140 133
-0.86 22.06 -5.44 146 142 134
-1.17 25.11 -5.26 142 133 125
-1.09 25.07 -5.34 142 133 125
-1.10 24.97 -5.33 142 133 125
-1.10 24.87 -5.33 142 133 125
-1.12 24.75 -5.31 142 133 125
-1.13 24.64 -5.30 142 133 125
-1.11 24.55 -5.32 142 133 125
-1.11 24.45 -5.32 142 133 125
-1.11 24.34 -5.31 143 134 126
-1.11 24.24 -5.31 143 134 126
-1.12 24.14 -5.31 143 134 126
-1.13 24.03 -5.30 143 134 126
-1.11 23.94 -5.31 143 134 126
-1.13 23.82 -5.29 143 134 126
-1.14 23.71 -5.29 143 134 126
-1.13 23.62 -5.30 143 134 126
-1.14 23.51 -5.29 143 137 130
-1.13 23.42 -5.30 143 137 130
-1.13 23.32 -5.30 143 137 130
-1.12 23.22 -5.31 143 137 130
-1.12 23.12 -5.31 143 137 130
-1.10 23.03 -5.33 143 137 130
-1.11 22.93 -5.32 143 137 130
-1.10 22.83 -5.33 143 137 130
-1.10 22.73 -5.33 146 140 133
-1.10 22.63 -5.33 146 140 133
-1.08 22.54 -5.35 146 140 133
-1.08 22.44 -5.35 146 140 133
-1.07 22.35 -5.36 146 140 133
-1.05 22.26 -5.38 146 140 133
-1.05 22.16 -5.39 146 140 133
-1.03 22.07 -5.40 146 140 133
-1.02 21.98 -5.42 146 142 134
-1.01 21.88 -5.43 146 142 134
-0.99 21.79 -5.44 146 142 134
-0.99 21.69 -5.45 146 142 134
-1.36 25.00 -5.19 143 132 125
-1.29 24.95 -5.27 143 132 125
-1.31 24.83 -5.24 143 132 125
-1.31 24.73 -5.24 143 132 125
-1.33 24.61 -5.22 143 132 125
-1.35 24.50 -5.20 143 132 125
-1.31 24.43 -5.24 143 132 125
-1.30 24.33 -5.25 143 132 125
-1.31 24.23 -5.25 144 133 126
-1.31 24.13 -5.24 144 133 126
-1.31 24.02 -5.24 144 133 126
-1.32 23.91 -5.23 144 133 126
-1.31 23.82 -5.25 144 133 126
-1.31 23.72 -5.24 144 133 126
-1.31 23.61 -5.24 144 133 126
-1.31 23.52 -5.24 144 133 126
-1.33 23.40 -5.23 143 134 126
-1.32 23.31 -5.24 144 135 127
-1.33 23.20 -5.22 144 135 127
-1.32 23.11 -5.24 145 136 128
-1.31 23.01 -5.24 145 136 128
-1.30 22.92 -5.25 146 137 129
-1.30 22.81 -5.25 146 137 129
-1.30 22.72 -5.26 148 139 131
-1.28 22.63 -5.27 148 139 131
-1.28 22.52 -5.27 148 139 131
-1.27 22.43 -5.29 148 139 131
-1.27 22.33 -5.29 148 139 131
-1.25 22.24 -5.30 148 139 131
-1.24 22.15 -5.32 148 139 131
-1.24 22.05 -5.32 148 139 131
-1.22 21.96 -5.34 148 139 131
-1.21 21.87 -5.35 146 142 134
-1.19 21.78 -5.37 146 142 134
-1.18 21.69 -5.39 146 142 134
-1.18 21.59 -5.38 146 142 134
-1.17 21.50 -5.40 146 142 134
-1.16 21.40 -5.40 146 142 134
-1.14 21.31 -5.43 146 142 134
-1.13 21.22 -5.44 146 142 134
-1.13 -38.22 -5.44 248 250 247
-1.43 -38.19 -5.11 253 248 247
-1.51 24.91 -5.17 143 132 125
-1.44 24.87 -5.24 143 132 125
-1.45 24.76 -5.23 143 132 125
-1.45 24.66 -5.24 143 132 125
-1.47 24.54 -5.21 143 132 125
-1.50 24.42 -5.18 143 132 125
-1.48 24.33 -5.20 143 132 125
-1.47 24.24 -5.21 143 132 125
-1.48 24.13 -5.20 144 133 126
-1.47 24.03 -5.21 144 133 126
-1.46 23.94 -5.22 144 133 126
-1.48 23.82 -5.20 144 133 126
-1.47 23.73 -5.21 144 133 126
-1.48 23.62 -5.20 144 133 126
-1.50 23.51 -5.18 144 133 126
-1.48 23.42 -5.20 144 133 126
-1.50 23.31 -5.18 143 134 126
-1.48 23.22 -5.21 144 135 127
-1.48 23.11 -5.20 144 135 127
-1.47 23.02 -5.21 145 136 128
-1.48 22.92 -5.20 145 136 128
-1.47 22.82 -5.21 146 137 129
-1.46 22.73 -5.22 146 137 129
-1.46 22.63 -5.22 148 139 131
-1.46 22.53 -5.23 148 139 131
-1.45 22.44 -5.24 148 139 131
-1.43 22.35 -5.25 148 139 131
-1.42 22.25 -5.26 148 139 131
-1.41 22.16 -5.27 148 139 131
-1.40 22.07 -5.29 148 139 131
-1.39 21.97 -5.30 148 139 131
-1.38 21.88 -5.31 148 139 131
-1.36 21.79 -5.33 146 142 134
-1.36 21.70 -5.34 146 142 134
-1.34 21.61 -5.36 146 142 134
-1.34 21.51 -5.35 146 142 134
-1.32 21.42 -5.37 146 142 134
-1.32 21.32 -5.37 146 142 134
-1.31 21.23 -5.39 146 142 134
-1.30 21.13 -5.40 146 142 134
-1.29 21.04 -5.41 147 143 135
-1.26 20.96 -5.44 147 143 135
-1.26 20.86 -5.44 147 143 135
-1.26 -37.35 -5.44 249 251 248
-1.26 -37.45 -5.44 248 250 247
-1.25 -37.76 -5.45 248 250 247
-1.27 -37.85 -5.43 248 250 247
-1.27 -37.95 -5.43 248 250 247
-1.34 -38.10 -5.35 248 250 247
-1.81 -37.93 -4.84 253 248 247
-1.67 24.82 -5.13 143 132 125
-1.62 24.76 -5.19 143 132 125
-1.63 24.65 -5.18 143 132 125
-1.62 24.56 -5.19 143 132 125
-1.65 24.43 -5.16 143 132 125
-1.66 24.32 -5.14 143 132 125
-1.64 24.24 -5.17 143 132 125
-1.63 24.14 -5.17 143 132 125
-1.64 24.04 -5.17 144 133 126
-1.64 23.94 -5.17 144 133 126
-1.64 23.84 -5.17 144 133 126
-1.64 23.73 -5.16 144 133 126
-1.64 23.63 -5.17 144 133 126
-1.64 23.53 -5.17 144 133 126
-1.65 23.42 -5.16 144 133 126
-1.64 23.33 -5.17 144 133 126
-1.66 23.22 -5.15 143 134 126
-1.64 23.13 -5.16 144 135 127
-1.65 23.02 -5.16 144 135 127
-1.64 22.93 -5.17 145 136 128
-1.64 22.82 -5.16 145 136 128
-1.64 22.73 -5.17 146 137 129
-1.64 22.63 -5.17 146 137 129
-1.64 22.53 -5.17 148 139 131
-1.63 22.43 -5.18 148 139 131
-1.62 22.34 -5.19 148 139 131
-1.61 22.25 -5.20 148 139 131
-1.59 22.16 -5.22 148 139 131
-1.58 22.07 -5.23 148 139 131
-1.58 21.97 -5.24 148 139 131
-1.56 21.88 -5.25 148 139 131
-1.55 21.79 -5.26 148 139 131
-1.53 21.70 -5.29 146 142 134
-1.53 21.61 -5.29 146 142 134
-1.50 21.52 -5.32 146 142 134
-1.50 21.42 -5.32 146 142 134
-1.48 21.34 -5.34 146 142 134
-1.47 21.24 -5.35 146 142 134
-1.46 21.15 -5.36 146 142 134
-1.45 21.05 -5.37 146 142 134
-1.45 20.95 -5.38 147 143 135
-1.43 20.87 -5.40 147 143 135
-1.43 20.77 -5.40 147 143 135
-1.41 20.68 -5.42 147 143 135
-1.41 20.58 -5.42 147 143 135
-1.41 20.48 -5.42 147 143 135
-1.39 20.39 -5.44 147 143 135
-1.38 -33.34 -5.45 243 245 242
-1.38 -33.44 -5.45 243 245 242
-1.38 -33.54 -5.45 243 245 242
-1.38 -35.97 -5.45 249 251 248
-1.39 -36.07 -5.44 249 251 248
-1.39 -36.17 -5.44 249 251 248
-1.40 -36.27 -5.43 249 251 248
-1.39 -36.37 -5.44 249 251 248
-1.41 -36.46 -5.42 249 251 248
-1.40 -36.57 -5.43 249 251 248
-1.40 -36.67 -5.43 249 251 248
-1.41 -36.77 -5.42 249 251 248
-1.41 -36.87 -5.42 249 251 248
-1.42 -36.96 -5.40 249 251 248
-1.43 -37.05 -5.40 249 251 248
-1.43 -37.16 -5.40 249 251 248
-1.42 -37.26 -5.40 249 251 248
-1.42 -37.37 -5.41 248 250 247
-1.43 -37.46 -5.40 248 250 247
-1.44 -37.55 -5.39 248 250 247
-1.45 -37.65 -5.38 248 250 247
-1.47 -37.73 -5.35 248 250 247
-1.51 -37.80 -5.31 248 250 247
-1.46 -37.94 -5.36 248 250 247
-1.50 -38.01 -5.32 248 250 247
-1.41 -38.18 -5.42 252 247 246
-1.75 -38.02 -5.05 253 248 247
-1.84 24.71 -5.09 143 132 125
-1.78 24.66 -5.15 143 132 125
-1.80 24.55 -5.13 143 132 125
-1.80 24.45 -5.14 143 132 125
-1.81 24.34 -5.12 143 132 125
-1.82 24.23 -5.11 143 132 125
-1.80 24.15 -5.14 143 132 125
-1.79 24.05 -5.14 143 132 125
-1.80 23.95 -5.14 144 133 126
-1.80 23.85 -5.14 144 133 126
-1.80 23.74 -5.13 144 133 126
-1.81 23.64 -5.12 144 133 126
-1.81 23.54 -5.13 144 133 126
-1.81 23.43 -5.12 144 133 126
-1.82 23.33 -5.11 144 133 126
-1.82 23.22 -5.11 144 133 126
-1.83 23.12 -5.10 143 134 126
-1.82 23.03 -5.11 144 135 127
-1.82 22.93 -5.11 144 135 127
-1.81 22.83 -5.12 145 136 128
-1.81 22.73 -5.12 145 136 128
-1.81 22.64 -5.13 146 137 129
-1.81 22.53 -5.13 146 137 129
-1.80 22.44 -5.14 148 139 131
-1.79 22.35 -5.14 148 139 131
-1.78 22.25 -5.15 148 139 131
-1.78 22.16 -5.16 148 139 131
-1.76 22.07 -5.17 148 139 131
-1.74 21.98 -5.19 148 139 131
-1.73 21.89 -5.21 148 139 131
-1.72 21.80 -5.22 148 139 131
-1.71 21.71 -5.23 148 139 131
-1.68 21.63 -5.26 146 142 134
-1.68 21.52 -5.26 146 142 134
-1.66 21.44 -5.28 146 142 134
-1.67 21.33 -5.28 146 142 134
-1.66 21.24 -5.29 146 142 134
-1.65 21.15 -5.30 146 142 134
-1.63 21.06 -5.32 146 142 134
-1.62 20.96 -5.33 146 142 134
-1.62 20.87 -5.33 147 143 135
-1.60 20.78 -5.36 147 143 135
-1.60 20.68 -5.36 147 143 135
-1.58 20.60 -5.38 147 143 135
-1.58 20.49 -5.38 147 143 135
-1.57 20.40 -5.38 147 143 135
-1.56 20.31 -5.40 147 143 135
-1.55 20.21 -5.40 147 143 135
-1.53 20.12 -5.43 147 143 135
-1.53 20.02 -5.43 148 144 136
-1.51 19.93 -5.45 148 144 136
-1.52 19.83 -5.44 149 145 137
-1.52 19.73 -5.44 149 145 137
-1.51 19.63 -5.45 150 146 138
-1.51 -31.87 -5.45 239 241 238
-1.52 -31.97 -5.44 239 241 238
-1.52 -32.07 -5.44 239 241 238
-1.52 -32.17 -5.44 239 241 238
-1.52 -32.27 -5.44 239 241 238
-1.54 -32.36 -5.42 239 241 238
-1.54 -32.46 -5.42 239 241 238
-1.54 -32.56 -5.41 240 242 239
-1.55 -32.65 -5.41 240 242 239
-1.54 -32.76 -5.41 241 243 240
-1.55 -32.85 -5.40 241 243 240
-1.56 -32.95 -5.40 242 244 241
-1.56 -33.05 -5.39 242 244 241
-1.56 -33.15 -5.39 243 245 242
-1.56 -33.25 -5.39 243 245 242
-1.56 -33.35 -5.39 243 245 242
-1.56 -33.45 -5.39 243 245 242
-1.57 -33.55 -5.39 243 245 242
-1.57 -33.65 -5.39 243 245 242
-1.57 -33.75 -5.38 243 245 242
-1.56 -33.86 -5.39 243 245 242
-1.55 -33.97 -5.40 243 245 242
-1.55 -34.07 -5.40 246 248 245
-1.55 -34.17 -5.41 246 248 245
-1.55 -34.27 -5.40 246 248 245
-1.57 -34.36 -5.38 246 248 245
-1.57 -34.46 -5.38 246 248 245
-1.57 -34.56 -5.38 246 248 245
-1.57 -34.66 -5.38 246 248 245
-1.56 -34.77 -5.39 246 248 245
-1.56 -34.87 -5.39 247 249 246
-1.57 -34.97 -5.39 247 249 246
-1.57 -35.06 -5.38 247 249 246
-1.57 -35.17 -5.38 247 249 246
-1.57 -35.27 -5.39 247 249 246
-1.57 -35.37 -5.38 247 249 246
-1.57 -35.47 -5.38 247 249 246
-1.58 -35.57 -5.38 247 249 246
-1.57 -35.67 -5.38 249 251 248
-1.58 -35.76 -5.37 249 251 248
-1.59 -35.86 -5.37 249 251 248
-1.59 -35.96 -5.36 249 251 248
-1.60 -36.05 -5.35 249 251 248
-1.61 -36.15 -5.34 249 251 248
-1.60 -36.26 -5.35 249 251 248
-1.61 -36.35 -5.34 249 251 248
-1.61 -36.45 -5.34 249 251 248
-1.60 -36.56 -5.35 249 251 248
-1.60 -36.66 -5.35 249 251 248
-1.60 -36.76 -5.35 249 251 248
-1.61 -36.85 -5.34 249 251 248
-1.62 -36.95 -5.33 249 251 248
-1.62 -37.05 -5.33 249 251 248
-1.62 -37.15 -5.34 249 251 248
-1.63 -37.24 -5.32 248 250 247
-1.63 -37.34 -5.32 248 250 247
-1.65 -37.43 -5.30 248 250 247
-1.67 -37.51 -5.27 248 250 247
-1.69 -37.60 -5.25 248 250 247
-1.70 -37.69 -5.24 248 250 247
-1.65 -37.83 -5.29 248 250 247
-1.68 -37.91 -5.27 248 250 247
-1.63 -38.05 -5.32 251 246 245
-1.71 -38.09 -5.24 253 248 247
-2.01 24.61 -5.04 143 132 125
-1.96 24.56 -5.10 143 132 125
-1.99 24.43 -5.07 143 132 125
-2.00 24.33 -5.06 143 132 125
-2.01 24.21 -5.04 143 132 125
-2.03 24.10 -5.03 143 132 125
-2.00 24.03 -5.06 143 132 125
-1.99 23.93 -5.07 143 132 125
-2.00 23.83 -5.06 144 133 126
-2.00 23.72 -5.05 144 133 126
-2.00 23.62 -5.05 144 133 126
-2.00 23.52 -5.05 144 133 126
-2.00 23.43 -5.06 144 133 126
-2.00 23.32 -5.05 144 133 126
-2.00 23.22 -5.05 144 133 126
-2.01 23.12 -5.05 144 133 126
-2.02 23.01 -5.03 143 134 126
-2.01 22.92 -5.05 144 135 127
-2.01 22.81 -5.04 144 135 127
-2.01 22.71 -5.04 145 136 128
-2.00 22.62 -5.05 145 136 128
-1.99 22.53 -5.07 146 137 129
-1.99 22.43 -5.07 146 137 129
-1.98 22.34 -5.07 148 139 131
-1.98 22.24 -5.08 148 139 131
-1.97 22.15 -5.09 148 139 131
-1.95 22.06 -5.11 148 139 131
-1.94 21.97 -5.12 148 139 131
-1.93 21.87 -5.13 148 139 131
-1.91 21.79 -5.15 148 139 131
-1.90 21.70 -5.16 148 139 131
-1.90 21.60 -5.17 148 139 131
-1.88 21.52 -5.19 146 142 134
-1.87 21.42 -5.20 146 142 134
-1.85 21.33 -5.22 146 142 134
-1.84 21.24 -5.22 146 142 134
-1.83 21.15 -5.24 146 142 134
-1.83 21.05 -5.25 146 142 134
-1.81 20.96 -5.26 146 142 134
-1.80 20.87 -5.27 146 142 134
-1.79 20.77 -5.28 147 143 135
-1.78 20.68 -5.30 147 143 135
-1.78 20.58 -5.30 147 143 135
-1.77 20.49 -5.30 147 143 135
-1.77 20.39 -5.31 147 143 135
-1.76 20.30 -5.32 147 143 135
-1.75 20.20 -5.33 147 143 135
-1.74 20.11 -5.34 147 143 135
-1.72 20.02 -5.36 147 143 135
-1.72 19.92 -5.36 148 144 136
-1.71 19.83 -5.37 148 144 136
-1.70 19.73 -5.38 149 145 137
-1.70 19.63 -5.38 149 145 137
-1.70 19.53 -5.38 150 146 138
-1.69 19.44 -5.39 150 146 138
-1.68 19.34 -5.40 152 148 140
-1.68 19.24 -5.41 152 148 140
-1.67 19.15 -5.42 152 148 140
-1.67 19.05 -5.42 152 148 140
-1.66 18.96 -5.43 152 148 140
-1.66 18.85 -5.43 152 148 140
-1.65 18.76 -5.44 152 148 140
-1.65 18.66 -5.44 152 148 140
-1.65 18.56 -5.44 152 148 140
-1.64 18.46 -5.45 153 149 141
-1.64 18.36 -5.45 153 149 141
-1.64 -30.41 -5.45 239 241 238
-1.65 -30.50 -5.44 239 241 238
-1.66 -30.59 -5.43 239 241 238
-1.66 -30.70 -5.43 239 241 238
-1.67 -30.79 -5.41 237 239 236
-1.68 -30.89 -5.41 237 239 236
-1.67 -30.99 -5.41 237 239 236
-1.69 -31.08 -5.40 237 239 236
-1.70 -31.18 -5.39 237 239 236
-1.70 -31.28 -5.38 237 239 236
-1.71 -31.37 -5.37 237 239 236
-1.71 -31.47 -5.37 237 239 236
-1.71 -31.57 -5.37 239 241 238
-1.72 -31.67 -5.36 239 241 238
-1.72 -31.77 -5.36 239 241 238
-1.73 -31.86 -5.35 239 241 238
-1.73 -31.96 -5.35 239 241 238
-1.74 -32.06 -5.34 239 241 238
-1.75 -32.15 -5.33 239 241 238
-1.75 -32.25 -5.33 239 241 238
-1.76 -32.35 -5.32 239 241 238
-1.76 -32.45 -5.32 240 242 239
-1.77 -32.54 -5.31 240 242 239
-1.77 -32.64 -5.31 241 243 240
-1.78 -32.74 -5.30 241 243 240
-1.78 -32.84 -5.30 242 244 241
-1.78 -32.93 -5.29 242 244 241
-1.78 -33.04 -5.30 243 245 242
-1.79 -33.13 -5.29 243 245 242
-1.79 -33.23 -5.29 243 245 242
-1.79 -33.33 -5.29 243 245 242
-1.78 -33.44 -5.29 243 245 242
-1.78 -33.54 -5.30 243 245 242
-1.78 -33.64 -5.29 243 245 242
-1.78 -33.74 -5.30 243 245 242
-1.78 -33.84 -5.30 243 245 242
-1.77 -33.95 -5.30 246 248 245
-1.77 -34.05 -5.30 246 248 245
-1.77 -34.15 -5.31 246 248 245
-1.78 -34.24 -5.30 246 248 245
-1.78 -34.34 -5.30 246 248 245
-1.77 -34.45 -5.30 246 248 245
-1.78 -34.54 -5.29 246 248 245
-1.77 -34.65 -5.30 246 248 245
-1.77 -34.75 -5.30 247 249 246
-1.78 -34.85 -5.30 247 249 246
-1.78 -34.95 -5.30 247 249 246
-1.78 -35.05 -5.30 247 249 246
-1.78 -35.15 -5.29 247 249 246
-1.78 -35.25 -5.29 247 249 246
-1.78 -35.35 -5.29 247 249 246
-1.79 -35.45 -5.29 247 249 246
-1.79 -35.55 -5.29 249 251 248
-1.79 -35.64 -5.28 249 251 248
-1.80 -35.74 -5.27 249 251 248
-1.81 -35.83 -5.26 249 251 248
-1.82 -35.93 -5.26 249 251 248
-1.82 -36.03 -5.26 249 251 248
-1.82 -36.12 -5.25 249 251 248
-1.83 -36.22 -5.24 249 251 248
-1.82 -36.33 -5.25 249 251 248
-1.82 -36.43 -5.25 249 251 248
-1.81 -36.53 -5.26 249 251 248
-1.82 -36.63 -5.26 249 251 248
-1.81 -36.73 -5.26 249 251 248
-1.82 -36.83 -5.25 249 251 248
-1.82 -36.93 -5.25 249 251 248
-1.81 -37.04 -5.26 249 251 248
-1.81 -37.14 -5.27 248 250 247
-1.81 -37.24 -5.26 248 250 247
-1.81 -37.34 -5.26 248 250 247
-1.85 -37.41 -5.22 248 250 247
-1.88 -37.49 -5.19 248 250 247
-1.90 -37.57 -5.17 248 250 247
-1.84 -37.72 -5.23 248 250 247
-1.81 -37.84 -5.26 248 250 247
-1.77 -37.97 -5.30 249 247 245
-1.75 -38.09 -5.33 252 250 248
-2.17 24.52 -5.00 143 132 125
-2.11 24.47 -5.07 143 132 125
-2.13 24.35 -5.05 143 132 125
-2.13 24.26 -5.05 143 132 125
-2.15 24.14 -5.03 143 132 125
-2.16 24.03 -5.01 143 132 125
-2.13 23.95 -5.05 143 132 125
-2.14 23.85 -5.04 143 132 125
-2.15 23.74 -5.03 144 133 126
-2.15 23.64 -5.03 144 133 126
-2.15 23.54 -5.03 144 133 126
-2.14 23.44 -5.04 144 133 126
-2.13 23.35 -5.05 144 133 126
-2.14 23.24 -5.04 144 133 126
-2.16 23.14 -5.02 144 133 126
-2.16 23.03 -5.02 144 133 126
-2.17 22.93 -5.01 143 134 126
-2.16 22.83 -5.02 144 135 127
-2.16 22.73 -5.01 144 135 127
-2.16 22.64 -5.02 145 136 128
-2.15 22.54 -5.03 145 136 128
-2.15 22.44 -5.03 146 137 129
-2.14 22.35 -5.04 146 137 129
-2.12 22.26 -5.06 148 139 131
-2.12 22.17 -5.06 148 139 131
-2.12 22.07 -5.07 148 139 131
-2.11 21.98 -5.08 148 139 131
-2.09 21.89 -5.09 148 139 131
-2.08 21.79 -5.10 148 139 131
-2.07 21.71 -5.12 148 139 131
-2.06 21.61 -5.13 148 139 131
-2.06 21.52 -5.13 148 139 131
-2.03 21.44 -5.17 146 142 134
-2.02 21.34 -5.17 146 142 134
-2.01 21.25 -5.18 146 142 134
-1.99 21.16 -5.20 146 142 134
-1.99 21.06 -5.20 146 142 134
-1.97 20.98 -5.22 146 142 134
-1.96 20.88 -5.23 146 142 134
-1.96 20.79 -5.24 146 142 134
-1.96 20.69 -5.24 147 143 135
-1.94 20.60 -5.26 147 143 135
-1.93 20.51 -5.27 147 143 135
-1.93 20.41 -5.27 147 143 135
-1.92 20.31 -5.28 147 143 135
-1.92 20.22 -5.29 147 143 135
-1.91 20.13 -5.30 147 143 135
-1.90 20.03 -5.30 147 143 135
-1.88 19.95 -5.33 147 143 135
-1.87 19.85 -5.34 148 144 136
-1.86 19.75 -5.34 148 144 136
-1.86 19.66 -5.35 149 145 137
-1.86 19.56 -5.35 149 145 137
-1.85 19.46 -5.36 150 146 138
-1.85 19.36 -5.36 150 146 138
-1.84 19.27 -5.37 152 148 140
-1.83 19.17 -5.38 152 148 140
-1.82 19.08 -5.39 152 148 140
-1.82 18.98 -5.39 152 148 140
-1.81 18.89 -5.40 152 148 140
-1.81 18.78 -5.40 152 148 140
-1.81 18.69 -5.41 152 148 140
-1.80 18.59 -5.42 152 148 140
-1.79 18.50 -5.43 152 148 140
-1.79 18.40 -5.43 153 149 141
-1.79 18.30 -5.43 153 149 141
-1.79 18.20 -5.43 153 149 141
-1.78 18.10 -5.44 153 149 141
-1.78 18.00 -5.44 153 149 141
-1.77 -29.96 -5.45 239 241 238
-1.79 -30.05 -5.43 239 241 238
-1.80 -30.14 -5.41 239 241 238
-1.81 -30.23 -5.40 239 241 238
-1.82 -30.33 -5.40 239 241 238
-1.81 -30.43 -5.40 239 241 238
-1.82 -30.53 -5.39 239 241 238
-1.82 -30.63 -5.39 239 241 238
-1.84 -30.72 -5.38 236 238 235
-1.84 -30.82 -5.37 236 238 235
-1.85 -30.91 -5.36 236 238 235
-1.85 -31.01 -5.36 236 238 235
-1.86 -31.11 -5.35 236 238 235
-1.87 -31.20 -5.34 236 238 235
-1.88 -31.30 -5.33 236 238 235
-1.88 -31.40 -5.33 236 238 235
-1.88 -31.49 -5.32 239 241 238
-1.90 -31.59 -5.31 239 241 238
-1.89 -31.69 -5.31 239 241 238
-1.90 -31.78 -5.30 239 241 238
-1.90 -31.89 -5.30 239 241 238
-1.89 -31.99 -5.31 239 241 238
-1.91 -32.08 -5.30 239 241 238
-1.92 -32.18 -5.29 239 241 238
-1.92 -32.27 -5.28 239 241 238
-1.93 -32.37 -5.28 240 242 239
-1.93 -32.47 -5.27 240 242 239
-1.93 -32.57 -5.27 241 243 240
-1.94 -32.66 -5.26 241 243 240
-1.94 -32.76 -5.26 242 244 241
-1.94 -32.86 -5.26 242 244 241
-1.95 -32.96 -5.25 243 245 242
-1.94 -33.06 -5.26 243 245 242
-1.95 -33.15 -5.25 243 245 242
-1.95 -33.26 -5.25 243 245 242
-1.96 -33.35 -5.24 243 245 242
-1.96 -33.45 -5.24 243 245 242
-1.96 -33.55 -5.24 243 245 242
-1.95 -33.66 -5.25 243 245 242
-1.95 -33.76 -5.25 243 245 242
-1.95 -33.86 -5.25 244 246 243
-1.95 -33.96 -5.25 244 246 243
-1.94 -34.06 -5.26 244 246 243
-1.95 -34.16 -5.25 244 246 243
-1.95 -34.26 -5.25 244 246 243
-1.94 -34.37 -5.26 244 246 243
-1.95 -34.46 -5.25 244 246 243
-1.94 -34.57 -5.26 244 246 243
-1.94 -34.66 -5.26 246 248 245
-1.96 -34.76 -5.24 246 248 245
-1.95 -34.86 -5.25 246 248 245
-1.95 -34.96 -5.25 246 248 245
-1.95 -35.06 -5.25 246 248 245
-1.96 -35.16 -5.24 246 248 245
-1.96 -35.25 -5.24 246 248 245
-1.97 -35.35 -5.23 246 248 245
-1.97 -35.45 -5.22 249 251 248
-1.97 -35.55 -5.22 249 251 248
-1.98 -35.64 -5.22 249 251 248
-1.98 -35.74 -5.22 249 251 248
-1.99 -35.83 -5.20 249 251 248
-1.99 -35.94 -5.21 249 251 248
-1.99 -36.04 -5.21 249 251 248
-1.99 -36.13 -5.20 249 251 248
-1.99 -36.24 -5.21 249 251 248
-1.99 -36.34 -5.21 249 251 248
-1.99 -36.44 -5.21 249 251 248
-2.00 -36.53 -5.19 249 251 248
-2.01 -36.62 -5.18 249 251 248
-2.02 -36.72 -5.18 249 251 248
-2.02 -36.82 -5.18 249 251 248
-2.01 -36.92 -5.18 249 251 248
-2.01 -37.02 -5.18 248 250 247
-2.00 -37.13 -5.20 248 250 247
-1.99 -37.24 -5.20 248 250 247
-2.03 -37.31 -5.17 248 250 247
-2.05 -37.39 -5.14 248 250 247
-2.05 -37.49 -5.14 248 250 247
-2.01 -37.62 -5.18 248 250 247
-1.99 -37.74 -5.21 248 250 247
-1.96 -37.86 -5.24 247 245 243
-1.89 -38.02 -5.32 252 250 248
-2.14 -37.92 -5.04 254 249 248
-2.34 24.42 -4.96 143 132 125
-2.29 24.36 -5.02 143 132 125
-2.31 24.25 -5.00 143 132 125
-2.29 24.16 -5.01 143 132 125
-2.31 24.04 -4.99 143 132 125
-2.33 23.93 -4.98 143 132 125
-2.31 23.85 -4.99 143 132 125
-2.30 23.75 -5.00 143 132 125
-2.31 23.64 -4.99 144 133 126
-2.31 23.55 -5.00 144 133 126
-2.31 23.45 -5.00 144 133 126
-2.31 23.35 -4.99 144 133 126
-2.31 23.25 -4.99 144 133 126
-2.31 23.15 -4.99 144 133 126
-2.33 23.04 -4.98 144 133 126
-2.31 22.95 -4.99 144 133 126
-2.33 22.84 -4.98 143 134 126
-2.32 22.74 -4.98 144 135 127
-2.32 22.64 -4.98 144 135 127
-2.33 22.54 -4.98 145 136 128
-2.32 22.45 -4.98 145 136 128
-2.31 22.35 -4.99 146 137 129
-2.31 22.26 -4.99 146 137 129
-2.30 22.16 -5.00 148 139 131
-2.29 22.07 -5.01 148 139 131
-2.29 21.97 -5.02 148 139 131
-2.27 21.89 -5.03 148 139 131
-2.27 21.79 -5.04 148 139 131
-2.26 21.70 -5.05 148 139 131
-2.25 21.61 -5.06 148 139 131
-2.22 21.53 -5.09 148 139 131
-2.22 21.43 -5.09 148 139 131
-2.20 21.35 -5.12 146 142 134
-2.19 21.25 -5.13 146 142 134
-2.17 21.16 -5.14 146 142 134
-2.16 21.07 -5.15 146 142 134
-2.16 20.98 -5.16 146 142 134
-2.14 20.89 -5.18 146 142 134
-2.14 20.79 -5.18 146 142 134
-2.13 20.70 -5.19 146 142 134
-2.13 20.60 -5.19 147 143 135
-2.12 20.51 -5.20 147 143 135
-2.11 20.41 -5.21 147 143 135
-2.11 20.31 -5.21 147 143 135
-2.10 20.22 -5.23 147 143 135
-2.09 20.12 -5.23 147 143 135
-2.08 20.04 -5.25 147 143 135
-2.07 19.94 -5.26 147 143 135
-2.05 19.85 -5.28 147 143 135
-2.05 19.76 -5.28 148 144 136
-2.04 19.67 -5.30 148 144 136
-2.03 19.57 -5.30 149 145 137
-2.04 19.47 -5.30 149 145 137
-2.03 19.37 -5.31 150 146 138
-2.02 19.28 -5.32 150 146 138
-2.01 19.18 -5.33 152 148 140
-2.01 19.08 -5.32 152 148 140
-2.00 18.99 -5.34 152 148 140
-2.00 18.89 -5.34 152 148 140
-1.99 18.80 -5.35 152 148 140
-1.98 18.70 -5.35 152 148 140
-1.98 18.60 -5.36 152 148 140
-1.98 18.51 -5.36 152 148 140
-1.97 18.41 -5.37 152 148 140
-1.95 18.32 -5.39 153 149 141
-1.95 18.22 -5.39 153 149 141
-1.95 18.12 -5.39 153 149 141
-1.95 18.02 -5.39 153 149 141
-1.95 17.92 -5.39 153 149 141
-1.94 17.83 -5.40 153 149 141
-1.94 17.73 -5.41 153 149 141
-1.94 17.63 -5.41 153 149 141
-1.93 17.53 -5.41 154 150 142
-1.93 17.43 -5.42 154 150 142
-1.92 17.34 -5.42 154 150 142
-1.92 17.24 -5.43 154 150 142
-1.91 17.14 -5.44 154 150 142
-1.90 17.05 -5.44 154 150 142
-1.90 16.95 -5.45 154 150 142
-1.90 -28.10 -5.45 240 242 239
-1.90 -28.20 -5.45 240 242 239
-1.91 -28.30 -5.44 241 243 240
-1.92 -28.39 -5.42 241 243 240
-1.91 -28.49 -5.43 241 243 240
-1.93 -28.58 -5.42 241 243 240
-1.92 -28.69 -5.43 241 243 240
-1.94 -28.78 -5.41 241 243 240
-1.94 -28.88 -5.41 241 243 240
-1.93 -28.99 -5.42 241 243 240
-1.94 -29.08 -5.40 240 242 239
-1.94 -29.18 -5.41 240 242 239
-1.94 -29.28 -5.40 240 242 239
-1.94 -29.38 -5.40 240 242 239
-1.95 -29.48 -5.39 240 242 239
-1.96 -29.57 -5.38 240 242 239
-1.96 -29.67 -5.38 240 242 239
-1.97 -29.76 -5.37 240 242 239
-1.97 -29.86 -5.37 237 239 236
-1.98 -29.96 -5.35 237 239 236
-1.99 -30.05 -5.34 237 239 236
-2.00 -30.15 -5.34 237 239 236
-2.01 -30.24 -5.32 237 239 236
-2.01 -30.34 -5.32 237 239 236
-2.03 -30.43 -5.31 237 239 236
-2.02 -30.54 -5.31 237 239 236
-2.04 -30.63 -5.29 236 238 235
-2.05 -30.72 -5.28 236 238 235
-2.05 -30.82 -5.28 236 238 235
-2.06 -30.91 -5.27 236 238 235
-2.06 -31.01 -5.26 236 238 235
-2.08 -31.10 -5.25 236 238 235
-2.08 -31.20 -5.25 236 238 235
-2.08 -31.30 -5.25 236 238 235
-2.08 -31.40 -5.25 239 241 238
-2.09 -31.50 -5.24 239 241 238
-2.09 -31.59 -5.23 239 241 238
-2.09 -31.69 -5.23 239 241 238
-2.10 -31.79 -5.23 239 241 238
-2.10 -31.89 -5.23 239 241 238
-2.11 -31.98 -5.21 239 241 238
-2.11 -32.08 -5.21 239 241 238
-2.11 -32.18 -5.21 239 241 238
-2.12 -32.28 -5.21 240 242 239
-2.12 -32.37 -5.20 240 242 239
-2.13 -32.47 -5.19 241 243 240
-2.14 -32.56 -5.18 241 243 240
-2.14 -32.66 -5.18 242 244 241
-2.14 -32.76 -5.18 242 244 241
-2.14 -32.86 -5.18 243 245 242
-2.14 -32.96 -5.18 243 245 242
-2.14 -33.06 -5.18 243 245 242
-2.14 -33.16 -5.18 243 245 242
-2.14 -33.26 -5.18 243 245 242
-2.15 -33.36 -5.17 243 245 242
-2.15 -33.45 -5.17 243 245 242
-2.14 -33.56 -5.18 243 245 242
-2.13 -33.67 -5.19 243 245 242
-2.13 -33.77 -5.19 244 246 243
-2.14 -33.86 -5.18 244 246 243
-2.13 -33.97 -5.19 244 246 243
-2.14 -34.06 -5.18 244 246 243
-2.14 -34.16 -5.18 244 246 243
-2.13 -34.27 -5.19 244 246 243
-2.15 -34.36 -5.17 244 246 243
-2.13 -34.47 -5.19 244 246 243
-2.14 -34.56 -5.18 246 248 245
-2.15 -34.65 -5.17 246 248 245
-2.14 -34.76 -5.18 246 248 245
-2.16 -34.85 -5.16 246 248 245
-2.16 -34.95 -5.16 246 248 245
-2.15 -35.05 -5.17 246 248 245
-2.17 -35.14 -5.15 246 248 245
-2.17 -35.24 -5.15 246 248 245
-2.17 -35.34 -5.15 249 251 248
-2.17 -35.44 -5.15 249 251 248
-2.17 -35.53 -5.14 249 251 248
-2.18 -35.63 -5.13 249 251 248
-2.19 -35.72 -5.12 249 251 248
-2.20 -35.81 -5.12 249 251 248
-2.20 -35.92 -5.12 249 251 248
-2.20 -36.01 -5.12 249 251 248
-2.19 -36.12 -5.13 249 251 248
-2.19 -36.22 -5.12 249 251 248
-2.19 -36.32 -5.13 249 251 248
-2.20 -36.41 -5.12 249 251 248
-2.20 -36.51 -5.11 249 251 248
-2.20 -36.61 -5.11 249 251 248
-2.20 -36.71 -5.12 249 251 248
-2.19 -36.82 -5.12 249 251 248
-2.19 -36.92 -5.12 248 250 247
-2.19 -37.02 -5.12 248 250 247
-2.19 -37.12 -5.13 248 250 247
-2.22 -37.20 -5.10 248 250 247
-2.23 -37.28 -5.08 248 250 247
-2.23 -37.38 -5.08 248 250 247
-2.20 -37.51 -5.11 248 250 247
-2.15 -37.65 -5.17 248 250 247
-2.17 -37.73 -5.15 246 246 243
-2.14 -37.86 -5.19 251 251 248
-2.47 -37.69 -4.82 250 248 246
-2.51 24.31 -4.91 143 132 125
-2.45 24.26 -4.97 143 132 125
-2.48 24.14 -4.94 143 132 125
-2.48 24.04 -4.94 143 132 125
-2.51 23.92 -4.92 143 132 125
-2.52 23.81 -4.90 143 132 125
-2.49 23.74 -4.93 143 132 125
-2.49 23.64 -4.94 143 132 125
-2.50 23.53 -4.93 144 133 126
-2.50 23.43 -4.92 144 133 126
-2.50 23.33 -4.92 144 133 126
-2.50 23.23 -4.92 144 133 126
-2.49 23.14 -4.93 144 133 126
-2.49 23.04 -4.93 144 133 126
-2.51 22.93 -4.92 144 133 126
-2.50 22.84 -4.93 144 133 126
-2.51 22.73 -4.91 143 134 126
-2.51 22.63 -4.92 144 135 127
-2.50 22.54 -4.93 144 135 127
-2.50 22.44 -4.92 145 136 128
-2.49 22.35 -4.94 145 136 128
-2.48 22.26 -4.94 146 137 129
-2.48 22.16 -4.94 146 137 129
-2.47 22.07 -4.95 148 139 131
-2.46 21.97 -4.96 148 139 131
-2.45 21.88 -4.97 148 139 131
-2.44 21.79 -4.99 148 139 131
-2.43 21.70 -5.00 148 139 131
-2.42 21.61 -5.01 148 139 131
-2.42 21.51 -5.01 148 139 131
-2.40 21.43 -5.03 148 139 131
-2.40 21.32 -5.03 148 139 131
-2.38 21.24 -5.05 146 142 134
-2.37 21.16 -5.07 146 142 134
-2.35 21.07 -5.09 146 142 134
-2.34 20.97 -5.09 146 142 134
-2.34 20.88 -5.10 146 142 134
-2.32 20.79 -5.12 146 142 134
-2.32 20.69 -5.12 146 142 134
-2.31 20.60 -5.13 146 142 134
-2.30 20.51 -5.14 147 143 135
-2.30 20.41 -5.14 147 143 135
-2.30 20.31 -5.15 147 143 135
-2.29 20.22 -5.15 147 143 135
-2.28 20.13 -5.17 147 143 135
-2.27 20.03 -5.17 147 143 135
-2.26 19.94 -5.19 147 143 135
-2.25 19.85 -5.20 147 143 135
-2.24 19.76 -5.22 147 143 135
-2.23 19.66 -5.22 148 144 136
-2.22 19.57 -5.24 148 144 136
-2.21 19.48 -5.25 149 145 137
-2.20 19.38 -5.25 149 145 137
-2.20 19.28 -5.26 150 146 138
-2.20 19.19 -5.26 150 146 138
-2.18 19.10 -5.27 152 148 140
-2.18 19.00 -5.27 152 148 140
-2.17 18.91 -5.29 152 148 140
-2.17 18.81 -5.29 152 148 140
-2.16 18.71 -5.30 152 148 140
-2.15 18.62 -5.31 152 148 140
-2.15 18.52 -5.31 152 148 140
-2.14 18.42 -5.32 152 148 140
-2.14 18.32 -5.32 152 148 140
-2.13 18.23 -5.33 153 149 141
-2.13 18.13 -5.33 153 149 141
-2.13 18.03 -5.34 153 149 141
-2.12 17.94 -5.35 153 149 141
-2.12 17.84 -5.35 153 149 141
-2.11 17.75 -5.36 153 149 141
-2.11 17.65 -5.36 153 149 141
-2.11 17.55 -5.36 153 149 141
-2.09 17.46 -5.37 154 150 142
-2.10 17.35 -5.37 154 150 142
-2.09 17.26 -5.38 154 150 142
-2.09 17.16 -5.38 154 150 142
-2.08 17.06 -5.39 154 150 142
-2.07 16.97 -5.40 154 150 142
-2.06 16.88 -5.41 154 150 142
-2.05 16.78 -5.42 154 150 142
-2.06 16.68 -5.42 155 151 145
-2.05 16.58 -5.42 155 151 145
-2.05 16.48 -5.42 155 151 145
-2.05 16.38 -5.42 155 151 145
-2.05 16.28 -5.42 155 151 145
-2.05 16.18 -5.42 155 151 145
-2.05 16.08 -5.42 155 151 145
-2.05 15.98 -5.42 155 151 145
-2.04 15.88 -5.43 159 155 149
-2.05 15.78 -5.42 159 155 149
-2.05 15.68 -5.42 159 155 149
-2.05 15.58 -5.42 159 155 149
-2.05 15.48 -5.42 159 155 149
-2.05 15.38 -5.42 159 155 149
-2.06 15.28 -5.42 159 155 149
-2.05 15.18 -5.42 159 155 149
-2.06 15.07 -5.41 160 156 148
-2.06 14.98 -5.42 160 156 148
-2.06 14.87 -5.41 160 156 148
-2.04 14.78 -5.43 160 156 148
-2.04 14.68 -5.43 160 156 148
-2.04 14.59 -5.44 160 156 148
-2.03 14.49 -5.44 160 156 148
-2.04 14.38 -5.43 160 156 148
-2.03 14.19 -5.45 161 157 149
-2.03 14.09 -5.45 161 157 149
-2.04 13.98 -5.44 161 157 149
-2.04 13.88 -5.44 161 157 149
-2.03 13.79 -5.44 161 157 149
-2.03 13.68 -5.44 161 157 149
-2.03 13.49 -5.45 161 160 151
-2.03 -25.95 -5.45 239 241 238
-2.03 -26.05 -5.45 239 241 238
-2.04 -26.14 -5.43 239 241 238
-2.04 -26.24 -5.43 239 241 238
-2.04 -26.34 -5.43 239 241 238
-2.05 -26.44 -5.42 239 241 238
-2.05 -26.54 -5.42 239 241 238
-2.05 -26.64 -5.42 241 243 240
-2.05 -26.74 -5.42 241 243 240
-2.05 -26.84 -5.42 241 243 240
-2.05 -26.94 -5.42 241 243 240
-2.07 -27.03 -5.40 241 243 240
-2.07 -27.13 -5.40 241 243 240
-2.07 -27.23 -5.39 241 243 240
-2.08 -27.32 -5.39 241 243 240
-2.08 -27.42 -5.38 239 241 238
-2.08 -27.52 -5.39 239 241 238
-2.09 -27.62 -5.38 239 241 238
-2.09 -27.72 -5.38 239 241 238
-2.09 -27.82 -5.37 239 241 238
-2.09 -27.92 -5.37 239 241 238
-2.11 -28.01 -5.36 239 241 238
-2.11 -28.11 -5.36 239 241 238
-2.10 -28.22 -5.37 241 243 240
-2.12 -28.31 -5.35 241 243 240
-2.11 -28.41 -5.35 241 243 240
-2.14 -28.50 -5.33 241 243 240
-2.13 -28.60 -5.33 241 243 240
-2.14 -28.69 -5.32 241 243 240
-2.14 -28.79 -5.32 241 243 240
-2.13 -28.90 -5.33 241 243 240
-2.15 -28.99 -5.31 239 241 238
-2.14 -29.09 -5.32 239 241 238
