ply
format ascii 1.0
element vertex 1587
property float x
property float y
property float z
property uchar red
property uchar green
property uchar blue
end_header
-8.40 6.23 -3.73 174 176 161
-8.40 6.15 -3.74 174 176 161
-8.39 6.06 -3.74 174 175 163
-8.38 5.97 -3.75 174 175 163
-8.38 5.89 -3.76 174 175 163
-8.38 5.80 -3.76 174 175 163
-8.38 5.71 -3.76 174 175 163
-8.38 5.62 -3.76 174 175 163
-8.38 5.53 -3.76 174 176 161
-8.38 5.45 -3.76 174 176 161
-8.38 5.36 -3.76 174 175 165
-8.38 5.27 -3.75 174 175 165
-8.38 5.18 -3.76 174 175 167
-8.38 5.09 -3.75 174 175 167
-8.38 5.00 -3.75 174 175 167
-8.38 4.91 -3.76 174 175 167
-8.38 4.82 -3.75 174 175 167
-8.38 4.74 -3.76 174 175 167
-8.37 4.65 -3.77 174 175 167
-8.37 4.56 -3.77 174 175 167
-8.37 4.47 -3.77 174 175 167
-8.37 4.39 -3.77 174 175 167
-8.37 4.30 -3.77 174 175 167
-8.37 4.21 -3.77 174 175 167
-8.36 4.13 -3.78 174 175 167
-8.36 4.04 -3.78 174 175 167
-8.36 3.95 -3.78 174 175 167
-8.36 3.86 -3.78 173 174 166
-8.36 3.77 -3.78 173 174 164
-8.37 3.68 -3.78 173 174 164
-8.37 3.59 -3.77 173 174 164
-8.37 3.50 -3.77 173 174 164
-8.38 3.41 -3.76 173 174 164
-8.38 3.32 -3.76 173 174 164
-8.38 3.23 -3.76 173 174 164
-8.38 3.15 -3.76 173 174 164
-8.38 3.06 -3.76 173 174 164
-8.38 2.97 -3.76 173 174 164
-8.39 2.88 -3.75 173 174 164
-8.39 2.79 -3.74 173 174 164
-8.39 2.70 -3.75 173 174 164
-8.38 2.61 -3.76 173 174 164
-8.39 2.52 -3.74 173 174 164
-8.38 2.44 -3.75 173 174 164
-8.39 2.35 -3.75 173 174 166
-8.39 2.26 -3.74 173 174 166
-8.39 2.17 -3.74 173 174 166
-8.40 2.08 -3.73 173 174 166
-8.40 1.99 -3.73 173 174 166
-8.41 1.90 -3.72 173 174 166
-8.41 1.81 -3.72 173 174 166
-8.42 1.72 -3.71 173 174 166
-8.42 1.63 -3.71 173 174 166
-8.42 1.54 -3.71 173 174 166
-8.43 1.45 -3.70 173 174 166
-8.42 1.36 -3.70 173 174 166
-8.42 1.27 -3.70 173 174 166
-8.43 1.19 -3.70 173 174 166
-8.42 1.10 -3.70 172 173 165
-8.42 1.01 -3.70 172 173 165
-8.43 0.92 -3.70 172 173 165
-8.42 0.83 -3.70 172 173 165
-8.43 0.74 -3.70 172 173 165
-8.43 0.65 -3.70 172 173 165
-8.42 0.57 -3.71 172 173 165
-8.43 0.48 -3.70 172 173 165
-8.42 0.39 -3.70 172 173 165
-8.42 0.30 -3.71 172 173 165
-8.43 0.21 -3.70 172 173 165
-8.42 0.13 -3.71 172 173 165
-8.43 0.04 -3.70 172 173 165
-8.43 -0.05 -3.69 172 173 165
-8.43 -0.14 -3.70 172 173 165
-8.43 -0.23 -3.69 172 173 165
-8.43 -0.32 -3.69 169 171 166
-8.44 -0.41 -3.69 169 171 166
-8.43 -0.49 -3.70 169 171 166
-8.43 -0.58 -3.70 169 171 166
-8.43 -0.67 -3.70 169 171 166
-8.42 -0.76 -3.70 169 171 166
-8.42 -0.85 -3.71 169 171 166
-8.42 -0.93 -3.71 169 171 166
-8.42 -1.02 -3.71 171 173 168
-8.41 -1.11 -3.72 171 173 168
-8.42 -1.20 -3.71 171 173 168
-8.41 -1.29 -3.72 171 173 168
-8.41 -1.37 -3.72 171 173 168
-8.41 -1.46 -3.72 171 173 168
-8.41 -1.55 -3.72 171 173 168
-8.41 -1.64 -3.72 171 173 168
-8.41 -1.73 -3.73 169 174 168
-8.40 -1.81 -3.73 169 174 168
-8.41 -1.90 -3.73 169 174 168
-8.40 -1.99 -3.73 169 174 168
-8.40 -2.08 -3.73 169 174 168
-8.40 -2.17 -3.73 169 174 168
-8.39 -2.26 -3.74 169 174 168
-8.39 -2.34 -3.74 169 174 168
-8.39 -2.43 -3.74 169 174 168
-8.39 -2.52 -3.74 170 175 169
-8.39 -2.61 -3.75 170 175 169
-8.39 -2.70 -3.75 171 176 170
-8.39 -2.79 -3.75 171 176 170
-8.39 -2.87 -3.74 172 177 171
-8.40 -2.96 -3.74 172 177 171
-8.40 -3.05 -3.74 174 179 173
-8.40 -3.14 -3.73 172 178 169
-8.40 -3.23 -3.73 172 178 169
-8.40 -3.32 -3.73 172 178 169
-8.40 -3.41 -3.73 172 178 169
-8.40 -3.49 -3.73 172 178 169
-8.41 -3.58 -3.72 172 178 169
-8.41 -3.67 -3.72 172 178 169
-8.41 -3.76 -3.72 172 178 169
-8.42 -3.85 -3.71 174 180 171
-8.42 -3.94 -3.70 174 180 171
-8.42 -4.03 -3.71 174 180 171
-8.42 -4.12 -3.70 174 180 171
-8.43 -4.21 -3.69 174 180 171
-8.43 -4.29 -3.69 174 180 171
-8.43 -4.38 -3.70 174 180 171
-8.43 -4.47 -3.70 174 180 171
-8.42 -4.56 -3.71 174 179 173
-8.42 -4.65 -3.71 174 179 173
-8.42 -4.73 -3.71 174 179 173
-8.42 -4.82 -3.71 174 179 173
-8.41 -4.91 -3.72 174 179 173
-8.41 -5.00 -3.72 174 179 173
-8.41 -5.09 -3.72 174 179 173
-8.40 -5.17 -3.73 174 179 173
-8.41 -5.26 -3.73 174 179 173
-8.39 -5.35 -3.75 174 179 173
-8.39 -5.44 -3.75 174 179 173
-8.38 -5.53 -3.76 174 179 173
-8.38 -5.62 -3.76 174 179 173
-8.38 -5.70 -3.76 174 179 173
-8.38 -5.79 -3.76 173 180 173
-8.37 -5.88 -3.77 174 181 174
-8.36 -5.97 -3.78 174 181 176
-8.37 -6.06 -3.77 175 182 177
-8.37 -6.15 -3.78 175 182 177
-8.36 -6.23 -3.78 175 182 177
-8.37 -6.32 -3.77 175 182 177
-8.36 -6.41 -3.78 175 182 177
-8.36 -6.50 -3.78 175 182 177
-8.36 -6.59 -3.78 175 182 177
-8.35 -6.68 -3.79 175 182 177
-8.35 -6.77 -3.80 175 182 177
-8.33 -6.85 -3.82 175 182 177
-8.33 -6.94 -3.83 175 182 177
-8.31 -7.03 -3.84 175 182 177
-8.31 -7.12 -3.85 175 182 177
-8.29 -7.21 -3.87 175 182 180
-8.28 -7.30 -3.88 175 182 180
-8.28 -7.39 -3.89 178 183 182
-8.26 -7.47 -3.91 178 183 182
-8.26 -7.56 -3.91 178 183 182
-8.25 -7.65 -3.92 179 184 183
-8.25 -7.74 -3.93 179 184 183
-8.25 -7.83 -3.93 181 186 185
-8.24 -7.92 -3.94 181 186 185
-8.23 -8.01 -3.95 181 186 185
-8.24 -8.10 -3.94 179 184 183
-8.23 -8.19 -3.95 188 193 192
-8.21 -8.28 -3.98 174 179 178
-8.21 -8.36 -3.97 166 171 170
-8.40 -8.45 -3.74 210 215 214
-8.92 -8.52 -3.07 245 250 249
-9.16 -8.59 -2.76 246 251 250
-9.18 -8.68 -2.73 248 253 252
-9.19 -8.77 -2.72 246 253 251
-9.19 -8.85 -2.71 246 253 251
-9.23 -8.94 -2.67 246 253 251
-9.25 -9.02 -2.64 246 253 251
-9.26 -9.11 -2.63 246 253 251
-9.26 -9.19 -2.63 246 253 251
-9.27 -9.28 -2.62 246 253 251
-9.27 -9.36 -2.61 246 253 251
-9.27 -9.45 -2.62 246 253 251
-9.27 -9.54 -2.62 246 253 251
-9.25 -9.62 -2.65 246 253 251
-9.25 -9.71 -2.64 246 253 251
-9.24 -9.80 -2.65 246 253 251
-9.23 -9.88 -2.66 246 253 251
-9.23 -9.97 -2.67 246 253 251
-9.22 -10.06 -2.68 246 253 251
-9.22 -10.14 -2.68 245 252 250
-9.21 -10.23 -2.70 245 252 250
-9.20 -10.32 -2.71 245 252 250
-9.19 -10.40 -2.72 245 252 250
-9.18 -10.49 -2.73 245 252 250
-9.18 -10.58 -2.73 245 252 250
-9.17 -10.66 -2.74 245 252 250
-9.15 -10.75 -2.77 245 252 250
-9.14 -10.84 -2.78 246 253 251
-9.13 -10.93 -2.80 243 250 248
-9.00 -11.03 -2.96 245 252 250
-8.78 -11.14 -3.25 237 244 242
-8.49 -11.27 -3.62 204 211 209
-8.35 -11.37 -3.80 174 181 179
-8.26 -11.47 -3.91 173 180 178
-8.25 -11.56 -3.92 184 191 189
-8.26 -11.65 -3.91 186 191 190
-8.27 -11.74 -3.90 186 191 190
-8.29 -11.82 -3.88 186 191 190
-8.28 -11.91 -3.89 188 193 192
-8.29 -12.00 -3.87 189 194 193
-8.29 -12.09 -3.87 190 195 194
-8.29 -12.18 -3.87 190 195 194
-8.30 -12.26 -3.86 189 194 193
-8.30 -12.35 -3.85 189 194 193
-8.32 -12.44 -3.84 189 194 193
-8.32 -12.53 -3.84 189 194 193
-8.32 -12.62 -3.83 189 194 193
-8.33 -12.70 -3.82 189 194 193
-8.33 -12.79 -3.83 189 194 193
-8.32 -12.88 -3.83 189 194 193
-8.33 -12.97 -3.82 189 194 193
-8.32 -13.06 -3.83 191 193 190
-8.32 -13.15 -3.84 192 194 191
-8.31 -13.24 -3.85 192 194 191
-8.30 -13.33 -3.86 192 194 191
-8.29 -13.42 -3.88 191 193 190
-8.28 -13.51 -3.88 188 190 187
-8.29 -13.60 -3.88 186 188 185
-8.27 -13.69 -3.89 185 187 184
-8.26 -13.78 -3.92 185 187 184
-8.24 -13.87 -3.93 181 183 180
-8.24 -13.96 -3.94 173 175 172
-8.23 -14.05 -3.95 169 171 168
-8.24 -14.14 -3.94 157 159 156
-8.23 -14.23 -3.95 154 156 153
-8.21 -14.32 -3.98 165 167 164
-8.20 -14.42 -3.99 164 166 163
-8.18 -14.51 -4.01 152 158 159
-8.18 -14.60 -4.02 134 140 141
-8.17 -14.69 -4.03 98 104 105
-8.15 -14.78 -4.05 61 67 68
-8.13 -14.88 -4.07 49 55 56
-8.12 -14.97 -4.09 75 81 82
-8.11 -15.06 -4.11 114 120 121
-8.11 -15.15 -4.11 141 147 148
-8.10 -15.24 -4.12 158 164 165
-8.08 -15.34 -4.14 158 164 165
-8.07 -15.43 -4.16 155 161 162
-8.06 -15.52 -4.17 147 153 154
-8.04 -15.61 -4.19 133 139 140
-8.03 -15.71 -4.21 116 122 123
-8.01 -15.80 -4.24 100 106 107
-8.00 -15.89 -4.24 92 98 99
-8.00 -15.98 -4.24 112 114 111
-8.02 -16.07 -4.23 131 133 130
-8.03 -16.15 -4.21 149 151 148
-8.04 -16.24 -4.19 151 153 150
-8.07 -16.32 -4.16 152 154 151
-8.09 -16.41 -4.13 143 145 142
-8.12 -16.49 -4.09 95 97 94
-8.14 -16.57 -4.06 35 37 34
-8.18 -16.65 -4.01 7 9 6
-8.21 -16.73 -3.98 10 12 9
-8.25 -16.80 -3.92 17 19 16
-8.29 -16.88 -3.87 32 34 31
-8.34 -16.96 -3.81 53 55 52
-8.39 -17.03 -3.74 66 68 65
-8.45 -17.10 -3.67 58 60 57
-8.48 -17.18 -3.62 44 46 43
-8.52 -17.25 -3.58 45 47 47
-8.55 -17.33 -3.54 41 43 43
-8.59 -17.41 -3.49 27 29 29
-8.62 -17.49 -3.46 25 27 27
-8.65 -17.56 -3.41 41 43 43
-8.69 -17.64 -3.36 73 75 75
-8.73 -17.71 -3.32 130 132 132
-8.77 -17.79 -3.26 177 179 179
-8.80 -17.86 -3.22 216 218 218
-8.85 -17.93 -3.16 233 235 235
-8.88 -18.01 -3.11 234 236 236
-8.93 -18.08 -3.05 221 223 223
-8.97 -18.15 -3.00 207 209 209
-9.01 -18.23 -2.95 197 199 199
-9.04 -18.30 -2.91 186 188 188
-9.08 -18.37 -2.86 181 183 183
-9.12 -18.45 -2.81 174 175 167
-9.16 -18.52 -2.76 173 174 166
-9.20 -18.59 -2.71 173 174 166
-9.23 -18.67 -2.67 175 176 168
-9.26 -18.74 -2.63 175 176 168
-9.30 -18.81 -2.58 174 175 167
-9.34 -18.88 -2.53 172 173 165
-9.38 -18.95 -2.48 172 173 165
-9.41 -19.02 -2.43 172 173 165
-9.46 -19.09 -2.38 172 173 165
-9.48 -19.17 -2.34 172 173 165
-9.53 -19.23 -2.28 171 172 164
-9.57 -19.31 -2.23 171 172 164
-9.60 -19.38 -2.20 170 171 163
-9.62 -19.46 -2.17 170 171 163
-9.64 -19.53 -2.14 170 171 163
-9.67 -19.60 -2.10 168 173 172
-9.70 -19.68 -2.07 163 168 167
-9.72 -19.75 -2.04 162 164 161
-9.75 -19.83 -2.00 161 163 160
-9.78 -19.90 -1.96 161 163 160
-9.81 -19.97 -1.92 158 160 157
-9.85 -20.04 -1.87 156 156 151
-9.88 -20.11 -1.84 150 150 145
-9.92 -20.18 -1.79 149 149 144
-9.95 -20.25 -1.74 138 138 133
-9.99 -20.31 -1.69 129 128 121
-10.03 -20.38 -1.64 123 122 115
-10.06 -20.45 -1.60 123 122 115
-10.11 -20.51 -1.54 117 116 109
-10.15 -20.58 -1.49 108 104 96
-10.19 -20.64 -1.43 98 94 86
-10.21 -20.72 -1.41 63 48 28
-10.21 -20.81 -1.42 156 141 121
-10.10 -20.94 -1.56 250 235 199
-9.86 -21.13 -1.86 237 222 186
-9.69 -21.29 -2.07 237 223 194
-9.67 -21.39 -2.10 247 233 204
-9.82 -21.40 -1.91 215 204 199
-10.05 -21.38 -1.62 13 2 0
-10.27 -21.36 -1.33 15 11 31
-10.28 -21.44 -1.33 2 0 18
-9.56 -21.86 -2.25 5 9 40
-8.95 -22.24 -3.03 101 105 136
-9.06 -22.28 -2.89 207 215 235
-9.13 -22.33 -2.79 230 238 255
-9.13 -22.42 -2.80 208 218 212
-9.12 -22.50 -2.80 202 212 206
-9.13 -22.59 -2.79 205 212 205
-9.13 -22.67 -2.79 204 211 204
-9.14 -22.76 -2.79 205 210 206
-9.14 -22.84 -2.78 209 214 210
-9.15 -22.92 -2.77 212 217 216
-9.17 -23.00 -2.75 212 217 216
-9.17 -23.08 -2.74 211 213 213
-9.19 -23.16 -2.72 208 210 210
-9.19 -23.25 -2.72 213 215 212
-9.19 -23.34 -2.72 213 215 212
-9.18 -23.43 -2.73 215 215 210
-9.18 -23.51 -2.73 215 215 210
-9.18 -23.60 -2.73 215 215 212
-9.18 -23.68 -2.73 215 215 212
-9.18 -23.77 -2.73 216 214 212
-9.19 -23.85 -2.72 216 214 212
-9.19 -23.94 -2.72 216 216 213
-9.19 -24.02 -2.71 216 216 213
-9.20 -24.11 -2.71 216 216 213
-9.20 -24.19 -2.71 216 216 213
-9.21 -24.27 -2.70 216 216 213
-9.21 -24.36 -2.70 216 216 213
-9.22 -24.44 -2.68 216 216 213
-9.23 -24.52 -2.67 216 216 213
-9.23 -24.61 -2.67 218 218 215
-9.23 -24.69 -2.66 218 218 215
-9.23 -24.78 -2.66 218 218 215
-9.24 -24.86 -2.65 218 218 215
-9.24 -24.94 -2.65 218 218 215
-9.25 -25.03 -2.65 218 218 215
-9.25 -25.11 -2.65 218 218 215
-9.25 -25.19 -2.64 218 218 215
-9.25 -25.28 -2.64 219 217 218
-9.25 -25.37 -2.64 219 217 218
-9.26 -25.45 -2.63 219 217 218
-9.25 -25.54 -2.64 219 217 218
-9.26 -25.62 -2.63 219 217 218
-9.27 -25.70 -2.62 219 217 218
-9.27 -25.79 -2.62 219 217 218
-9.27 -25.87 -2.61 219 217 218
-9.27 -25.96 -2.61 219 217 218
-9.28 -26.04 -2.60 219 217 218
-9.28 -26.12 -2.60 219 217 218
-9.28 -26.21 -2.60 219 217 218
-9.29 -26.29 -2.59 219 217 218
-9.29 -26.37 -2.59 219 217 218
-9.29 -26.46 -2.59 219 217 218
-9.29 -26.54 -2.59 219 217 218
-9.30 -26.63 -2.58 221 216 218
-9.30 -26.71 -2.58 221 216 218
-9.30 -26.80 -2.58 221 216 218
-9.31 -26.88 -2.57 221 216 218
-9.30 -26.97 -2.57 221 216 218
-9.30 -27.06 -2.58 221 216 218
-9.31 -27.14 -2.57 221 216 218
-9.30 -27.23 -2.57 221 216 218
-9.30 -27.32 -2.58 223 218 220
-9.30 -27.40 -2.58 223 218 220
-9.30 -27.49 -2.58 223 218 220
-9.30 -27.57 -2.58 223 218 220
-9.30 -27.66 -2.58 223 218 220
-9.30 -27.74 -2.57 223 218 220
-9.30 -27.83 -2.58 223 218 220
-9.30 -27.92 -2.58 223 218 220
-9.29 -28.01 -2.59 224 219 221
-9.29 -28.09 -2.59 224 219 221
-9.29 -28.18 -2.59 224 219 221
-9.30 -28.26 -2.58 224 219 221
-9.30 -28.35 -2.58 224 219 221
-9.31 -28.43 -2.57 224 219 221
-9.30 -28.51 -2.57 224 219 221
-9.30 -28.60 -2.58 224 219 221
-9.31 -28.68 -2.57 225 220 222
-9.31 -28.77 -2.56 225 220 222
-9.31 -28.85 -2.57 225 220 222
-9.30 -28.94 -2.57 225 220 222
-9.31 -29.02 -2.56 225 220 222
-9.31 -29.11 -2.56 225 220 222
-9.31 -29.19 -2.56 225 220 222
-9.32 -29.28 -2.55 225 220 222
-9.31 -29.37 -2.56 225 221 215
-9.32 -29.45 -2.55 225 221 215
-9.32 -29.53 -2.55 225 221 215
-9.33 -29.61 -2.54 225 221 215
-9.34 -29.69 -2.53 225 221 215
-9.34 -29.78 -2.53 225 221 215
-9.34 -29.86 -2.52 225 221 215
-9.35 -29.94 -2.52 225 221 215
-9.34 -30.03 -2.53 228 224 218
-9.35 -30.11 -2.51 228 224 218
-9.35 -30.20 -2.51 228 224 218
-9.35 -30.28 -2.51 228 224 218
-9.35 -30.37 -2.51 228 224 218
-9.35 -30.45 -2.51 228 224 218
-9.36 -30.54 -2.51 228 224 218
-9.36 -30.62 -2.50 228 224 218
-9.36 -30.70 -2.50 231 226 223
-9.35 -30.80 -2.51 231 226 223
-9.36 -30.87 -2.50 231 226 223
-9.36 -30.96 -2.50 231 226 223
-9.36 -31.05 -2.50 231 226 223
-9.37 -31.13 -2.49 231 226 223
-9.36 -31.22 -2.50 231 226 223
-9.37 -31.30 -2.49 231 226 223
-9.37 -31.39 -2.49 232 227 224
-9.37 -31.47 -2.49 232 227 224
-9.37 -31.55 -2.49 232 227 224
-9.37 -31.64 -2.49 232 227 224
-9.37 -31.73 -2.49 232 227 224
-9.37 -31.81 -2.49 232 227 224
-9.38 -31.89 -2.48 232 227 224
-9.38 -31.97 -2.47 231 226 223
-9.38 -32.06 -2.47 231 226 223
-9.38 -32.14 -2.47 231 226 223
-9.39 -32.22 -2.47 231 226 223
-9.39 -32.31 -2.47 231 226 223
-9.38 -32.40 -2.47 231 226 223
-9.38 -32.49 -2.48 231 226 223
-9.37 -32.58 -2.49 231 226 223
-9.37 -32.67 -2.49 232 227 224
-9.36 -32.77 -2.51 233 228 225
-9.35 -32.86 -2.52 233 228 225
-9.35 -32.94 -2.52 233 228 225
-9.35 -33.03 -2.52 233 228 225
-9.36 -33.11 -2.50 233 228 225
-9.35 -33.20 -2.51 233 228 225
-9.35 -33.29 -2.52 233 228 225
-9.34 -33.38 -2.53 233 228 225
-9.34 -33.46 -2.53 231 229 225
-9.37 -33.52 -2.49 231 229 225
-9.39 -33.59 -2.46 230 230 225
-9.41 -33.66 -2.44 230 230 225
-9.41 -33.75 -2.44 230 230 225
-9.40 -33.84 -2.46 230 230 225
-9.39 -33.94 -2.47 230 230 225
-9.39 -34.02 -2.47 230 230 225
-9.38 -34.12 -2.48 226 224 220
-9.39 -34.19 -2.47 223 221 217
-9.44 -34.23 -2.40 233 226 224
-8.89 -34.81 -3.11 234 227 225
-9.12 20.30 -2.94 141 132 124
-9.08 20.25 -2.99 141 132 124
-9.08 20.16 -2.99 141 132 124
-9.05 20.10 -3.03 141 132 124
-9.06 20.01 -3.01 141 132 124
-9.07 19.91 -3.00 141 132 124
-9.04 19.86 -3.05 141 132 124
-9.03 19.78 -3.05 141 132 124
-9.03 19.69 -3.06 142 133 125
-9.01 19.62 -3.08 142 133 125
-9.00 19.54 -3.09 142 133 125
-9.01 19.45 -3.08 142 133 125
-9.00 19.37 -3.10 142 133 125
-8.99 19.29 -3.10 142 133 125
-8.98 19.22 -3.12 142 133 125
-8.96 19.14 -3.14 142 133 125
-8.97 19.05 -3.14 142 134 123
-8.96 18.97 -3.15 143 135 124
-8.96 18.88 -3.15 143 135 124
-8.95 18.80 -3.16 144 136 125
-8.94 18.72 -3.17 144 136 125
-8.94 18.64 -3.17 145 137 126
-8.93 18.56 -3.18 145 137 126
-8.93 18.48 -3.19 146 138 127
-8.92 18.40 -3.20 148 140 129
-8.91 18.31 -3.21 148 140 129
-8.90 18.23 -3.22 148 140 129
-8.90 18.15 -3.23 148 140 129
-8.89 18.07 -3.24 148 140 129
-8.88 17.99 -3.25 148 140 129
-8.87 17.91 -3.26 148 140 129
-8.87 17.83 -3.26 148 140 129
-8.86 17.75 -3.28 148 140 129
-8.85 17.66 -3.28 148 140 129
-8.85 17.58 -3.29 148 140 129
-8.83 17.50 -3.31 148 140 129
-8.83 17.42 -3.31 148 140 129
-8.82 17.34 -3.32 148 140 129
-8.82 17.25 -3.32 148 139 131
-8.81 17.18 -3.34 148 139 131
-8.80 17.09 -3.34 148 139 131
-8.80 17.01 -3.35 148 139 131
-8.79 16.92 -3.36 148 139 131
-8.80 16.83 -3.36 148 139 131
-8.79 16.76 -3.37 148 139 131
-8.78 16.67 -3.37 148 139 131
-8.78 16.58 -3.38 149 140 132
-8.78 16.50 -3.38 150 141 133
-8.77 16.41 -3.38 149 143 136
-8.77 16.33 -3.39 149 143 136
-8.77 16.24 -3.39 149 143 136
-8.76 16.16 -3.40 149 143 136
-8.76 16.08 -3.40 149 143 136
-8.75 15.99 -3.41 149 143 136
-8.75 15.91 -3.42 149 143 136
-8.74 15.83 -3.42 150 144 137
-8.74 15.74 -3.43 151 145 138
-8.74 15.65 -3.43 151 145 138
-8.74 15.57 -3.43 151 145 138
-8.73 15.49 -3.44 151 145 138
-8.72 15.40 -3.45 151 145 138
-8.72 15.31 -3.45 151 145 138
-8.72 15.23 -3.46 151 145 138
-8.71 15.15 -3.46 153 147 140
-8.71 15.06 -3.47 153 147 140
-8.70 14.98 -3.48 153 147 140
-8.70 14.89 -3.48 153 147 140
-8.69 14.81 -3.50 153 147 140
-8.69 14.73 -3.49 153 147 140
-8.67 14.65 -3.51 153 147 140
-8.67 14.56 -3.51 153 147 140
-8.66 14.48 -3.53 153 147 140
-8.66 14.40 -3.53 155 149 142
-8.66 14.31 -3.53 155 149 142
-8.65 14.23 -3.55 155 149 142
-8.65 14.14 -3.55 155 149 142
-8.64 14.05 -3.55 155 149 142
-8.65 13.96 -3.55 155 149 142
-8.64 13.88 -3.55 155 149 142
-8.64 13.79 -3.56 155 149 142
-8.64 13.71 -3.56 155 149 142
-8.63 13.62 -3.57 155 149 142
-8.63 13.53 -3.56 154 150 142
-8.63 13.45 -3.56 155 151 143
-8.63 13.36 -3.57 155 151 143
-8.63 13.27 -3.57 156 152 144
-8.64 13.18 -3.56 156 152 144
-8.63 13.10 -3.57 157 153 145
-8.62 13.01 -3.58 157 153 145
-8.62 12.93 -3.58 159 155 147
-8.62 12.84 -3.58 160 156 148
-8.62 12.75 -3.58 160 156 148
-8.62 12.67 -3.59 160 156 148
-8.61 12.58 -3.60 160 156 148
-8.61 12.50 -3.60 161 155 148
-8.61 12.41 -3.59 161 155 148
-8.61 12.32 -3.60 161 157 149
-8.61 12.23 -3.59 161 157 149
-8.60 12.15 -3.60 162 158 150
-8.60 12.06 -3.60 162 158 150
-8.61 11.97 -3.60 163 159 151
-8.61 11.88 -3.60 163 159 151
-8.61 11.79 -3.60 163 159 151
-8.60 11.71 -3.60 164 160 152
-8.61 11.62 -3.60 164 160 152
-8.60 11.53 -3.60 166 162 154
-8.60 11.44 -3.60 166 162 154
-8.60 11.36 -3.61 166 162 154
-8.59 11.27 -3.62 167 163 155
-8.60 11.18 -3.61 167 163 155
-8.59 11.10 -3.62 167 163 153
-8.59 11.01 -3.62 167 163 153
-8.59 10.92 -3.63 168 162 153
-8.58 10.84 -3.63 168 162 153
-8.59 10.75 -3.62 168 162 153
-8.59 10.66 -3.61 168 162 153
-8.59 10.57 -3.62 168 162 153
-8.60 10.48 -3.61 168 162 153
-8.59 10.40 -3.62 168 162 153
-8.60 10.30 -3.61 168 162 153
-8.59 10.22 -3.62 169 163 154
-8.59 10.13 -3.62 170 164 155
-8.59 10.04 -3.61 170 164 155
-8.59 9.96 -3.62 170 164 155
-8.59 9.87 -3.62 170 164 155
-8.59 9.78 -3.62 170 164 155
-8.59 9.69 -3.63 170 164 155
-8.59 9.60 -3.63 170 164 155
-8.58 9.52 -3.63 173 169 161
-8.58 9.43 -3.63 173 169 161
-8.57 9.35 -3.64 173 169 161
-8.57 9.26 -3.65 173 169 161
-8.57 9.17 -3.64 173 169 161
-8.57 9.08 -3.65 173 169 161
-8.57 9.00 -3.65 173 169 161
-8.57 8.91 -3.65 174 170 162
-8.57 8.82 -3.65 174 170 162
-8.57 8.73 -3.64 174 170 162
-8.57 8.64 -3.64 174 170 162
-8.58 8.55 -3.63 174 170 162
-8.58 8.46 -3.63 174 170 162
-8.58 8.37 -3.63 174 170 162
-8.58 8.29 -3.63 173 172 163
-8.57 8.20 -3.64 173 172 163
-8.58 8.11 -3.64 173 174 164
-8.57 8.03 -3.65 173 174 164
-8.57 7.94 -3.65 173 174 164
-8.57 7.85 -3.64 173 174 164
-8.57 7.76 -3.64 173 174 164
-8.57 7.67 -3.64 173 174 164
-8.57 7.59 -3.65 173 174 164
-8.57 7.50 -3.65 174 175 165
-8.57 7.41 -3.65 174 175 165
-8.56 7.33 -3.65 174 175 165
-8.57 7.24 -3.65 174 175 165
-8.56 7.15 -3.66 174 175 165
-8.56 7.06 -3.66 174 175 165
-8.56 6.98 -3.66 174 175 165
-8.56 6.89 -3.66 174 175 163
-8.56 6.80 -3.66 175 176 164
-8.56 6.71 -3.66 174 175 163
-8.56 6.62 -3.66 174 175 163
-8.56 6.54 -3.66 174 176 161
-8.55 6.45 -3.67 174 176 161
-8.55 6.37 -3.68 174 175 163
-8.54 6.28 -3.68 174 175 163
-8.54 6.19 -3.68 174 176 161
-8.54 6.10 -3.69 174 176 161
-8.53 6.02 -3.70 174 175 163
-8.53 5.93 -3.70 174 175 163
-8.52 5.85 -3.71 174 175 163
-8.52 5.76 -3.71 174 175 163
-8.51 5.67 -3.72 174 175 163
-8.52 5.58 -3.72 174 175 163
-8.52 5.50 -3.72 174 176 161
-8.52 5.41 -3.71 174 176 161
-8.52 5.32 -3.71 175 176 166
-8.52 5.23 -3.71 174 175 165
-8.52 5.14 -3.71 174 175 167
-8.52 5.05 -3.71 174 175 167
-8.52 4.96 -3.71 174 175 167
-8.52 4.88 -3.71 174 175 167
-8.52 4.79 -3.71 174 175 167
-8.52 4.70 -3.71 174 175 167
-8.52 4.61 -3.71 174 175 167
-8.52 4.52 -3.71 174 175 167
-8.51 4.44 -3.72 174 175 167
-8.51 4.35 -3.72 174 175 167
-8.51 4.26 -3.72 174 175 167
-8.50 4.18 -3.73 174 175 167
-8.50 4.09 -3.73 174 175 167
-8.50 4.00 -3.73 174 175 167
-8.50 3.91 -3.73 174 175 167
-8.50 3.82 -3.73 173 174 166
-8.51 3.74 -3.73 173 174 164
-8.51 3.64 -3.72 173 174 164
-8.51 3.56 -3.72 173 174 164
-8.52 3.47 -3.72 173 174 164
-8.52 3.38 -3.71 173 174 164
-8.52 3.29 -3.71 173 174 164
-8.52 3.20 -3.71 173 174 164
-8.52 3.11 -3.71 173 174 164
-8.52 3.02 -3.71 173 174 164
-8.52 2.94 -3.71 173 174 164
-8.53 2.84 -3.69 173 174 164
-8.53 2.76 -3.70 173 174 164
-8.53 2.67 -3.70 173 174 164
-8.53 2.58 -3.70 173 174 164
-8.53 2.49 -3.70 173 174 164
-8.52 2.41 -3.71 173 174 164
-8.52 2.32 -3.71 173 174 166
-8.52 2.23 -3.71 173 174 166
-8.53 2.14 -3.70 173 174 166
-8.54 2.05 -3.69 173 174 166
-8.54 1.96 -3.69 173 174 166
-8.54 1.87 -3.68 173 174 166
-8.55 1.78 -3.67 173 174 166
-8.56 1.69 -3.66 173 174 166
-8.56 1.60 -3.66 173 174 166
-8.56 1.51 -3.66 173 174 166
-8.56 1.42 -3.66 173 174 166
-8.56 1.34 -3.66 173 174 166
-8.56 1.25 -3.65 173 174 166
-8.57 1.16 -3.65 173 174 166
-8.57 1.07 -3.65 172 173 165
-8.56 0.98 -3.65 172 173 165
-8.57 0.89 -3.65 172 173 165
-8.57 0.81 -3.65 172 173 165
-8.57 0.72 -3.65 172 173 165
-8.57 0.63 -3.65 172 173 165
-8.57 0.54 -3.65 172 173 165
-8.58 0.45 -3.63 172 173 165
-8.57 0.36 -3.64 172 173 165
-8.57 0.28 -3.65 172 173 165
-8.57 0.19 -3.64 172 173 165
-8.56 0.10 -3.65 172 173 165
-8.57 0.01 -3.65 172 173 165
-8.57 -0.08 -3.65 172 173 165
-8.57 -0.16 -3.65 172 173 165
-8.57 -0.25 -3.64 172 173 165
-8.57 -0.34 -3.65 169 171 166
-8.58 -0.43 -3.64 169 171 166
-8.57 -0.52 -3.64 169 171 166
-8.58 -0.61 -3.64 169 171 166
-8.58 -0.69 -3.64 169 171 166
-8.57 -0.78 -3.65 169 171 166
-8.57 -0.87 -3.65 169 171 166
-8.56 -0.95 -3.66 169 171 166
-8.56 -1.04 -3.66 170 172 167
-8.56 -1.13 -3.66 170 172 167
-8.55 -1.22 -3.67 170 172 167
-8.55 -1.31 -3.67 170 172 167
-8.56 -1.39 -3.66 170 172 167
-8.56 -1.48 -3.66 170 172 167
-8.56 -1.57 -3.66 170 172 167
-8.56 -1.66 -3.66 170 172 167
-8.55 -1.75 -3.67 169 174 168
-8.55 -1.83 -3.67 169 174 168
-8.55 -1.92 -3.67 169 174 168
-8.55 -2.01 -3.67 169 174 168
-8.55 -2.10 -3.68 169 174 168
-8.55 -2.19 -3.67 169 174 168
-8.54 -2.27 -3.68 169 174 168
-8.55 -2.36 -3.67 169 174 168
-8.55 -2.45 -3.67 169 174 168
-8.55 -2.54 -3.67 170 175 169
-8.55 -2.63 -3.67 170 175 169
-8.55 -2.71 -3.67 171 176 170
-8.55 -2.80 -3.68 171 176 170
-8.55 -2.89 -3.67 172 177 171
-8.55 -2.98 -3.67 172 177 171
-8.55 -3.07 -3.67 174 179 173
-8.55 -3.15 -3.67 172 178 169
-8.55 -3.24 -3.67 172 178 169
-8.55 -3.33 -3.67 172 178 169
-8.55 -3.42 -3.67 172 178 169
-8.55 -3.51 -3.67 172 178 169
-8.55 -3.60 -3.67 172 178 169
-8.55 -3.68 -3.67 172 178 169
-8.55 -3.77 -3.67 172 178 169
-8.56 -3.86 -3.66 174 180 171
-8.56 -3.95 -3.66 174 180 171
-8.57 -4.04 -3.65 174 180 171
-8.57 -4.13 -3.65 174 180 171
-8.58 -4.22 -3.64 174 180 171
-8.58 -4.30 -3.64 174 180 171
-8.57 -4.39 -3.64 174 180 171
-8.58 -4.48 -3.64 174 180 171
-8.57 -4.57 -3.65 174 179 173
-8.57 -4.65 -3.65 174 179 173
-8.56 -4.74 -3.66 174 179 173
-8.56 -4.83 -3.66 174 179 173
-8.56 -4.92 -3.66 174 179 173
-8.55 -5.01 -3.67 174 179 173
-8.55 -5.09 -3.67 174 179 173
-8.54 -5.18 -3.68 174 179 173
-8.54 -5.27 -3.68 174 179 173
-8.54 -5.36 -3.69 174 179 173
-8.53 -5.45 -3.70 174 179 173
-8.53 -5.53 -3.70 174 179 173
-8.53 -5.62 -3.70 174 179 173
-8.53 -5.71 -3.70 174 179 173
-8.52 -5.80 -3.71 173 180 173
-8.53 -5.89 -3.70 174 181 174
-8.52 -5.97 -3.71 174 181 176
-8.52 -6.06 -3.71 175 182 177
-8.52 -6.15 -3.71 175 182 177
-8.51 -6.24 -3.72 175 182 177
-8.52 -6.33 -3.71 175 182 177
-8.51 -6.41 -3.72 175 182 177
-8.51 -6.50 -3.72 175 182 177
-8.51 -6.59 -3.73 175 182 177
-8.50 -6.68 -3.74 175 182 177
-8.49 -6.77 -3.75 175 182 177
-8.49 -6.86 -3.75 175 182 177
-8.48 -6.94 -3.76 175 182 177
-8.46 -7.03 -3.79 175 182 177
-8.45 -7.12 -3.80 175 182 177
-8.45 -7.21 -3.80 175 182 180
-8.43 -7.30 -3.82 175 182 180
-8.41 -7.39 -3.86 178 183 182
-8.40 -7.47 -3.87 178 183 182
-8.39 -7.56 -3.88 178 183 182
-8.40 -7.65 -3.87 178 183 182
-8.39 -7.74 -3.88 178 183 182
-8.40 -7.83 -3.87 179 184 183
-8.39 -7.92 -3.87 179 184 183
-8.38 -8.01 -3.89 179 184 183
-8.37 -8.09 -3.91 184 189 188
-8.35 -8.18 -3.93 189 194 193
-8.36 -8.27 -3.92 166 171 170
-8.56 -8.35 -3.66 182 187 186
-8.94 -8.43 -3.17 241 246 245
-9.25 -8.51 -2.77 245 250 249
-9.30 -8.59 -2.71 241 246 245
-9.35 -8.67 -2.65 252 255 255
-9.34 -8.76 -2.65 246 253 251
-9.35 -8.85 -2.65 246 253 251
-9.37 -8.93 -2.61 246 253 251
-9.38 -9.02 -2.61 246 253 251
-9.38 -9.10 -2.60 246 253 251
-9.39 -9.19 -2.59 246 253 251
-9.39 -9.27 -2.59 246 253 251
-9.39 -9.36 -2.59 246 253 251
-9.39 -9.44 -2.59 246 253 251
-9.40 -9.53 -2.58 246 253 251
-9.38 -9.62 -2.60 246 253 251
-9.38 -9.70 -2.60 246 253 251
-9.38 -9.79 -2.61 246 253 251
-9.37 -9.87 -2.61 246 253 251
-9.36 -9.96 -2.63 246 253 251
-9.35 -10.05 -2.64 246 253 251
-9.35 -10.13 -2.64 245 252 250
-9.34 -10.22 -2.65 245 252 250
-9.34 -10.31 -2.66 245 252 250
-9.34 -10.39 -2.66 245 252 250
-9.34 -10.48 -2.66 245 252 250
-9.33 -10.57 -2.67 245 252 250
-9.32 -10.65 -2.68 245 252 250
-9.31 -10.74 -2.69 245 252 250
-9.29 -10.83 -2.72 243 250 248
-9.30 -10.91 -2.71 244 251 249
-9.31 -11.00 -2.69 248 255 253
-9.26 -11.09 -2.76 248 255 253
-9.11 -11.19 -2.96 239 246 244
-8.88 -11.31 -3.24 224 231 229
-8.67 -11.42 -3.52 199 206 204
-8.50 -11.53 -3.74 174 181 179
-8.41 -11.63 -3.85 186 191 190
-8.38 -11.73 -3.90 188 193 192
-8.38 -11.82 -3.90 189 194 193
-8.40 -11.90 -3.87 190 195 194
-8.41 -11.99 -3.86 190 195 194
-8.42 -12.08 -3.84 190 195 194
-8.43 -12.16 -3.83 188 193 192
-8.44 -12.25 -3.81 188 193 192
-8.44 -12.34 -3.81 189 194 193
-8.45 -12.43 -3.80 189 194 193
-8.46 -12.51 -3.79 189 194 193
-8.47 -12.60 -3.78 189 194 193
-8.48 -12.69 -3.77 189 194 193
-8.48 -12.77 -3.76 189 194 193
-8.48 -12.86 -3.76 189 194 193
-8.48 -12.95 -3.76 189 194 193
-8.48 -13.04 -3.76 191 193 190
-8.48 -13.13 -3.76 192 194 191
-8.47 -13.22 -3.77 192 194 191
-8.46 -13.31 -3.78 192 194 191
-8.46 -13.40 -3.79 191 193 190
-8.45 -13.49 -3.80 188 190 187
-8.44 -13.58 -3.81 186 188 185
-8.43 -13.67 -3.83 185 187 184
-8.42 -13.76 -3.84 185 187 184
-8.40 -13.85 -3.86 178 180 177
-8.40 -13.94 -3.87 172 174 171
-8.39 -14.03 -3.88 169 171 168
-8.39 -14.12 -3.88 163 165 162
-8.38 -14.21 -3.89 157 159 156
-8.36 -14.30 -3.92 156 158 155
-8.34 -14.39 -3.94 161 163 160
-8.32 -14.49 -3.97 162 168 169
-8.31 -14.58 -3.98 158 164 165
-8.30 -14.67 -3.99 152 158 159
-8.29 -14.76 -4.00 145 151 152
-8.27 -14.85 -4.03 139 145 146
-8.26 -14.95 -4.04 139 145 146
-8.25 -15.04 -4.06 148 154 155
-8.25 -15.13 -4.06 159 165 166
-8.24 -15.22 -4.07 158 164 165
-8.23 -15.31 -4.09 160 166 167
-8.22 -15.40 -4.10 166 172 173
-8.21 -15.49 -4.11 171 177 178
-8.20 -15.58 -4.12 173 179 180
-8.19 -15.68 -4.14 165 171 172
-8.17 -15.77 -4.16 151 157 158
-8.16 -15.86 -4.17 140 146 147
-8.15 -15.95 -4.19 117 119 116
-8.15 -16.04 -4.18 105 107 104
-8.15 -16.13 -4.19 108 110 107
-8.15 -16.22 -4.18 131 133 130
-8.15 -16.31 -4.18 151 153 150
-8.16 -16.40 -4.17 161 163 160
-8.19 -16.48 -4.14 162 164 161
-8.21 -16.56 -4.11 158 160 157
-8.23 -16.65 -4.09 138 140 137
-8.25 -16.73 -4.05 96 98 95
-8.29 -16.80 -4.00 45 47 44
-8.32 -16.88 -3.97 9 11 8
-8.37 -16.96 -3.91 11 13 10
-8.40 -17.04 -3.86 25 27 24
-8.46 -17.11 -3.79 43 45 42
-8.51 -17.18 -3.72 46 48 45
-8.55 -17.26 -3.67 56 58 58
-8.59 -17.33 -3.62 60 62 62
-8.63 -17.41 -3.57 59 61 61
-8.66 -17.48 -3.53 50 52 52
-8.71 -17.56 -3.47 37 39 39
-8.73 -17.64 -3.43 31 33 33
-8.77 -17.71 -3.39 39 41 41
-8.81 -17.79 -3.34 51 53 53
-8.85 -17.86 -3.29 79 81 81
-8.89 -17.93 -3.24 140 142 142
-8.93 -18.01 -3.18 193 195 195
-8.97 -18.08 -3.14 216 218 218
-9.01 -18.15 -3.08 229 231 231
-9.05 -18.23 -3.03 235 237 237
-9.09 -18.30 -2.98 225 227 227
-9.13 -18.37 -2.93 212 214 214
-9.15 -18.45 -2.90 200 201 193
-9.20 -18.52 -2.84 189 190 182
-9.23 -18.59 -2.80 181 182 174
-9.26 -18.67 -2.76 180 181 173
-9.29 -18.74 -2.72 178 179 171
-9.33 -18.82 -2.67 172 173 165
-9.37 -18.89 -2.62 172 173 165
-9.41 -18.96 -2.57 176 177 169
-9.44 -19.03 -2.52 172 173 165
-9.49 -19.10 -2.47 171 172 164
-9.53 -19.17 -2.42 171 172 164
-9.57 -19.24 -2.36 170 171 163
-9.62 -19.30 -2.30 170 171 163
-9.65 -19.38 -2.26 168 169 161
-9.67 -19.45 -2.23 168 169 161
-9.70 -19.53 -2.20 167 168 160
-9.73 -19.60 -2.15 167 172 171
-9.75 -19.67 -2.13 166 171 170
-9.78 -19.75 -2.09 165 167 164
-9.81 -19.82 -2.05 165 167 164
-9.84 -19.89 -2.01 165 167 164
-9.87 -19.96 -1.97 162 164 161
-9.91 -20.03 -1.93 158 158 153
-9.94 -20.10 -1.88 153 153 148
-9.98 -20.17 -1.83 159 159 154
-10.02 -20.24 -1.78 149 149 144
-10.06 -20.30 -1.73 137 136 129
-10.10 -20.37 -1.68 131 130 123
-10.14 -20.44 -1.63 129 128 121
-10.18 -20.50 -1.57 123 122 115
-10.21 -20.57 -1.53 112 108 100
-10.26 -20.63 -1.47 101 97 89
-10.26 -20.72 -1.47 87 72 52
-10.25 -20.80 -1.48 163 148 128
-10.14 -20.94 -1.62 220 205 169
-9.94 -21.11 -1.89 188 173 137
-9.84 -21.24 -2.01 216 202 173
-9.88 -21.31 -1.96 240 226 197
-10.05 -21.32 -1.75 188 177 172
-10.31 -21.28 -1.41 13 2 0
-10.49 -21.27 -1.17 34 30 50
-10.60 -21.30 -1.04 5 1 21
-10.42 -21.47 -1.27 3 7 38
-9.71 -21.90 -2.18 11 15 46
-9.19 -22.24 -2.85 117 125 145
-9.21 -22.31 -2.82 215 223 243
-9.28 -22.36 -2.74 225 235 229
-9.31 -22.43 -2.69 215 225 219
-9.29 -22.53 -2.72 208 215 208
-9.28 -22.62 -2.73 203 210 203
-9.28 -22.71 -2.73 205 210 206
-9.30 -22.79 -2.71 207 212 208
-9.31 -22.86 -2.69 206 211 210
-9.32 -22.94 -2.68 206 211 210
-9.32 -23.03 -2.68 209 211 211
-9.33 -23.11 -2.67 207 209 209
-9.33 -23.20 -2.67 213 215 212
-9.34 -23.28 -2.66 213 215 212
-9.34 -23.36 -2.66 215 215 210
-9.34 -23.45 -2.65 215 215 210
-9.33 -23.54 -2.66 215 215 212
-9.34 -23.62 -2.66 215 215 212
-9.34 -23.71 -2.66 216 214 212
-9.34 -23.79 -2.65 216 214 212
-9.34 -23.88 -2.65 215 215 212
-9.35 -23.96 -2.64 215 215 212
-9.35 -24.04 -2.64 215 215 212
-9.36 -24.13 -2.63 215 215 212
-9.37 -24.21 -2.62 215 215 212
-9.37 -24.29 -2.62 215 215 212
-9.38 -24.38 -2.61 215 215 212
-9.38 -24.46 -2.61 215 215 212
-9.39 -24.54 -2.60 217 217 214
-9.39 -24.63 -2.60 217 217 214
-9.39 -24.71 -2.59 217 217 214
-9.40 -24.79 -2.58 217 217 214
-9.40 -24.87 -2.58 217 217 214
-9.40 -24.96 -2.58 217 217 214
-9.40 -25.05 -2.57 217 217 214
-9.41 -25.13 -2.57 217 217 214
-9.41 -25.22 -2.57 218 216 217
-9.40 -25.30 -2.57 218 216 217
-9.40 -25.39 -2.57 218 216 217
-9.40 -25.47 -2.57 218 216 217
-9.41 -25.55 -2.56 218 216 217
-9.42 -25.64 -2.56 218 216 217
-9.42 -25.72 -2.56 218 216 217
-9.42 -25.81 -2.55 218 216 217
-9.43 -25.89 -2.54 218 216 217
-9.43 -25.97 -2.54 218 216 217
-9.43 -26.06 -2.53 218 216 217
-9.44 -26.14 -2.53 218 216 217
-9.45 -26.22 -2.52 218 216 217
-9.44 -26.31 -2.52 218 216 217
-9.45 -26.39 -2.52 218 216 217
-9.44 -26.48 -2.52 218 216 217
-9.45 -26.56 -2.52 220 215 217
-9.44 -26.65 -2.52 220 215 217
-9.44 -26.73 -2.52 220 215 217
-9.45 -26.82 -2.51 220 215 217
-9.45 -26.90 -2.51 220 215 217
-9.45 -26.99 -2.52 220 215 217
-9.45 -27.07 -2.52 220 215 217
-9.44 -27.16 -2.52 220 215 217
-9.45 -27.25 -2.52 221 216 218
-9.45 -27.33 -2.51 221 216 218
-9.45 -27.42 -2.51 221 216 218
-9.45 -27.50 -2.51 221 216 218
-9.45 -27.58 -2.51 221 216 218
-9.45 -27.67 -2.51 221 216 218
-9.45 -27.76 -2.51 221 216 218
-9.45 -27.84 -2.51 221 216 218
-9.45 -27.93 -2.52 224 219 221
-9.44 -28.02 -2.53 224 219 221
-9.45 -28.10 -2.52 224 219 221
-9.45 -28.19 -2.51 224 219 221
-9.45 -28.27 -2.52 224 219 221
-9.46 -28.35 -2.51 224 219 221
-9.45 -28.44 -2.51 224 219 221
-9.46 -28.52 -2.50 224 219 221
-9.46 -28.61 -2.50 225 220 222
-9.46 -28.69 -2.50 225 220 222
-9.46 -28.78 -2.50 225 220 222
-9.46 -28.87 -2.51 225 220 222
-9.46 -28.95 -2.50 225 220 222
-9.47 -29.03 -2.49 225 220 222
-9.47 -29.12 -2.49 225 220 222
-9.47 -29.20 -2.48 225 220 222
-9.47 -29.28 -2.48 224 220 214
-9.47 -29.37 -2.48 224 220 214
-9.48 -29.45 -2.48 224 220 214
-9.49 -29.53 -2.47 224 220 214
-9.49 -29.61 -2.47 224 220 214
-9.49 -29.70 -2.47 224 220 214
-9.49 -29.78 -2.47 224 220 214
-9.49 -29.87 -2.46 224 220 214
-9.49 -29.95 -2.46 227 223 217
-9.50 -30.03 -2.45 227 223 217
-9.50 -30.12 -2.45 227 223 217
-9.51 -30.20 -2.44 227 223 217
-9.50 -30.29 -2.45 227 223 217
-9.51 -30.37 -2.44 227 223 217
-9.50 -30.46 -2.45 227 223 217
-9.50 -30.54 -2.45 227 223 217
-9.50 -30.63 -2.45 230 225 222
-9.50 -30.71 -2.45 230 225 222
-9.51 -30.80 -2.44 230 225 222
-9.51 -30.88 -2.44 230 225 222
-9.51 -30.96 -2.44 230 225 222
-9.51 -31.05 -2.44 230 225 222
-9.52 -31.13 -2.43 230 225 222
-9.52 -31.21 -2.43 231 226 223
-9.52 -31.30 -2.43 231 226 223
-9.52 -31.38 -2.42 231 226 223
-9.52 -31.47 -2.42 231 226 223
-9.51 -31.56 -2.43 231 226 223
-9.51 -31.64 -2.43 231 226 223
-9.52 -31.73 -2.43 231 226 223
-9.52 -31.81 -2.42 231 226 223
-9.52 -31.90 -2.42 231 226 223
-9.52 -31.98 -2.42 231 226 223
-9.53 -32.06 -2.41 231 226 223
-9.53 -32.14 -2.41 231 226 223
-9.53 -32.23 -2.41 231 226 223
-9.53 -32.32 -2.42 231 226 223
-9.53 -32.40 -2.42 231 226 223
-9.52 -32.50 -2.43 231 226 223
-9.51 -32.59 -2.44 232 227 224
-9.50 -32.68 -2.45 233 228 225
-9.50 -32.77 -2.46 233 228 225
-9.49 -32.86 -2.46 233 228 225
-9.49 -32.95 -2.46 233 228 225
-9.50 -33.02 -2.45 233 228 225
-9.51 -33.10 -2.44 233 228 225
-9.50 -33.20 -2.45 233 228 225
-9.49 -33.29 -2.46 233 228 225
-9.48 -33.38 -2.48 230 228 224
-9.50 -33.45 -2.45 230 228 224
-9.52 -33.52 -2.42 229 229 224
-9.54 -33.58 -2.39 229 229 224
-9.55 -33.67 -2.39 229 229 224
-9.54 -33.76 -2.40 229 229 224
-9.54 -33.84 -2.40 229 229 224
-9.55 -33.92 -2.38 229 229 224
-9.53 -34.02 -2.41 224 222 218
-9.55 -34.09 -2.38 231 229 225
-9.50 -34.22 -2.45 232 225 223
-9.55 -34.26 -2.38 236 229 227
-9.26 20.22 -2.89 141 132 124
-9.22 20.16 -2.93 141 132 124
-9.23 20.07 -2.93 141 132 124
-9.20 20.01 -2.97 141 132 124
-9.21 19.92 -2.96 141 132 124
-9.21 19.83 -2.95 141 132 124
-9.18 19.77 -2.99 141 132 124
-9.17 19.69 -3.00 141 132 124
-9.17 19.60 -3.00 142 133 125
-9.16 19.52 -3.01 142 133 125
-9.16 19.44 -3.02 142 133 125
-9.15 19.37 -3.03 142 133 125
-9.13 19.29 -3.05 142 133 125
-9.13 19.21 -3.05 142 133 125
-9.13 19.12 -3.06 142 133 125
-9.11 19.05 -3.08 142 133 125
-9.11 18.96 -3.08 142 134 123
-9.10 18.89 -3.10 143 135 124
-9.09 18.81 -3.11 143 135 124
-9.09 18.72 -3.11 144 136 125
-9.08 18.64 -3.12 144 136 125
-9.08 18.56 -3.12 145 137 126
-9.07 18.48 -3.13 145 137 126
-9.06 18.40 -3.14 146 138 127
-9.06 18.31 -3.14 148 140 129
-9.06 18.23 -3.15 148 140 129
-9.04 18.15 -3.17 148 140 129
-9.04 18.07 -3.17 148 140 129
-9.03 17.99 -3.18 148 140 129
-9.03 17.90 -3.18 148 140 129
-9.02 17.83 -3.20 148 140 129
-9.01 17.75 -3.21 148 140 129
-8.99 17.67 -3.23 148 140 129
-8.99 17.59 -3.24 148 140 129
-8.98 17.51 -3.25 148 140 129
-8.97 17.43 -3.26 148 140 129
-8.97 17.35 -3.27 148 140 129
-8.96 17.27 -3.28 148 140 129
-8.96 17.18 -3.28 148 139 131
-8.96 17.09 -3.28 148 139 131
-8.95 17.01 -3.29 148 139 131
-8.94 16.93 -3.30 148 139 131
-8.94 16.84 -3.30 148 139 131
-8.94 16.76 -3.31 148 139 131
-8.93 16.68 -3.31 148 139 131
-8.93 16.59 -3.31 148 139 131
-8.92 16.51 -3.32 149 140 132
-8.92 16.42 -3.33 150 141 133
-8.92 16.34 -3.33 149 143 136
-8.92 16.25 -3.33 149 143 136
-8.91 16.17 -3.34 149 143 136
-8.90 16.09 -3.35 149 143 136
-8.90 16.00 -3.35 149 143 136
-8.90 15.92 -3.36 149 143 136
-8.89 15.83 -3.36 149 143 136
-8.89 15.75 -3.36 150 144 137
-8.89 15.66 -3.36 151 145 138
-8.89 15.57 -3.36 151 145 138
-8.88 15.49 -3.37 151 145 138
-8.88 15.40 -3.37 151 145 138
-8.87 15.33 -3.39 151 145 138
-8.87 15.24 -3.39 151 145 138
-8.86 15.16 -3.40 151 145 138
-8.86 15.07 -3.40 153 147 140
-8.86 14.99 -3.41 153 147 140
-8.85 14.90 -3.41 153 147 140
-8.84 14.82 -3.43 153 147 140
-8.84 14.74 -3.44 153 147 140
-8.83 14.66 -3.45 153 147 140
-8.82 14.58 -3.46 153 147 140
-8.82 14.49 -3.46 153 147 140
-8.81 14.41 -3.47 153 147 140
-8.81 14.32 -3.47 155 149 142
-8.81 14.24 -3.47 155 149 142
-8.80 14.15 -3.48 155 149 142
-8.79 14.07 -3.49 155 149 142
-8.79 13.98 -3.49 155 149 142
-8.79 13.90 -3.50 155 149 142
-8.79 13.81 -3.50 155 149 142
-8.78 13.73 -3.51 155 149 142
-8.78 13.64 -3.51 155 149 142
-8.78 13.55 -3.51 155 149 142
-8.78 13.47 -3.51 154 150 142
-8.77 13.38 -3.51 155 151 143
-8.78 13.29 -3.51 155 151 143
-8.77 13.21 -3.52 156 152 144
-8.77 13.12 -3.52 156 152 144
-8.77 13.03 -3.52 157 153 145
-8.77 12.95 -3.52 157 153 145
-8.77 12.86 -3.53 159 155 147
-8.77 12.77 -3.53 160 156 148
-8.76 12.69 -3.53 160 156 148
-8.76 12.60 -3.54 160 156 148
-8.75 12.52 -3.54 160 156 148
-8.75 12.43 -3.54 161 155 148
-8.75 12.35 -3.55 161 155 148
-8.74 12.26 -3.55 161 157 149
-8.75 12.17 -3.55 161 157 149
-8.74 12.09 -3.55 162 158 150
-8.74 12.00 -3.56 162 158 150
-8.74 11.91 -3.55 163 159 151
-8.74 11.83 -3.56 163 159 151
-8.74 11.74 -3.56 163 159 151
-8.74 11.65 -3.56 163 159 151
-8.74 11.56 -3.56 164 160 152
-8.74 11.47 -3.56 164 160 152
-8.74 11.39 -3.56 166 162 154
-8.74 11.30 -3.55 166 162 154
-8.73 11.22 -3.57 167 163 155
-8.73 11.13 -3.57 167 163 155
-8.73 11.04 -3.57 167 163 153
-8.73 10.95 -3.57 167 163 153
-8.73 10.87 -3.57 168 162 153
-8.74 10.77 -3.56 168 162 153
-8.73 10.69 -3.57 168 162 153
-8.74 10.60 -3.56 168 162 153
-8.74 10.51 -3.56 168 162 153
-8.74 10.42 -3.56 168 162 153
-8.74 10.33 -3.56 168 162 153
-8.74 10.25 -3.56 168 162 153
-8.74 10.16 -3.56 169 163 154
-8.74 10.07 -3.56 170 164 155
-8.74 9.99 -3.56 170 164 155
-8.74 9.90 -3.56 170 164 155
-8.74 9.81 -3.56 170 164 155
-8.73 9.72 -3.57 170 164 155
-8.73 9.64 -3.57 170 164 155
-8.73 9.55 -3.57 170 164 155
-8.72 9.47 -3.58 173 169 161
-8.73 9.38 -3.57 173 169 161
-8.72 9.29 -3.58 173 169 161
-8.71 9.21 -3.59 173 169 161
-8.72 9.12 -3.59 173 169 161
-8.72 9.03 -3.58 173 169 161
-8.72 8.94 -3.59 173 169 161
-8.72 8.85 -3.58 174 170 162
-8.72 8.77 -3.59 174 170 162
-8.72 8.68 -3.58 174 170 162
-8.72 8.59 -3.58 174 170 162
-8.72 8.50 -3.58 174 170 162
-8.72 8.42 -3.59 174 170 162
-8.72 8.32 -3.58 174 170 162
-8.72 8.24 -3.58 173 172 163
-8.72 8.15 -3.59 174 173 164
-8.72 8.06 -3.58 173 174 164
-8.72 7.98 -3.58 173 174 164
-8.72 7.89 -3.59 173 174 164
-8.72 7.80 -3.58 173 174 164
-8.72 7.71 -3.58 173 174 164
-8.72 7.63 -3.59 173 174 164
-8.71 7.54 -3.59 173 174 164
-8.71 7.45 -3.59 174 175 165
-8.72 7.36 -3.59 174 175 165
-8.71 7.28 -3.59 174 175 165
-8.71 7.19 -3.59 174 175 165
-8.71 7.10 -3.60 174 175 165
-8.70 7.02 -3.61 174 175 165
-8.70 6.93 -3.61 174 175 165
-8.70 6.84 -3.61 174 175 163
-8.70 6.76 -3.61 175 176 164
-8.70 6.67 -3.62 175 176 166
-8.70 6.58 -3.61 175 176 166
-8.69 6.50 -3.62 175 176 164
-8.69 6.41 -3.63 175 176 164
-8.69 6.32 -3.63 175 176 164
-8.68 6.24 -3.64 175 176 164
-8.68 6.15 -3.64 175 176 164
-8.68 6.06 -3.64 175 176 164
-8.67 5.98 -3.65 175 176 164
-8.67 5.89 -3.65 175 176 164
-8.67 5.80 -3.65 175 176 164
-8.67 5.71 -3.65 175 176 164
-8.66 5.63 -3.66 175 176 164
-8.67 5.54 -3.65 175 176 164
-8.66 5.45 -3.66 175 176 164
-8.66 5.37 -3.66 175 176 164
-8.66 5.28 -3.66 175 176 168
-8.66 5.19 -3.66 175 176 168
-8.66 5.10 -3.66 175 176 168
-8.66 5.01 -3.66 175 176 168
-8.66 4.93 -3.66 175 176 168
-8.66 4.84 -3.66 175 176 168
-8.66 4.75 -3.66 175 176 168
-8.66 4.66 -3.66 175 176 168
-8.66 4.58 -3.66 175 176 168
-8.66 4.49 -3.66 174 175 167
-8.65 4.40 -3.67 174 175 167
-8.65 4.32 -3.68 174 175 167
-8.64 4.23 -3.69 174 175 167
-8.64 4.14 -3.68 174 175 167
-8.65 4.05 -3.68 174 175 167
-8.64 3.97 -3.68 174 175 167
-8.66 3.87 -3.67 174 175 167
-8.65 3.79 -3.68 174 175 167
-8.64 3.70 -3.68 173 174 164
-8.66 3.61 -3.66 173 174 164
-8.65 3.52 -3.67 173 174 164
-8.66 3.43 -3.66 173 174 164
-8.66 3.34 -3.66 173 174 164
-8.66 3.26 -3.66 173 174 164
-8.67 3.17 -3.65 173 174 164
-8.67 3.08 -3.65 173 174 164
-8.67 2.99 -3.65 173 174 164
-8.66 2.90 -3.66 173 174 164
-8.67 2.81 -3.65 173 174 164
-8.67 2.73 -3.65 173 174 164
-8.67 2.64 -3.65 173 174 164
-8.67 2.55 -3.65 173 174 164
-8.66 2.46 -3.66 173 174 164
-8.67 2.37 -3.65 173 174 164
-8.67 2.29 -3.65 173 174 166
-8.67 2.20 -3.65 173 174 166
-8.67 2.11 -3.65 173 174 166
-8.67 2.02 -3.64 173 174 166
-8.68 1.93 -3.64 173 174 166
-8.69 1.84 -3.62 173 174 166
-8.70 1.75 -3.61 173 174 166
-8.70 1.66 -3.61 173 174 166
-8.70 1.57 -3.61 173 174 166
-8.70 1.48 -3.61 173 174 166
-8.70 1.40 -3.61 173 174 166
-8.70 1.31 -3.61 173 174 166
-8.71 1.22 -3.60 173 174 166
-8.71 1.13 -3.60 173 174 166
-8.71 1.04 -3.60 172 173 165
-8.71 0.96 -3.59 172 173 165
-8.71 0.87 -3.59 172 173 165
-8.71 0.78 -3.59 172 173 165
-8.72 0.69 -3.59 172 173 165
-8.72 0.60 -3.59 172 173 165
-8.71 0.52 -3.59 172 173 165
-8.72 0.43 -3.58 172 173 165
-8.71 0.34 -3.59 172 173 165
-8.71 0.25 -3.59 172 173 165
-8.72 0.16 -3.58 172 173 165
-8.71 0.08 -3.59 172 173 165
-8.71 -0.01 -3.59 172 173 165
-8.71 -0.10 -3.59 172 173 165
-8.71 -0.19 -3.59 172 173 165
-8.73 -0.28 -3.58 172 173 165
-8.73 -0.36 -3.58 169 171 166
-8.73 -0.45 -3.57 169 171 166
-8.73 -0.54 -3.58 169 171 166
-8.72 -0.63 -3.58 169 171 166
-8.72 -0.72 -3.58 169 171 166
-8.72 -0.80 -3.58 169 171 166
-8.72 -0.89 -3.58 169 171 166
-8.72 -0.98 -3.59 169 171 166
-8.71 -1.06 -3.59 170 172 167
-8.71 -1.15 -3.60 170 172 167
-8.71 -1.24 -3.60 170 172 167
-8.71 -1.33 -3.60 170 172 167
-8.71 -1.42 -3.59 170 172 167
-8.71 -1.50 -3.60 170 172 167
-8.70 -1.59 -3.61 170 172 167
-8.71 -1.68 -3.59 170 172 167
-8.70 -1.76 -3.61 169 174 168
-8.70 -1.85 -3.61 169 174 168
-8.70 -1.94 -3.61 169 174 168
-8.70 -2.03 -3.61 169 174 168
-8.70 -2.12 -3.61 169 174 168
-8.70 -2.20 -3.61 169 174 168
-8.70 -2.29 -3.61 169 174 168
-8.70 -2.38 -3.61 169 174 168
-8.69 -2.47 -3.62 169 174 168
-8.70 -2.55 -3.61 170 175 169
-8.69 -2.64 -3.62 170 175 169
-8.69 -2.73 -3.62 171 176 170
-8.70 -2.82 -3.62 171 176 170
-8.70 -2.91 -3.61 172 177 171
-8.70 -2.99 -3.61 172 177 171
-8.70 -3.08 -3.61 174 179 173
-8.70 -3.17 -3.61 172 178 169
-8.70 -3.26 -3.61 172 178 169
-8.70 -3.34 -3.62 172 178 169
-8.70 -3.43 -3.62 172 178 169
-8.70 -3.52 -3.61 172 178 169
-8.70 -3.61 -3.61 172 178 169
-8.70 -3.70 -3.61 172 178 169
-8.71 -3.79 -3.60 172 178 169
-8.71 -3.87 -3.60 174 180 171
-8.71 -3.96 -3.60 174 180 171
-8.71 -4.05 -3.59 174 180 171
-8.71 -4.14 -3.59 174 180 171
-8.72 -4.23 -3.59 174 180 171
-8.72 -4.31 -3.58 174 180 171
-8.72 -4.40 -3.58 174 180 171
-8.72 -4.49 -3.59 174 180 171
-8.71 -4.58 -3.60 174 179 173
-8.71 -4.66 -3.60 174 179 173
-8.71 -4.75 -3.60 174 179 173
-8.70 -4.84 -3.61 174 179 173
-8.70 -4.93 -3.61 174 179 173
-8.69 -5.01 -3.62 174 179 173
-8.69 -5.10 -3.62 174 179 173
-8.69 -5.19 -3.63 174 179 173
-8.68 -5.28 -3.63 174 179 173
-8.68 -5.36 -3.63 174 179 173
-8.68 -5.45 -3.64 174 179 173
-8.68 -5.54 -3.63 174 179 173
-8.68 -5.63 -3.64 174 179 173
-8.68 -5.72 -3.64 174 179 173
-8.67 -5.80 -3.65 173 180 173
-8.67 -5.89 -3.65 174 181 174
-8.66 -5.98 -3.66 174 181 176
-8.66 -6.07 -3.66 175 182 177
-8.66 -6.15 -3.66 175 182 177
-8.65 -6.24 -3.67 175 182 177
-8.66 -6.33 -3.66 175 182 177
-8.65 -6.42 -3.67 175 182 177
-8.66 -6.51 -3.66 175 182 177
-8.65 -6.59 -3.67 175 182 177
-8.65 -6.68 -3.68 175 182 177
-8.64 -6.77 -3.69 175 182 177
-8.63 -6.86 -3.71 175 182 177
-8.62 -6.95 -3.71 175 182 177
-8.61 -7.03 -3.72 175 182 177
-8.60 -7.12 -3.74 175 182 177
-8.59 -7.21 -3.76 175 182 180
-8.58 -7.30 -3.77 175 182 180
-8.58 -7.39 -3.77 178 183 182
-8.56 -7.47 -3.79 178 183 182
-8.54 -7.56 -3.81 178 183 182
-8.55 -7.65 -3.81 178 183 182
-8.54 -7.74 -3.82 178 183 182
-8.54 -7.83 -3.82 177 182 181
-8.55 -7.92 -3.81 177 182 181
-8.51 -8.00 -3.85 177 182 181
-8.46 -8.09 -3.92 181 186 185
-8.49 -8.18 -3.88 174 179 178
-8.70 -8.26 -3.62 178 183 182
-9.18 -8.34 -2.99 224 229 228
-9.39 -8.42 -2.72 242 247 246
-9.42 -8.50 -2.68 242 247 246
-9.45 -8.59 -2.65 242 247 246
-9.47 -8.67 -2.62 248 253 252
-9.48 -8.76 -2.61 246 253 251
-9.49 -8.84 -2.59 246 253 251
-9.50 -8.93 -2.58 246 253 251
-9.50 -9.01 -2.58 246 253 251
-9.51 -9.10 -2.57 246 253 251
-9.51 -9.18 -2.56 246 253 251
-9.52 -9.27 -2.55 246 253 251
-9.52 -9.35 -2.55 246 253 251
-9.52 -9.44 -2.55 246 253 251
-9.52 -9.52 -2.56 246 253 251
-9.51 -9.61 -2.57 246 253 251
-9.51 -9.70 -2.57 246 253 251
-9.50 -9.78 -2.57 246 253 251
-9.50 -9.87 -2.58 246 253 251
-9.49 -9.95 -2.59 246 253 251
-9.49 -10.04 -2.59 246 253 251
-9.49 -10.13 -2.59 245 252 250
-9.49 -10.21 -2.60 245 252 250
-9.49 -10.30 -2.60 245 252 250
-9.49 -10.38 -2.60 245 252 250
-9.48 -10.47 -2.61 245 252 250
-9.47 -10.56 -2.61 245 252 250
-9.48 -10.64 -2.61 245 252 250
-9.46 -10.73 -2.63 245 252 250
-9.45 -10.81 -2.64 248 255 253
-9.44 -10.90 -2.65 245 252 250
-9.44 -10.99 -2.66 247 254 252
-9.43 -11.07 -2.67 250 255 255
-9.42 -11.16 -2.68 248 255 253
-9.38 -11.25 -2.73 245 252 250
-9.26 -11.35 -2.88 234 241 239
-9.06 -11.47 -3.15 218 225 223
-8.79 -11.59 -3.49 190 195 194
-8.61 -11.70 -3.73 188 193 192
-8.52 -11.80 -3.85 186 191 190
-8.51 -11.89 -3.86 188 193 192
-8.51 -11.98 -3.85 190 195 194
-8.52 -12.07 -3.85 191 196 195
-8.54 -12.15 -3.82 189 194 193
-8.55 -12.24 -3.81 185 190 189
-8.56 -12.33 -3.79 189 194 193
-8.57 -12.41 -3.78 189 194 193
-8.59 -12.50 -3.75 189 194 193
-8.60 -12.59 -3.75 189 194 193
-8.61 -12.67 -3.72 189 194 193
-8.62 -12.76 -3.71 189 194 193
-8.62 -12.84 -3.71 189 194 193
-8.63 -12.93 -3.70 189 194 193
-8.63 -13.02 -3.71 191 193 190
-8.63 -13.11 -3.70 192 194 191
-8.62 -13.20 -3.71 192 194 191
-8.61 -13.29 -3.72 192 194 191
-8.60 -13.38 -3.74 191 193 190
-8.60 -13.47 -3.74 188 190 187
-8.60 -13.55 -3.75 186 188 185
-8.59 -13.64 -3.75 185 187 184
-8.58 -13.73 -3.76 183 185 182
-8.58 -13.82 -3.77 180 182 179
-8.56 -13.91 -3.79 176 178 175
-8.56 -14.00 -3.79 168 170 167
-8.55 -14.09 -3.81 159 161 158
-8.54 -14.18 -3.81 155 157 154
-8.54 -14.27 -3.82 154 156 153
-8.52 -14.36 -3.84 164 166 163
-8.50 -14.46 -3.87 147 154 149
-8.49 -14.55 -3.89 160 167 162
-8.47 -14.64 -3.90 162 169 164
-8.47 -14.73 -3.91 153 160 155
-8.45 -14.82 -3.94 152 159 154
-8.43 -14.92 -3.96 159 166 161
-8.42 -15.01 -3.97 159 166 161
-8.42 -15.10 -3.98 151 158 153
-8.41 -15.19 -3.98 155 162 157
-8.39 -15.28 -4.01 154 161 156
-8.38 -15.37 -4.02 156 163 158
-8.37 -15.46 -4.03 162 169 164
-8.37 -15.55 -4.04 170 177 172
-8.36 -15.64 -4.05 177 184 179
-8.35 -15.73 -4.06 178 185 180
-8.34 -15.83 -4.07 177 184 179
-8.33 -15.92 -4.09 174 176 173
-8.32 -16.01 -4.10 159 161 158
-8.31 -16.10 -4.12 149 151 148
-8.31 -16.19 -4.12 144 146 143
-8.30 -16.28 -4.13 135 137 134
-8.30 -16.37 -4.13 134 136 133
-8.31 -16.46 -4.12 145 147 144
-8.32 -16.54 -4.10 156 158 155
-8.34 -16.63 -4.08 166 168 165
-8.34 -16.71 -4.07 159 161 158
-8.37 -16.80 -4.04 155 157 154
-8.39 -16.88 -4.01 127 129 126
-8.41 -16.96 -3.98 95 97 94
-8.44 -17.04 -3.95 49 51 48
-8.48 -17.12 -3.89 28 30 27
-8.53 -17.19 -3.84 18 20 17
-8.57 -17.26 -3.78 27 29 29
-8.62 -17.34 -3.71 35 37 37
-8.66 -17.41 -3.66 52 54 54
-8.69 -17.49 -3.62 62 64 64
-8.74 -17.56 -3.56 58 60 60
-8.78 -17.64 -3.51 50 52 52
-8.81 -17.71 -3.47 43 45 45
-8.85 -17.79 -3.41 42 44 44
-8.89 -17.86 -3.36 30 32 32
-8.93 -17.93 -3.31 44 46 46
-8.97 -18.01 -3.27 59 61 61
-9.01 -18.08 -3.21 85 87 87
-9.05 -18.15 -3.15 129 131 131
-9.09 -18.23 -3.11 174 176 176
-9.12 -18.30 -3.06 207 209 209
-9.17 -18.37 -3.01 227 229 229
-9.19 -18.45 -2.98 237 238 230
-9.24 -18.52 -2.92 225 226 218
-9.26 -18.60 -2.88 210 211 203
-9.30 -18.67 -2.83 200 201 193
-9.34 -18.74 -2.79 192 193 185
-9.37 -18.82 -2.75 185 186 178
-9.40 -18.89 -2.70 178 179 171
-9.44 -18.96 -2.66 172 173 165
-9.48 -19.03 -2.61 175 176 168
-9.52 -19.10 -2.55 175 176 168
-9.56 -19.17 -2.51 174 175 167
-9.61 -19.24 -2.44 172 173 165
-9.65 -19.31 -2.38 171 172 164
-9.69 -19.38 -2.33 170 171 163
-9.72 -19.45 -2.30 168 169 161
-9.74 -19.53 -2.27 167 168 160
-9.77 -19.60 -2.23 166 171 170
-9.80 -19.67 -2.19 166 171 170
-9.83 -19.74 -2.15 168 170 167
-9.86 -19.82 -2.11 169 171 168
-9.90 -19.89 -2.07 169 171 168
-9.93 -19.96 -2.03 168 170 167
-9.96 -20.03 -1.98 166 166 161
-10.00 -20.09 -1.93 163 163 158
-10.04 -20.16 -1.88 164 164 159
-10.08 -20.23 -1.82 152 152 147
-10.12 -20.29 -1.78 141 140 133
-10.16 -20.36 -1.72 134 133 126
-10.20 -20.43 -1.68 132 131 124
-10.25 -20.49 -1.61 125 124 117
-10.29 -20.56 -1.56 114 110 102
-10.32 -20.62 -1.52 104 100 92
-10.32 -20.71 -1.51 98 84 66
