ply
format ascii 1.0
element vertex 1562
property float x
property float y
property float z
property uchar red
property uchar green
property uchar blue
end_header
-10.36 -23.48 -2.22 213 213 210
-10.36 -23.57 -2.22 213 213 210
-10.36 -23.65 -2.22 213 213 210
-10.36 -23.74 -2.23 213 213 210
-10.36 -23.82 -2.22 213 213 210
-10.37 -23.90 -2.21 213 213 210
-10.37 -23.98 -2.21 213 213 210
-10.38 -24.06 -2.20 214 214 211
-10.39 -24.14 -2.18 215 215 212
-10.39 -24.22 -2.18 215 215 212
-10.40 -24.30 -2.17 215 215 212
-10.41 -24.38 -2.16 215 215 212
-10.42 -24.46 -2.15 215 215 212
-10.43 -24.54 -2.14 215 215 212
-10.43 -24.62 -2.13 215 215 212
-10.44 -24.70 -2.12 215 215 212
-10.44 -24.78 -2.12 215 215 212
-10.44 -24.86 -2.12 215 215 212
-10.44 -24.95 -2.12 216 214 215
-10.45 -25.03 -2.11 216 214 215
-10.45 -25.11 -2.11 216 214 215
-10.45 -25.19 -2.11 216 214 215
-10.45 -25.27 -2.10 216 214 215
-10.45 -25.36 -2.10 216 214 215
-10.45 -25.44 -2.10 216 214 215
-10.45 -25.53 -2.11 216 214 215
-10.45 -25.61 -2.11 216 214 215
-10.45 -25.70 -2.11 216 214 215
-10.45 -25.78 -2.11 216 214 215
-10.44 -25.86 -2.11 216 214 215
-10.45 -25.95 -2.11 216 214 215
-10.45 -26.03 -2.11 216 214 215
-10.45 -26.11 -2.10 219 214 216
-10.45 -26.19 -2.10 219 214 216
-10.45 -26.28 -2.10 219 214 216
-10.45 -26.36 -2.10 219 214 216
-10.46 -26.44 -2.10 219 214 216
-10.46 -26.53 -2.10 219 214 216
-10.46 -26.61 -2.09 219 214 216
-10.45 -26.69 -2.10 219 214 216
-10.45 -26.78 -2.10 219 214 216
-10.46 -26.86 -2.09 219 214 216
-10.46 -26.94 -2.09 219 214 216
-10.45 -27.03 -2.10 219 214 216
-10.46 -27.11 -2.09 219 214 216
-10.46 -27.19 -2.09 219 214 216
-10.46 -27.27 -2.09 219 214 216
-10.47 -27.35 -2.08 221 216 218
-10.47 -27.44 -2.08 220 215 212
-10.46 -27.52 -2.09 223 218 215
-10.46 -27.61 -2.09 223 218 215
-10.47 -27.69 -2.08 223 218 215
-10.47 -27.77 -2.08 223 218 215
-10.46 -27.86 -2.09 223 218 215
-10.47 -27.94 -2.08 223 218 215
-10.47 -28.02 -2.08 223 218 215
-10.47 -28.10 -2.08 223 218 215
-10.47 -28.19 -2.08 223 218 215
-10.47 -28.27 -2.08 223 218 215
-10.47 -28.35 -2.08 223 218 215
-10.48 -28.43 -2.07 223 218 215
-10.48 -28.51 -2.07 223 218 215
-10.48 -28.60 -2.06 223 218 215
-10.49 -28.68 -2.06 223 218 215
-10.49 -28.76 -2.05 223 219 213
-10.49 -28.84 -2.05 223 219 213
-10.49 -28.93 -2.05 223 219 213
-10.49 -29.01 -2.05 223 219 213
-10.49 -29.09 -2.05 223 219 213
-10.50 -29.17 -2.04 223 219 213
-10.50 -29.25 -2.04 223 219 213
-10.50 -29.33 -2.03 223 219 213
-10.50 -29.41 -2.03 224 220 214
-10.50 -29.50 -2.03 224 220 214
-10.50 -29.58 -2.03 224 220 214
-10.50 -29.66 -2.03 224 220 214
-10.51 -29.75 -2.03 224 220 214
-10.51 -29.83 -2.03 224 220 214
-10.51 -29.91 -2.03 224 220 214
-10.51 -29.99 -2.03 224 220 214
-10.51 -30.08 -2.03 224 219 216
-10.51 -30.16 -2.03 224 219 216
-10.51 -30.25 -2.03 224 219 216
-10.50 -30.33 -2.03 224 219 216
-10.50 -30.42 -2.03 224 219 216
-10.50 -30.50 -2.04 224 219 216
-10.50 -30.59 -2.04 224 219 216
-10.50 -30.67 -2.04 225 220 217
-10.50 -30.75 -2.04 226 221 218
-10.50 -30.84 -2.04 226 221 218
-10.50 -30.92 -2.04 226 221 218
-10.51 -31.00 -2.03 226 221 218
-10.51 -31.08 -2.03 226 221 218
-10.51 -31.16 -2.02 226 221 218
-10.51 -31.24 -2.02 226 221 218
-10.51 -31.33 -2.02 227 222 219
-10.51 -31.41 -2.02 227 222 219
-10.51 -31.49 -2.02 228 223 220
-10.52 -31.57 -2.01 228 223 220
-10.52 -31.66 -2.02 228 223 220
-10.51 -31.75 -2.03 228 223 220
-10.51 -31.83 -2.02 228 223 220
-10.51 -31.91 -2.03 228 223 220
-10.51 -32.00 -2.03 228 223 220
-10.50 -32.09 -2.03 230 225 222
-10.50 -32.17 -2.04 230 225 222
-10.50 -32.26 -2.04 230 225 222
-10.50 -32.34 -2.04 230 225 222
-10.50 -32.42 -2.03 230 225 222
-10.50 -32.50 -2.04 230 225 222
-10.50 -32.59 -2.04 230 225 222
-10.49 -32.68 -2.05 228 223 220
-10.47 -32.78 -2.08 225 223 219
-10.48 -32.86 -2.07 226 224 220
-10.47 -32.95 -2.07 228 228 223
-10.47 -33.03 -2.07 229 229 224
-10.48 -33.10 -2.06 229 229 224
-10.49 -33.18 -2.05 228 228 223
-10.50 -33.25 -2.03 225 225 220
-10.54 -33.31 -1.99 224 224 219
-10.54 -33.39 -1.99 226 224 220
-10.50 -33.51 -2.04 229 227 223
-10.52 -33.57 -2.02 225 218 216
-10.46 -33.71 -2.10 224 217 215
-10.74 -33.55 -1.73 242 230 230
-10.18 19.65 -2.59 141 132 124
-10.15 19.59 -2.62 141 132 124
-10.16 19.50 -2.62 141 132 124
-10.12 19.45 -2.67 141 132 124
-10.12 19.37 -2.67 141 132 124
-10.13 19.28 -2.66 141 132 124
-10.10 19.21 -2.69 141 132 124
-10.11 19.12 -2.69 141 132 124
-10.11 19.04 -2.69 142 133 125
-10.09 18.97 -2.70 142 133 125
-10.09 18.88 -2.70 142 133 125
-10.08 18.80 -2.71 142 133 125
-10.08 18.72 -2.71 142 133 125
-10.07 18.65 -2.73 142 133 125
-10.07 18.56 -2.73 142 133 125
-10.06 18.49 -2.75 142 133 125
-10.06 18.40 -2.75 142 133 125
-10.05 18.33 -2.77 143 134 126
-10.04 18.25 -2.77 143 134 126
-10.03 18.17 -2.79 143 134 126
-10.02 18.09 -2.79 143 134 126
-10.02 18.01 -2.80 143 134 126
-10.02 17.93 -2.80 143 134 126
-10.01 17.85 -2.82 143 134 126
-10.00 17.77 -2.82 143 134 126
-10.00 17.69 -2.83 144 135 127
-9.99 17.61 -2.84 144 135 127
-9.98 17.54 -2.85 145 136 128
-9.97 17.46 -2.86 145 136 128
-9.96 17.38 -2.87 146 137 129
-9.96 17.30 -2.88 146 137 129
-9.95 17.22 -2.89 148 139 131
-9.94 17.14 -2.90 146 137 129
-9.93 17.07 -2.92 146 137 129
-9.93 16.98 -2.92 146 137 129
-9.92 16.91 -2.93 146 137 129
-9.91 16.82 -2.94 146 137 129
-9.91 16.74 -2.94 146 137 129
-9.90 16.66 -2.95 148 139 133
-9.90 16.58 -2.96 148 139 133
-9.90 16.49 -2.96 148 139 133
-9.89 16.41 -2.97 148 139 133
-9.89 16.33 -2.97 148 139 133
-9.89 16.25 -2.97 148 139 133
-9.88 16.16 -2.98 148 139 133
-9.88 16.09 -2.99 148 139 133
-9.88 16.00 -2.99 149 140 134
-9.86 15.92 -3.01 150 141 135
-9.87 15.84 -3.00 147 141 134
-9.86 15.75 -3.01 148 142 135
-9.85 15.68 -3.02 148 142 135
-9.85 15.59 -3.02 148 142 135
-9.85 15.51 -3.03 148 142 135
-9.84 15.43 -3.04 148 142 135
-9.84 15.34 -3.04 148 142 135
-9.84 15.26 -3.04 148 142 135
-9.83 15.18 -3.05 149 143 136
-9.84 15.09 -3.04 150 144 137
-9.82 15.02 -3.06 151 145 138
-9.82 14.93 -3.06 151 145 138
-9.82 14.85 -3.06 151 145 138
-9.81 14.77 -3.07 151 145 138
-9.81 14.68 -3.07 151 145 138
-9.81 14.60 -3.07 151 145 138
-9.80 14.52 -3.09 153 147 140
-9.80 14.43 -3.09 153 147 140
-9.80 14.35 -3.09 153 147 140
-9.79 14.27 -3.10 153 147 140
-9.79 14.18 -3.10 153 147 140
-9.78 14.10 -3.11 153 147 140
-9.78 14.02 -3.12 153 147 140
-9.78 13.94 -3.12 153 147 140
-9.77 13.86 -3.13 153 147 140
-9.77 13.77 -3.13 154 148 141
-9.77 13.69 -3.14 154 148 141
-9.77 13.60 -3.14 155 149 142
-9.76 13.52 -3.15 155 149 142
-9.76 13.43 -3.14 156 150 143
-9.75 13.35 -3.15 156 150 143
-9.75 13.27 -3.15 157 151 144
-9.75 13.18 -3.15 156 150 143
-9.75 13.10 -3.16 158 152 145
-9.74 13.02 -3.17 159 155 147
-9.74 12.93 -3.17 159 155 147
-9.74 12.85 -3.17 159 155 147
-9.74 12.76 -3.17 159 155 147
-9.74 12.68 -3.17 159 155 147
-9.73 12.60 -3.18 159 155 147
-9.73 12.51 -3.19 159 155 147
-9.73 12.43 -3.19 159 155 147
-9.72 12.34 -3.19 160 156 148
-9.72 12.26 -3.19 160 156 148
-9.72 12.17 -3.19 160 156 148
-9.72 12.09 -3.20 160 156 148
-9.72 12.01 -3.20 161 155 148
-9.72 11.92 -3.20 162 156 149
-9.71 11.84 -3.21 162 158 150
-9.71 11.75 -3.21 162 158 150
-9.71 11.67 -3.21 163 159 151
-9.71 11.58 -3.21 163 159 151
-9.71 11.50 -3.22 164 160 152
-9.71 11.41 -3.22 164 160 152
-9.71 11.33 -3.21 166 162 154
-9.70 11.24 -3.22 167 163 155
-9.70 11.16 -3.22 167 163 155
-9.70 11.07 -3.22 167 163 155
-9.69 10.99 -3.24 167 163 155
-9.69 10.91 -3.24 167 163 155
-9.69 10.82 -3.24 167 163 155
-9.69 10.74 -3.24 167 163 155
-9.69 10.65 -3.24 167 163 153
-9.69 10.56 -3.24 168 164 154
-9.69 10.48 -3.24 168 162 153
-9.69 10.39 -3.23 169 163 154
-9.69 10.31 -3.24 169 163 154
-9.69 10.22 -3.24 169 163 154
-9.69 10.13 -3.23 169 163 154
-9.70 10.04 -3.23 169 163 154
-9.70 9.96 -3.23 169 163 154
-9.70 9.87 -3.22 169 163 154
-9.70 9.79 -3.22 169 163 154
-9.70 9.70 -3.23 170 164 155
-9.70 9.61 -3.22 171 165 156
-9.70 9.53 -3.23 171 165 156
-9.70 9.44 -3.23 172 166 157
-9.70 9.36 -3.23 172 166 157
-9.69 9.27 -3.23 174 168 159
-9.69 9.19 -3.23 174 168 159
-9.69 9.10 -3.23 174 170 162
-9.69 9.02 -3.23 174 170 162
-9.69 8.93 -3.24 174 170 162
-9.69 8.85 -3.24 174 170 162
-9.69 8.76 -3.23 174 170 162
-9.68 8.68 -3.24 174 170 162
-9.68 8.59 -3.25 174 170 162
-9.68 8.51 -3.25 175 171 163
-9.67 8.42 -3.26 175 171 163
-9.67 8.34 -3.26 175 171 163
-9.67 8.26 -3.27 175 171 163
-9.67 8.17 -3.26 175 171 163
-9.67 8.09 -3.27 175 171 163
-9.67 8.00 -3.27 175 171 163
-9.67 7.91 -3.27 173 172 163
-9.66 7.83 -3.27 174 173 164
-9.66 7.74 -3.28 174 175 165
-9.66 7.66 -3.28 174 175 165
-9.66 7.57 -3.28 175 176 166
-9.65 7.49 -3.29 175 176 166
-9.66 7.40 -3.28 176 177 167
-9.65 7.32 -3.29 176 177 167
-9.65 7.23 -3.29 178 179 169
-9.65 7.15 -3.29 176 177 167
-9.66 7.06 -3.28 176 177 167
-9.64 6.98 -3.30 176 177 167
-9.65 6.89 -3.29 176 177 167
-9.64 6.81 -3.30 176 177 167
-9.64 6.72 -3.30 176 177 167
-9.64 6.63 -3.30 176 177 167
-9.64 6.55 -3.30 176 177 167
-9.64 6.46 -3.30 178 179 169
-9.63 6.38 -3.31 178 179 171
-9.64 6.29 -3.30 178 179 171
-9.63 6.21 -3.31 178 179 171
-9.64 6.12 -3.31 178 179 171
-9.64 6.03 -3.30 178 179 171
-9.64 5.95 -3.30 178 179 171
-9.64 5.86 -3.30 178 179 171
-9.64 5.77 -3.30 178 179 171
-9.64 5.69 -3.30 176 177 169
-9.64 5.60 -3.30 176 177 169
-9.64 5.52 -3.30 176 177 169
-9.64 5.43 -3.30 176 177 169
-9.64 5.35 -3.31 176 177 169
-9.64 5.26 -3.30 176 177 169
-9.64 5.18 -3.31 176 177 167
-9.63 5.09 -3.31 176 177 167
-9.63 5.01 -3.32 178 178 173
-9.63 4.92 -3.32 178 178 173
-9.63 4.84 -3.32 178 179 171
-9.63 4.75 -3.32 178 179 171
-9.64 4.66 -3.31 178 179 171
-9.63 4.57 -3.31 178 179 171
-9.64 4.49 -3.31 178 179 171
-9.64 4.40 -3.31 178 179 171
-9.64 4.31 -3.30 178 179 171
-9.65 4.23 -3.29 176 177 169
-9.64 4.14 -3.30 176 177 169
-9.64 4.05 -3.30 176 177 169
-9.64 3.97 -3.30 176 177 169
-9.64 3.88 -3.30 176 177 169
-9.65 3.79 -3.29 176 177 169
-9.65 3.71 -3.29 176 177 169
-9.64 3.62 -3.30 176 177 169
-9.65 3.54 -3.29 175 176 168
-9.65 3.45 -3.29 174 175 165
-9.65 3.36 -3.29 174 175 165
-9.65 3.28 -3.29 174 175 165
-9.65 3.19 -3.29 174 175 165
-9.65 3.11 -3.29 174 175 165
-9.65 3.02 -3.29 174 175 165
-9.65 2.93 -3.28 174 175 165
-9.65 2.85 -3.29 174 175 165
-9.65 2.76 -3.29 174 175 165
-9.65 2.68 -3.29 174 175 165
-9.66 2.59 -3.28 174 175 165
-9.66 2.50 -3.28 174 175 165
-9.66 2.41 -3.27 174 175 165
-9.66 2.33 -3.27 174 175 165
-9.66 2.24 -3.27 173 174 164
-9.65 2.16 -3.28 172 173 163
-9.65 2.07 -3.28 172 173 165
-9.65 1.99 -3.29 172 173 165
-9.65 1.90 -3.28 172 173 165
-9.65 1.81 -3.28 172 173 165
-9.65 1.73 -3.28 172 173 165
-9.65 1.64 -3.28 172 173 165
-9.66 1.55 -3.27 172 173 165
-9.66 1.47 -3.27 172 173 165
-9.67 1.38 -3.26 172 173 165
-9.67 1.29 -3.26 172 173 165
-9.68 1.21 -3.25 172 173 165
-9.67 1.12 -3.26 172 173 165
-9.68 1.03 -3.25 172 173 165
-9.68 0.95 -3.25 172 173 165
-9.68 0.86 -3.25 173 174 166
-9.68 0.78 -3.25 173 174 166
-9.68 0.69 -3.25 173 174 166
-9.68 0.60 -3.25 173 174 166
-9.68 0.52 -3.25 173 174 166
-9.69 0.43 -3.24 173 174 166
-9.69 0.34 -3.24 173 174 166
-9.70 0.26 -3.23 173 174 166
-9.69 0.17 -3.23 173 174 166
-9.70 0.08 -3.23 173 174 166
-9.70 -0.00 -3.22 173 174 166
-9.70 -0.09 -3.23 173 174 166
-9.70 -0.17 -3.22 173 174 166
-9.71 -0.26 -3.21 173 174 166
-9.71 -0.35 -3.21 173 174 166
-9.71 -0.43 -3.21 173 174 166
-9.71 -0.52 -3.21 170 172 167
-9.71 -0.61 -3.21 170 172 167
-9.72 -0.69 -3.20 170 172 167
-9.72 -0.78 -3.20 170 172 167
-9.72 -0.87 -3.20 170 172 167
-9.72 -0.95 -3.20 170 172 167
-9.71 -1.04 -3.21 170 172 167
-9.71 -1.12 -3.21 170 172 167
-9.71 -1.21 -3.21 171 173 168
-9.71 -1.29 -3.21 171 173 168
-9.70 -1.38 -3.22 171 173 168
-9.71 -1.46 -3.21 171 173 168
-9.71 -1.55 -3.21 171 173 168
-9.71 -1.64 -3.20 171 173 168
-9.71 -1.72 -3.20 169 174 168
-9.71 -1.81 -3.21 170 175 169
-9.72 -1.89 -3.20 169 174 168
-9.71 -1.98 -3.21 169 174 168
-9.71 -2.06 -3.21 169 174 168
-9.71 -2.15 -3.21 169 174 168
-9.71 -2.24 -3.21 169 174 168
-9.71 -2.32 -3.20 169 174 168
-9.71 -2.41 -3.20 169 174 168
-9.71 -2.49 -3.20 169 174 168
-9.71 -2.58 -3.21 170 175 169
-9.71 -2.67 -3.21 170 175 169
-9.71 -2.75 -3.21 170 175 169
-9.71 -2.84 -3.21 170 175 169
-9.71 -2.92 -3.21 170 175 169
-9.71 -3.01 -3.21 170 175 169
-9.71 -3.09 -3.21 170 175 169
-9.72 -3.18 -3.20 170 175 169
-9.72 -3.27 -3.20 174 176 171
-9.72 -3.35 -3.20 174 176 171
-9.72 -3.44 -3.20 174 176 171
-9.71 -3.52 -3.21 174 176 171
-9.72 -3.61 -3.20 174 176 171
-9.72 -3.70 -3.20 174 176 171
-9.72 -3.78 -3.20 174 176 171
-9.72 -3.87 -3.20 174 176 171
-9.71 -3.95 -3.21 174 176 171
-9.71 -4.04 -3.21 174 176 171
-9.72 -4.13 -3.20 174 176 171
-9.72 -4.21 -3.20 174 176 171
-9.71 -4.30 -3.21 174 176 171
-9.71 -4.38 -3.21 174 176 171
-9.71 -4.47 -3.21 174 176 171
-9.71 -4.55 -3.21 174 176 171
-9.71 -4.64 -3.21 174 179 173
-9.71 -4.73 -3.21 174 179 173
-9.71 -4.81 -3.20 174 179 173
-9.71 -4.90 -3.21 174 179 173
-9.71 -4.98 -3.20 174 179 173
-9.71 -5.07 -3.20 174 179 173
-9.71 -5.15 -3.21 174 179 173
-9.72 -5.24 -3.20 174 179 173
-9.71 -5.33 -3.21 175 180 174
-9.71 -5.41 -3.21 175 180 174
-9.71 -5.50 -3.20 175 180 174
-9.70 -5.58 -3.22 175 180 174
-9.71 -5.67 -3.21 175 180 174
-9.71 -5.76 -3.21 175 180 174
-9.71 -5.84 -3.21 174 181 174
-9.70 -5.93 -3.22 174 181 174
-9.70 -6.01 -3.22 175 180 174
-9.71 -6.10 -3.22 175 180 174
-9.70 -6.18 -3.22 175 180 176
-9.69 -6.27 -3.24 175 180 176
-9.68 -6.35 -3.25 175 180 176
-9.67 -6.44 -3.27 175 180 176
-9.65 -6.53 -3.29 175 180 176
-9.63 -6.61 -3.31 175 180 176
-9.62 -6.70 -3.33 175 180 176
-9.60 -6.78 -3.35 175 180 176
-9.59 -6.87 -3.37 176 181 177
-9.59 -6.95 -3.37 176 181 177
-9.57 -7.04 -3.39 176 181 177
-9.57 -7.13 -3.39 176 181 177
-9.57 -7.21 -3.40 176 181 177
-9.57 -7.30 -3.40 176 181 177
-9.55 -7.39 -3.42 175 180 179
-9.56 -7.47 -3.41 178 183 182
-9.55 -7.56 -3.42 181 186 185
-9.52 -7.64 -3.46 174 179 178
-9.51 -7.73 -3.48 172 177 176
-9.70 -7.81 -3.22 178 183 182
-10.15 -7.89 -2.63 233 238 237
-10.39 -7.97 -2.31 246 251 250
-10.41 -8.06 -2.29 247 252 251
-10.43 -8.14 -2.26 247 252 251
-10.43 -8.22 -2.25 247 252 251
-10.45 -8.31 -2.24 246 251 250
-10.45 -8.39 -2.23 245 250 249
-10.46 -8.47 -2.21 245 250 249
-10.46 -8.56 -2.22 244 249 248
-10.45 -8.64 -2.23 244 249 248
-10.44 -8.73 -2.24 246 253 251
-10.43 -8.81 -2.26 246 253 251
-10.42 -8.89 -2.28 246 253 251
-10.40 -8.98 -2.30 246 253 251
-10.38 -9.06 -2.32 246 253 251
-10.38 -9.15 -2.33 246 253 251
-10.37 -9.23 -2.33 246 253 251
-10.37 -9.32 -2.34 246 253 251
-10.36 -9.40 -2.35 246 253 251
-10.36 -9.48 -2.34 246 253 251
-10.36 -9.57 -2.35 246 253 251
-10.36 -9.65 -2.35 246 253 251
-10.36 -9.74 -2.35 246 253 251
-10.36 -9.82 -2.35 246 253 251
-10.37 -9.90 -2.34 246 253 251
-10.37 -9.99 -2.34 246 253 251
-10.38 -10.07 -2.33 246 253 251
-10.39 -10.15 -2.31 246 253 251
-10.40 -10.24 -2.30 246 253 251
-10.40 -10.32 -2.30 246 253 251
-10.41 -10.40 -2.29 246 253 251
-10.41 -10.49 -2.28 246 253 251
-10.42 -10.57 -2.28 246 253 251
-10.43 -10.65 -2.26 246 253 251
-10.43 -10.74 -2.26 246 253 251
-10.42 -10.82 -2.27 246 253 251
-10.42 -10.91 -2.27 246 253 251
-10.42 -10.99 -2.27 246 253 251
-10.42 -11.07 -2.28 246 253 251
-10.41 -11.16 -2.28 246 253 251
-10.41 -11.24 -2.28 246 253 251
-10.40 -11.33 -2.30 246 253 251
-10.39 -11.41 -2.31 248 253 252
-10.38 -11.50 -2.32 249 254 253
-10.38 -11.58 -2.33 251 255 255
-10.38 -11.66 -2.32 248 253 252
-10.37 -11.75 -2.33 246 251 250
-10.37 -11.83 -2.34 246 251 250
-10.36 -11.92 -2.35 248 253 252
-10.34 -12.01 -2.37 252 255 255
-10.32 -12.10 -2.41 244 249 248
-10.29 -12.18 -2.44 253 255 255
-10.23 -12.28 -2.52 249 254 253
-10.05 -12.39 -2.76 223 228 227
-9.84 -12.51 -3.04 195 200 199
-9.65 -12.63 -3.29 183 188 187
-9.58 -12.73 -3.39 184 189 188
-9.55 -12.82 -3.42 186 191 190
-9.56 -12.91 -3.41 193 195 192
-9.58 -12.99 -3.39 192 194 191
-9.59 -13.07 -3.37 190 192 189
-9.60 -13.16 -3.36 188 190 187
-9.61 -13.24 -3.34 188 190 187
-9.61 -13.33 -3.34 190 192 189
-9.61 -13.41 -3.34 191 193 190
-9.62 -13.50 -3.33 192 194 191
-9.62 -13.58 -3.32 192 194 191
-9.63 -13.67 -3.32 191 193 190
-9.63 -13.75 -3.32 188 190 187
-9.63 -13.84 -3.31 186 188 185
-9.63 -13.93 -3.31 183 185 182
-9.64 -14.01 -3.31 180 182 179
-9.63 -14.10 -3.32 178 180 177
-9.62 -14.19 -3.33 177 179 176
-9.61 -14.27 -3.34 176 179 171
-9.61 -14.36 -3.35 174 177 169
-9.59 -14.45 -3.37 173 176 168
-9.58 -14.54 -3.38 173 176 168
-9.57 -14.63 -3.40 176 179 171
-9.56 -14.72 -3.41 179 182 174
-9.55 -14.80 -3.41 185 188 180
-9.55 -14.89 -3.42 187 190 182
-9.54 -14.98 -3.43 188 191 183
-9.54 -15.07 -3.44 187 190 182
-9.53 -15.16 -3.45 185 188 180
-9.52 -15.25 -3.46 183 186 178
-9.52 -15.33 -3.46 179 182 174
-9.51 -15.42 -3.47 177 180 172
-9.51 -15.51 -3.47 174 177 169
-9.51 -15.59 -3.47 173 176 168
-9.51 -15.68 -3.48 166 169 161
-9.51 -15.77 -3.48 168 171 163
-9.50 -15.86 -3.49 169 172 164
-9.50 -15.94 -3.49 170 173 165
-9.49 -16.03 -3.50 170 173 165
-9.48 -16.12 -3.52 168 171 163
-9.47 -16.21 -3.52 165 168 160
-9.47 -16.30 -3.53 164 167 159
-9.46 -16.39 -3.54 163 166 158
-9.45 -16.47 -3.55 161 164 156
-9.45 -16.56 -3.56 158 161 153
-9.44 -16.65 -3.57 156 159 151
-9.43 -16.74 -3.58 156 159 151
-9.42 -16.83 -3.60 158 161 153
-9.40 -16.92 -3.61 162 165 157
-9.39 -17.01 -3.63 163 166 158
-9.38 -17.10 -3.64 169 171 171
-9.37 -17.19 -3.66 177 179 179
-9.36 -17.28 -3.67 185 187 187
-9.35 -17.37 -3.68 188 190 190
-9.34 -17.46 -3.69 185 187 187
-9.34 -17.55 -3.70 178 180 180
-9.33 -17.64 -3.71 163 165 165
-9.32 -17.73 -3.72 151 153 153
-9.32 -17.82 -3.73 147 149 149
-9.31 -17.91 -3.73 140 142 142
-9.31 -18.00 -3.74 138 140 140
-9.31 -18.08 -3.73 151 153 153
-9.32 -18.16 -3.72 168 170 170
-9.34 -18.25 -3.70 172 174 174
-9.36 -18.33 -3.67 162 164 164
-9.38 -18.40 -3.64 150 152 152
-9.42 -18.48 -3.59 107 107 104
-9.45 -18.55 -3.56 79 79 76
-9.49 -18.63 -3.50 53 53 50
-9.53 -18.70 -3.45 39 39 36
-9.57 -18.77 -3.40 34 34 31
-9.62 -18.84 -3.33 43 43 40
-9.66 -18.90 -3.27 53 53 50
-9.72 -18.97 -3.20 58 58 55
-9.78 -19.03 -3.12 69 69 66
-9.82 -19.10 -3.06 68 68 65
-9.86 -19.17 -3.01 61 61 58
-9.90 -19.24 -2.96 46 46 43
-9.94 -19.31 -2.90 31 31 28
-9.98 -19.38 -2.85 30 30 27
-10.03 -19.44 -2.79 44 44 41
-10.07 -19.51 -2.73 58 58 55
-10.11 -19.58 -2.68 92 97 96
-10.15 -19.65 -2.63 122 127 126
-10.19 -19.72 -2.58 168 170 167
-10.22 -19.79 -2.53 195 197 194
-10.25 -19.86 -2.49 219 221 218
-10.29 -19.93 -2.45 216 218 215
-10.32 -20.00 -2.40 218 218 213
-10.35 -20.07 -2.37 208 208 203
-10.38 -20.14 -2.33 194 194 189
-10.40 -20.21 -2.29 185 185 180
-10.43 -20.29 -2.26 182 181 174
-10.46 -20.36 -2.22 182 181 174
-10.48 -20.43 -2.19 177 176 169
-10.51 -20.50 -2.15 167 166 159
-10.54 -20.57 -2.12 154 150 142
-10.55 -20.65 -2.09 138 134 126
-10.58 -20.72 -2.06 92 90 68
-10.62 -20.79 -2.01 96 94 72
-10.66 -20.85 -1.95 111 107 86
-10.70 -20.92 -1.90 128 124 103
-10.78 -20.96 -1.80 102 96 91
-11.01 -20.94 -1.49 35 29 24
-11.32 -20.87 -1.09 30 28 40
-11.66 -20.79 -0.63 23 21 33
-11.91 -20.75 -0.31 25 28 50
-12.03 -20.77 -0.15 46 49 71
-12.03 -20.85 -0.15 31 38 73
-11.99 -20.95 -0.20 29 36 71
-11.98 -21.03 -0.21 62 68 112
-12.01 -21.10 -0.18 59 65 109
-12.03 -21.17 -0.15 49 53 93
-12.04 -21.25 -0.14 25 29 69
-12.04 -21.32 -0.13 22 21 67
-12.10 -21.37 -0.05 13 12 58
-12.10 -21.45 -0.05 0 0 33
-11.65 -21.76 -0.65 30 29 64
-10.90 -22.22 -1.64 120 121 140
-10.50 -22.51 -2.17 220 221 240
-10.51 -22.59 -2.15 235 236 241
-10.56 -22.65 -2.09 213 214 219
-10.52 -22.75 -2.14 209 211 208
-10.51 -22.84 -2.15 212 214 211
-10.49 -22.94 -2.18 210 210 207
-10.49 -23.02 -2.18 208 208 205
-10.48 -23.11 -2.19 209 209 206
-10.47 -23.20 -2.21 210 210 207
-10.46 -23.29 -2.22 211 209 210
-10.47 -23.37 -2.21 212 210 211
-10.47 -23.45 -2.20 211 211 208
-10.47 -23.53 -2.20 211 211 208
-10.49 -23.61 -2.18 211 211 208
-10.48 -23.69 -2.19 211 211 208
-10.49 -23.77 -2.18 211 211 208
-10.49 -23.85 -2.17 211 211 208
-10.51 -23.93 -2.16 211 211 208
-10.52 -24.01 -2.14 213 213 210
-10.52 -24.09 -2.14 214 214 211
-10.52 -24.17 -2.14 214 214 211
-10.53 -24.25 -2.13 214 214 211
-10.53 -24.33 -2.12 214 214 211
-10.54 -24.41 -2.12 214 214 211
-10.54 -24.49 -2.11 214 214 211
-10.56 -24.57 -2.09 214 214 211
-10.56 -24.65 -2.09 214 214 211
-10.57 -24.73 -2.08 214 214 211
-10.56 -24.82 -2.08 214 214 211
-10.57 -24.90 -2.08 215 213 214
-10.56 -24.98 -2.08 215 213 214
-10.57 -25.06 -2.07 215 213 214
-10.57 -25.14 -2.07 215 213 214
-10.57 -25.23 -2.08 215 213 214
-10.57 -25.31 -2.08 215 213 214
-10.57 -25.40 -2.08 216 214 215
-10.56 -25.48 -2.09 216 214 215
-10.56 -25.56 -2.08 216 214 215
-10.56 -25.65 -2.08 216 214 215
-10.56 -25.73 -2.08 216 214 215
-10.57 -25.81 -2.07 216 214 215
-10.57 -25.89 -2.07 216 214 215
-10.57 -25.98 -2.08 216 214 215
-10.57 -26.06 -2.08 219 214 216
-10.56 -26.15 -2.08 219 214 216
-10.57 -26.23 -2.08 219 214 216
-10.57 -26.31 -2.07 219 214 216
-10.57 -26.40 -2.08 219 214 216
-10.58 -26.47 -2.06 219 214 216
-10.58 -26.56 -2.07 219 214 216
-10.57 -26.64 -2.07 219 214 216
-10.57 -26.73 -2.07 219 214 216
-10.57 -26.81 -2.07 219 214 216
-10.58 -26.89 -2.07 219 214 216
-10.57 -26.98 -2.08 219 214 216
-10.58 -27.06 -2.07 219 214 216
-10.58 -27.14 -2.07 219 214 216
-10.58 -27.23 -2.07 219 214 216
-10.58 -27.31 -2.06 220 215 217
-10.58 -27.39 -2.06 219 214 211
-10.58 -27.48 -2.07 221 216 213
-10.58 -27.55 -2.05 221 216 213
-10.58 -27.64 -2.06 221 216 213
-10.58 -27.72 -2.06 221 216 213
-10.59 -27.80 -2.05 221 216 213
-10.59 -27.88 -2.05 221 216 213
-10.59 -27.97 -2.05 221 216 213
-10.59 -28.05 -2.04 221 216 213
-10.59 -28.13 -2.05 221 216 213
-10.59 -28.21 -2.04 221 216 213
-10.60 -28.29 -2.04 221 216 213
-10.60 -28.37 -2.03 221 216 213
-10.60 -28.46 -2.03 221 216 213
-10.60 -28.54 -2.03 221 216 213
-10.61 -28.62 -2.03 221 216 213
-10.61 -28.70 -2.03 223 219 213
-10.61 -28.79 -2.02 223 219 213
-10.61 -28.87 -2.02 223 219 213
-10.61 -28.95 -2.02 223 219 213
-10.61 -29.03 -2.02 223 219 213
-10.62 -29.11 -2.00 223 219 213
-10.62 -29.19 -2.01 223 219 213
-10.62 -29.27 -2.00 223 219 213
-10.62 -29.36 -2.00 224 220 214
-10.62 -29.44 -2.00 224 220 214
-10.63 -29.52 -2.00 224 220 214
-10.62 -29.60 -2.00 224 220 214
-10.63 -29.69 -2.00 224 220 214
-10.63 -29.77 -1.99 224 220 214
-10.63 -29.85 -1.99 224 220 214
-10.63 -29.93 -1.99 224 220 214
-10.63 -30.02 -2.00 224 219 216
-10.62 -30.10 -2.00 224 219 216
-10.62 -30.19 -2.00 224 219 216
-10.62 -30.27 -2.00 224 219 216
-10.62 -30.36 -2.01 224 219 216
-10.62 -30.44 -2.00 224 219 216
-10.62 -30.52 -2.01 224 219 216
-10.62 -30.61 -2.01 225 220 217
-10.62 -30.69 -2.01 226 221 218
-10.62 -30.78 -2.01 226 221 218
-10.62 -30.86 -2.01 226 221 218
-10.62 -30.94 -2.01 226 221 218
-10.62 -31.02 -2.00 226 221 218
-10.62 -31.10 -2.00 226 221 218
-10.62 -31.19 -2.01 226 221 218
-10.62 -31.27 -2.01 227 222 219
-10.63 -31.35 -2.00 227 222 219
-10.63 -31.43 -2.00 227 222 219
-10.63 -31.51 -1.99 227 222 219
-10.63 -31.60 -1.99 227 222 219
-10.63 -31.68 -1.99 227 222 219
-10.63 -31.77 -2.00 227 222 219
-10.62 -31.85 -2.01 227 222 219
-10.62 -31.94 -2.01 228 223 220
-10.62 -32.02 -2.01 228 223 220
-10.61 -32.11 -2.01 228 223 220
-10.62 -32.19 -2.01 228 223 220
-10.62 -32.27 -2.01 228 223 220
-10.61 -32.36 -2.02 228 223 220
-10.61 -32.45 -2.02 228 223 220
-10.61 -32.53 -2.02 228 223 220
-10.60 -32.62 -2.04 228 223 220
-10.59 -32.72 -2.05 224 222 218
-10.60 -32.79 -2.04 225 223 219
-10.59 -32.88 -2.05 227 227 222
-10.59 -32.96 -2.04 229 229 224
-10.61 -33.03 -2.02 229 229 224
-10.63 -33.10 -1.99 227 227 222
-10.65 -33.16 -1.97 224 224 219
-10.68 -33.22 -1.93 223 223 218
-10.69 -33.29 -1.91 226 224 220
-10.65 -33.41 -1.96 229 227 223
-10.68 -33.47 -1.93 220 213 211
-10.61 -33.62 -2.03 220 213 211
-10.86 -33.47 -1.69 243 231 231
-10.31 19.57 -2.54 141 132 124
-10.29 19.50 -2.57 141 132 124
-10.29 19.42 -2.57 141 132 124
-10.25 19.37 -2.62 141 132 124
-10.26 19.28 -2.61 141 132 124
-10.26 19.19 -2.61 141 132 124
-10.24 19.13 -2.64 141 132 124
-10.24 19.04 -2.64 141 132 124
-10.24 18.96 -2.63 142 133 125
-10.24 18.87 -2.64 142 133 125
-10.24 18.79 -2.64 142 133 125
-10.23 18.72 -2.66 142 133 125
-10.22 18.64 -2.66 142 133 125
-10.21 18.56 -2.67 142 133 125
-10.21 18.48 -2.67 142 133 125
-10.20 18.40 -2.69 142 133 125
-10.20 18.32 -2.69 142 133 125
-10.19 18.24 -2.71 143 134 126
-10.18 18.17 -2.72 143 134 126
-10.17 18.09 -2.73 143 134 126
-10.17 18.01 -2.73 143 134 126
-10.16 17.93 -2.75 143 134 126
-10.15 17.85 -2.76 143 134 126
-10.15 17.77 -2.76 143 134 126
-10.14 17.69 -2.77 143 134 126
-10.13 17.61 -2.78 144 135 127
-10.12 17.54 -2.80 144 135 127
-10.11 17.46 -2.80 145 136 128
-10.11 17.38 -2.81 145 136 128
-10.10 17.30 -2.83 146 137 129
-10.09 17.22 -2.84 146 137 129
-10.08 17.15 -2.85 148 139 131
-10.08 17.07 -2.86 146 137 129
-10.06 17.00 -2.88 146 137 129
-10.06 16.91 -2.88 146 137 129
-10.05 16.83 -2.89 146 137 129
-10.05 16.75 -2.89 146 137 129
-10.04 16.67 -2.90 146 137 129
-10.04 16.59 -2.90 148 139 133
-10.03 16.50 -2.91 148 139 133
-10.03 16.42 -2.91 148 139 133
-10.02 16.34 -2.92 148 139 133
-10.02 16.26 -2.93 148 139 133
-10.02 16.18 -2.93 148 139 133
-10.01 16.10 -2.94 148 139 133
-10.01 16.01 -2.94 148 139 133
-10.01 15.93 -2.94 149 140 134
-10.01 15.85 -2.95 150 141 135
-10.00 15.77 -2.96 147 141 134
-10.00 15.68 -2.96 148 142 135
-9.99 15.60 -2.97 148 142 135
-9.98 15.52 -2.98 148 142 135
-9.98 15.44 -2.98 148 142 135
-9.98 15.36 -2.98 148 142 135
-9.97 15.27 -2.99 148 142 135
-9.97 15.20 -3.00 148 142 135
-9.97 15.11 -2.99 149 143 136
-9.96 15.03 -3.01 150 144 137
-9.96 14.95 -3.01 151 145 138
-9.95 14.87 -3.02 151 145 138
-9.95 14.78 -3.02 151 145 138
-9.95 14.70 -3.02 151 145 138
-9.94 14.62 -3.03 151 145 138
-9.94 14.53 -3.03 151 145 138
-9.94 14.45 -3.04 153 147 140
-9.93 14.37 -3.05 153 147 140
-9.93 14.28 -3.05 153 147 140
-9.93 14.20 -3.05 153 147 140
-9.92 14.12 -3.06 153 147 140
-9.92 14.03 -3.06 153 147 140
-9.92 13.95 -3.06 153 147 140
-9.91 13.87 -3.07 153 147 140
-9.91 13.79 -3.07 153 147 140
-9.90 13.71 -3.08 154 148 141
-9.90 13.62 -3.08 154 148 141
-9.90 13.54 -3.09 155 149 142
-9.89 13.46 -3.09 155 149 142
-9.89 13.37 -3.09 156 150 143
-9.89 13.29 -3.10 156 150 143
-9.89 13.20 -3.09 157 151 144
-9.89 13.12 -3.10 155 151 143
-9.88 13.04 -3.11 157 153 145
-9.89 12.95 -3.10 159 155 147
-9.88 12.87 -3.11 159 155 147
-9.88 12.78 -3.11 159 155 147
-9.88 12.70 -3.12 159 155 147
-9.87 12.62 -3.12 159 155 147
-9.88 12.53 -3.12 159 155 147
-9.87 12.45 -3.13 159 155 147
-9.86 12.37 -3.13 159 155 147
-9.86 12.28 -3.14 160 156 148
-9.86 12.20 -3.14 160 156 148
-9.86 12.11 -3.14 160 156 148
-9.85 12.03 -3.15 160 156 148
-9.85 11.95 -3.15 160 156 148
-9.85 11.86 -3.16 161 157 149
-9.85 11.78 -3.16 162 158 150
-9.85 11.69 -3.16 162 158 150
-9.85 11.61 -3.16 163 159 151
-9.85 11.52 -3.16 163 159 151
-9.84 11.44 -3.16 164 160 152
-9.84 11.36 -3.17 164 160 152
-9.84 11.27 -3.17 166 162 154
-9.84 11.18 -3.17 167 163 155
-9.83 11.10 -3.18 167 163 155
-9.83 11.02 -3.18 167 163 155
-9.83 10.93 -3.18 167 163 155
-9.83 10.85 -3.18 167 163 155
-9.83 10.76 -3.18 167 163 155
-9.83 10.68 -3.18 167 163 155
-9.83 10.59 -3.18 167 163 153
-9.83 10.51 -3.18 168 164 154
-9.83 10.42 -3.18 168 162 153
-9.83 10.33 -3.18 169 163 154
-9.83 10.25 -3.18 169 163 156
-9.83 10.16 -3.18 169 163 156
-9.83 10.08 -3.18 169 163 156
-9.83 9.99 -3.18 169 163 156
-9.83 9.91 -3.18 169 163 156
-9.83 9.82 -3.18 169 163 156
-9.83 9.73 -3.18 169 163 156
-9.83 9.65 -3.18 170 164 157
-9.83 9.56 -3.18 170 166 158
-9.83 9.48 -3.18 170 166 158
-9.83 9.39 -3.18 171 167 159
-9.83 9.31 -3.18 171 167 159
-9.83 9.22 -3.18 173 169 161
-9.82 9.14 -3.19 173 169 161
-9.82 9.06 -3.19 174 170 162
-9.82 8.97 -3.19 174 170 162
-9.81 8.89 -3.20 174 170 162
-9.81 8.80 -3.20 174 170 162
-9.81 8.72 -3.20 174 170 162
-9.81 8.63 -3.20 174 170 162
-9.81 8.55 -3.20 174 170 162
-9.81 8.46 -3.20 175 171 163
-9.81 8.37 -3.20 175 171 163
-9.81 8.29 -3.20 175 171 163
-9.80 8.21 -3.22 175 171 163
-9.80 8.12 -3.22 175 171 163
-9.80 8.04 -3.22 175 171 163
-9.80 7.95 -3.22 175 171 163
-9.80 7.87 -3.22 173 172 163
-9.80 7.78 -3.22 174 173 164
-9.79 7.70 -3.23 174 175 165
-9.79 7.61 -3.23 174 175 165
-9.79 7.53 -3.23 175 176 166
-9.79 7.44 -3.23 175 176 166
-9.79 7.36 -3.23 176 177 167
-9.79 7.27 -3.23 176 177 167
-9.79 7.19 -3.23 178 179 169
-9.79 7.10 -3.23 176 177 167
-9.79 7.02 -3.24 176 177 167
-9.79 6.93 -3.24 176 177 167
-9.79 6.85 -3.24 176 177 167
-9.78 6.76 -3.25 176 177 167
-9.78 6.68 -3.25 176 177 167
-9.78 6.59 -3.25 176 177 167
-9.78 6.51 -3.25 176 177 167
-9.78 6.42 -3.25 178 179 169
-9.77 6.34 -3.26 178 178 173
-9.78 6.25 -3.25 178 178 173
-9.77 6.17 -3.26 178 179 171
-9.77 6.08 -3.26 178 179 171
-9.77 6.00 -3.26 178 179 171
-9.77 5.91 -3.26 178 179 171
-9.77 5.82 -3.25 178 179 171
-9.77 5.74 -3.26 178 179 171
-9.78 5.65 -3.24 176 176 171
-9.78 5.56 -3.25 176 176 171
-9.77 5.48 -3.25 176 177 169
-9.77 5.39 -3.25 176 177 169
-9.77 5.31 -3.25 176 176 171
-9.78 5.22 -3.25 176 176 171
-9.77 5.14 -3.25 176 177 169
-9.77 5.05 -3.25 176 177 169
-9.77 4.97 -3.26 178 178 175
-9.77 4.88 -3.26 178 178 175
-9.77 4.79 -3.25 178 178 173
-9.77 4.71 -3.26 178 178 173
-9.78 4.62 -3.25 178 179 171
-9.77 4.54 -3.26 178 179 171
-9.78 4.45 -3.25 178 179 171
-9.78 4.36 -3.25 178 179 171
-9.78 4.28 -3.25 178 179 171
-9.78 4.19 -3.25 176 177 169
-9.77 4.11 -3.25 176 177 169
-9.78 4.02 -3.25 176 177 169
-9.78 3.93 -3.25 176 177 169
-9.78 3.85 -3.25 176 177 169
-9.78 3.76 -3.24 176 177 169
-9.78 3.68 -3.25 176 177 169
-9.78 3.59 -3.25 176 177 169
-9.78 3.50 -3.25 175 176 168
-9.78 3.42 -3.25 174 175 167
-9.79 3.33 -3.24 174 175 167
-9.79 3.24 -3.24 174 175 167
-9.79 3.16 -3.23 174 175 167
-9.79 3.07 -3.24 174 175 167
-9.79 2.99 -3.24 174 175 167
-9.78 2.90 -3.24 174 175 167
-9.78 2.82 -3.24 174 175 167
-9.79 2.73 -3.23 173 174 166
-9.79 2.64 -3.23 173 174 166
-9.79 2.56 -3.23 173 174 166
-9.79 2.47 -3.23 173 174 166
-9.79 2.38 -3.23 173 174 166
-9.80 2.30 -3.22 173 174 166
-9.80 2.21 -3.22 173 174 166
-9.80 2.13 -3.22 172 173 165
-9.80 2.04 -3.22 172 173 165
-9.80 1.95 -3.22 172 173 165
-9.80 1.87 -3.22 172 173 165
-9.80 1.78 -3.22 172 173 165
-9.80 1.70 -3.22 172 173 165
-9.80 1.61 -3.22 172 173 165
-9.80 1.53 -3.22 172 173 165
-9.81 1.44 -3.21 172 173 165
-9.80 1.35 -3.21 172 173 165
-9.81 1.27 -3.21 172 173 165
-9.81 1.18 -3.20 172 173 165
-9.81 1.09 -3.20 172 173 165
-9.81 1.01 -3.20 172 173 165
-9.81 0.92 -3.20 172 173 165
-9.82 0.84 -3.19 173 174 166
-9.82 0.75 -3.19 173 174 166
-9.82 0.66 -3.19 173 174 166
-9.83 0.58 -3.18 173 174 166
-9.83 0.49 -3.18 173 174 166
-9.83 0.40 -3.18 173 174 166
-9.83 0.32 -3.18 173 174 166
-9.83 0.23 -3.17 173 174 166
-9.84 0.15 -3.17 173 174 166
-9.84 0.06 -3.17 173 174 166
-9.84 -0.03 -3.17 173 174 166
-9.84 -0.11 -3.17 173 174 166
-9.85 -0.20 -3.15 173 174 166
-9.84 -0.28 -3.16 173 174 166
-9.85 -0.37 -3.15 173 174 166
-9.85 -0.46 -3.16 173 174 166
-9.85 -0.54 -3.16 170 172 167
-9.86 -0.63 -3.14 170 172 167
-9.85 -0.71 -3.16 170 172 167
-9.85 -0.80 -3.16 170 172 167
-9.85 -0.88 -3.15 170 172 167
-9.85 -0.97 -3.15 170 172 167
-9.85 -1.06 -3.15 170 172 167
-9.85 -1.14 -3.16 170 172 167
-9.84 -1.23 -3.16 171 173 168
-9.84 -1.31 -3.16 171 173 168
-9.85 -1.40 -3.16 171 173 168
-9.85 -1.48 -3.16 171 173 168
-9.85 -1.57 -3.16 171 173 168
-9.85 -1.65 -3.15 171 173 168
-9.86 -1.74 -3.14 169 174 168
-9.86 -1.83 -3.14 170 175 169
-9.86 -1.91 -3.15 169 174 168
-9.85 -2.00 -3.15 169 174 168
-9.85 -2.08 -3.15 169 174 168
-9.86 -2.17 -3.15 169 174 168
-9.86 -2.25 -3.14 169 174 168
-9.86 -2.34 -3.14 169 174 168
-9.86 -2.43 -3.14 169 174 168
-9.86 -2.51 -3.15 169 174 168
-9.86 -2.60 -3.14 170 175 169
-9.86 -2.68 -3.14 170 175 169
-9.86 -2.77 -3.14 170 175 169
-9.86 -2.85 -3.14 170 175 169
-9.86 -2.94 -3.14 170 175 169
-9.86 -3.02 -3.15 170 175 169
-9.86 -3.11 -3.14 170 175 169
-9.86 -3.20 -3.14 170 175 169
-9.86 -3.28 -3.14 174 176 171
-9.85 -3.37 -3.15 174 176 171
-9.86 -3.45 -3.14 174 176 171
-9.85 -3.54 -3.15 174 176 171
-9.85 -3.62 -3.16 174 176 171
-9.85 -3.71 -3.15 174 176 171
-9.85 -3.79 -3.15 174 176 171
-9.85 -3.88 -3.15 174 176 171
-9.86 -3.97 -3.14 174 176 171
-9.86 -4.05 -3.14 174 176 171
-9.86 -4.14 -3.14 174 176 171
-9.86 -4.22 -3.14 174 176 171
-9.86 -4.31 -3.14 174 176 171
-9.86 -4.39 -3.14 174 176 171
-9.86 -4.48 -3.14 174 176 171
-9.86 -4.56 -3.14 174 176 171
-9.86 -4.65 -3.14 174 179 173
-9.85 -4.73 -3.16 174 179 173
-9.86 -4.82 -3.14 174 179 173
-9.85 -4.91 -3.15 174 179 173
-9.86 -4.99 -3.15 174 179 173
-9.86 -5.08 -3.14 174 179 173
-9.86 -5.16 -3.14 174 179 173
-9.86 -5.25 -3.14 174 179 173
-9.86 -5.33 -3.14 175 180 174
-9.85 -5.42 -3.15 175 180 174
-9.85 -5.50 -3.15 175 180 174
-9.85 -5.59 -3.15 175 180 174
-9.86 -5.68 -3.15 175 180 174
-9.86 -5.76 -3.15 175 180 174
-9.86 -5.85 -3.15 174 181 174
-9.85 -5.93 -3.15 174 181 174
-9.84 -6.02 -3.16 175 180 174
-9.85 -6.10 -3.16 175 180 174
-9.84 -6.19 -3.17 175 180 176
-9.83 -6.27 -3.18 175 180 176
-9.82 -6.36 -3.20 175 180 176
-9.80 -6.44 -3.22 175 180 176
-9.79 -6.53 -3.23 175 180 176
-9.77 -6.61 -3.25 175 180 176
-9.76 -6.70 -3.28 175 180 176
-9.74 -6.78 -3.29 175 180 176
-9.73 -6.87 -3.31 176 181 177
-9.72 -6.96 -3.32 176 181 177
-9.72 -7.04 -3.33 176 181 177
-9.71 -7.13 -3.34 176 181 177
-9.71 -7.21 -3.34 176 181 177
-9.69 -7.30 -3.36 176 181 177
-9.69 -7.39 -3.36 174 179 178
-9.70 -7.47 -3.36 183 188 187
-9.68 -7.56 -3.38 177 182 181
-9.66 -7.64 -3.40 166 171 170
-9.85 -7.73 -3.15 179 184 183
-10.25 -7.81 -2.62 219 224 223
-10.49 -7.89 -2.30 249 254 253
-10.54 -7.97 -2.24 247 252 251
-10.55 -8.05 -2.23 249 254 253
-10.56 -8.14 -2.21 248 253 252
-10.58 -8.22 -2.19 248 253 252
-10.59 -8.30 -2.17 247 252 251
-10.59 -8.39 -2.18 246 251 250
-10.59 -8.47 -2.17 245 250 249
-10.58 -8.55 -2.19 244 249 248
-10.57 -8.64 -2.20 244 249 248
-10.56 -8.72 -2.21 246 253 251
-10.55 -8.81 -2.23 246 253 251
-10.53 -8.89 -2.25 246 253 251
-10.52 -8.97 -2.26 246 253 251
-10.51 -9.06 -2.27 246 253 251
-10.51 -9.14 -2.29 246 253 251
-10.49 -9.23 -2.30 246 253 251
-10.50 -9.31 -2.30 246 253 251
-10.49 -9.39 -2.30 246 253 251
-10.49 -9.48 -2.30 246 253 251
-10.48 -9.56 -2.31 246 253 251
-10.48 -9.65 -2.32 246 253 251
-10.48 -9.73 -2.32 246 253 251
-10.48 -9.81 -2.32 246 253 251
-10.48 -9.90 -2.32 246 253 251
-10.49 -9.98 -2.31 246 253 251
-10.49 -10.06 -2.30 246 253 251
-10.50 -10.15 -2.29 246 253 251
-10.51 -10.23 -2.28 246 253 251
-10.52 -10.31 -2.27 246 253 251
-10.53 -10.40 -2.25 246 253 251
-10.53 -10.48 -2.25 246 253 251
-10.54 -10.56 -2.24 246 253 251
-10.54 -10.65 -2.24 246 253 251
-10.54 -10.73 -2.23 246 253 251
-10.54 -10.81 -2.23 246 253 251
-10.54 -10.90 -2.23 246 253 251
-10.54 -10.98 -2.24 246 253 251
-10.55 -11.06 -2.23 246 253 251
-10.54 -11.15 -2.24 246 253 251
-10.53 -11.23 -2.25 246 253 251
-10.53 -11.32 -2.25 246 253 251
-10.52 -11.40 -2.26 242 247 246
-10.52 -11.48 -2.26 245 250 249
-10.52 -11.57 -2.27 248 253 252
-10.51 -11.65 -2.28 248 253 252
-10.51 -11.74 -2.28 246 251 250
-10.51 -11.82 -2.28 245 250 249
-10.51 -11.90 -2.29 247 252 251
-10.49 -11.99 -2.31 249 254 253
-10.47 -12.08 -2.33 246 251 250
-10.45 -12.16 -2.35 242 247 246
-10.45 -12.25 -2.36 246 251 250
-10.42 -12.34 -2.40 251 255 255
-10.31 -12.44 -2.54 237 242 241
-10.14 -12.55 -2.77 210 215 214
-9.95 -12.67 -3.02 191 196 195
-9.81 -12.78 -3.21 189 194 193
-9.71 -12.89 -3.33 178 180 177
-9.69 -12.98 -3.36 185 187 184
-9.71 -13.06 -3.34 191 193 190
-9.74 -13.14 -3.30 192 194 191
-9.74 -13.22 -3.30 188 190 187
-9.74 -13.31 -3.30 187 189 186
-9.74 -13.40 -3.29 190 192 189
-9.75 -13.48 -3.29 193 195 192
-9.76 -13.56 -3.27 192 194 191
-9.77 -13.65 -3.26 192 194 191
-9.78 -13.73 -3.25 191 193 190
-9.79 -13.82 -3.24 190 192 189
-9.79 -13.90 -3.23 188 190 187
-9.79 -13.99 -3.23 187 189 186
-9.79 -14.07 -3.23 186 188 185
-9.79 -14.16 -3.24 186 188 185
-9.77 -14.25 -3.26 180 182 177
-9.76 -14.34 -3.27 179 181 176
-9.76 -14.42 -3.28 178 180 175
-9.74 -14.51 -3.30 178 180 175
-9.73 -14.60 -3.31 180 182 177
-9.72 -14.69 -3.32 184 186 181
-9.72 -14.78 -3.33 190 192 187
-9.71 -14.86 -3.34 192 194 189
-9.71 -14.95 -3.34 190 192 187
-9.70 -15.04 -3.36 192 194 189
-9.69 -15.13 -3.36 193 195 190
-9.69 -15.21 -3.37 194 196 191
-9.68 -15.30 -3.38 193 195 190
-9.68 -15.39 -3.38 190 192 187
-9.68 -15.47 -3.38 186 188 183
-9.68 -15.56 -3.38 183 185 180
-9.67 -15.65 -3.39 179 182 174
-9.67 -15.73 -3.40 177 180 172
-9.67 -15.82 -3.40 173 176 168
-9.67 -15.91 -3.39 170 173 165
-9.66 -16.00 -3.41 168 171 163
-9.65 -16.08 -3.42 166 169 161
-9.65 -16.17 -3.42 168 171 163
-9.65 -16.26 -3.42 168 171 163
-9.63 -16.35 -3.44 168 171 163
-9.63 -16.43 -3.45 168 171 163
-9.62 -16.52 -3.46 166 169 161
-9.62 -16.61 -3.46 165 168 160
-9.60 -16.70 -3.48 163 166 158
-9.60 -16.79 -3.49 159 162 154
-9.59 -16.88 -3.50 156 159 151
-9.58 -16.97 -3.52 155 158 150
-9.57 -17.06 -3.53 156 158 158
-9.55 -17.15 -3.55 159 161 161
-9.54 -17.24 -3.56 163 165 165
-9.53 -17.33 -3.57 170 172 172
-9.53 -17.42 -3.58 178 180 180
-9.52 -17.50 -3.59 186 188 188
-9.51 -17.59 -3.60 184 186 186
-9.50 -17.68 -3.62 179 181 181
-9.50 -17.77 -3.62 171 173 173
-9.48 -17.86 -3.64 163 165 165
-9.48 -17.95 -3.64 150 152 152
-9.47 -18.04 -3.66 141 143 143
-9.47 -18.13 -3.66 141 143 143
-9.46 -18.22 -3.67 148 150 150
-9.47 -18.30 -3.66 159 161 161
-9.48 -18.38 -3.65 165 167 167
-9.50 -18.46 -3.61 174 174 171
-9.52 -18.54 -3.59 172 172 169
-9.54 -18.62 -3.56 153 153 150
-9.57 -18.70 -3.53 103 103 100
-9.60 -18.77 -3.49 52 52 49
-9.62 -18.85 -3.46 37 37 34
-9.66 -18.92 -3.40 38 38 35
-9.70 -18.99 -3.35 32 32 29
-9.75 -19.06 -3.29 41 41 38
-9.81 -19.12 -3.20 48 48 45
-9.86 -19.19 -3.14 58 58 55
-9.91 -19.25 -3.08 67 67 64
-9.96 -19.32 -3.01 69 69 66
-10.00 -19.39 -2.95 64 64 61
-10.05 -19.45 -2.89 47 47 44
-10.10 -19.52 -2.82 34 34 31
-10.15 -19.58 -2.76 15 20 19
-10.19 -19.65 -2.70 22 27 26
-10.23 -19.72 -2.66 52 54 51
-10.27 -19.79 -2.60 86 88 85
-10.31 -19.85 -2.54 143 145 142
-10.35 -19.92 -2.50 184 186 183
-10.38 -19.99 -2.45 211 211 206
-10.41 -20.06 -2.41 214 214 209
-10.43 -20.14 -2.38 200 200 195
-10.47 -20.20 -2.34 193 193 188
-10.49 -20.28 -2.30 188 187 180
-10.52 -20.35 -2.26 182 181 174
-10.54 -20.42 -2.24 174 173 166
-10.58 -20.49 -2.19 175 174 167
-10.61 -20.56 -2.15 179 175 167
-10.63 -20.63 -2.11 176 172 164
-10.67 -20.70 -2.07 136 138 121
-10.71 -20.76 -2.02 105 107 90
-10.75 -20.83 -1.96 90 91 72
-10.78 -20.90 -1.92 88 89 70
-10.88 -20.93 -1.79 74 70 62
-11.11 -20.91 -1.49 26 22 14
-11.44 -20.83 -1.05 20 21 24
-11.79 -20.75 -0.58 16 17 20
-12.06 -20.70 -0.23 16 25 27
-12.18 -20.72 -0.06 41 50 52
-12.18 -20.80 -0.06 27 37 55
-12.12 -20.91 -0.14 22 32 50
-12.10 -21.00 -0.17 50 57 92
-12.11 -21.07 -0.15 57 64 99
-12.15 -21.13 -0.11 60 65 102
-12.16 -21.20 -0.09 43 48 85
-12.18 -21.27 -0.06 33 32 78
-12.21 -21.33 -0.02 31 30 76
-12.24 -21.40 0.01 20 17 62
-12.18 -21.51 -0.07 0 0 42
-11.87 -21.74 -0.47 1 0 37
-11.27 -22.14 -1.28 103 101 139
-10.79 -22.47 -1.91 206 203 230
-10.65 -22.62 -2.09 226 223 250
-10.63 -22.72 -2.12 230 229 244
-10.66 -22.78 -2.08 208 207 222
-10.64 -22.88 -2.11 201 200 203
-10.63 -22.97 -2.12 207 206 209
-10.62 -23.05 -2.13 208 208 205
-10.61 -23.14 -2.14 210 210 207
-10.60 -23.23 -2.15 214 212 210
-10.60 -23.32 -2.16 210 208 206
-10.61 -23.39 -2.15 211 211 208
-10.62 -23.47 -2.13 211 211 208
-10.63 -23.55 -2.12 211 211 208
-10.63 -23.63 -2.12 211 211 208
-10.63 -23.72 -2.12 211 211 208
-10.65 -23.79 -2.10 211 211 208
-10.65 -23.87 -2.09 211 211 208
-10.66 -23.95 -2.08 213 213 210
-10.66 -24.03 -2.07 214 214 211
-10.68 -24.11 -2.06 214 214 211
-10.68 -24.19 -2.06 214 214 211
-10.68 -24.27 -2.05 214 214 211
-10.69 -24.35 -2.04 214 214 211
-10.70 -24.43 -2.03 214 214 211
-10.70 -24.51 -2.03 214 214 211
-10.72 -24.58 -2.01 214 214 211
-10.72 -24.66 -2.00 214 214 211
-10.72 -24.75 -2.00 214 214 211
-10.72 -24.83 -2.00 215 213 214
-10.72 -24.91 -2.00 215 213 214
-10.71 -25.00 -2.01 215 213 214
-10.71 -25.08 -2.01 215 213 214
-10.72 -25.16 -2.00 215 213 214
-10.71 -25.25 -2.01 215 213 214
-10.71 -25.34 -2.02 215 213 214
-10.71 -25.42 -2.02 216 214 215
-10.70 -25.51 -2.03 216 214 215
-10.71 -25.59 -2.02 216 214 215
-10.71 -25.67 -2.02 216 214 215
-10.70 -25.75 -2.02 216 214 215
-10.71 -25.84 -2.02 216 214 215
-10.71 -25.92 -2.02 216 214 215
-10.71 -26.00 -2.02 218 213 215
-10.71 -26.08 -2.02 218 213 215
-10.71 -26.17 -2.02 218 213 215
-10.71 -26.25 -2.02 218 213 215
-10.71 -26.33 -2.02 218 213 215
-10.71 -26.42 -2.02 218 213 215
-10.71 -26.50 -2.02 218 213 215
-10.71 -26.58 -2.02 218 213 215
-10.71 -26.66 -2.01 218 213 215
-10.70 -26.75 -2.02 218 213 215
-10.71 -26.83 -2.02 218 213 215
-10.71 -26.91 -2.02 218 213 215
-10.71 -27.00 -2.01 218 213 215
-10.71 -27.08 -2.01 218 213 215
-10.71 -27.16 -2.02 218 213 215
-10.72 -27.24 -2.00 220 215 217
-10.72 -27.32 -2.01 219 214 211
-10.72 -27.40 -2.00 221 216 213
-10.72 -27.49 -2.00 221 216 213
-10.72 -27.57 -2.00 221 216 213
-10.73 -27.65 -1.99 221 216 213
-10.73 -27.73 -1.99 221 216 213
-10.73 -27.81 -1.99 221 216 213
-10.73 -27.89 -1.99 221 216 213
-10.74 -27.97 -1.98 221 216 213
-10.74 -28.06 -1.98 221 216 213
-10.73 -28.14 -1.98 221 216 213
-10.74 -28.22 -1.97 221 216 213
-10.74 -28.30 -1.97 221 216 213
-10.74 -28.38 -1.97 221 216 213
-10.75 -28.47 -1.97 221 216 213
-10.74 -28.55 -1.97 221 216 213
-10.75 -28.63 -1.97 223 219 213
-10.75 -28.71 -1.97 223 219 213
-10.75 -28.80 -1.97 223 219 213
-10.75 -28.87 -1.96 223 219 213
-10.76 -28.96 -1.95 223 219 213
-10.76 -29.04 -1.95 223 219 213
-10.76 -29.12 -1.95 223 219 213
-10.76 -29.20 -1.95 223 219 213
-10.76 -29.28 -1.95 224 220 214
-10.76 -29.37 -1.95 224 220 214
-10.77 -29.44 -1.94 224 220 214
-10.77 -29.53 -1.94 224 220 214
-10.77 -29.61 -1.94 224 220 214
-10.76 -29.70 -1.94 224 220 214
-10.77 -29.78 -1.94 224 220 214
-10.76 -29.86 -1.94 224 220 214
-10.77 -29.94 -1.94 224 219 216
-10.77 -30.03 -1.94 224 219 216
-10.76 -30.11 -1.95 224 219 216
-10.77 -30.19 -1.94 224 219 216
-10.76 -30.28 -1.95 224 219 216
-10.76 -30.36 -1.95 224 219 216
-10.76 -30.44 -1.94 224 219 216
-10.76 -30.53 -1.95 225 220 217
-10.76 -30.61 -1.95 226 221 218
-10.76 -30.70 -1.95 226 221 218
-10.75 -30.78 -1.96 226 221 218
-10.75 -30.87 -1.96 226 221 218
-10.76 -30.95 -1.95 226 221 218
-10.76 -31.03 -1.95 226 221 218
-10.76 -31.11 -1.95 226 221 218
-10.76 -31.20 -1.95 226 221 218
-10.76 -31.28 -1.95 226 221 218
-10.76 -31.36 -1.95 227 222 219
-10.76 -31.44 -1.95 227 222 219
-10.76 -31.52 -1.94 227 222 219
-10.76 -31.61 -1.95 227 222 219
-10.76 -31.69 -1.95 227 222 219
-10.76 -31.77 -1.95 227 222 219
-10.76 -31.86 -1.95 227 222 219
-10.76 -31.94 -1.95 228 223 220
-10.75 -32.03 -1.96 228 223 220
-10.76 -32.11 -1.95 228 223 220
-10.76 -32.19 -1.95 228 223 220
-10.76 -32.27 -1.95 228 223 220
-10.76 -32.35 -1.95 228 223 220
-10.76 -32.44 -1.95 228 223 220
-10.76 -32.52 -1.94 227 222 219
-10.75 -32.61 -1.96 224 222 218
-10.75 -32.69 -1.96 225 223 219
-10.75 -32.78 -1.96 225 225 220
-10.76 -32.85 -1.94 227 227 222
-10.78 -32.92 -1.92 227 227 222
-10.81 -32.97 -1.88 225 225 220
-10.83 -33.04 -1.85 224 224 219
-10.88 -33.08 -1.79 223 223 218
-10.88 -33.16 -1.79 226 224 220
-10.87 -33.25 -1.81 225 223 219
-10.84 -33.36 -1.85 220 213 211
-10.81 -33.47 -1.89 225 218 216
-11.04 -33.34 -1.57 244 232 232
-9.78 -34.57 -3.25 244 232 232
-10.44 19.48 -2.49 141 132 124
-10.42 19.42 -2.52 141 132 124
-10.42 19.33 -2.52 141 132 124
-10.40 19.27 -2.55 141 132 124
-10.40 19.19 -2.55 141 132 124
-10.41 19.10 -2.54 141 132 124
-10.37 19.05 -2.59 141 132 124
-10.36 18.97 -2.60 141 132 124
-10.36 18.88 -2.60 142 133 125
-10.35 18.81 -2.62 142 133 125
-10.35 18.72 -2.61 142 133 125
-10.34 18.65 -2.63 142 133 125
-10.34 18.57 -2.63 142 133 125
-10.33 18.49 -2.65 142 133 125
-10.32 18.42 -2.66 142 133 125
-10.32 18.34 -2.66 142 133 125
-10.31 18.26 -2.67 142 133 125
-10.31 18.17 -2.67 143 134 126
-10.30 18.10 -2.69 143 134 126
-10.29 18.02 -2.70 143 134 126
-10.28 17.95 -2.71 143 134 126
-10.27 17.87 -2.72 143 134 126
-10.27 17.79 -2.73 143 134 126
-10.27 17.70 -2.73 143 134 126
-10.26 17.62 -2.74 143 134 126
-10.26 17.54 -2.74 144 135 127
-10.25 17.47 -2.76 144 135 127
-10.24 17.39 -2.76 145 136 128
-10.23 17.31 -2.77 145 136 128
-10.22 17.24 -2.79 146 137 129
-10.22 17.15 -2.80 146 137 129
-10.21 17.08 -2.81 148 139 131
-10.20 17.00 -2.82 146 137 129
-10.19 16.93 -2.84 146 137 129
-10.18 16.84 -2.84 146 137 129
-10.18 16.76 -2.85 146 137 129
-10.17 16.68 -2.85 146 137 129
-10.17 16.60 -2.86 146 137 129
-10.16 16.52 -2.87 148 139 133
-10.16 16.44 -2.87 148 139 133
-10.16 16.36 -2.88 148 139 133
-10.15 16.27 -2.88 148 139 133
-10.15 16.19 -2.88 148 139 133
-10.15 16.11 -2.88 148 139 133
-10.15 16.02 -2.89 148 139 133
-10.14 15.94 -2.90 148 139 133
-10.14 15.86 -2.90 149 140 134
-10.14 15.77 -2.90 150 141 135
-10.13 15.70 -2.91 147 141 134
-10.13 15.61 -2.91 148 142 135
-10.13 15.53 -2.92 148 142 135
-10.12 15.45 -2.93 148 142 135
-10.12 15.37 -2.93 148 142 135
-10.11 15.29 -2.94 148 142 135
-10.10 15.21 -2.95 148 142 135
-10.10 15.12 -2.95 148 142 135
-10.10 15.05 -2.96 149 143 136
-10.09 14.96 -2.96 151 145 138
-10.09 14.88 -2.97 151 145 138
-10.09 14.80 -2.97 151 145 138
-10.08 14.72 -2.98 151 145 138
-10.08 14.63 -2.98 151 145 138
-10.07 14.56 -2.99 151 145 138
-10.07 14.47 -2.99 151 145 138
-10.06 14.39 -3.00 153 147 140
-10.06 14.30 -3.00 153 147 140
-10.06 14.22 -3.00 153 147 140
-10.05 14.14 -3.01 153 147 140
-10.05 14.06 -3.01 153 147 140
-10.04 13.98 -3.03 153 147 140
-10.04 13.90 -3.03 153 147 140
-10.04 13.81 -3.03 153 147 140
-10.04 13.73 -3.03 153 147 140
-10.03 13.65 -3.04 154 148 141
-10.03 13.56 -3.04 154 148 141
-10.02 13.48 -3.05 155 149 142
-10.02 13.40 -3.05 155 149 142
-10.02 13.31 -3.06 156 150 143
-10.02 13.23 -3.05 156 150 143
-10.02 13.15 -3.06 157 151 144
-10.02 13.06 -3.06 157 153 145
-10.01 12.98 -3.07 159 155 147
-10.01 12.89 -3.07 159 155 147
-10.01 12.81 -3.07 159 155 147
-10.00 12.73 -3.08 159 155 147
-10.00 12.64 -3.08 159 155 147
-10.00 12.56 -3.09 159 155 147
-9.99 12.48 -3.09 159 155 147
-9.99 12.39 -3.09 160 156 148
-10.00 12.31 -3.09 160 156 148
-9.99 12.23 -3.10 160 156 148
-9.99 12.14 -3.10 160 156 148
-9.98 12.06 -3.11 160 156 148
-9.98 11.98 -3.11 160 156 148
-9.98 11.89 -3.11 160 156 148
-9.98 11.81 -3.12 162 158 150
-9.97 11.72 -3.12 162 158 150
-9.97 11.64 -3.12 162 158 150
-9.97 11.56 -3.12 163 159 151
-9.98 11.47 -3.12 163 159 151
-9.97 11.39 -3.12 164 160 152
-9.97 11.30 -3.12 164 160 152
-9.97 11.22 -3.13 166 162 154
-9.96 11.13 -3.13 167 163 155
-9.96 11.05 -3.13 167 163 155
-9.96 10.97 -3.14 167 163 155
-9.96 10.88 -3.14 167 163 155
-9.95 10.80 -3.15 167 163 155
-9.95 10.71 -3.15 167 163 155
-9.95 10.63 -3.15 167 163 155
-9.95 10.54 -3.15 167 163 153
-9.95 10.46 -3.15 168 164 154
-9.95 10.37 -3.15 168 162 153
-9.95 10.29 -3.15 169 163 154
-9.95 10.20 -3.15 169 163 156
-9.95 10.12 -3.15 169 163 156
-9.94 10.04 -3.16 169 163 156
-9.95 9.95 -3.15 169 163 156
-9.95 9.86 -3.15 169 163 156
-9.96 9.77 -3.14 169 163 156
-9.96 9.69 -3.14 169 163 156
-9.96 9.60 -3.14 170 164 157
-9.95 9.52 -3.15 170 166 158
-9.95 9.44 -3.15 170 166 158
-9.95 9.35 -3.15 171 167 159
-9.95 9.26 -3.15 171 167 159
-9.95 9.18 -3.15 173 169 161
-9.95 9.09 -3.15 173 169 161
-9.95 9.01 -3.16 174 170 162
-9.95 8.92 -3.16 174 170 162
-9.94 8.84 -3.16 174 170 162
-9.95 8.75 -3.16 174 170 162
-9.94 8.67 -3.16 174 170 162
-9.94 8.59 -3.17 174 170 162
-9.94 8.50 -3.16 174 170 162
-9.93 8.42 -3.18 175 171 163
-9.93 8.33 -3.17 175 171 163
-9.93 8.25 -3.18 175 171 163
-9.93 8.16 -3.18 175 171 163
-9.93 8.08 -3.18 175 171 163
-9.93 7.99 -3.18 175 171 163
-9.93 7.91 -3.18 175 171 163
-9.92 7.83 -3.19 173 172 163
-9.92 7.74 -3.19 174 173 164
-9.91 7.66 -3.20 174 175 165
-9.91 7.57 -3.20 174 175 165
-9.91 7.49 -3.20 175 176 166
-9.91 7.40 -3.20 175 176 166
-9.91 7.32 -3.20 176 177 167
-9.91 7.23 -3.20 176 177 167
-9.91 7.15 -3.20 178 179 169
-9.91 7.06 -3.20 176 177 167
-9.91 6.98 -3.20 176 177 167
-9.91 6.89 -3.20 176 177 167
-9.91 6.81 -3.20 176 177 167
-9.91 6.72 -3.20 176 177 167
-9.91 6.64 -3.20 176 177 167
-9.91 6.55 -3.20 176 177 167
-9.91 6.47 -3.21 176 177 167
-9.90 6.38 -3.21 178 179 169
-9.90 6.30 -3.21 178 178 173
-9.90 6.21 -3.22 178 178 173
