ply
format ascii 1.0
element vertex 1652
property float x
property float y
property float z
property uchar red
property uchar green
property uchar blue
end_header
-4.72 -1.53 12.62 24 86 188
-4.76 -1.62 12.65 40 102 204
-4.92 -1.72 12.76 30 107 190
-4.99 -1.81 12.81 33 110 193
-5.06 -1.90 12.85 24 118 202
-5.11 -1.99 12.89 24 118 202
-5.19 -2.08 12.94 18 112 207
-5.23 -2.16 12.97 19 113 208
-5.26 -2.25 12.99 32 122 194
-5.30 -2.33 13.02 35 125 197
-5.28 -2.40 13.01 33 118 192
-5.32 -2.49 13.03 31 116 190
-5.27 -2.56 13.00 34 116 184
-5.22 -2.63 12.96 36 118 186
-5.05 -2.68 12.85 40 119 188
-5.36 -2.80 13.06 44 123 192
-3.20 -2.60 11.59 50 125 189
12.71 -0.63 0.74 53 128 192
18.81 3.87 -3.58 78 142 166
-0.76 0.02 9.82 116 175 174
-5.41 -0.94 13.00 132 191 190
-5.57 -1.05 13.11 142 196 169
-5.18 -1.06 12.85 140 194 167
-4.81 -1.07 12.59 136 189 172
-4.44 -1.08 12.34 97 150 133
-4.33 -1.14 12.26 37 98 108
-4.37 -1.23 12.29 21 82 92
-4.48 -1.33 12.36 19 82 150
-4.61 -1.43 12.45 22 85 153
-4.76 -1.53 12.56 34 96 198
-4.87 -1.63 12.63 39 101 203
-4.99 -1.73 12.71 30 107 190
-5.08 -1.82 12.77 31 108 191
-5.16 -1.91 12.83 19 113 197
-5.20 -2.00 12.86 21 115 199
-5.25 -2.08 12.89 24 118 213
-5.26 -2.16 12.90 20 114 209
-5.29 -2.24 12.92 25 115 187
-5.33 -2.33 12.94 30 120 192
-5.33 -2.41 12.95 35 120 194
-5.32 -2.48 12.94 31 116 190
-5.30 -2.56 12.92 31 113 181
-5.26 -2.63 12.89 32 114 182
-5.20 -2.70 12.86 38 117 186
-5.08 -2.76 12.77 41 120 189
-5.34 -2.87 12.95 48 123 187
0.45 -2.21 8.99 51 126 190
12.60 2.80 0.53 79 143 136
-1.52 -0.03 10.23 105 169 162
-5.12 -0.80 12.71 131 188 172
-5.39 -0.93 12.89 132 189 173
-5.32 -1.00 12.84 144 193 188
-5.46 -1.10 12.94 148 197 192
-5.23 -1.14 12.78 100 145 172
-4.81 -1.14 12.49 47 92 119
-4.91 -1.24 12.56 11 66 130
-4.68 -1.27 12.40 14 69 133
-4.72 -1.36 12.43 15 76 185
-4.67 -1.43 12.40 20 81 190
-4.87 -1.54 12.54 28 86 204
-4.90 -1.63 12.56 34 92 210
-5.04 -1.73 12.66 28 103 187
-5.14 -1.82 12.72 31 106 190
-5.22 -1.91 12.77 21 114 185
-5.28 -2.00 12.82 24 117 188
-5.31 -2.09 12.84 25 119 201
-5.31 -2.16 12.84 25 119 201
-5.32 -2.24 12.85 29 116 192
-5.35 -2.32 12.86 29 116 192
-5.35 -2.40 12.87 33 116 200
-5.36 -2.48 12.87 31 114 198
-5.34 -2.56 12.86 30 113 192
-5.32 -2.63 12.85 32 115 194
-5.29 -2.71 12.82 35 116 191
-5.12 -2.76 12.71 37 118 193
-5.23 -2.85 12.78 42 119 189
-4.31 -2.81 12.15 46 123 193
10.16 -1.06 2.21 46 121 185
18.91 4.18 -3.97 73 136 163
-2.15 -0.06 10.56 98 162 155
-5.44 -0.78 12.83 115 179 172
-5.21 -0.81 12.67 132 189 173
-5.20 -0.89 12.67 141 198 182
-5.19 -0.96 12.66 147 196 191
-5.35 -1.07 12.77 113 162 157
-5.48 -1.17 12.86 45 90 117
-5.06 -1.18 12.57 12 57 84
-5.05 -1.25 12.56 12 67 131
-4.84 -1.30 12.42 20 75 139
-4.86 -1.38 12.44 19 80 189
-4.91 -1.46 12.47 24 85 194
-4.98 -1.56 12.52 23 81 199
-5.05 -1.65 12.56 36 94 212
-5.14 -1.74 12.63 31 106 190
-5.23 -1.83 12.69 31 106 190
-5.29 -1.92 12.73 20 113 184
-5.33 -2.00 12.75 21 114 185
-5.36 -2.09 12.78 20 114 196
-5.35 -2.16 12.77 21 115 197
-5.38 -2.25 12.79 29 116 192
-5.38 -2.32 12.79 29 116 192
-5.41 -2.41 12.81 32 115 199
-5.42 -2.48 12.82 32 115 199
-5.42 -2.56 12.82 33 116 195
-5.39 -2.64 12.80 33 116 195
-5.34 -2.71 12.76 35 116 191
-5.25 -2.77 12.70 36 117 192
-5.09 -2.83 12.59 40 117 187
-5.31 -2.94 12.74 44 121 191
-1.20 -2.49 9.91 44 119 183
17.84 -0.21 -3.23 48 123 187
1.03 0.66 8.26 91 156 173
-4.76 -0.56 12.27 113 179 162
-4.94 -0.67 12.40 119 185 168
-5.25 -0.81 12.61 135 191 184
-5.50 -0.94 12.78 142 198 191
-5.68 -1.05 12.91 112 157 197
-5.57 -1.11 12.83 51 96 136
-5.70 -1.21 12.92 7 60 138
-5.32 -1.22 12.66 8 61 139
-5.38 -1.30 12.70 7 65 166
-5.08 -1.33 12.49 7 65 166
-5.24 -1.44 12.60 12 72 189
-5.14 -1.50 12.53 23 83 200
-5.16 -1.58 12.55 22 88 201
-5.19 -1.66 12.57 21 87 200
-5.27 -1.75 12.62 23 102 191
-5.35 -1.85 12.68 28 107 196
-5.40 -1.93 12.71 27 111 188
-5.43 -2.01 12.73 29 113 190
-5.44 -2.09 12.74 28 117 192
-5.43 -2.17 12.73 28 117 192
-5.44 -2.25 12.74 31 116 188
-5.44 -2.33 12.74 31 116 188
-5.47 -2.41 12.76 29 114 204
-5.48 -2.49 12.77 30 115 205
-5.48 -2.57 12.77 32 115 201
-5.47 -2.64 12.76 32 115 201
-5.37 -2.71 12.69 33 115 199
-5.29 -2.77 12.64 34 116 200
-5.26 -2.85 12.62 39 117 193
-5.17 -2.91 12.55 43 121 197
-5.11 -2.99 12.51 42 119 187
0.17 -2.41 8.85 45 122 190
5.18 1.59 5.26 94 159 176
-2.86 -0.10 10.86 113 178 195
-3.72 -0.35 11.45 126 192 175
-4.42 -0.57 11.93 126 192 175
-4.78 -0.71 12.19 127 183 176
-5.18 -0.87 12.47 92 148 141
-5.54 -1.01 12.71 45 90 130
-5.49 -1.08 12.68 23 68 108
-5.58 -1.18 12.74 12 65 143
-5.23 -1.19 12.50 19 72 150
-5.41 -1.30 12.62 11 69 170
-5.28 -1.36 12.53 15 73 174
-5.28 -1.44 12.53 19 79 196
-5.25 -1.51 12.51 23 83 200
-5.24 -1.59 12.51 27 93 206
-5.26 -1.67 12.52 25 91 204
-5.33 -1.76 12.57 27 106 195
-5.39 -1.85 12.61 30 109 198
-5.44 -1.93 12.65 29 113 190
-5.49 -2.02 12.68 31 115 192
-5.49 -2.10 12.68 29 118 193
-5.49 -2.17 12.68 29 118 193
-5.51 -2.25 12.69 32 117 189
-5.51 -2.33 12.69 32 117 189
-5.52 -2.41 12.70 29 114 204
-5.52 -2.49 12.71 29 114 204
-5.54 -2.57 12.71 32 115 201
-5.52 -2.64 12.70 32 115 201
-5.46 -2.71 12.66 33 115 199
-5.38 -2.78 12.60 34 116 200
-5.31 -2.85 12.55 39 117 193
-5.20 -2.91 12.48 43 121 197
-5.17 -2.99 12.46 44 121 189
-4.26 -2.95 11.82 46 123 191
9.83 -1.31 2.03 51 126 183
-0.06 0.55 8.79 101 166 197
-3.89 -0.29 11.47 121 186 217
-3.95 -0.39 11.51 123 185 208
-4.50 -0.57 11.90 102 164 187
-4.88 -0.73 12.16 71 127 172
-5.01 -0.83 12.25 31 87 132
-5.35 -0.97 12.49 6 57 145
-5.20 -1.02 12.39 11 62 150
-5.52 -1.16 12.61 6 64 180
-5.22 -1.18 12.40 12 70 186
-5.34 -1.28 12.48 16 75 197
-5.39 -1.37 12.52 16 75 197
-5.38 -1.45 12.51 19 79 194
-5.43 -1.53 12.55 25 85 200
-5.39 -1.61 12.52 28 94 192
-5.40 -1.68 12.52 35 101 199
-5.37 -1.76 12.50 33 108 190
-5.43 -1.85 12.55 35 110 192
-5.50 -1.94 12.60 30 114 188
-5.55 -2.02 12.63 32 116 190
-5.55 -2.10 12.63 33 116 193
-5.55 -2.18 12.63 34 117 194
-5.55 -2.25 12.63 34 117 198
-5.55 -2.33 12.63 34 117 198
-5.57 -2.41 12.64 30 116 203
-5.57 -2.49 12.64 29 115 202
-5.58 -2.57 12.65 30 115 205
-5.57 -2.65 12.65 30 115 205
-5.51 -2.72 12.60 32 115 199
-5.45 -2.79 12.56 33 116 200
-5.36 -2.85 12.49 37 117 197
-5.28 -2.92 12.44 41 121 201
-5.07 -2.97 12.30 43 122 191
-5.35 -3.08 12.49 45 124 193
-0.62 -2.58 9.19 50 126 187
1.19 0.81 7.81 110 175 206
-2.99 -0.11 10.74 104 169 200
-3.77 -0.34 11.29 85 147 170
-4.64 -0.59 11.89 51 113 136
-5.07 -0.75 12.20 23 79 124
-5.16 -0.85 12.26 12 68 113
-5.37 -0.97 12.41 11 62 150
-5.30 -1.03 12.36 14 65 153
-5.53 -1.16 12.52 6 64 180
-5.36 -1.20 12.40 11 69 185
-5.41 -1.29 12.44 17 76 198
-5.33 -1.35 12.38 19 78 200
-5.46 -1.46 12.48 19 79 194
-5.48 -1.54 12.49 22 82 197
-5.53 -1.62 12.52 25 91 189
-5.41 -1.68 12.44 33 99 197
-5.46 -1.77 12.48 34 109 191
-5.52 -1.85 12.51 37 112 194
-5.56 -1.94 12.54 32 116 190
-5.59 -2.02 12.56 32 116 190
-5.62 -2.10 12.59 33 116 193
-5.61 -2.18 12.57 34 117 194
-5.62 -2.26 12.59 34 117 198
-5.63 -2.34 12.59 34 117 198
-5.62 -2.41 12.59 30 116 203
-5.64 -2.49 12.60 30 116 203
-5.63 -2.57 12.59 30 115 205
-5.63 -2.65 12.59 30 115 205
-5.59 -2.72 12.56 32 115 199
-5.53 -2.79 12.52 33 116 200
-5.45 -2.86 12.46 37 117 197
-5.37 -2.93 12.41 41 121 201
-5.27 -2.99 12.34 44 123 192
-5.31 -3.08 12.37 45 124 193
-5.33 -3.16 12.38 50 126 187
3.78 -2.13 6.00 51 127 188
12.10 3.13 0.03 71 138 182
-0.80 0.42 9.10 91 155 216
-3.54 -0.21 11.03 73 137 198
-4.15 -0.41 11.46 43 102 187
-4.82 -0.62 11.93 19 78 163
-5.21 -0.78 12.21 10 67 166
-5.10 -0.83 12.12 12 69 168
-5.50 -0.99 12.40 9 68 178
-5.40 -1.05 12.34 10 69 179
-5.62 -1.16 12.49 12 69 194
-5.43 -1.21 12.36 14 71 196
-5.51 -1.30 12.41 18 75 198
-5.46 -1.37 12.38 20 77 200
-5.46 -1.45 12.38 23 83 190
-5.64 -1.56 12.51 27 87 194
-5.57 -1.62 12.45 29 96 187
-5.55 -1.70 12.44 31 98 189
-5.53 -1.77 12.43 35 107 190
-5.59 -1.86 12.47 37 109 192
-5.62 -1.94 12.49 34 112 188
-5.62 -2.02 12.49 34 112 188
-5.65 -2.10 12.51 36 113 192
-5.66 -2.18 12.52 38 115 194
-5.67 -2.26 12.53 41 112 204
-5.68 -2.34 12.53 41 112 204
-5.68 -2.42 12.53 31 118 198
-5.70 -2.50 12.55 30 117 197
-5.70 -2.58 12.55 29 117 199
-5.68 -2.65 12.53 29 117 199
-5.66 -2.72 12.52 30 116 199
-5.62 -2.80 12.49 31 117 200
-5.54 -2.87 12.44 35 118 197
-5.48 -2.93 12.39 39 122 201
-5.43 -3.01 12.36 43 121 195
-5.27 -3.06 12.24 50 128 202
-5.63 -3.19 12.50 53 131 194
-3.07 -2.96 10.70 46 124 187
17.58 -0.59 -3.83 50 126 180
14.00 3.65 -1.46 68 135 179
1.51 0.99 7.36 64 131 175
-2.39 0.11 10.12 61 125 186
-3.95 -0.28 11.22 34 98 159
-4.40 -0.45 11.53 15 74 159
-4.84 -0.62 11.85 6 65 150
-5.15 -0.76 12.07 1 58 157
-5.14 -0.83 12.06 3 60 159
-5.45 -0.97 12.27 7 66 176
-5.42 -1.04 12.25 11 70 180
-5.58 -1.15 12.37 7 64 189
-5.46 -1.21 12.28 14 71 196
-5.52 -1.29 12.32 14 71 194
-5.54 -1.38 12.34 18 75 198
-5.52 -1.45 12.33 20 80 187
-5.62 -1.55 12.39 24 84 191
-5.68 -1.63 12.44 27 94 185
-5.54 -1.69 12.34 30 97 188
-5.57 -1.77 12.36 32 104 187
-5.64 -1.86 12.41 34 106 189
-5.66 -1.94 12.42 32 110 186
-5.66 -2.02 12.43 32 110 186
-5.71 -2.10 12.46 33 110 189
-5.71 -2.18 12.46 36 113 192
-5.74 -2.26 12.48 40 111 203
-5.75 -2.34 12.49 40 111 203
-5.75 -2.42 12.49 31 118 198
-5.77 -2.50 12.50 30 117 197
-5.76 -2.58 12.49 29 117 199
-5.74 -2.65 12.48 29 117 199
-5.71 -2.73 12.46 30 116 199
-5.68 -2.80 12.44 31 117 200
-5.62 -2.87 12.39 35 118 197
-5.57 -2.94 12.36 39 122 201
-5.48 -3.01 12.30 43 121 195
-5.41 -3.08 12.25 47 125 199
-5.40 -3.15 12.24 51 129 192
-5.41 -3.23 12.25 52 130 193
4.08 -2.19 5.54 56 132 186
0.73 0.93 7.80 63 128 181
-2.95 0.09 10.41 45 110 163
-3.37 -0.08 10.71 23 83 165
-4.06 -0.29 11.20 10 70 152
-4.49 -0.46 11.50 9 64 177
-4.89 -0.62 11.78 2 57 170
-5.28 -0.77 12.06 0 50 169
-5.28 -0.85 12.06 0 54 173
-5.53 -0.98 12.24 3 64 164
-5.44 -1.04 12.17 7 68 168
-5.54 -1.14 12.25 3 63 182
-5.52 -1.21 12.23 8 68 187
-5.56 -1.29 12.26 8 74 187
-5.59 -1.38 12.28 9 75 188
-5.62 -1.46 12.30 17 80 177
-5.61 -1.54 12.29 23 86 183
-5.67 -1.63 12.34 27 95 179
-5.60 -1.69 12.29 30 98 182
-5.66 -1.78 12.33 28 103 187
-5.77 -1.88 12.41 33 108 192
-5.73 -1.95 12.38 34 111 194
-5.76 -2.03 12.40 36 113 196
-5.79 -2.11 12.42 38 113 195
-5.79 -2.19 12.42 40 115 197
-5.81 -2.27 12.44 40 115 197
-5.82 -2.35 12.44 40 115 197
-5.83 -2.43 12.45 34 118 195
-5.84 -2.51 12.46 33 117 194
-5.81 -2.58 12.43 30 117 197
-5.78 -2.65 12.42 29 116 196
-5.75 -2.73 12.40 29 116 192
-5.71 -2.80 12.37 30 117 193
-5.67 -2.87 12.34 33 118 192
-5.65 -2.95 12.32 35 120 194
-5.55 -3.01 12.25 43 125 195
-5.50 -3.08 12.22 44 126 196
-5.40 -3.15 12.14 47 125 190
-5.67 -3.26 12.34 49 127 192
-3.14 -3.04 10.54 55 132 184
16.67 -0.81 -3.50 56 133 185
7.10 2.36 3.15 62 124 176
-2.41 0.30 9.92 46 111 164
-3.18 0.05 10.47 23 88 141
-3.74 -0.14 10.87 8 68 150
-4.33 -0.34 11.29 6 66 148
-4.60 -0.47 11.48 7 62 175
-4.95 -0.62 11.73 0 55 168
-5.28 -0.76 11.96 0 52 171
-5.38 -0.86 12.03 1 55 174
-5.52 -0.97 12.14 0 60 160
-5.49 -1.04 12.12 0 59 159
-5.58 -1.14 12.18 0 59 178
-5.57 -1.21 12.17 4 64 183
-5.62 -1.30 12.21 5 71 184
-5.60 -1.37 12.19 6 72 185
-5.63 -1.46 12.21 12 75 172
-5.60 -1.53 12.19 19 82 179
-5.65 -1.62 12.23 24 92 176
-5.69 -1.70 12.25 28 96 180
-5.73 -1.78 12.28 26 101 185
-5.81 -1.88 12.34 30 105 189
-5.82 -1.96 12.35 32 109 192
-5.83 -2.04 12.36 34 111 194
-5.85 -2.12 12.37 37 112 194
-5.86 -2.19 12.38 39 114 196
-5.87 -2.27 12.39 40 115 197
-5.88 -2.35 12.40 40 115 197
-5.89 -2.43 12.40 34 118 195
-5.88 -2.51 12.40 32 116 193
-5.86 -2.58 12.38 29 116 196
-5.82 -2.65 12.35 29 116 196
-5.80 -2.73 12.33 29 116 192
-5.78 -2.80 12.32 30 117 193
-5.73 -2.87 12.29 33 118 192
-5.72 -2.95 12.28 33 118 192
-5.64 -3.02 12.22 42 124 194
-5.56 -3.09 12.16 41 123 193
-5.56 -3.16 12.16 46 124 189
-5.53 -3.24 12.14 48 126 191
-5.55 -3.32 12.15 54 131 183
5.13 -2.15 4.56 58 135 187
4.82 2.00 4.65 60 121 180
-2.42 0.39 9.82 50 111 170
-3.70 0.04 10.74 28 90 158
-3.70 -0.04 10.74 8 70 138
-4.26 -0.24 11.14 11 67 155
-4.81 -0.43 11.53 8 64 152
-5.06 -0.56 11.71 3 56 163
-5.24 -0.67 11.84 0 50 157
-5.56 -0.81 12.07 0 52 158
-5.56 -0.89 12.07 0 56 162
-5.69 -0.99 12.17 0 57 153
-5.65 -1.06 12.14 0 52 148
-5.72 -1.15 12.18 0 55 163
-5.68 -1.23 12.16 1 58 166
-5.67 -1.30 12.15 3 63 170
-5.64 -1.37 12.13 6 66 173
-5.63 -1.45 12.12 9 72 171
-5.71 -1.54 12.18 13 76 175
-5.67 -1.61 12.15 17 84 175
-5.81 -1.71 12.25 22 89 180
-5.79 -1.79 12.24 25 95 183
-5.83 -1.87 12.26 28 98 186
-5.88 -1.96 12.30 30 104 191
-5.91 -2.04 12.32 33 107 194
-5.92 -2.12 12.33 37 108 196
-5.92 -2.20 12.33 40 111 199
-5.94 -2.28 12.34 41 114 192
-5.94 -2.36 12.34 42 115 193
-5.95 -2.43 12.35 34 118 197
-5.94 -2.51 12.34 32 116 195
-5.92 -2.58 12.33 31 115 196
-5.88 -2.66 12.30 32 116 197
-5.85 -2.73 12.28 32 116 193
-5.83 -2.81 12.27 33 117 194
-5.81 -2.88 12.25 35 120 187
-5.79 -2.96 12.24 35 120 187
-5.73 -3.03 12.19 38 116 179
-5.66 -3.09 12.14 41 119 182
-5.63 -3.17 12.12 48 124 176
-5.53 -3.23 12.04 51 127 179
-5.81 -3.35 12.25 57 132 173
-3.21 -3.12 10.39 61 136 177
17.11 -0.88 -4.13 64 135 171
9.96 3.21 0.84 55 117 171
-4.08 0.13 10.91 46 107 166
-3.80 0.11 10.71 33 94 153
-3.73 0.04 10.66 15 77 145
-4.05 -0.11 10.89 1 63 131
-4.35 -0.25 11.11 9 65 153
-4.85 -0.43 11.46 4 60 148
-5.06 -0.55 11.61 1 54 161
-5.27 -0.67 11.77 0 50 157
-5.52 -0.80 11.95 0 50 156
-5.59 -0.89 11.99 0 51 157
-5.70 -0.99 12.08 0 53 149
-5.70 -1.06 12.07 0 52 148
-5.79 -1.16 12.14 0 52 160
-5.74 -1.23 12.10 0 55 163
-5.76 -1.31 12.11 0 58 165
-5.71 -1.38 12.08 2 62 169
-5.72 -1.46 12.09 5 68 167
-5.76 -1.54 12.12 10 73 172
-5.80 -1.63 12.15 11 78 169
-5.80 -1.71 12.15 16 83 174
-5.86 -1.79 12.19 20 90 178
-5.82 -1.87 12.16 23 93 181
-5.93 -1.96 12.24 25 99 186
-5.98 -2.05 12.28 30 104 191
-5.99 -2.13 12.28 35 106 194
-5.99 -2.20 12.28 37 108 196
-5.99 -2.28 12.28 36 109 187
-5.99 -2.36 12.28 39 112 190
-6.00 -2.44 12.29 33 117 196
-5.99 -2.51 12.28 32 116 195
-5.95 -2.58 12.26 31 115 196
-5.92 -2.66 12.23 31 115 196
-5.90 -2.73 12.21 32 116 193
-5.88 -2.81 12.20 33 117 194
-5.86 -2.88 12.19 34 119 186
-5.85 -2.96 12.18 34 119 186
-5.79 -3.03 12.14 37 115 178
-5.72 -3.10 12.09 40 118 181
-5.66 -3.17 12.04 44 120 172
-5.65 -3.24 12.04 47 123 175
-5.61 -3.32 12.01 54 129 170
-5.25 -3.35 11.75 59 134 175
7.30 -1.99 2.75 63 134 170
-1.41 0.79 8.89 52 110 168
-6.13 -0.29 12.29 40 96 166
-4.04 0.07 10.78 27 83 153
-3.93 0.01 10.71 18 72 154
-4.65 -0.22 11.23 10 64 146
-4.88 -0.35 11.39 10 61 149
-5.08 -0.47 11.53 5 56 144
-5.26 -0.58 11.66 4 55 145
-5.41 -0.69 11.77 1 52 142
-5.64 -0.81 11.94 0 50 144
-5.72 -0.91 11.99 0 50 144
-5.82 -1.00 12.06 0 52 153
-5.83 -1.08 12.08 0 55 156
-5.87 -1.17 12.10 0 49 153
-5.85 -1.24 12.09 0 51 155
-5.84 -1.32 12.08 0 56 157
-5.82 -1.39 12.07 1 58 159
-5.85 -1.47 12.09 6 63 167
-5.89 -1.56 12.12 9 66 170
-5.95 -1.65 12.16 11 71 174
-5.92 -1.72 12.14 16 76 179
-5.90 -1.79 12.12 15 85 177
-5.95 -1.88 12.16 19 89 181
-6.03 -1.97 12.21 18 92 183
-6.05 -2.05 12.23 23 97 188
-6.08 -2.13 12.26 29 100 192
-6.05 -2.21 12.23 30 101 193
-6.03 -2.28 12.22 31 102 183
-6.04 -2.36 12.22 34 105 186
-6.04 -2.44 12.22 28 111 199
-6.03 -2.51 12.22 31 114 202
-6.00 -2.58 12.19 33 115 199
-5.97 -2.66 12.17 33 115 199
-5.94 -2.73 12.15 38 113 193
-5.92 -2.81 12.14 38 113 193
-5.90 -2.88 12.13 43 115 177
-5.88 -2.96 12.11 43 115 177
-5.84 -3.03 12.08 49 116 155
-5.78 -3.10 12.04 46 113 152
-5.74 -3.17 12.01 55 117 142
-5.71 -3.25 11.99 69 131 156
-5.55 -3.31 11.87 81 140 164
-5.85 -3.42 12.09 81 140 164
-0.62 -2.90 8.32 78 137 163
3.74 1.90 5.06 52 110 168
-4.26 0.11 10.85 41 97 167
-4.59 -0.04 11.09 32 88 158
-4.47 -0.09 10.99 27 81 163
-4.62 -0.20 11.10 20 74 156
-5.08 -0.38 11.44 8 59 147
-5.31 -0.50 11.60 5 56 144
-5.37 -0.60 11.65 5 56 146
-5.51 -0.70 11.75 3 54 144
-5.70 -0.82 11.89 0 51 145
-5.80 -0.91 11.96 0 50 144
-5.90 -1.01 12.03 0 52 153
-5.88 -1.08 12.01 0 53 154
-5.92 -1.17 12.04 0 48 152
-5.88 -1.24 12.02 0 49 153
-5.90 -1.32 12.03 0 51 152
-5.88 -1.39 12.01 0 56 157
-5.94 -1.48 12.06 2 59 163
-5.99 -1.57 12.09 6 63 167
-5.99 -1.65 12.10 5 65 168
-6.01 -1.73 12.11 11 71 174
-5.96 -1.80 12.08 12 82 174
-6.01 -1.88 12.11 15 85 177
-6.06 -1.97 12.15 15 89 180
-6.11 -2.05 12.18 18 92 183
-6.14 -2.14 12.21 27 98 190
-6.10 -2.21 12.17 30 101 193
-6.07 -2.28 12.15 33 104 185
-6.07 -2.36 12.15 33 104 185
-6.06 -2.43 12.15 22 105 193
-6.06 -2.51 12.14 28 111 199
-6.03 -2.58 12.12 34 116 200
-6.00 -2.66 12.10 34 116 200
-5.97 -2.73 12.08 39 114 194
-5.95 -2.81 12.06 37 112 192
-5.93 -2.88 12.05 42 114 176
-5.92 -2.96 12.05 42 114 176
-5.90 -3.03 12.03 45 112 151
-5.86 -3.11 12.00 45 112 151
-5.81 -3.18 11.96 72 134 159
-5.80 -3.25 11.96 104 166 191
-5.68 -3.32 11.87 116 175 199
-5.93 -3.42 12.05 104 163 187
-4.95 -3.39 11.34 87 146 172
11.16 -1.66 -0.30 80 139 165
11.33 3.42 -0.57 41 101 163
-1.13 0.70 8.47 31 91 153
-5.12 -0.22 11.36 30 86 158
-5.25 -0.33 11.46 26 82 154
-5.24 -0.40 11.46 18 73 148
-5.60 -0.55 11.72 12 67 142
-5.52 -0.62 11.66 4 62 138
-5.61 -0.71 11.72 0 56 132
-5.77 -0.82 11.84 0 51 129
-5.87 -0.92 11.91 0 49 127
-5.95 -1.01 11.97 0 47 135
-5.92 -1.09 11.95 0 50 138
-5.95 -1.17 11.97 0 49 144
-5.93 -1.24 11.96 0 50 145
-5.96 -1.33 11.98 0 51 157
-5.98 -1.41 11.99 0 55 161
-6.03 -1.49 12.03 0 56 160
-6.07 -1.58 12.06 0 56 160
-6.06 -1.65 12.05 2 60 159
-6.11 -1.74 12.08 5 63 162
-6.03 -1.80 12.03 12 76 170
-6.06 -1.89 12.05 16 80 174
-6.11 -1.97 12.09 20 84 178
-6.12 -2.05 12.09 29 93 187
-6.16 -2.13 12.13 31 95 189
-6.17 -2.21 12.13 30 94 188
-6.10 -2.28 12.08 23 93 185
-6.10 -2.36 12.08 22 92 184
-6.10 -2.43 12.08 25 108 194
-6.10 -2.51 12.08 25 108 194
-6.07 -2.58 12.06 28 106 169
-6.05 -2.66 12.04 41 119 182
-6.00 -2.73 12.01 50 105 171
-5.99 -2.81 12.00 60 115 181
-5.98 -2.88 11.99 73 114 157
-5.97 -2.96 11.98 56 97 140
-5.95 -3.03 11.97 71 108 107
-5.93 -3.11 11.96 121 158 157
-5.91 -3.18 11.94 179 209 192
-5.86 -3.26 11.90 182 212 195
-5.90 -3.34 11.93 160 183 178
-5.73 -3.40 11.81 142 165 160
-6.42 -3.55 12.31 118 142 146
-0.56 -2.97 8.06 99 123 127
13.31 3.73 -2.16 32 92 154
-3.31 0.16 9.95 33 89 161
-6.22 -0.52 12.07 32 88 160
-5.34 -0.41 11.43 25 80 155
-5.67 -0.56 11.67 17 72 147
-5.77 -0.66 11.74 9 67 143
-5.75 -0.73 11.73 1 59 135
-5.87 -0.83 11.82 0 54 132
-5.89 -0.92 11.84 0 51 129
-5.97 -1.01 11.89 0 50 138
-5.92 -1.08 11.86 0 52 140
-5.97 -1.16 11.89 0 48 143
-5.96 -1.24 11.88 0 46 141
-6.02 -1.33 11.93 0 49 155
-6.05 -1.41 11.95 0 51 157
-6.10 -1.50 11.98 0 52 156
-6.12 -1.58 12.00 0 52 156
-6.14 -1.66 12.01 0 57 156
-6.15 -1.74 12.02 0 58 157
-6.13 -1.81 12.01 8 72 166
-6.10 -1.89 11.98 11 75 169
-6.16 -1.97 12.03 16 80 174
-6.14 -2.05 12.01 24 88 182
-6.19 -2.13 12.05 25 89 183
-6.20 -2.21 12.06 25 89 183
-6.14 -2.28 12.02 20 90 182
-6.13 -2.35 12.00 21 91 183
-6.12 -2.43 12.00 25 108 194
-6.12 -2.51 12.00 24 107 193
-6.11 -2.58 11.99 28 106 169
-6.09 -2.66 11.98 35 113 176
-6.06 -2.73 11.95 43 98 164
-6.06 -2.81 11.95 47 102 168
-6.04 -2.89 11.94 68 109 152
-6.05 -2.96 11.95 103 144 187
-6.02 -3.04 11.93 150 187 186
-6.00 -3.11 11.91 169 206 205
-5.99 -3.19 11.90 177 207 190
-5.96 -3.26 11.89 165 195 178
-5.89 -3.33 11.84 166 189 184
-5.93 -3.41 11.86 156 179 174
-6.92 -3.61 12.59 125 149 153
-1.67 -3.09 8.75 105 129 133
5.86 2.07 3.15 35 95 159
-6.65 -0.60 12.29 32 92 156
-5.89 -0.52 11.73 28 88 154
-5.51 -0.52 11.46 21 81 147
-5.79 -0.65 11.66 14 73 142
-5.85 -0.74 11.71 5 64 133
-5.91 -0.84 11.75 0 57 126
-5.98 -0.93 11.80 0 55 124
-6.01 -1.01 11.82 0 55 133
-5.98 -1.08 11.80 0 56 134
-6.03 -1.17 11.84 0 47 135
-6.05 -1.25 11.85 0 47 135
-6.12 -1.34 11.90 0 48 144
-6.15 -1.42 11.93 0 51 147
-6.16 -1.50 11.94 0 53 147
-6.20 -1.59 11.97 0 53 147
-6.19 -1.66 11.96 0 55 154
-6.20 -1.74 11.96 0 58 157
-6.20 -1.82 11.97 5 65 168
-6.17 -1.89 11.94 9 69 172
-6.18 -1.97 11.95 12 71 181
-6.19 -2.05 11.95 17 76 186
-6.25 -2.14 12.00 20 79 189
-6.24 -2.21 11.99 24 83 193
-6.22 -2.29 11.98 24 84 191
-6.19 -2.36 11.96 25 85 192
-6.17 -2.43 11.94 25 99 172
-6.17 -2.51 11.94 30 104 177
-6.15 -2.59 11.93 41 105 145
-6.14 -2.66 11.92 46 110 150
-6.12 -2.74 11.90 78 121 134
-6.12 -2.81 11.91 111 154 167
-6.11 -2.89 11.90 157 188 175
-6.14 -2.97 11.92 182 213 200
-6.09 -3.04 11.88 183 209 184
-6.10 -3.12 11.89 172 198 173
-6.11 -3.20 11.90 162 189 169
-6.01 -3.26 11.83 170 197 177
-6.10 -3.35 11.89 169 196 206
-6.50 -3.48 12.18 150 177 187
-4.93 -3.37 11.03 114 146 184
7.80 -2.02 1.72 94 126 164
-2.79 0.20 9.36 33 93 157
-6.59 -0.65 12.16 31 91 157
-5.78 -0.57 11.56 23 83 149
-5.72 -0.63 11.51 15 74 143
-5.93 -0.75 11.67 8 67 136
-5.96 -0.84 11.69 2 61 130
-6.00 -0.92 11.72 0 59 128
-6.07 -1.01 11.77 0 58 136
-6.03 -1.08 11.74 1 59 137
-6.08 -1.17 11.78 0 49 137
-6.10 -1.25 11.79 0 48 136
-6.14 -1.34 11.83 0 50 146
-6.16 -1.42 11.84 0 51 147
-6.20 -1.50 11.87 0 53 147
-6.23 -1.58 11.89 0 53 147
-6.24 -1.67 11.90 0 56 155
-6.24 -1.74 11.90 0 58 157
-6.23 -1.82 11.89 0 60 163
-6.24 -1.90 11.90 4 64 167
-6.23 -1.97 11.89 9 68 178
-6.24 -2.05 11.90 11 70 180
-6.26 -2.13 11.92 14 73 183
-6.25 -2.21 11.91 19 78 188
-6.26 -2.29 11.91 24 84 191
-6.22 -2.36 11.88 26 86 193
-6.20 -2.43 11.87 39 113 186
-6.19 -2.51 11.86 34 108 181
-6.17 -2.58 11.85 39 103 143
-6.17 -2.66 11.85 66 130 170
-6.15 -2.73 11.83 126 169 182
-6.17 -2.81 11.85 154 197 210
-6.15 -2.89 11.83 179 210 197
-6.11 -2.96 11.81 174 205 192
-6.13 -3.04 11.82 178 204 179
-6.05 -3.11 11.76 171 197 172
-6.01 -3.18 11.73 169 196 176
-6.34 -3.30 11.97 175 202 182
-6.10 -3.35 11.80 158 185 195
-2.35 -2.99 9.04 130 157 167
9.81 -1.67 0.11 105 137 175
16.15 4.10 -4.70 33 97 153
-3.90 -0.10 10.08 29 93 151
-6.83 -0.77 12.24 21 85 143
-5.68 -0.62 11.39 15 78 139
-5.82 -0.72 11.50 8 71 132
-6.03 -0.84 11.65 5 65 127
-5.99 -0.91 11.62 2 62 124
-6.07 -1.01 11.68 1 60 131
-6.11 -1.09 11.71 0 59 130
-6.13 -1.17 11.73 2 50 130
-6.16 -1.26 11.74 2 50 130
-6.17 -1.34 11.75 2 51 137
-6.20 -1.42 11.78 2 51 137
-6.24 -1.50 11.80 0 51 138
-6.26 -1.58 11.82 0 52 139
-6.28 -1.66 11.83 0 56 150
-6.28 -1.74 11.83 1 59 153
-6.27 -1.82 11.83 0 59 166
-6.31 -1.90 11.86 3 63 170
-6.24 -1.97 11.80 6 64 180
-6.27 -2.05 11.83 5 63 179
-6.26 -2.13 11.82 9 63 180
-6.26 -2.20 11.82 14 68 185
-6.27 -2.28 11.83 25 76 177
-6.25 -2.36 11.81 34 85 186
-6.22 -2.43 11.79 42 111 145
-6.22 -2.51 11.79 40 109 143
-6.21 -2.58 11.78 72 128 130
-6.22 -2.66 11.79 116 172 174
-6.18 -2.73 11.76 183 220 200
-6.18 -2.81 11.76 186 223 203
-6.20 -2.89 11.77 178 205 177
-6.17 -2.96 11.75 185 212 184
-6.08 -3.03 11.69 177 206 192
-6.12 -3.11 11.71 174 203 189
-6.58 -3.25 12.05 157 198 196
-6.12 -3.27 11.71 139 180 178
1.58 -2.42 6.04 104 158 172
6.19 1.96 2.51 30 94 152
-5.81 -0.56 11.39 23 87 145
-6.54 -0.78 11.93 17 80 141
-5.73 -0.70 11.33 12 75 136
-6.11 -0.85 11.61 9 69 131
-6.15 -0.94 11.64 7 67 129
-6.12 -1.01 11.62 2 61 132
-6.18 -1.10 11.66 0 59 130
-6.20 -1.18 11.68 4 52 132
-6.18 -1.25 11.67 3 51 131
-6.21 -1.34 11.68 1 50 136
-6.25 -1.42 11.71 3 52 138
-6.28 -1.50 11.74 0 52 139
-6.29 -1.58 11.75 0 52 139
-6.32 -1.66 11.77 0 57 151
-6.31 -1.74 11.76 1 59 153
-6.31 -1.82 11.76 0 60 167
-6.34 -1.90 11.78 3 63 170
-6.30 -1.97 11.75 3 61 177
-6.28 -2.04 11.73 0 57 173
-6.30 -2.13 11.75 6 60 177
-6.29 -2.20 11.74 9 63 180
-6.33 -2.28 11.77 19 70 171
-6.33 -2.36 11.77 31 82 183
-6.29 -2.43 11.74 29 98 132
-6.30 -2.51 11.75 44 113 147
-6.26 -2.58 11.72 106 162 164
-6.28 -2.66 11.73 145 201 203
-6.24 -2.74 11.71 185 222 202
-6.23 -2.81 11.70 189 226 206
-6.20 -2.89 11.68 200 227 199
-6.06 -2.95 11.58 205 232 204
-6.27 -3.05 11.73 181 210 196
-6.61 -3.17 11.98 163 192 178
-5.09 -3.06 10.86 117 158 156
3.19 -2.12 4.73 83 124 122
3.72 1.37 4.22 28 93 146
-7.16 -0.90 12.30 23 88 141
-6.37 -0.82 11.71 17 82 135
-5.97 -0.82 11.41 12 73 130
-6.34 -0.97 11.69 8 69 126
-6.27 -1.03 11.64 3 63 129
-6.24 -1.10 11.61 0 60 126
-6.26 -1.18 11.63 6 53 126
-6.28 -1.26 11.64 4 51 124
-6.29 -1.34 11.65 2 52 133
-6.31 -1.42 11.67 3 53 134
-6.33 -1.51 11.68 0 55 136
-6.34 -1.58 11.69 0 57 138
-6.35 -1.66 11.69 0 57 146
-6.34 -1.74 11.69 0 59 148
-6.33 -1.82 11.68 0 59 162
-6.35 -1.90 11.69 0 59 162
-6.34 -1.97 11.69 3 59 165
-6.30 -2.04 11.66 3 59 165
-6.33 -2.12 11.68 11 62 154
-6.32 -2.20 11.67 13 64 156
-6.39 -2.29 11.72 26 70 133
-6.40 -2.37 11.73 39 83 146
-6.35 -2.44 11.70 57 108 110
-6.34 -2.51 11.69 103 154 156
-6.29 -2.58 11.65 142 186 162
-6.28 -2.66 11.64 151 195 171
-6.30 -2.74 11.66 177 216 198
-6.21 -2.80 11.59 189 228 210
-6.20 -2.88 11.58 188 228 218
-6.45 -2.99 11.77 176 216 206
-6.03 -3.01 11.46 125 172 177
-2.63 -2.66 8.93 105 152 157
9.49 -1.23 -0.07 65 124 146
-3.12 -0.08 9.19 30 95 148
-7.65 -1.06 12.57 23 88 141
-6.33 -0.88 11.59 17 78 135
-6.23 -0.94 11.51 11 72 129
-6.34 -1.04 11.59 5 65 131
-6.32 -1.11 11.58 2 62 128
-6.32 -1.19 11.58 8 55 128
-6.33 -1.27 11.58 4 51 124
-6.35 -1.35 11.60 2 52 133
-6.35 -1.42 11.60 3 53 134
-6.36 -1.50 11.61 1 58 139
-6.37 -1.58 11.61 0 57 138
-6.38 -1.66 11.62 0 55 144
-6.37 -1.74 11.61 0 55 144
-6.37 -1.81 11.61 0 57 160
-6.36 -1.89 11.61 0 57 160
-6.35 -1.97 11.60 3 59 165
-6.34 -2.04 11.59 6 62 168
-6.33 -2.12 11.59 11 62 154
-6.35 -2.20 11.60 12 63 155
-6.37 -2.28 11.62 35 79 142
-6.43 -2.37 11.66 59 103 166
-6.41 -2.44 11.64 106 157 159
-6.34 -2.51 11.59 139 190 192
-6.34 -2.58 11.59 149 193 169
-6.28 -2.65 11.54 144 188 164
-6.17 -2.72 11.47 162 201 183
-6.21 -2.80 11.49 164 203 185
-6.73 -2.95 11.88 144 184 174
-5.35 -2.84 10.85 116 156 146
3.49 -1.77 4.26 74 121 126
-2.17 0.03 8.38 25 91 142
-7.30 -1.06 12.21 18 84 135
-6.39 -0.96 11.53 15 81 132
-6.26 -1.01 11.44 10 73 136
-6.36 -1.11 11.52 5 68 131
-6.32 -1.18 11.48 11 59 127
-6.33 -1.26 11.49 8 56 124
-6.35 -1.34 11.50 2 52 131
-6.35 -1.42 11.50 0 49 128
-6.37 -1.50 11.52 0 52 134
-6.38 -1.58 11.53 3 57 139
-6.39 -1.66 11.53 5 58 147
-6.39 -1.73 11.53 5 58 147
-6.38 -1.81 11.53 3 62 151
-6.39 -1.89 11.53 3 62 151
-6.37 -1.96 11.52 7 60 140
-6.40 -2.05 11.54 7 60 140
-6.35 -2.11 11.50 32 81 128
-6.40 -2.20 11.54 38 87 134
-6.40 -2.28 11.54 77 121 127
-6.48 -2.37 11.60 114 158 164
-6.47 -2.44 11.60 162 191 161
-6.44 -2.52 11.57 161 190 160
-6.36 -2.58 11.51 150 185 146
-6.27 -2.65 11.44 145 180 141
-6.36 -2.74 11.52 126 172 168
-6.73 -2.86 11.79 113 159 155
-4.48 -2.64 10.11 80 137 160
8.22 -1.04 0.60 63 120 143
13.04 3.04 -3.16 29 95 146
-5.20 -0.64 10.55 25 91 142
-7.35 -1.14 12.16 21 87 138
-6.41 -1.03 11.45 15 78 141
-6.38 -1.11 11.43 8 71 134
-6.36 -1.18 11.42 12 60 128
-6.35 -1.26 11.41 11 59 127
-6.39 -1.34 11.44 6 56 135
-6.38 -1.42 11.43 1 51 130
-6.40 -1.50 11.45 0 52 134
-6.40 -1.57 11.45 0 53 135
-6.40 -1.65 11.45 0 53 142
-6.41 -1.73 11.45 0 51 140
-6.41 -1.81 11.46 0 59 148
-6.44 -1.89 11.47 5 64 153
-6.41 -1.96 11.46 12 65 145
-6.44 -2.05 11.48 20 73 153
-6.43 -2.12 11.47 58 107 154
-6.40 -2.19 11.44 88 137 184
-6.42 -2.27 11.46 129 173 179
-6.42 -2.35 11.46 141 185 191
-6.47 -2.44 11.50 157 186 156
-6.35 -2.50 11.41 155 184 154
-6.45 -2.59 11.49 144 179 140
-6.67 -2.70 11.65 132 167 128
-5.33 -2.59 10.65 111 157 153
0.15 -1.92 6.52 97 143 139
13.23 -0.25 -3.30 66 123 146
6.94 1.73 1.29 25 94 142
-6.57 -0.98 11.48 23 92 140
-6.90 -1.12 11.73 18 82 143
-6.37 -1.10 11.32 9 73 134
-6.43 -1.18 11.37 14 67 129
-6.43 -1.26 11.37 13 66 128
-6.38 -1.33 11.33 9 59 138
-6.39 -1.41 11.34 3 53 132
-6.39 -1.49 11.34 1 50 134
-6.40 -1.57 11.35 3 52 136
-6.40 -1.65 11.35 1 50 136
-6.41 -1.72 11.36 0 47 133
-6.42 -1.80 11.37 9 60 134
-6.45 -1.89 11.39 16 67 141
-6.43 -1.96 11.37 32 84 128
-6.47 -2.04 11.40 53 105 149
-6.46 -2.12 11.40 97 145 155
-6.43 -2.19 11.38 125 173 183
-6.50 -2.28 11.42 148 195 170
-6.37 -2.34 11.33 140 187 162
-6.41 -2.42 11.36 138 180 171
-6.73 -2.55 11.60 127 169 160
-6.72 -2.62 11.59 109 168 167
-4.18 -2.34 9.68 100 159 158
7.29 -0.82 1.03 78 145 166
0.55 0.40 5.99 25 94 142
-6.76 -1.09 11.53 21 85 146
-6.56 -1.12 11.37 16 80 141
-6.32 -1.16 11.19 19 72 134
-6.36 -1.24 11.23 14 67 129
-6.35 -1.32 11.21 9 59 138
-6.37 -1.40 11.23 2 52 131
-6.40 -1.48 11.25 2 51 135
-6.39 -1.56 11.24 5 54 138
-6.41 -1.64 11.26 3 52 138
-6.41 -1.72 11.26 3 52 138
-6.42 -1.80 11.27 9 60 134
-6.48 -1.89 11.32 30 81 155
-6.44 -1.96 11.29 61 113 157
-6.43 -2.03 11.28 86 138 182
-6.49 -2.12 11.32 113 161 171
-6.45 -2.19 11.29 123 171 181
-6.38 -2.26 11.24 133 180 155
-6.45 -2.35 11.30 127 174 149
-6.81 -2.48 11.56 131 173 164
-6.46 -2.50 11.30 115 157 148
-1.47 -1.86 7.53 90 149 148
12.46 0.03 -3.02 74 133 132
0.21 0.25 6.13 24 91 153
-6.95 -1.19 11.58 20 87 149
-6.39 -1.16 11.15 16 77 134
-6.36 -1.24 11.12 10 71 128
-6.35 -1.31 11.12 8 61 137
-6.27 -1.38 11.06 1 54 130
-6.32 -1.46 11.10 5 55 136
-6.33 -1.54 11.11 6 56 137
-6.34 -1.62 11.11 7 57 127
-6.38 -1.71 11.14 14 64 134
-6.39 -1.79 11.15 23 75 119
-6.40 -1.87 11.16 59 111 155
-6.42 -1.95 11.17 94 143 161
-6.38 -2.02 11.14 110 159 177
-6.39 -2.10 11.15 114 164 162
-6.53 -2.20 11.25 116 166 164
-6.70 -2.30 11.39 119 168 159
-6.34 -2.32 11.12 118 167 158
-2.28 -1.80 8.03 98 154 184
7.85 -0.40 0.33 74 130 160
13.81 2.86 -4.36 27 94 156
-4.72 -0.76 9.78 20 87 149
-6.78 -1.23 11.35 23 84 141
-6.30 -1.22 10.99 18 79 136
-6.29 -1.29 10.98 15 68 144
-6.28 -1.37 10.97 6 59 135
-6.26 -1.44 10.96 6 56 137
-6.35 -1.54 11.02 5 55 136
-6.35 -1.62 11.02 10 60 130
-6.35 -1.69 11.02 29 79 149
-6.34 -1.77 11.02 62 114 158
-6.31 -1.84 10.99 91 143 187
-6.23 -1.91 10.93 107 156 174
-6.21 -1.98 10.91 113 162 180
-6.70 -2.14 11.29 111 161 159
-7.00 -2.26 11.52 113 163 161
-4.52 -1.96 9.63 111 160 151
3.27 -0.86 3.69 108 157 148
5.55 1.19 1.81 21 89 144
-6.16 -1.11 10.78 28 93 151
-6.54 -1.26 11.07 26 91 149
-6.28 -1.29 10.88 24 80 152
-6.33 -1.37 10.91 12 68 140
-6.26 -1.44 10.86 10 62 131
-6.28 -1.52 10.87 12 64 133
-6.30 -1.60 10.89 29 80 129
-6.35 -1.69 10.93 54 105 154
-6.34 -1.76 10.92 87 143 161
-6.23 -1.83 10.84 97 153 171
-6.34 -1.92 10.92 95 151 153
-6.61 -2.04 11.12 97 153 155
-5.88 -2.00 10.57 96 149 159
-1.22 -1.35 7.00 99 152 162
11.36 0.50 -2.63 83 138 165
-2.25 -0.37 7.68 35 100 158
-6.76 -1.29 11.15 32 97 155
-6.36 -1.29 10.84 31 87 159
-6.29 -1.36 10.78 21 77 149
-6.29 -1.44 10.79 24 76 145
-6.33 -1.52 10.81 35 87 156
-6.35 -1.60 10.83 54 105 154
-6.23 -1.66 10.74 70 121 170
-6.18 -1.73 10.70 73 129 147
-6.36 -1.84 10.84 77 133 151
-6.30 -1.91 10.79 77 133 135
-4.28 -1.66 9.24 85 141 143
4.38 -0.37 2.59 82 135 145
10.79 2.08 -2.49 34 100 151
-5.53 -1.05 10.10 32 98 149
-6.65 -1.34 10.96 28 94 145
-6.28 -1.35 10.68 25 91 142
-6.36 -1.44 10.74 25 91 142
-6.31 -1.51 10.70 30 96 147
-6.17 -1.57 10.60 42 109 155
-6.37 -1.68 10.75 51 118 164
-6.60 -1.79 10.92 49 116 160
-4.73 -1.56 9.49 49 116 160
6.10 0.13 1.13 48 115 159
-0.25 -0.07 5.91 30 96 147
-6.64 -1.33 10.86 27 93 144
-6.33 -1.35 10.62 22 88 139
-6.18 -1.40 10.50 21 87 138
-6.19 -1.48 10.51 26 92 143
-6.45 -1.61 10.72 36 103 149
-6.39 -1.67 10.67 43 110 156
-3.54 -1.27 8.46 47 114 158
8.10 0.58 -0.56 47 114 158
-3.44 -0.74 8.27 32 92 129
-6.53 -1.38 10.68 27 87 124
-6.14 -1.39 10.37 26 88 124
-6.40 -1.51 10.58 30 92 128
-5.71 -1.47 10.04 35 99 139
-0.20 -0.61 5.76 40 104 144
13.42 1.60 -4.83 45 110 159
5.09 0.83 1.52 38 98 135
-5.82 -1.25 10.03 35 95 132
-6.63 -1.47 10.66 35 97 133
-4.61 -1.19 9.08 38 100 136
2.69 -0.00 3.39 43 107 147
3.96 0.53 2.27 39 76 96
-0.92 -0.44 6.09 48 87 113
7.53 0.96 -0.53 58 97 123
-0.57 -38.57 -5.33 248 243 245
-0.59 25.47 -5.45 142 133 125
-0.63 25.03 -5.41 142 133 125
-0.64 24.92 -5.40 142 133 125
-0.61 24.83 -5.42 142 133 125
-0.59 24.75 -5.45 142 133 125
-0.60 24.64 -5.44 142 133 125
-0.60 24.54 -5.44 142 133 125
-0.61 24.43 -5.43 143 134 126
-0.61 24.32 -5.42 143 134 126
-0.62 24.22 -5.42 143 134 126
-0.61 24.12 -5.42 143 134 126
-0.62 24.01 -5.42 143 134 126
-0.61 23.91 -5.43 143 134 126
-0.61 23.81 -5.43 143 137 128
-0.61 23.71 -5.43 143 137 128
-0.61 23.61 -5.43 143 137 128
-0.60 23.51 -5.44 143 137 128
-0.59 23.42 -5.45 143 137 128
-0.76 -38.46 -5.27 255 251 253
-0.77 25.36 -5.39 142 133 125
-0.75 24.97 -5.42 142 133 125
-0.78 24.84 -5.39 142 133 125
-0.78 24.74 -5.39 142 133 125
-0.78 24.64 -5.39 142 133 125
-0.79 24.52 -5.37 142 133 125
-0.79 24.42 -5.38 142 133 125
-0.79 24.33 -5.38 143 134 126
-0.78 24.23 -5.39 143 134 126
-0.78 24.13 -5.39 143 134 126
-0.78 24.02 -5.39 143 134 126
-0.78 23.92 -5.39 143 134 126
-0.78 23.82 -5.39 143 134 126
-0.77 23.72 -5.40 143 137 128
-0.77 23.62 -5.40 143 137 128
-0.76 23.52 -5.41 143 137 128
-0.76 23.42 -5.41 143 137 128
-0.76 23.32 -5.41 143 137 128
-0.75 23.23 -5.42 143 137 128
-0.75 23.13 -5.43 143 137 128
-0.73 23.04 -5.44 144 138 129
-0.94 25.26 -5.36 142 133 125
-0.87 25.22 -5.43 142 133 125
-0.90 25.09 -5.40 142 133 125
-0.91 24.98 -5.40 142 133 125
-0.92 24.87 -5.38 142 133 125
-0.94 24.75 -5.36 142 133 125
-0.95 24.65 -5.35 142 133 125
-0.94 24.54 -5.36 142 133 125
-0.97 24.42 -5.33 142 133 125
-0.98 24.31 -5.32 142 133 125
-0.98 24.21 -5.32 143 134 126
-0.98 24.11 -5.31 143 134 126
-0.97 24.01 -5.32 143 134 126
-0.97 23.91 -5.32 143 134 126
-0.98 23.80 -5.32 143 134 126
-0.97 23.71 -5.33 143 134 126
-0.97 23.61 -5.33 143 137 128
-0.96 23.51 -5.34 143 137 128
-0.96 23.41 -5.34 143 137 128
-0.96 23.31 -5.34 143 137 128
-0.94 23.22 -5.36 143 137 128
-0.94 23.12 -5.36 143 137 128
-0.93 23.03 -5.37 143 137 128
-0.91 22.94 -5.39 144 138 129
-0.90 22.84 -5.40 146 140 131
-0.88 22.75 -5.42 146 140 131
-0.88 22.66 -5.43 146 140 131
-0.86 22.57 -5.44 146 140 131
-0.86 22.47 -5.45 146 140 131
-1.12 25.15 -5.30 142 133 125
-1.05 25.11 -5.38 142 133 125
-1.08 24.98 -5.35 142 133 125
-1.09 24.87 -5.34 142 133 125
-1.12 24.75 -5.31 142 133 125
-1.12 24.64 -5.31 142 133 125
-1.10 24.56 -5.33 142 133 125
-1.10 24.46 -5.33 142 133 125
-1.12 24.34 -5.31 142 133 125
-1.13 24.23 -5.30 142 133 125
-1.14 24.12 -5.29 143 134 126
-1.14 24.02 -5.29 143 134 126
-1.14 23.92 -5.29 143 134 126
-1.14 23.81 -5.29 143 134 126
-1.15 23.71 -5.28 143 134 126
-1.14 23.61 -5.29 143 134 126
-1.14 23.51 -5.29 143 137 128
-1.13 23.42 -5.30 143 137 128
-1.12 23.32 -5.30 143 137 128
-1.13 23.22 -5.30 143 137 128
-1.12 23.12 -5.31 143 137 128
-1.11 23.03 -5.32 143 137 128
-1.10 22.93 -5.33 143 137 128
-1.08 22.84 -5.35 144 138 129
-1.08 22.75 -5.35 146 140 131
-1.06 22.66 -5.37 146 140 131
-1.04 22.57 -5.39 146 140 131
-1.03 22.48 -5.41 146 140 131
-1.02 22.38 -5.42 146 140 131
-1.01 22.29 -5.43 146 140 131
-1.00 22.20 -5.44 146 140 131
-0.99 22.10 -5.44 147 141 132
-1.32 25.02 -5.23 143 132 125
-1.25 24.98 -5.30 143 132 125
-1.30 24.84 -5.25 143 132 125
-1.33 24.71 -5.22 143 132 125
-1.35 24.60 -5.20 143 132 125
-1.36 24.49 -5.19 143 132 125
-1.32 24.42 -5.24 143 132 125
-1.30 24.33 -5.25 143 132 125
-1.32 24.22 -5.23 144 133 126
-1.33 24.11 -5.22 144 133 126
-1.34 24.00 -5.21 144 133 126
-1.34 23.90 -5.21 144 133 126
-1.34 23.80 -5.21 144 133 126
-1.33 23.70 -5.22 144 133 126
-1.33 23.60 -5.23 144 133 126
-1.33 23.50 -5.23 144 133 126
-1.32 23.41 -5.23 145 136 130
-1.32 23.31 -5.23 145 136 130
-1.31 23.21 -5.24 145 136 130
-1.30 23.12 -5.25 145 136 130
-1.30 23.02 -5.25 145 136 130
-1.29 22.92 -5.26 145 136 130
-1.29 22.82 -5.26 145 136 130
-1.28 22.73 -5.28 148 139 133
-1.27 22.63 -5.29 148 139 133
-1.26 22.54 -5.30 148 139 133
-1.25 22.44 -5.30 148 139 133
-1.24 22.36 -5.32 148 139 133
-1.23 22.26 -5.33 148 139 133
-1.22 22.17 -5.34 148 139 133
-1.20 22.08 -5.36 146 140 133
-1.20 21.98 -5.37 147 141 134
-1.18 21.89 -5.39 146 142 134
-1.17 21.80 -5.39 146 142 134
-1.16 21.70 -5.41 146 142 134
-1.15 21.61 -5.42 146 142 134
-1.15 21.51 -5.42 146 142 134
-1.13 21.42 -5.44 146 142 134
-1.13 21.32 -5.43 146 142 134
-1.12 21.22 -5.45 146 142 134
-1.31 -38.28 -5.24 254 249 246
-1.48 24.93 -5.20 143 132 125
-1.42 24.89 -5.27 143 132 125
-1.43 24.77 -5.25 143 132 125
-1.49 24.62 -5.19 143 132 125
-1.51 24.50 -5.16 143 132 125
-1.53 24.39 -5.14 143 132 125
-1.50 24.31 -5.17 143 132 125
-1.47 24.24 -5.21 143 132 125
-1.48 24.13 -5.20 144 133 126
-1.48 24.03 -5.20 144 133 126
-1.48 23.92 -5.20 144 133 126
-1.49 23.81 -5.19 144 133 126
-1.49 23.71 -5.19 144 133 126
-1.50 23.61 -5.18 144 133 126
-1.50 23.51 -5.18 144 133 126
-1.50 23.41 -5.18 144 133 126
-1.49 23.31 -5.19 144 135 129
-1.48 23.21 -5.20 144 135 129
-1.48 23.11 -5.20 145 136 130
-1.48 23.01 -5.20 145 136 130
-1.48 22.92 -5.21 146 137 131
-1.46 22.83 -5.22 146 137 131
-1.46 22.73 -5.22 148 139 133
-1.44 22.65 -5.25 148 139 133
-1.44 22.55 -5.25 148 139 133
-1.41 22.46 -5.27 148 139 133
-1.41 22.37 -5.28 148 139 133
-1.39 22.28 -5.30 148 139 133
-1.38 22.18 -5.31 148 139 133
-1.38 22.08 -5.31 148 139 133
-1.36 22.00 -5.34 146 140 133
-1.36 21.90 -5.33 147 141 134
-1.34 21.81 -5.35 146 142 134
-1.32 21.72 -5.37 146 142 134
-1.31 21.63 -5.38 146 142 134
-1.31 21.53 -5.38 146 142 134
-1.30 21.43 -5.39 146 142 134
-1.30 21.33 -5.40 146 142 134
-1.29 21.24 -5.40 146 142 134
-1.28 21.14 -5.41 146 142 134
-1.28 21.04 -5.41 147 143 135
-1.28 20.94 -5.42 147 143 135
-1.27 20.85 -5.43 147 143 135
-1.26 20.75 -5.44 147 143 135
-1.26 20.65 -5.44 147 143 135
-1.25 20.56 -5.45 147 143 135
-1.25 -34.41 -5.45 247 249 246
-1.25 -34.51 -5.45 247 249 246
-1.25 -34.61 -5.45 247 249 246
-1.26 -34.71 -5.44 247 249 246
-1.26 -34.81 -5.43 247 249 246
-1.27 -34.91 -5.43 247 249 246
-1.26 -35.01 -5.43 248 250 247
-1.27 -35.11 -5.43 248 250 247
-1.27 -35.21 -5.43 248 250 247
-1.27 -35.31 -5.42 248 250 247
-1.26 -35.42 -5.43 248 250 247
-1.26 -35.52 -5.44 248 250 247
-1.26 -35.62 -5.44 248 250 247
-1.26 -35.73 -5.44 248 250 247
-1.27 -35.82 -5.43 249 251 248
-1.26 -35.93 -5.44 249 251 248
-1.26 -36.03 -5.44 249 251 248
-1.26 -36.13 -5.44 249 251 248
-1.26 -36.23 -5.44 249 251 248
-1.27 -36.33 -5.43 249 251 248
-1.26 -36.43 -5.43 249 251 248
-1.26 -36.54 -5.44 249 251 248
-1.64 -38.06 -5.03 252 247 244
-1.66 24.82 -5.14 143 132 125
-1.60 24.78 -5.21 143 132 125
-1.60 24.67 -5.21 143 132 125
-1.63 24.55 -5.17 143 132 125
-1.67 24.41 -5.13 143 132 125
-1.68 24.31 -5.13 143 132 125
-1.67 24.22 -5.14 143 132 125
-1.65 24.13 -5.16 143 132 125
-1.66 24.02 -5.15 144 133 126
-1.66 23.92 -5.15 144 133 126
-1.66 23.82 -5.15 144 133 126
-1.66 23.72 -5.15 144 133 126
-1.66 23.62 -5.14 144 133 126
-1.66 23.52 -5.14 144 133 126
-1.66 23.41 -5.14 144 133 126
-1.66 23.32 -5.15 144 133 126
-1.66 23.22 -5.15 144 135 127
-1.65 23.12 -5.16 144 135 127
-1.65 23.02 -5.15 145 136 128
-1.65 22.92 -5.16 145 136 128
-1.64 22.82 -5.16 146 137 129
-1.62 22.74 -5.18 146 137 129
-1.62 22.64 -5.18 148 139 131
-1.61 22.55 -5.20 148 139 131
-1.61 22.45 -5.20 148 139 131
-1.60 22.36 -5.21 148 139 131
-1.58 22.27 -5.23 148 139 131
-1.57 22.18 -5.25 148 139 131
-1.55 22.09 -5.26 148 139 131
-1.55 21.99 -5.27 148 139 131
-1.53 21.91 -5.29 146 140 133
-1.52 21.81 -5.29 147 141 134
-1.50 21.72 -5.32 146 142 134
-1.49 21.63 -5.33 146 142 134
-1.49 21.53 -5.33 146 142 134
-1.48 21.44 -5.35 146 142 134
-1.47 21.34 -5.35 146 142 134
-1.47 21.25 -5.36 146 142 134
-1.46 21.15 -5.36 146 142 134
-1.45 21.05 -5.37 146 142 134
-1.45 20.96 -5.38 147 143 135
-1.44 20.86 -5.39 147 143 135
-1.44 20.76 -5.39 147 143 135
-1.43 20.67 -5.40 147 143 135
-1.42 20.57 -5.40 147 143 135
-1.42 20.47 -5.41 147 143 135
-1.41 20.38 -5.42 147 143 135
-1.40 20.28 -5.43 147 143 135
-1.39 20.18 -5.43 147 143 135
-1.39 20.09 -5.44 148 144 136
-1.39 -32.93 -5.44 241 243 240
-1.39 -33.03 -5.44 241 243 240
-1.39 -33.13 -5.44 242 244 241
-1.39 -33.23 -5.43 242 244 241
-1.39 -33.33 -5.43 243 245 242
-1.40 -33.43 -5.43 243 245 242
-1.41 -33.53 -5.42 243 245 242
-1.41 -33.62 -5.42 243 245 242
-1.41 -33.72 -5.41 243 245 242
-1.41 -33.82 -5.41 243 245 242
-1.43 -33.92 -5.40 243 245 242
-1.43 -34.02 -5.40 243 245 242
-1.43 -34.12 -5.40 244 246 243
-1.43 -34.22 -5.39 247 249 246
-1.43 -34.32 -5.39 247 249 246
-1.43 -34.42 -5.39 247 249 246
-1.44 -34.51 -5.38 247 249 246
-1.44 -34.61 -5.38 247 249 246
-1.44 -34.71 -5.38 247 249 246
-1.45 -34.81 -5.37 247 249 246
-1.45 -34.91 -5.37 247 249 246
-1.45 -35.01 -5.37 248 250 247
-1.45 -35.12 -5.38 248 250 247
-1.46 -35.21 -5.37 248 250 247
-1.45 -35.31 -5.37 248 250 247
-1.46 -35.41 -5.37 248 250 247
-1.45 -35.52 -5.37 248 250 247
-1.44 -35.63 -5.38 248 250 247
-1.46 -35.72 -5.37 248 250 247
-1.45 -35.82 -5.38 249 251 248
-1.45 -35.93 -5.38 249 251 248
-1.45 -36.03 -5.38 249 251 248
-1.45 -36.13 -5.38 249 251 248
-1.45 -36.23 -5.38 249 251 248
-1.45 -36.33 -5.38 249 251 248
-1.45 -36.43 -5.37 249 251 248
-1.43 -36.54 -5.39 249 251 248
-1.43 -36.65 -5.40 249 251 248
-1.42 -36.76 -5.41 249 251 248
-1.41 -36.87 -5.42 249 251 248
-1.41 -36.97 -5.42 249 251 248
-1.41 -37.07 -5.42 249 251 248
-1.40 -37.18 -5.43 249 251 248
-1.39 -37.28 -5.44 249 251 248
-1.39 -37.38 -5.43 248 250 247
-1.41 -37.48 -5.42 248 250 247
-1.41 -37.58 -5.42 248 250 247
-1.41 -37.68 -5.42 248 250 247
-1.42 -37.77 -5.41 248 250 247
-1.44 -37.85 -5.38 248 250 247
-1.39 -37.99 -5.43 248 250 247
-1.41 -38.08 -5.42 248 250 247
-1.64 -38.10 -5.17 252 248 242
-1.83 24.72 -5.10 143 132 125
-1.77 24.67 -5.16 143 132 125
-1.79 24.56 -5.14 143 132 125
-1.79 24.46 -5.14 143 132 125
-1.81 24.33 -5.12 143 132 125
-1.84 24.22 -5.09 143 132 125
-1.83 24.12 -5.10 143 132 125
-1.82 24.03 -5.11 143 132 125
-1.83 23.92 -5.10 144 133 126
-1.83 23.82 -5.10 144 133 126
-1.83 23.72 -5.10 144 133 126
-1.83 23.62 -5.10 144 133 126
-1.83 23.52 -5.10 144 133 126
-1.82 23.42 -5.11 144 133 126
-1.82 23.33 -5.11 144 133 126
-1.82 23.23 -5.11 144 133 126
-1.81 23.13 -5.12 144 135 127
-1.81 23.03 -5.12 144 135 127
-1.81 22.94 -5.13 145 136 128
-1.80 22.84 -5.13 145 136 128
-1.80 22.74 -5.14 146 137 129
-1.79 22.65 -5.14 146 137 129
-1.79 22.55 -5.14 148 139 131
-1.77 22.46 -5.16 148 139 131
-1.76 22.37 -5.17 148 139 131
-1.76 22.27 -5.18 148 139 131
-1.75 22.18 -5.19 148 139 131
-1.74 22.08 -5.20 148 139 131
-1.72 22.00 -5.21 148 139 131
-1.72 21.90 -5.22 148 139 131
-1.70 21.82 -5.25 146 140 133
-1.70 21.71 -5.24 147 141 134
-1.68 21.62 -5.26 146 142 134
-1.67 21.53 -5.28 146 142 134
-1.66 21.44 -5.29 146 142 134
-1.64 21.35 -5.30 146 142 134
-1.64 21.25 -5.31 146 142 134
-1.63 21.16 -5.32 146 142 134
-1.63 21.06 -5.32 146 142 134
-1.62 20.97 -5.33 146 142 134
-1.62 20.87 -5.34 147 143 135
-1.61 20.77 -5.34 147 143 135
-1.60 20.68 -5.35 147 143 135
-1.60 20.58 -5.35 147 143 135
-1.60 20.48 -5.36 147 143 135
-1.59 20.38 -5.36 147 143 135
-1.58 20.29 -5.37 147 143 135
-1.57 20.19 -5.38 147 143 135
-1.56 20.10 -5.39 147 143 135
-1.56 20.00 -5.39 148 144 136
-1.55 19.90 -5.40 148 144 136
-1.55 19.81 -5.41 149 145 137
-1.54 19.71 -5.42 149 145 137
-1.53 19.62 -5.43 150 146 138
-1.53 19.52 -5.43 150 146 138
-1.52 19.42 -5.44 152 148 140
-1.52 19.32 -5.44 152 148 140
-1.51 19.22 -5.45 152 148 140
-1.51 19.12 -5.45 152 148 140
-1.52 -31.36 -5.44 237 239 236
-1.52 -31.46 -5.44 237 239 236
-1.51 -31.57 -5.45 239 241 238
-1.52 -31.66 -5.44 239 241 238
-1.53 -31.76 -5.43 239 241 238
-1.53 -31.86 -5.43 239 241 238
-1.54 -31.95 -5.41 239 241 238
-1.54 -32.05 -5.41 239 241 238
-1.55 -32.15 -5.40 239 241 238
-1.55 -32.25 -5.40 239 241 238
-1.56 -32.34 -5.39 239 241 238
-1.57 -32.44 -5.39 239 241 238
-1.57 -32.54 -5.38 239 241 238
-1.57 -32.64 -5.38 240 242 239
-1.58 -32.74 -5.38 240 242 239
-1.58 -32.83 -5.37 241 243 240
-1.59 -32.93 -5.36 241 243 240
-1.59 -33.03 -5.36 242 244 241
-1.60 -33.12 -5.35 242 244 241
-1.60 -33.23 -5.36 243 245 242
-1.61 -33.32 -5.34 243 245 242
-1.61 -33.42 -5.34 243 245 242
-1.62 -33.52 -5.34 243 245 242
-1.63 -33.61 -5.32 243 245 242
-1.63 -33.71 -5.32 243 245 242
-1.63 -33.81 -5.32 243 245 242
-1.63 -33.91 -5.31 243 245 242
-1.63 -34.01 -5.32 244 246 243
-1.63 -34.11 -5.31 246 248 245
-1.64 -34.20 -5.30 246 248 245
-1.63 -34.31 -5.31 246 248 245
-1.64 -34.41 -5.31 246 248 245
-1.64 -34.51 -5.30 246 248 245
-1.65 -34.61 -5.30 246 248 245
-1.65 -34.71 -5.30 246 248 245
-1.65 -34.81 -5.30 247 249 246
-1.65 -34.91 -5.30 247 249 246
-1.64 -35.01 -5.30 247 249 246
-1.65 -35.11 -5.30 247 249 246
-1.65 -35.21 -5.30 247 249 246
-1.65 -35.31 -5.30 247 249 246
-1.65 -35.41 -5.30 247 249 246
-1.64 -35.52 -5.31 247 249 246
-1.64 -35.62 -5.30 248 250 247
-1.63 -35.72 -5.31 249 251 248
-1.65 -35.82 -5.30 249 251 248
-1.64 -35.92 -5.30 249 251 248
-1.64 -36.02 -5.31 249 251 248
-1.64 -36.12 -5.31 249 251 248
-1.64 -36.22 -5.30 249 251 248
-1.64 -36.32 -5.31 249 251 248
-1.63 -36.43 -5.32 249 251 248
-1.62 -36.54 -5.33 249 251 248
-1.61 -36.65 -5.34 249 251 248
-1.60 -36.76 -5.35 249 251 248
-1.60 -36.86 -5.35 249 251 248
-1.60 -36.96 -5.35 249 251 248
-1.60 -37.06 -5.35 249 251 248
-1.59 -37.17 -5.36 249 251 248
-1.59 -37.27 -5.36 248 250 247
-1.59 -37.37 -5.37 248 250 247
-1.59 -37.47 -5.36 248 250 247
-1.62 -37.55 -5.34 248 250 247
-1.62 -37.65 -5.33 248 250 247
-1.62 -37.76 -5.34 248 250 247
-1.58 -37.89 -5.38 248 250 247
-1.58 -37.99 -5.37 248 250 247
-1.53 -38.23 -5.43 252 248 242
-2.01 24.62 -5.05 143 132 125
-1.94 24.57 -5.12 143 132 125
-1.96 24.45 -5.09 143 132 125
-1.97 24.35 -5.09 143 132 125
-1.97 24.24 -5.08 143 132 125
-2.00 24.13 -5.06 143 132 125
-1.99 24.03 -5.06 143 132 125
-1.99 23.93 -5.07 143 132 125
-2.01 23.82 -5.05 144 133 126
-2.01 23.72 -5.05 144 133 126
-2.00 23.62 -5.05 144 133 126
-2.00 23.52 -5.05 144 133 126
-2.00 23.42 -5.06 144 133 126
-2.00 23.33 -5.06 144 133 126
-2.00 23.23 -5.06 144 133 126
-2.00 23.13 -5.06 144 133 126
-1.98 23.03 -5.07 144 135 127
-1.98 22.93 -5.07 144 135 127
-1.99 22.83 -5.07 145 136 128
-1.98 22.74 -5.07 145 136 128
-1.98 22.64 -5.08 146 137 129
-1.96 22.55 -5.09 146 137 129
-1.96 22.45 -5.09 148 139 131
-1.95 22.36 -5.10 148 139 131
-1.95 22.26 -5.11 148 139 131
-1.94 22.17 -5.12 148 139 131
-1.93 22.08 -5.14 148 139 131
-1.92 21.98 -5.14 148 139 131
-1.91 21.89 -5.15 148 139 131
-1.90 21.80 -5.16 148 139 131
-1.88 21.71 -5.18 146 140 133
-1.88 21.62 -5.19 147 141 134
-1.87 21.52 -5.20 146 142 134
-1.85 21.43 -5.22 146 142 134
-1.85 21.33 -5.22 146 142 134
-1.83 21.25 -5.25 146 142 134
-1.83 21.15 -5.25 146 142 134
-1.81 21.06 -5.26 146 142 134
-1.81 20.96 -5.26 146 142 134
-1.81 20.87 -5.27 146 142 134
-1.80 20.77 -5.28 147 143 135
-1.80 20.67 -5.28 147 143 135
-1.79 20.58 -5.29 147 143 135
-1.79 20.48 -5.29 147 143 135
-1.78 20.38 -5.30 147 143 135
-1.77 20.29 -5.31 147 143 135
-1.76 20.19 -5.31 147 143 135
-1.76 20.10 -5.32 147 143 135
-1.75 20.00 -5.33 147 143 135
-1.74 19.90 -5.34 148 144 136
-1.73 19.81 -5.35 148 144 136
-1.73 19.71 -5.35 149 145 137
-1.72 19.62 -5.36 149 145 137
-1.71 19.52 -5.37 150 146 138
-1.70 19.43 -5.38 150 146 138
-1.70 19.33 -5.38 152 148 140
-1.69 19.23 -5.39 152 148 140
-1.69 19.14 -5.39 152 148 140
-1.68 19.04 -5.40 152 148 140
-1.68 18.94 -5.40 152 148 140
-1.67 18.85 -5.41 152 148 140
-1.67 18.74 -5.41 152 148 140
-1.67 18.65 -5.42 152 148 140
-1.66 18.55 -5.43 152 148 140
-1.66 18.45 -5.43 152 148 140
-1.65 18.36 -5.44 152 148 140
-1.64 18.26 -5.45 152 148 140
-1.64 -29.60 -5.45 241 243 240
-1.64 -29.70 -5.45 241 243 240
-1.65 -29.79 -5.44 241 243 240
-1.65 -29.89 -5.44 241 243 240
-1.66 -29.99 -5.43 240 242 239
-1.67 -30.09 -5.42 240 242 239
-1.67 -30.19 -5.42 240 242 239
-1.67 -30.29 -5.42 240 242 239
-1.68 -30.38 -5.41 240 242 239
-1.68 -30.48 -5.40 240 242 239
-1.69 -30.58 -5.40 240 242 239
-1.70 -30.67 -5.38 239 241 238
-1.70 -30.77 -5.38 237 239 236
-1.71 -30.87 -5.37 237 239 236
-1.72 -30.96 -5.36 237 239 236
-1.72 -31.06 -5.36 237 239 236
-1.73 -31.16 -5.35 237 239 236
-1.72 -31.26 -5.36 237 239 236
-1.74 -31.35 -5.34 237 239 236
-1.74 -31.45 -5.34 237 239 236
-1.75 -31.55 -5.33 237 239 236
-1.75 -31.65 -5.33 239 241 238
-1.75 -31.75 -5.33 239 241 238
-1.76 -31.84 -5.32 239 241 238
-1.76 -31.94 -5.31 239 241 238
-1.77 -32.04 -5.30 239 241 238
-1.78 -32.13 -5.30 239 241 238
-1.78 -32.23 -5.30 239 241 238
-1.79 -32.33 -5.29 239 241 238
-1.79 -32.42 -5.28 239 241 238
-1.80 -32.52 -5.28 240 242 239
-1.80 -32.62 -5.27 240 242 239
-1.81 -32.72 -5.27 241 243 240
-1.81 -32.82 -5.26 241 243 240
-1.81 -32.92 -5.26 242 244 241
-1.82 -33.01 -5.26 242 244 241
-1.82 -33.11 -5.26 243 245 242
-1.83 -33.21 -5.24 243 245 242
-1.83 -33.31 -5.24 243 245 242
-1.84 -33.40 -5.23 243 245 242
-1.84 -33.50 -5.23 243 245 242
-1.84 -33.60 -5.23 243 245 242
-1.84 -33.70 -5.23 243 245 242
-1.84 -33.80 -5.23 243 245 242
