ply
format ascii 1.0
element vertex 1537
property float x
property float y
property float z
property uchar red
property uchar green
property uchar blue
end_header
-12.11 -20.60 -1.75 45 45 45
-12.25 -20.61 -1.56 31 31 31
-12.49 -20.58 -1.22 18 19 24
-12.88 -20.47 -0.69 10 11 16
-13.24 -20.37 -0.18 6 4 24
-13.59 -20.28 0.29 31 29 49
-13.76 -20.27 0.53 44 44 72
-13.89 -20.28 0.71 48 48 76
-13.99 -20.30 0.86 48 49 68
-14.01 -20.37 0.88 7 8 27
-14.05 -20.43 0.93 1 8 6
-14.07 -20.49 0.95 70 77 75
-14.07 -20.56 0.96 168 160 136
-14.08 -20.64 0.97 197 189 165
-14.09 -20.71 0.99 189 180 135
-14.09 -20.78 0.99 165 156 111
-14.09 -20.86 0.98 167 154 91
-14.08 -20.93 0.98 174 161 98
-14.07 -21.01 0.97 188 169 101
-14.07 -21.09 0.96 213 194 126
-14.06 -21.17 0.95 198 175 106
-14.06 -21.24 0.95 180 157 88
-14.06 -21.32 0.95 170 144 76
-14.06 -21.39 0.95 161 135 67
-14.05 -21.47 0.94 167 140 79
-14.06 -21.54 0.95 147 120 59
-14.07 -21.62 0.95 168 139 90
-14.09 -21.68 0.98 195 166 117
-14.10 -21.75 1.00 191 172 117
-14.12 -21.81 1.02 194 175 120
-14.12 -21.88 1.04 228 211 174
-14.16 -21.94 1.08 233 216 179
-14.20 -21.99 1.14 64 48 46
-14.26 -22.03 1.22 47 31 29
-14.26 -22.10 1.23 64 51 70
-14.31 -22.15 1.30 33 20 39
-14.33 -22.21 1.32 99 92 106
-13.60 -22.71 0.31 238 231 245
-12.61 -23.37 -1.06 219 215 224
-12.43 -23.55 -1.31 203 199 208
-12.43 -23.63 -1.31 203 201 209
-12.38 -23.74 -1.38 203 201 209
-12.35 -23.84 -1.42 213 213 213
-12.35 -23.92 -1.42 207 207 207
-12.35 -24.00 -1.41 211 206 205
-12.36 -24.08 -1.41 211 206 205
-12.35 -24.16 -1.42 212 207 206
-12.35 -24.24 -1.42 213 208 207
-12.34 -24.32 -1.43 213 208 207
-12.34 -24.41 -1.43 214 209 208
-12.33 -24.49 -1.44 214 209 208
-12.33 -24.57 -1.44 216 211 210
-12.33 -24.65 -1.45 212 207 206
-12.32 -24.74 -1.45 212 207 206
-12.32 -24.82 -1.45 212 207 206
-12.32 -24.90 -1.45 212 207 206
-12.32 -24.98 -1.45 212 207 206
-12.32 -25.06 -1.46 212 207 206
-12.32 -25.14 -1.46 212 207 206
-12.31 -25.22 -1.47 212 207 206
-12.31 -25.30 -1.47 212 207 209
-12.31 -25.39 -1.47 212 207 209
-12.31 -25.47 -1.48 212 207 209
-12.30 -25.55 -1.48 212 207 209
-12.30 -25.63 -1.48 212 207 209
-12.30 -25.71 -1.49 212 207 209
-12.30 -25.79 -1.49 212 207 209
-12.30 -25.88 -1.49 213 208 210
-12.30 -25.95 -1.49 214 209 211
-12.30 -26.03 -1.49 214 209 211
-12.30 -26.12 -1.49 214 209 211
-12.30 -26.19 -1.49 216 211 213
-12.30 -26.27 -1.49 217 212 214
-12.30 -26.35 -1.48 217 212 214
-12.31 -26.43 -1.48 218 213 215
-12.31 -26.51 -1.48 217 212 214
-12.31 -26.59 -1.47 217 212 214
-12.31 -26.67 -1.48 217 212 214
-12.31 -26.75 -1.47 217 212 214
-12.31 -26.83 -1.47 217 212 214
-12.31 -26.90 -1.47 217 212 214
-12.31 -26.98 -1.47 217 212 214
-12.31 -27.06 -1.47 217 212 214
-12.31 -27.14 -1.47 217 212 214
-12.32 -27.22 -1.46 217 212 214
-12.31 -27.30 -1.47 217 212 214
-12.31 -27.38 -1.47 217 212 214
-12.32 -27.46 -1.46 217 212 214
-12.32 -27.54 -1.46 217 212 214
-12.32 -27.62 -1.46 217 212 214
-12.32 -27.70 -1.46 217 212 211
-12.32 -27.77 -1.45 217 212 211
-12.32 -27.86 -1.46 217 212 209
-12.32 -27.94 -1.46 217 212 209
-12.32 -28.02 -1.46 217 212 209
-12.32 -28.10 -1.46 217 212 209
-12.32 -28.17 -1.45 217 212 209
-12.33 -28.25 -1.45 217 212 209
-12.33 -28.33 -1.45 217 212 209
-12.32 -28.41 -1.45 217 212 209
-12.32 -28.49 -1.45 217 212 209
-12.33 -28.57 -1.44 217 212 209
-12.33 -28.65 -1.44 217 212 209
-12.33 -28.73 -1.45 217 212 209
-12.34 -28.80 -1.43 217 212 209
-12.33 -28.89 -1.44 217 212 209
-12.33 -28.97 -1.44 217 212 209
-12.33 -29.05 -1.44 217 212 209
-12.33 -29.13 -1.45 219 212 212
-12.32 -29.21 -1.45 219 212 212
-12.32 -29.30 -1.46 219 212 212
-12.33 -29.37 -1.45 219 212 212
-12.33 -29.45 -1.44 219 212 212
-12.33 -29.53 -1.44 219 212 212
-12.33 -29.61 -1.45 219 212 212
-12.33 -29.69 -1.45 219 212 212
-12.33 -29.77 -1.44 220 213 213
-12.33 -29.85 -1.45 220 213 213
-12.33 -29.93 -1.44 220 213 213
-12.33 -30.01 -1.44 220 213 213
-12.33 -30.09 -1.44 220 213 213
-12.34 -30.16 -1.43 220 213 213
-12.34 -30.24 -1.43 220 213 213
-12.35 -30.31 -1.42 220 213 213
-12.35 -30.39 -1.42 220 213 213
-12.35 -30.47 -1.41 220 213 213
-12.36 -30.54 -1.40 220 213 213
-12.37 -30.62 -1.39 220 213 213
-12.36 -30.70 -1.40 220 213 213
-12.36 -30.78 -1.40 220 213 213
-12.37 -30.86 -1.39 220 213 213
-12.37 -30.93 -1.39 220 213 213
-12.37 -31.02 -1.39 222 215 215
-12.37 -31.09 -1.39 222 215 215
-12.37 -31.18 -1.39 222 215 215
-12.37 -31.25 -1.39 222 215 215
-12.37 -31.33 -1.39 222 215 215
-12.38 -31.41 -1.38 222 215 215
-12.39 -31.47 -1.36 221 216 215
-12.42 -31.53 -1.32 223 218 217
-12.44 -31.59 -1.30 224 224 224
-12.47 -31.64 -1.25 221 221 221
-12.49 -31.70 -1.22 216 216 216
-12.49 -31.78 -1.22 237 237 237
-12.52 -31.84 -1.18 244 244 244
-12.63 -31.82 -1.03 251 251 251
-12.98 -31.59 -0.55 238 238 238
-13.30 -31.37 -0.10 244 244 244
-13.48 -31.28 0.15 255 255 255
-13.54 -31.31 0.22 250 250 250
-13.60 -31.33 0.31 255 255 255
-13.46 -31.54 0.11 243 243 243
-12.85 -32.17 -0.72 196 196 196
-12.47 -32.60 -1.26 207 207 207
-12.50 -32.65 -1.21 255 255 255
-12.29 -32.92 -1.50 230 230 230
-11.98 18.55 -2.05 135 129 120
-11.95 18.50 -2.09 136 130 121
-11.95 18.42 -2.10 136 130 121
-11.90 18.39 -2.17 137 131 122
-11.90 18.31 -2.17 137 131 122
-11.90 18.23 -2.17 139 133 124
-11.87 18.17 -2.20 139 133 124
-11.86 18.10 -2.22 139 133 124
-11.86 18.02 -2.22 137 131 122
-11.85 17.94 -2.23 137 131 122
-11.84 17.87 -2.24 137 131 122
-11.84 17.79 -2.25 137 131 122
-11.84 17.71 -2.25 137 131 122
-11.83 17.63 -2.26 137 131 122
-11.83 17.55 -2.26 137 131 122
-11.83 17.48 -2.27 137 131 122
-11.82 17.41 -2.28 139 130 122
-11.82 17.32 -2.28 141 132 124
-11.81 17.25 -2.29 141 132 124
-11.80 17.17 -2.30 141 132 124
-11.79 17.10 -2.31 141 132 124
-11.80 17.01 -2.31 141 132 124
-11.79 16.94 -2.32 141 132 124
-11.77 16.87 -2.34 141 132 124
-11.76 16.80 -2.36 142 133 125
-11.76 16.72 -2.36 143 134 126
-11.75 16.65 -2.37 143 134 126
-11.74 16.57 -2.39 143 134 126
-11.74 16.49 -2.39 143 134 126
-11.73 16.42 -2.40 143 134 126
-11.73 16.34 -2.41 143 134 126
-11.72 16.26 -2.42 145 136 128
-11.72 16.18 -2.42 148 139 133
-11.71 16.11 -2.43 148 139 133
-11.71 16.03 -2.43 148 139 133
-11.70 15.95 -2.44 148 139 133
-11.71 15.87 -2.43 148 139 133
-11.70 15.79 -2.44 148 139 133
-11.70 15.71 -2.45 149 140 134
-11.69 15.63 -2.45 149 140 134
-11.69 15.55 -2.46 149 140 134
-11.68 15.48 -2.47 149 140 134
-11.68 15.40 -2.47 149 140 134
-11.67 15.32 -2.48 149 140 134
-11.67 15.24 -2.49 147 141 134
-11.67 15.16 -2.49 147 141 134
-11.66 15.09 -2.50 147 141 134
-11.66 15.01 -2.50 148 142 135
-11.65 14.93 -2.51 147 141 134
-11.64 14.85 -2.52 147 141 134
-11.64 14.77 -2.52 148 142 135
-11.64 14.69 -2.53 148 142 135
-11.63 14.61 -2.53 149 143 136
-11.63 14.53 -2.54 149 143 136
-11.62 14.46 -2.55 150 144 137
-11.62 14.38 -2.55 150 144 137
-11.62 14.30 -2.56 151 145 138
-11.61 14.22 -2.57 153 147 140
-11.61 14.14 -2.57 153 147 140
-11.61 14.05 -2.57 153 147 140
-11.60 13.98 -2.58 153 147 140
-11.60 13.90 -2.58 153 147 140
-11.60 13.81 -2.58 153 147 140
-11.60 13.73 -2.58 153 147 140
-11.60 13.65 -2.58 154 148 141
-11.60 13.57 -2.58 154 148 141
-11.59 13.49 -2.59 154 148 141
-11.59 13.41 -2.59 154 148 141
-11.60 13.33 -2.58 154 148 141
-11.59 13.25 -2.59 154 148 141
-11.58 13.17 -2.60 154 148 141
-11.58 13.09 -2.60 154 148 141
-11.58 13.01 -2.60 155 149 142
-11.58 12.93 -2.61 155 149 142
-11.57 12.85 -2.62 156 150 143
-11.57 12.77 -2.62 156 150 143
-11.57 12.69 -2.62 157 151 144
-11.56 12.61 -2.63 157 151 144
-11.56 12.53 -2.63 158 152 145
-11.56 12.45 -2.64 158 152 145
-11.55 12.37 -2.65 159 155 147
-11.55 12.29 -2.65 159 155 147
-11.55 12.21 -2.66 159 155 147
-11.54 12.13 -2.66 159 155 147
-11.54 12.05 -2.67 159 155 147
-11.54 11.97 -2.67 159 155 147
-11.54 11.89 -2.67 159 155 147
-11.54 11.81 -2.67 160 156 148
-11.53 11.73 -2.68 161 157 149
-11.53 11.64 -2.67 161 157 149
-11.53 11.56 -2.68 161 157 149
-11.53 11.48 -2.68 161 157 149
-11.53 11.40 -2.68 161 157 149
-11.53 11.32 -2.68 161 157 149
-11.53 11.24 -2.68 161 157 149
-11.53 11.15 -2.68 161 157 149
-11.53 11.07 -2.68 161 157 151
-11.52 10.99 -2.69 162 158 152
-11.52 10.91 -2.69 162 158 152
-11.52 10.83 -2.69 163 159 153
-11.51 10.75 -2.70 163 159 153
-11.51 10.67 -2.70 164 160 154
-11.51 10.59 -2.71 164 160 154
-11.51 10.50 -2.71 166 162 156
-11.51 10.42 -2.71 166 162 156
-11.50 10.34 -2.72 166 162 156
-11.50 10.26 -2.72 166 162 156
-11.50 10.18 -2.72 166 162 156
-11.50 10.10 -2.73 166 162 156
-11.50 10.02 -2.73 166 162 156
-11.50 9.94 -2.73 166 162 156
-11.50 9.85 -2.72 166 162 156
-11.49 9.78 -2.74 168 162 155
-11.49 9.69 -2.74 168 162 155
-11.49 9.61 -2.73 169 163 156
-11.48 9.53 -2.74 169 163 156
-11.49 9.44 -2.73 169 165 157
-11.49 9.36 -2.73 169 165 157
-11.49 9.28 -2.73 170 166 158
-11.49 9.20 -2.73 170 166 158
-11.49 9.11 -2.73 169 168 159
-11.49 9.03 -2.74 169 168 159
-11.49 8.95 -2.74 171 170 161
-11.49 8.87 -2.73 171 170 161
-11.49 8.78 -2.73 171 172 162
-11.49 8.70 -2.74 171 172 162
-11.49 8.62 -2.73 173 172 163
-11.49 8.54 -2.73 173 172 163
-11.49 8.46 -2.74 173 172 165
-11.49 8.37 -2.73 173 172 165
-11.49 8.29 -2.73 173 172 165
-11.50 8.20 -2.73 173 172 165
-11.49 8.12 -2.73 173 172 165
-11.49 8.04 -2.73 173 172 165
-11.49 7.96 -2.73 173 172 165
-11.49 7.88 -2.73 174 173 166
-11.49 7.79 -2.73 175 174 167
-11.49 7.71 -2.73 175 174 167
-11.49 7.63 -2.74 176 175 168
-11.48 7.55 -2.74 176 175 168
-11.48 7.47 -2.74 177 176 169
-11.49 7.38 -2.74 177 176 169
-11.48 7.30 -2.74 179 177 173
-11.48 7.22 -2.74 180 178 174
-11.48 7.14 -2.75 180 178 176
-11.48 7.05 -2.74 180 178 176
-11.48 6.97 -2.75 180 178 176
-11.48 6.89 -2.74 180 178 176
-11.48 6.81 -2.75 181 179 177
-11.48 6.73 -2.75 181 179 177
-11.48 6.64 -2.74 181 179 177
-11.48 6.56 -2.74 181 179 177
-11.48 6.48 -2.75 181 179 177
-11.48 6.39 -2.74 181 179 177
-11.48 6.31 -2.74 181 179 177
-11.48 6.23 -2.74 181 179 177
-11.48 6.15 -2.74 182 180 176
-11.49 6.06 -2.73 182 180 176
-11.48 5.98 -2.75 181 181 176
-11.48 5.90 -2.75 181 181 176
-11.48 5.82 -2.74 181 181 176
-11.48 5.74 -2.75 181 181 176
-11.48 5.65 -2.75 181 181 176
-11.47 5.57 -2.76 181 181 176
-11.48 5.49 -2.75 181 181 176
-11.47 5.41 -2.76 181 181 176
-11.47 5.33 -2.76 181 181 176
-11.48 5.24 -2.75 181 181 176
-11.48 5.16 -2.75 180 180 175
-11.48 5.08 -2.75 180 180 175
-11.47 5.00 -2.76 180 180 175
-11.47 4.91 -2.76 180 180 175
-11.47 4.83 -2.76 180 180 175
-11.47 4.75 -2.76 180 180 175
-11.47 4.67 -2.76 180 180 175
-11.47 4.58 -2.76 180 180 175
-11.47 4.50 -2.76 181 181 176
-11.47 4.42 -2.76 180 180 175
-11.47 4.34 -2.76 180 180 175
-11.47 4.25 -2.76 179 179 174
-11.47 4.17 -2.76 179 179 174
-11.46 4.09 -2.77 178 178 173
-11.46 4.01 -2.77 178 178 173
-11.46 3.93 -2.77 178 178 173
-11.47 3.84 -2.76 178 178 173
-11.47 3.76 -2.76 176 176 171
-11.47 3.68 -2.76 176 176 171
-11.47 3.60 -2.76 175 175 170
-11.47 3.51 -2.76 175 175 170
-11.47 3.43 -2.76 174 174 169
-11.47 3.35 -2.76 174 174 169
-11.47 3.26 -2.76 174 174 169
-11.47 3.18 -2.76 174 174 169
-11.47 3.10 -2.76 174 174 169
-11.47 3.02 -2.76 174 174 169
-11.46 2.94 -2.77 174 174 169
-11.47 2.85 -2.76 174 174 169
-11.46 2.77 -2.77 174 174 169
-11.46 2.69 -2.77 174 174 169
-11.47 2.60 -2.76 174 174 169
-11.46 2.52 -2.77 173 173 168
-11.47 2.44 -2.76 173 173 168
-11.46 2.36 -2.77 173 173 168
-11.46 2.28 -2.77 173 173 168
-11.46 2.19 -2.77 173 173 168
-11.47 2.11 -2.76 173 173 168
-11.46 2.03 -2.77 173 173 168
-11.47 1.94 -2.76 173 173 168
-11.47 1.86 -2.76 172 172 167
-11.47 1.78 -2.76 172 172 167
-11.48 1.69 -2.75 172 172 167
-11.48 1.61 -2.74 172 172 167
-11.49 1.52 -2.73 172 172 167
-11.50 1.44 -2.72 172 172 167
-11.50 1.36 -2.72 172 172 167
-11.51 1.27 -2.70 172 172 167
-11.51 1.19 -2.71 172 172 167
-11.51 1.10 -2.70 172 172 167
-11.52 1.02 -2.70 172 172 167
-11.52 0.94 -2.69 172 172 167
-11.52 0.86 -2.70 172 172 167
-11.52 0.77 -2.69 172 172 167
-11.52 0.69 -2.69 172 173 165
-11.51 0.61 -2.70 172 173 165
-11.52 0.53 -2.69 172 172 167
-11.52 0.44 -2.69 172 172 167
-11.52 0.36 -2.70 172 172 167
-11.52 0.28 -2.70 172 172 167
-11.52 0.20 -2.69 172 172 167
-11.52 0.11 -2.69 172 172 167
-11.53 0.03 -2.68 172 172 167
-11.52 -0.05 -2.69 172 172 167
-11.52 -0.13 -2.69 172 172 167
-11.53 -0.22 -2.68 172 172 167
-11.53 -0.30 -2.67 172 172 167
-11.54 -0.38 -2.67 172 172 167
-11.54 -0.47 -2.66 172 172 167
-11.54 -0.55 -2.66 172 172 167
-11.55 -0.63 -2.66 172 172 167
-11.54 -0.72 -2.66 172 172 167
-11.55 -0.80 -2.65 171 171 166
-11.55 -0.88 -2.65 171 171 166
-11.55 -0.97 -2.65 169 171 166
-11.55 -1.05 -2.65 169 171 166
-11.56 -1.13 -2.63 169 171 166
-11.56 -1.21 -2.64 169 171 166
-11.56 -1.30 -2.63 169 171 166
-11.57 -1.38 -2.62 169 171 166
-11.57 -1.46 -2.62 170 172 167
-11.57 -1.55 -2.62 170 172 167
-11.57 -1.63 -2.62 170 172 167
-11.58 -1.71 -2.61 170 172 167
-11.58 -1.79 -2.61 170 172 167
-11.58 -1.88 -2.60 170 172 167
-11.58 -1.96 -2.60 170 172 167
-11.59 -2.04 -2.60 170 172 167
-11.58 -2.12 -2.60 168 176 166
-11.58 -2.21 -2.60 168 176 166
-11.59 -2.29 -2.60 168 176 166
-11.59 -2.37 -2.60 168 176 166
-11.59 -2.45 -2.59 168 175 168
-11.59 -2.54 -2.59 168 175 168
-11.59 -2.62 -2.59 169 174 170
-11.59 -2.70 -2.59 169 174 170
-11.59 -2.78 -2.59 169 174 170
-11.60 -2.87 -2.58 169 174 170
-11.59 -2.95 -2.59 169 174 170
-11.59 -3.03 -2.59 169 174 170
-11.60 -3.11 -2.58 169 174 170
-11.60 -3.19 -2.58 169 174 170
-11.60 -3.28 -2.58 170 175 171
-11.60 -3.36 -2.58 169 174 170
-11.61 -3.44 -2.57 172 174 171
-11.60 -3.52 -2.58 172 174 171
-11.60 -3.61 -2.58 173 175 172
-11.60 -3.69 -2.58 173 175 172
-11.61 -3.77 -2.57 174 176 173
-11.60 -3.85 -2.58 174 176 173
-11.60 -3.94 -2.58 174 176 173
-11.60 -4.02 -2.58 174 176 173
-11.60 -4.10 -2.58 174 176 173
-11.60 -4.18 -2.58 174 176 173
-11.60 -4.26 -2.58 174 176 173
-11.59 -4.34 -2.59 174 176 173
-11.59 -4.43 -2.60 174 176 173
-11.59 -4.51 -2.59 174 176 173
-11.59 -4.59 -2.59 174 176 176
-11.59 -4.67 -2.60 174 176 176
-11.58 -4.75 -2.60 174 176 176
-11.58 -4.84 -2.60 174 176 176
-11.58 -4.92 -2.61 174 176 176
-11.57 -5.00 -2.62 174 176 176
-11.57 -5.08 -2.62 174 176 176
-11.57 -5.17 -2.62 174 176 176
-11.57 -5.25 -2.63 174 176 176
-11.56 -5.33 -2.63 174 176 176
-11.56 -5.41 -2.64 176 178 178
-11.55 -5.49 -2.65 176 178 178
-11.56 -5.58 -2.64 176 178 178
-11.55 -5.66 -2.66 176 178 178
-11.54 -5.74 -2.67 176 178 178
-11.53 -5.82 -2.67 176 178 178
-11.53 -5.90 -2.68 174 179 175
-11.52 -5.99 -2.69 171 176 172
-11.51 -6.07 -2.70 170 175 171
-11.52 -6.15 -2.69 175 180 176
-11.51 -6.23 -2.71 175 180 176
-11.51 -6.31 -2.70 175 180 176
-11.51 -6.40 -2.70 174 179 175
-11.51 -6.48 -2.71 178 183 179
-11.51 -6.56 -2.71 176 181 177
-11.48 -6.64 -2.75 157 162 158
-11.43 -6.72 -2.81 155 160 156
-11.49 -6.81 -2.74 156 161 157
-11.88 -6.90 -2.19 182 187 183
-12.26 -6.99 -1.66 232 237 233
-12.34 -7.07 -1.56 255 255 255
-12.33 -7.15 -1.57 247 252 248
-12.32 -7.23 -1.58 246 251 247
-12.33 -7.31 -1.57 254 255 255
-12.34 -7.39 -1.55 246 253 251
-12.34 -7.47 -1.56 246 253 251
-12.34 -7.55 -1.55 246 253 251
-12.33 -7.63 -1.57 246 253 251
-12.33 -7.71 -1.57 246 253 251
-12.32 -7.79 -1.59 246 253 251
-12.30 -7.87 -1.62 246 253 251
-12.29 -7.95 -1.62 246 253 251
-12.28 -8.03 -1.64 246 253 251
-12.27 -8.11 -1.65 246 253 251
-12.26 -8.19 -1.66 246 253 251
-12.25 -8.27 -1.68 246 253 251
-12.24 -8.35 -1.69 246 253 251
-12.24 -8.43 -1.70 246 253 251
-12.24 -8.51 -1.70 246 253 251
-12.23 -8.59 -1.70 246 253 251
-12.23 -8.67 -1.70 246 253 251
-12.23 -8.75 -1.71 246 253 251
-12.22 -8.83 -1.72 246 253 251
-12.22 -8.91 -1.72 246 253 251
-12.22 -8.99 -1.72 246 253 251
-12.22 -9.07 -1.72 246 253 251
-12.21 -9.16 -1.73 246 253 251
-12.21 -9.24 -1.74 246 253 251
-12.20 -9.32 -1.75 246 253 251
-12.20 -9.40 -1.75 246 253 251
-12.20 -9.48 -1.75 246 253 251
-12.20 -9.56 -1.75 246 253 251
-12.19 -9.64 -1.76 246 253 251
-12.19 -9.72 -1.76 246 253 251
-12.20 -9.80 -1.75 246 253 251
-12.19 -9.88 -1.76 246 253 251
-12.19 -9.96 -1.77 246 253 251
-12.19 -10.04 -1.76 246 253 251
-12.19 -10.12 -1.76 246 253 251
-12.20 -10.20 -1.75 246 253 251
-12.19 -10.28 -1.76 246 253 251
-12.20 -10.36 -1.75 246 253 251
-12.20 -10.44 -1.75 246 253 251
-12.20 -10.52 -1.75 246 253 251
-12.20 -10.60 -1.75 246 253 251
-12.20 -10.68 -1.75 246 253 251
-12.21 -10.76 -1.74 246 253 251
-12.21 -10.84 -1.74 246 253 251
-12.22 -10.92 -1.73 246 253 251
-12.22 -11.00 -1.73 246 253 251
-12.23 -11.08 -1.71 246 253 251
-12.22 -11.16 -1.72 246 253 251
-12.23 -11.24 -1.71 246 253 251
-12.22 -11.32 -1.72 246 253 251
-12.22 -11.40 -1.72 246 253 251
-12.22 -11.49 -1.72 246 253 251
-12.21 -11.57 -1.74 246 253 251
-12.21 -11.65 -1.74 246 253 251
-12.21 -11.73 -1.74 246 253 251
-12.20 -11.81 -1.75 246 253 251
-12.20 -11.89 -1.75 246 253 251
-12.19 -11.97 -1.76 246 253 251
-12.19 -12.05 -1.76 246 253 251
-12.19 -12.13 -1.76 246 253 251
-12.19 -12.21 -1.76 246 253 251
-12.19 -12.29 -1.76 246 253 251
-12.20 -12.37 -1.75 246 253 251
-12.19 -12.46 -1.76 246 253 251
-12.19 -12.54 -1.77 246 253 251
-12.19 -12.62 -1.76 246 253 251
-12.19 -12.70 -1.76 246 253 251
-12.20 -12.78 -1.75 246 253 251
-12.21 -12.85 -1.74 246 253 251
-12.21 -12.94 -1.74 246 253 251
-12.21 -13.02 -1.74 246 253 251
-12.21 -13.10 -1.74 246 253 251
-12.21 -13.18 -1.74 244 251 249
-12.21 -13.26 -1.73 244 251 249
-12.21 -13.34 -1.73 244 251 249
-12.22 -13.42 -1.73 244 251 249
-12.23 -13.49 -1.71 244 251 249
-12.22 -13.57 -1.72 244 251 249
-12.23 -13.65 -1.70 244 251 249
-12.23 -13.73 -1.70 244 251 249
-12.23 -13.81 -1.70 244 251 249
-12.23 -13.89 -1.70 245 252 250
-12.24 -13.97 -1.70 246 251 250
-12.21 -14.06 -1.74 246 251 250
-12.12 -14.16 -1.85 247 252 251
-12.01 -14.27 -2.02 244 249 248
-11.87 -14.39 -2.21 230 232 232
-11.76 -14.49 -2.36 214 216 216
-11.69 -14.60 -2.46 199 201 201
-11.65 -14.69 -2.51 198 200 200
-11.64 -14.77 -2.52 196 196 196
-11.64 -14.85 -2.53 195 195 195
-11.65 -14.93 -2.51 194 194 194
-11.65 -15.02 -2.51 197 197 197
-11.65 -15.10 -2.51 198 196 197
-11.65 -15.18 -2.51 196 194 195
-11.64 -15.26 -2.52 197 197 194
-11.64 -15.35 -2.52 196 196 193
-11.65 -15.43 -2.51 194 196 193
-11.65 -15.51 -2.51 194 196 193
-11.66 -15.59 -2.50 194 196 193
-11.67 -15.67 -2.49 194 196 193
-11.67 -15.75 -2.49 194 196 193
-11.67 -15.83 -2.49 194 196 193
-11.67 -15.91 -2.49 193 195 192
-11.67 -15.99 -2.49 193 195 192
-11.66 -16.08 -2.50 193 195 192
-11.66 -16.16 -2.50 193 195 192
-11.67 -16.24 -2.49 193 195 192
-11.67 -16.32 -2.49 193 195 192
-11.66 -16.41 -2.50 195 195 192
-11.66 -16.49 -2.50 196 196 193
-11.66 -16.57 -2.50 197 197 194
-11.66 -16.65 -2.50 197 197 194
-11.65 -16.74 -2.51 197 197 194
-11.65 -16.82 -2.51 197 197 194
-11.65 -16.90 -2.51 197 197 194
-11.66 -16.98 -2.50 197 197 194
-11.66 -17.06 -2.50 197 197 194
-11.66 -17.15 -2.50 197 197 194
-11.65 -17.23 -2.51 197 197 194
-11.64 -17.32 -2.52 199 199 196
-11.64 -17.40 -2.52 199 199 196
-11.64 -17.48 -2.52 199 199 196
-11.65 -17.56 -2.51 199 199 196
-11.64 -17.64 -2.52 199 199 196
-11.64 -17.73 -2.52 199 199 196
-11.64 -17.81 -2.52 199 199 196
-11.64 -17.89 -2.52 195 197 194
-11.63 -17.97 -2.53 195 197 194
-11.63 -18.06 -2.54 195 197 194
-11.63 -18.14 -2.54 195 197 194
-11.63 -18.22 -2.54 195 197 194
-11.62 -18.31 -2.55 195 197 194
-11.62 -18.39 -2.55 195 197 194
-11.61 -18.47 -2.56 195 197 194
-11.60 -18.56 -2.58 188 190 187
-11.60 -18.65 -2.58 187 189 186
-11.60 -18.73 -2.58 184 186 183
-11.60 -18.81 -2.58 180 182 179
-11.61 -18.89 -2.57 176 178 175
-11.61 -18.97 -2.57 172 174 171
-11.61 -19.05 -2.57 170 172 169
-11.60 -19.14 -2.58 168 170 167
-11.60 -19.22 -2.58 173 173 173
-11.61 -19.30 -2.57 173 173 173
-11.61 -19.38 -2.56 173 173 173
-11.61 -19.46 -2.57 171 171 171
-11.62 -19.54 -2.55 168 168 168
-11.62 -19.62 -2.55 165 165 165
-11.63 -19.70 -2.53 161 161 161
-11.65 -19.77 -2.51 159 159 159
-11.66 -19.85 -2.50 161 161 161
-11.67 -19.93 -2.49 158 158 158
-11.69 -20.00 -2.45 153 153 153
-11.72 -20.07 -2.42 153 153 153
-11.74 -20.14 -2.39 158 158 158
-11.77 -20.21 -2.35 157 157 157
-11.81 -20.28 -2.29 154 154 154
-11.87 -20.33 -2.20 153 153 153
-11.94 -20.38 -2.11 157 155 153
-12.02 -20.42 -2.00 153 151 149
-12.07 -20.48 -1.93 121 121 118
-12.14 -20.53 -1.84 64 64 61
-12.25 -20.55 -1.68 44 44 39
-12.33 -20.59 -1.57 40 40 35
-12.51 -20.59 -1.32 31 33 33
-12.84 -20.51 -0.85 20 22 22
-13.20 -20.41 -0.36 8 7 22
-13.62 -20.28 0.22 20 19 34
-13.83 -20.25 0.51 28 28 54
-13.96 -20.26 0.70 36 36 62
-14.08 -20.28 0.85 57 58 79
-14.12 -20.34 0.91 30 31 52
-14.16 -20.39 0.96 7 12 18
-14.17 -20.46 0.99 0 4 10
-14.18 -20.53 1.00 40 33 31
-14.18 -20.60 1.00 125 118 116
-14.18 -20.68 0.99 196 190 165
-14.18 -20.75 1.00 200 194 169
-14.19 -20.82 1.01 181 173 121
-14.18 -20.90 1.00 156 148 96
-14.18 -20.97 1.00 144 132 64
-14.18 -21.05 0.99 180 168 100
-14.17 -21.13 0.98 184 169 92
-14.16 -21.21 0.97 193 178 101
-14.14 -21.30 0.94 214 194 117
-14.14 -21.37 0.94 207 187 110
-14.12 -21.46 0.92 191 165 95
-14.14 -21.52 0.94 170 144 74
-14.13 -21.60 0.93 164 137 72
-14.14 -21.67 0.94 163 136 71
-14.15 -21.74 0.95 174 150 84
-14.15 -21.81 0.96 151 127 61
-14.18 -21.87 1.00 186 164 115
-14.21 -21.93 1.05 207 185 136
-14.28 -21.97 1.13 70 49 36
-14.30 -22.03 1.16 35 14 1
-14.33 -22.08 1.21 62 47 57
-14.33 -22.16 1.20 46 31 41
-14.39 -22.20 1.28 54 46 52
-14.32 -22.31 1.19 197 189 195
-13.22 -23.03 -0.33 237 235 236
-12.50 -23.54 -1.34 201 199 200
-12.54 -23.59 -1.27 203 203 203
-12.51 -23.69 -1.31 208 208 208
-12.46 -23.80 -1.39 207 208 200
-12.47 -23.87 -1.37 206 207 199
-12.47 -23.95 -1.37 212 207 206
-12.47 -24.03 -1.37 212 207 206
-12.47 -24.11 -1.37 213 208 207
-12.47 -24.19 -1.38 213 208 207
-12.46 -24.28 -1.38 213 208 207
-12.46 -24.36 -1.38 213 208 207
-12.45 -24.44 -1.40 214 209 208
-12.45 -24.52 -1.40 214 209 208
-12.45 -24.60 -1.40 212 207 206
-12.45 -24.68 -1.40 212 207 206
-12.45 -24.76 -1.40 212 207 206
-12.45 -24.84 -1.40 212 207 206
-12.45 -24.92 -1.40 212 207 206
-12.45 -25.00 -1.40 212 207 206
-12.45 -25.08 -1.40 212 207 206
-12.45 -25.16 -1.40 212 207 206
-12.44 -25.24 -1.41 212 207 209
-12.44 -25.32 -1.41 212 207 209
-12.44 -25.41 -1.41 212 207 209
-12.44 -25.49 -1.41 212 207 209
-12.44 -25.57 -1.42 212 207 209
-12.43 -25.65 -1.42 212 207 209
-12.44 -25.72 -1.41 212 207 209
-12.44 -25.80 -1.41 212 207 209
-12.44 -25.89 -1.42 213 208 210
-12.43 -25.97 -1.42 214 209 211
-12.43 -26.05 -1.43 214 209 211
-12.43 -26.13 -1.42 216 211 213
-12.44 -26.21 -1.42 216 211 213
-12.44 -26.28 -1.42 217 212 214
-12.45 -26.36 -1.41 217 212 214
-12.44 -26.44 -1.42 217 212 214
-12.44 -26.52 -1.41 217 212 214
-12.45 -26.60 -1.41 217 212 214
-12.45 -26.68 -1.41 217 212 214
-12.45 -26.76 -1.41 217 212 214
-12.45 -26.83 -1.40 217 212 214
-12.45 -26.91 -1.40 217 212 214
-12.45 -26.99 -1.40 217 212 214
-12.46 -27.07 -1.39 217 212 214
-12.46 -27.15 -1.39 217 212 214
-12.45 -27.23 -1.40 217 212 214
-12.46 -27.31 -1.39 217 212 214
-12.46 -27.39 -1.39 217 212 214
-12.45 -27.47 -1.40 217 212 214
-12.46 -27.54 -1.39 217 212 214
-12.46 -27.63 -1.39 217 212 211
-12.46 -27.70 -1.39 217 212 211
-12.46 -27.78 -1.38 217 212 209
-12.46 -27.86 -1.38 217 212 209
-12.46 -27.94 -1.39 217 212 209
-12.46 -28.02 -1.38 217 212 209
-12.46 -28.10 -1.38 217 212 209
-12.46 -28.18 -1.38 217 212 209
-12.46 -28.26 -1.38 217 212 209
-12.47 -28.34 -1.38 217 212 209
-12.47 -28.41 -1.37 217 212 209
-12.47 -28.49 -1.37 217 212 209
-12.47 -28.57 -1.38 217 212 209
-12.47 -28.65 -1.37 217 212 209
-12.47 -28.73 -1.37 217 212 209
-12.47 -28.81 -1.37 217 212 209
-12.47 -28.89 -1.37 217 212 209
-12.47 -28.97 -1.38 217 212 209
-12.46 -29.06 -1.39 219 212 215
-12.46 -29.14 -1.39 219 212 215
-12.47 -29.21 -1.38 219 212 215
-12.46 -29.30 -1.39 219 212 215
-12.47 -29.37 -1.38 219 212 215
-12.46 -29.45 -1.38 219 212 215
-12.47 -29.53 -1.38 219 212 215
-12.47 -29.61 -1.37 219 212 215
-12.47 -29.69 -1.38 220 213 216
-12.47 -29.77 -1.38 220 213 216
-12.47 -29.85 -1.38 220 213 216
-12.47 -29.93 -1.37 220 213 216
-12.47 -30.00 -1.37 220 213 216
-12.48 -30.08 -1.36 220 213 216
-12.48 -30.16 -1.36 220 213 216
-12.48 -30.24 -1.36 220 213 216
-12.49 -30.31 -1.35 220 213 216
-12.48 -30.39 -1.36 220 213 216
-12.48 -30.47 -1.36 220 213 216
-12.49 -30.55 -1.35 220 213 216
-12.49 -30.62 -1.34 220 213 216
-12.49 -30.70 -1.34 220 213 216
-12.49 -30.78 -1.34 220 213 216
-12.50 -30.86 -1.33 220 213 216
-12.50 -30.94 -1.34 221 214 217
-12.50 -31.01 -1.33 222 215 218
-12.51 -31.09 -1.33 222 215 218
-12.51 -31.17 -1.33 222 215 218
-12.51 -31.25 -1.32 222 215 218
-12.52 -31.32 -1.30 222 215 218
-12.54 -31.38 -1.28 221 216 218
-12.56 -31.44 -1.25 223 218 220
-12.57 -31.51 -1.24 223 223 223
-12.59 -31.57 -1.21 218 218 218
-12.61 -31.63 -1.18 215 215 215
-12.62 -31.70 -1.16 234 234 234
-12.64 -31.76 -1.14 251 251 251
-12.69 -31.80 -1.06 250 250 250
-12.95 -31.64 -0.70 214 214 214
-13.30 -31.40 -0.22 217 217 217
-13.53 -31.27 0.10 250 250 250
-13.61 -31.27 0.21 249 249 249
-13.69 -31.28 0.31 253 253 253
-13.63 -31.41 0.24 250 250 250
-13.18 -31.91 -0.40 201 201 201
-12.68 -32.44 -1.08 204 204 204
-12.63 -32.57 -1.15 255 255 255
-12.47 -32.80 -1.38 231 231 231
-12.10 18.48 -2.01 135 129 120
-12.07 18.43 -2.06 135 129 120
-12.07 18.35 -2.06 135 129 120
-12.01 18.32 -2.13 136 130 121
-12.02 18.24 -2.13 137 131 122
-12.01 18.16 -2.13 137 131 122
-11.99 18.10 -2.17 139 133 124
-11.98 18.03 -2.18 139 133 124
-11.97 17.95 -2.19 137 131 122
-11.97 17.88 -2.20 137 131 122
-11.96 17.80 -2.20 137 131 122
-11.96 17.72 -2.21 137 131 122
-11.95 17.64 -2.22 137 131 122
-11.95 17.57 -2.23 137 131 122
-11.94 17.49 -2.23 137 131 122
-11.94 17.41 -2.23 137 131 122
-11.93 17.34 -2.24 139 130 122
-11.93 17.26 -2.25 141 132 124
-11.92 17.18 -2.26 141 132 124
-11.92 17.11 -2.27 141 132 124
-11.91 17.03 -2.28 141 132 124
-11.90 16.96 -2.29 141 132 124
-11.90 16.88 -2.30 141 132 124
-11.88 16.81 -2.31 141 132 124
-11.87 16.74 -2.33 142 133 125
-11.87 16.66 -2.34 143 134 126
-11.85 16.59 -2.36 143 134 126
-11.85 16.52 -2.36 143 134 126
-11.84 16.44 -2.37 143 134 126
-11.84 16.36 -2.38 143 134 126
-11.83 16.28 -2.38 143 134 126
-11.82 16.21 -2.40 145 136 128
-11.82 16.13 -2.40 148 139 133
-11.81 16.06 -2.42 148 139 133
-11.81 15.98 -2.42 148 139 133
-11.81 15.89 -2.41 148 139 133
-11.81 15.82 -2.42 148 139 133
-11.80 15.74 -2.43 148 139 133
-11.80 15.66 -2.43 149 140 134
-11.80 15.58 -2.43 149 140 134
-11.80 15.50 -2.43 149 140 134
-11.80 15.42 -2.43 149 140 134
-11.79 15.34 -2.44 149 140 134
-11.78 15.27 -2.46 149 140 134
-11.78 15.19 -2.46 147 141 134
-11.77 15.11 -2.47 147 141 134
-11.77 15.03 -2.47 147 141 134
-11.76 14.95 -2.48 148 142 135
-11.76 14.87 -2.49 147 141 134
-11.76 14.79 -2.49 147 141 134
-11.75 14.72 -2.50 148 142 135
-11.75 14.64 -2.51 148 142 135
-11.75 14.56 -2.51 149 143 136
-11.74 14.48 -2.52 149 143 136
-11.73 14.40 -2.52 150 144 137
-11.73 14.33 -2.53 150 144 137
-11.73 14.24 -2.53 151 145 138
-11.72 14.16 -2.54 153 147 140
-11.72 14.08 -2.54 153 147 140
-11.72 14.00 -2.54 153 147 140
-11.72 13.92 -2.54 153 147 140
-11.72 13.84 -2.54 153 147 140
-11.72 13.76 -2.55 153 147 140
-11.72 13.68 -2.55 153 147 140
-11.71 13.60 -2.55 154 148 141
-11.71 13.52 -2.55 154 148 141
-11.71 13.44 -2.56 154 148 141
-11.70 13.36 -2.57 154 148 141
-11.70 13.28 -2.57 154 148 141
-11.71 13.19 -2.56 154 148 141
-11.70 13.12 -2.58 154 148 141
-11.70 13.04 -2.58 154 148 141
-11.70 12.96 -2.58 155 149 142
-11.69 12.88 -2.58 155 149 142
-11.69 12.80 -2.58 156 150 143
-11.69 12.72 -2.59 156 150 143
-11.68 12.64 -2.59 157 151 144
-11.68 12.55 -2.59 157 151 144
-11.67 12.48 -2.61 158 152 145
-11.67 12.40 -2.61 158 152 145
-11.67 12.32 -2.62 159 155 147
-11.67 12.24 -2.62 159 155 147
-11.66 12.16 -2.63 159 155 147
-11.65 12.08 -2.64 159 155 147
-11.66 12.00 -2.63 159 155 147
-11.65 11.92 -2.64 159 155 147
-11.65 11.84 -2.64 159 155 147
-11.64 11.76 -2.65 160 156 148
-11.64 11.68 -2.65 161 157 149
-11.64 11.60 -2.65 161 157 149
-11.64 11.51 -2.65 161 157 149
-11.64 11.43 -2.65 161 157 149
-11.64 11.35 -2.66 161 157 149
-11.64 11.27 -2.66 161 157 149
-11.64 11.19 -2.66 161 157 149
-11.63 11.11 -2.66 161 157 149
-11.63 11.03 -2.66 161 157 151
-11.63 10.95 -2.66 162 158 152
-11.63 10.87 -2.67 162 158 152
-11.63 10.78 -2.67 163 159 153
-11.62 10.71 -2.68 163 159 153
-11.62 10.63 -2.68 164 160 154
-11.62 10.54 -2.68 164 160 154
-11.61 10.46 -2.69 166 162 156
-11.61 10.38 -2.69 166 162 156
-11.61 10.30 -2.69 166 162 156
-11.60 10.22 -2.70 166 162 156
-11.61 10.14 -2.70 166 162 156
-11.61 10.06 -2.70 166 162 156
-11.61 9.97 -2.70 166 162 156
-11.60 9.90 -2.71 166 162 156
-11.60 9.81 -2.70 166 162 156
-11.60 9.73 -2.71 168 162 155
-11.60 9.65 -2.71 168 162 155
-11.60 9.57 -2.70 169 163 156
-11.60 9.49 -2.71 169 163 156
-11.60 9.40 -2.71 169 165 157
-11.60 9.32 -2.70 169 165 157
-11.60 9.24 -2.70 170 166 158
-11.61 9.15 -2.70 170 166 158
-11.61 9.07 -2.70 169 168 159
-11.60 8.99 -2.71 169 168 159
-11.60 8.91 -2.71 171 170 161
-11.60 8.83 -2.71 171 170 161
-11.60 8.74 -2.71 171 172 162
-11.60 8.66 -2.71 171 172 162
-11.60 8.58 -2.71 173 172 163
-11.61 8.49 -2.70 173 172 163
-11.61 8.41 -2.70 173 172 165
-11.61 8.33 -2.70 173 172 165
-11.61 8.25 -2.70 173 172 165
-11.60 8.17 -2.70 173 172 165
-11.60 8.08 -2.70 173 172 165
-11.60 8.00 -2.70 173 172 165
-11.60 7.92 -2.71 173 172 165
-11.60 7.84 -2.71 174 173 166
-11.60 7.76 -2.71 175 174 167
-11.60 7.68 -2.71 175 174 167
-11.60 7.59 -2.71 176 175 168
-11.60 7.51 -2.70 176 175 168
-11.60 7.43 -2.70 177 176 169
-11.60 7.35 -2.71 177 176 169
-11.60 7.26 -2.71 179 177 173
-11.60 7.18 -2.71 180 178 174
-11.60 7.10 -2.71 180 178 176
-11.59 7.02 -2.72 180 178 176
-11.59 6.94 -2.72 180 178 176
-11.59 6.86 -2.72 180 178 176
-11.60 6.77 -2.71 181 179 177
-11.59 6.69 -2.72 181 179 177
-11.60 6.61 -2.71 181 179 177
-11.60 6.52 -2.71 181 179 177
-11.59 6.44 -2.72 181 179 177
-11.59 6.36 -2.72 181 179 177
-11.60 6.28 -2.71 181 179 177
-11.60 6.19 -2.71 181 179 177
-11.60 6.11 -2.70 182 180 176
-11.61 6.03 -2.70 182 180 176
-11.60 5.95 -2.71 181 181 176
-11.60 5.86 -2.71 181 181 176
-11.60 5.78 -2.71 181 181 176
-11.59 5.70 -2.72 181 181 176
-11.59 5.62 -2.72 181 181 176
-11.59 5.54 -2.72 181 181 176
-11.59 5.46 -2.72 181 181 176
-11.59 5.37 -2.72 181 181 176
-11.59 5.29 -2.72 181 181 176
-11.59 5.21 -2.73 181 181 176
-11.59 5.13 -2.72 180 180 175
-11.59 5.05 -2.72 180 180 175
-11.58 4.97 -2.73 180 180 175
-11.59 4.88 -2.73 180 180 175
-11.59 4.80 -2.73 180 180 175
-11.59 4.72 -2.73 180 180 175
-11.59 4.63 -2.72 180 180 175
-11.58 4.55 -2.73 180 180 175
-11.59 4.47 -2.73 181 181 176
-11.58 4.39 -2.73 180 180 175
-11.58 4.31 -2.74 180 180 175
-11.58 4.23 -2.74 179 179 174
-11.58 4.15 -2.74 179 179 174
-11.58 4.06 -2.74 178 178 173
-11.57 3.98 -2.75 178 178 173
-11.57 3.90 -2.75 178 178 173
-11.57 3.82 -2.75 178 178 173
-11.57 3.73 -2.75 176 176 171
-11.58 3.65 -2.74 176 176 171
-11.57 3.57 -2.75 175 175 170
-11.58 3.48 -2.73 175 175 170
-11.58 3.40 -2.73 174 174 169
-11.58 3.32 -2.74 174 174 169
-11.58 3.24 -2.74 174 174 169
-11.58 3.16 -2.74 174 174 169
-11.58 3.07 -2.74 174 174 169
-11.58 2.99 -2.73 174 174 169
-11.58 2.91 -2.74 174 174 169
-11.58 2.83 -2.74 174 174 169
-11.58 2.75 -2.74 174 174 169
-11.57 2.66 -2.75 174 174 169
-11.57 2.58 -2.75 174 174 169
-11.57 2.50 -2.75 173 173 168
-11.57 2.42 -2.75 173 173 168
-11.57 2.34 -2.75 173 173 168
-11.57 2.25 -2.75 173 173 168
-11.58 2.17 -2.74 173 173 168
-11.57 2.09 -2.75 173 173 168
-11.57 2.00 -2.75 173 173 168
-11.58 1.92 -2.74 173 173 168
-11.58 1.84 -2.73 172 172 167
-11.59 1.75 -2.73 172 172 167
-11.59 1.67 -2.72 172 172 167
-11.59 1.59 -2.72 172 172 167
-11.60 1.50 -2.70 172 172 167
-11.61 1.42 -2.70 172 172 167
-11.61 1.33 -2.69 172 172 167
-11.62 1.25 -2.68 172 172 167
-11.62 1.17 -2.68 172 172 167
-11.62 1.08 -2.68 172 172 167
-11.62 1.00 -2.67 172 172 167
-11.63 0.92 -2.67 172 172 167
-11.62 0.84 -2.67 172 172 167
-11.63 0.75 -2.67 172 172 167
-11.62 0.67 -2.67 172 173 165
-11.63 0.59 -2.67 172 173 165
-11.63 0.51 -2.66 172 172 167
-11.63 0.42 -2.66 172 172 167
-11.63 0.34 -2.66 172 172 167
-11.63 0.26 -2.66 172 172 167
-11.64 0.17 -2.65 172 172 167
-11.64 0.09 -2.65 172 172 167
-11.64 0.01 -2.66 172 172 167
-11.64 -0.07 -2.65 172 172 167
-11.64 -0.15 -2.65 172 172 167
-11.64 -0.24 -2.65 172 172 167
-11.64 -0.32 -2.65 172 172 167
-11.65 -0.40 -2.64 172 172 167
-11.65 -0.49 -2.64 172 172 167
-11.65 -0.57 -2.64 172 172 167
-11.66 -0.65 -2.63 172 172 167
-11.66 -0.73 -2.63 172 172 167
-11.66 -0.82 -2.63 171 171 166
-11.67 -0.90 -2.61 171 171 166
-11.67 -0.98 -2.61 169 171 166
-11.67 -1.07 -2.61 169 171 166
-11.67 -1.15 -2.61 169 171 166
-11.68 -1.23 -2.60 169 171 166
-11.68 -1.31 -2.60 169 171 166
-11.69 -1.40 -2.58 169 171 166
-11.69 -1.48 -2.58 170 172 167
-11.69 -1.56 -2.58 170 172 167
-11.69 -1.64 -2.58 170 172 167
-11.70 -1.73 -2.58 170 172 167
-11.70 -1.81 -2.58 170 172 167
-11.70 -1.89 -2.58 170 172 167
-11.70 -1.97 -2.57 170 172 167
-11.70 -2.06 -2.57 170 172 167
-11.70 -2.14 -2.57 168 176 166
-11.70 -2.22 -2.57 168 176 166
-11.71 -2.30 -2.56 168 176 166
-11.71 -2.38 -2.56 168 176 166
-11.71 -2.47 -2.56 168 175 168
-11.71 -2.55 -2.56 168 175 168
-11.71 -2.63 -2.56 169 174 170
-11.71 -2.71 -2.56 169 174 170
-11.71 -2.80 -2.56 169 174 170
-11.71 -2.88 -2.56 169 174 170
-11.71 -2.96 -2.56 169 174 170
-11.71 -3.04 -2.56 169 174 170
-11.71 -3.12 -2.56 169 174 170
-11.71 -3.21 -2.56 169 174 170
-11.71 -3.29 -2.55 170 175 171
-11.72 -3.37 -2.54 169 174 170
-11.72 -3.45 -2.54 172 174 171
-11.72 -3.53 -2.55 172 174 171
-11.72 -3.62 -2.54 172 174 171
-11.72 -3.70 -2.54 173 175 172
-11.72 -3.78 -2.54 173 175 172
-11.72 -3.86 -2.55 174 176 173
-11.72 -3.94 -2.55 174 176 173
-11.72 -4.03 -2.54 173 175 172
-11.72 -4.11 -2.55 173 175 172
-11.72 -4.19 -2.55 173 175 172
-11.72 -4.27 -2.55 173 175 172
-11.71 -4.35 -2.55 173 175 172
-11.72 -4.44 -2.55 173 175 172
-11.72 -4.52 -2.54 173 175 172
-11.71 -4.60 -2.56 174 176 176
-11.70 -4.68 -2.57 174 176 176
-11.70 -4.76 -2.57 174 176 176
-11.70 -4.84 -2.58 174 176 176
-11.69 -4.93 -2.58 174 176 176
-11.69 -5.01 -2.58 174 176 176
-11.69 -5.09 -2.59 174 176 176
-11.69 -5.17 -2.59 174 176 176
-11.69 -5.25 -2.59 174 176 176
-11.68 -5.33 -2.60 174 176 176
-11.67 -5.42 -2.61 176 178 178
-11.67 -5.50 -2.62 176 178 178
-11.66 -5.58 -2.63 176 178 178
-11.66 -5.66 -2.62 176 178 178
-11.65 -5.74 -2.64 176 178 178
-11.64 -5.82 -2.65 176 178 178
-11.64 -5.91 -2.66 174 179 175
-11.63 -5.99 -2.66 172 177 173
-11.62 -6.07 -2.68 171 176 172
-11.62 -6.15 -2.67 169 174 170
-11.62 -6.23 -2.68 171 176 172
-11.62 -6.32 -2.67 175 180 176
-11.62 -6.40 -2.67 175 180 176
-11.63 -6.48 -2.67 179 184 180
-11.62 -6.56 -2.68 179 184 180
-11.58 -6.64 -2.73 169 174 170
-11.57 -6.73 -2.75 156 161 157
-11.75 -6.81 -2.51 171 176 172
-12.21 -6.90 -1.86 224 229 225
-12.45 -6.99 -1.53 253 255 254
-12.45 -7.07 -1.53 251 255 252
-12.46 -7.15 -1.51 246 251 247
-12.45 -7.23 -1.53 244 249 245
-12.44 -7.31 -1.54 255 255 255
-12.44 -7.39 -1.54 246 253 251
-12.44 -7.47 -1.54 246 253 251
-12.44 -7.55 -1.54 246 253 251
-12.44 -7.63 -1.54 246 253 251
-12.43 -7.71 -1.55 246 253 251
-12.42 -7.79 -1.57 246 253 251
-12.41 -7.87 -1.59 246 253 251
-12.40 -7.95 -1.59 246 253 251
-12.39 -8.03 -1.61 246 253 251
-12.38 -8.11 -1.62 246 253 251
-12.38 -8.19 -1.63 246 253 251
-12.37 -8.27 -1.64 246 253 251
-12.36 -8.35 -1.65 246 253 251
-12.35 -8.43 -1.66 246 253 251
-12.35 -8.51 -1.66 246 253 251
-12.35 -8.59 -1.67 246 253 251
-12.35 -8.67 -1.67 246 253 251
-12.34 -8.75 -1.67 246 253 251
-12.34 -8.83 -1.68 246 253 251
-12.33 -8.91 -1.69 246 253 251
-12.33 -8.99 -1.69 246 253 251
-12.33 -9.07 -1.70 246 253 251
-12.32 -9.15 -1.70 246 253 251
-12.32 -9.23 -1.71 246 253 251
-12.32 -9.31 -1.71 246 253 251
-12.32 -9.39 -1.71 246 253 251
-12.31 -9.47 -1.72 246 253 251
-12.32 -9.55 -1.71 246 253 251
-12.31 -9.63 -1.72 246 253 251
-12.32 -9.71 -1.71 246 253 251
-12.31 -9.79 -1.72 246 253 251
-12.31 -9.87 -1.72 246 253 251
-12.31 -9.95 -1.72 246 253 251
-12.31 -10.03 -1.72 246 253 251
-12.32 -10.11 -1.71 246 253 251
-12.32 -10.19 -1.70 246 253 251
-12.33 -10.27 -1.70 246 253 251
-12.32 -10.35 -1.71 246 253 251
-12.32 -10.43 -1.70 246 253 251
-12.32 -10.51 -1.70 246 253 251
-12.32 -10.59 -1.70 246 253 251
-12.33 -10.67 -1.69 246 253 251
-12.33 -10.75 -1.69 246 253 251
-12.34 -10.83 -1.68 246 253 251
-12.34 -10.91 -1.67 246 253 251
-12.34 -10.99 -1.67 246 253 251
-12.34 -11.07 -1.67 246 253 251
-12.34 -11.15 -1.67 246 253 251
-12.34 -11.23 -1.67 246 253 251
-12.35 -11.31 -1.67 246 253 251
-12.34 -11.39 -1.67 246 253 251
-12.34 -11.47 -1.68 246 253 251
-12.33 -11.56 -1.69 246 253 251
-12.33 -11.64 -1.70 246 253 251
-12.32 -11.72 -1.70 246 253 251
-12.32 -11.80 -1.71 246 253 251
-12.31 -11.88 -1.72 246 253 251
-12.31 -11.96 -1.72 246 253 251
-12.31 -12.04 -1.72 246 253 251
-12.32 -12.12 -1.71 246 253 251
-12.31 -12.20 -1.72 246 253 251
-12.31 -12.28 -1.72 246 253 251
-12.31 -12.36 -1.72 246 253 251
-12.31 -12.44 -1.72 246 253 251
-12.31 -12.52 -1.72 246 253 251
-12.31 -12.60 -1.72 246 253 251
-12.31 -12.68 -1.72 246 253 251
-12.32 -12.76 -1.71 246 253 251
-12.32 -12.84 -1.71 246 253 251
-12.32 -12.92 -1.70 246 253 251
-12.33 -13.00 -1.70 246 253 251
-12.33 -13.08 -1.69 246 253 251
-12.33 -13.16 -1.70 244 251 249
-12.33 -13.24 -1.70 244 251 249
-12.33 -13.32 -1.70 244 251 249
-12.33 -13.40 -1.69 244 251 249
-12.33 -13.48 -1.69 244 251 249
-12.34 -13.56 -1.68 244 251 249
-12.34 -13.64 -1.67 244 251 249
-12.36 -13.71 -1.66 244 251 249
-12.37 -13.79 -1.64 245 252 250
-12.38 -13.87 -1.62 245 252 250
-12.39 -13.95 -1.61 246 251 250
-12.39 -14.03 -1.61 246 251 250
-12.38 -14.11 -1.63 244 249 248
-12.31 -14.21 -1.72 240 245 244
-12.21 -14.31 -1.86 243 245 245
-12.06 -14.43 -2.07 246 248 248
-11.93 -14.54 -2.25 232 234 234
-11.84 -14.65 -2.38 208 210 210
-11.79 -14.74 -2.44 193 193 193
-11.78 -14.83 -2.46 189 189 189
-11.76 -14.91 -2.48 196 196 196
-11.77 -14.99 -2.47 199 199 199
-11.76 -15.08 -2.48 201 199 200
-11.76 -15.16 -2.48 201 199 200
-11.76 -15.24 -2.49 195 195 192
-11.76 -15.32 -2.48 193 193 190
-11.76 -15.41 -2.49 192 194 191
-11.77 -15.49 -2.48 193 195 192
-11.78 -15.56 -2.45 193 195 192
-11.79 -15.64 -2.44 194 196 193
-11.79 -15.72 -2.44 195 197 194
-11.80 -15.80 -2.43 195 197 194
-11.80 -15.89 -2.43 193 195 192
-11.80 -15.97 -2.43 193 195 192
-11.80 -16.05 -2.43 193 195 192
-11.80 -16.13 -2.43 193 195 192
-11.80 -16.21 -2.43 193 195 192
-11.80 -16.29 -2.43 193 195 192
-11.79 -16.38 -2.44 195 195 192
-11.80 -16.46 -2.43 196 196 193
-11.80 -16.54 -2.43 197 197 194
-11.80 -16.62 -2.43 197 197 194
-11.80 -16.70 -2.43 197 197 194
-11.79 -16.79 -2.44 197 197 194
-11.79 -16.87 -2.44 197 197 194
-11.79 -16.95 -2.44 197 197 194
-11.79 -17.03 -2.44 197 197 194
-11.79 -17.11 -2.44 197 197 194
-11.78 -17.20 -2.45 197 197 194
-11.78 -17.28 -2.46 199 199 196
-11.78 -17.36 -2.46 199 199 196
-11.78 -17.45 -2.46 199 199 196
-11.77 -17.53 -2.47 199 199 196
-11.77 -17.61 -2.47 199 199 196
-11.77 -17.69 -2.47 199 199 196
-11.77 -17.78 -2.48 199 199 196
-11.77 -17.86 -2.47 194 196 193
-11.77 -17.94 -2.47 194 196 193
-11.76 -18.02 -2.48 195 197 194
-11.76 -18.11 -2.48 197 199 196
-11.76 -18.19 -2.48 198 200 197
-11.76 -18.27 -2.49 199 201 198
-11.75 -18.36 -2.50 199 201 198
-11.74 -18.44 -2.51 200 202 199
-11.74 -18.52 -2.52 195 197 194
-11.73 -18.61 -2.52 194 196 193
-11.74 -18.69 -2.52 192 194 191
-11.74 -18.77 -2.52 188 190 187
-11.73 -18.85 -2.52 184 186 183
-11.74 -18.93 -2.51 180 182 179
-11.74 -19.01 -2.51 178 180 177
-11.74 -19.10 -2.52 177 179 176
-11.74 -19.18 -2.52 170 170 170
-11.74 -19.26 -2.51 170 170 170
-11.74 -19.34 -2.51 170 170 170
-11.74 -19.42 -2.51 170 170 170
-11.75 -19.50 -2.50 170 170 170
-11.76 -19.58 -2.48 170 170 170
-11.77 -19.66 -2.48 168 168 168
-11.78 -19.74 -2.46 168 168 168
-11.79 -19.81 -2.44 165 165 165
-11.80 -19.89 -2.43 163 163 163
-11.83 -19.96 -2.39 156 156 156
-11.85 -20.03 -2.36 151 151 151
-11.87 -20.10 -2.33 149 149 149
-11.89 -20.17 -2.30 144 144 144
-11.92 -20.24 -2.26 138 138 138
-11.99 -20.29 -2.17 137 137 137
-12.05 -20.34 -2.08 138 136 134
-12.14 -20.38 -1.96 132 130 128
-12.20 -20.43 -1.87 105 105 102
-12.25 -20.49 -1.80 48 48 45
-12.33 -20.53 -1.69 51 51 46
-12.39 -20.58 -1.60 55 55 50
-12.52 -20.60 -1.43 53 55 55
-12.79 -20.55 -1.06 25 27 27
-13.14 -20.46 -0.56 14 13 28
-13.61 -20.31 0.08 11 10 25
-13.87 -20.25 0.45 20 20 46
-14.03 -20.25 0.67 18 18 44
-14.13 -20.27 0.81 36 37 58
-14.19 -20.32 0.90 42 43 64
-14.25 -20.36 0.99 48 53 59
-14.28 -20.42 1.02 12 17 23
-14.29 -20.49 1.03 10 3 1
-14.29 -20.57 1.03 15 8 6
-14.29 -20.64 1.04 94 88 63
-14.29 -20.72 1.03 187 181 156
-14.29 -20.79 1.03 235 227 175
-14.28 -20.87 1.02 239 231 179
-14.27 -20.95 1.01 204 192 124
-14.27 -21.02 1.00 186 174 106
-14.25 -21.11 0.98 178 163 86
-14.24 -21.19 0.97 168 153 76
-14.23 -21.27 0.95 178 158 81
-14.21 -21.35 0.92 189 169 92
-14.20 -21.43 0.91 197 171 101
-14.20 -21.51 0.90 199 173 103
-14.19 -21.59 0.90 203 176 111
-14.19 -21.66 0.90 181 154 89
-14.20 -21.73 0.91 180 156 90
-14.21 -21.80 0.92 142 118 52
-14.24 -21.86 0.96 150 128 79
-14.29 -21.91 1.03 162 140 91
-14.34 -21.95 1.10 91 70 57
-14.36 -22.02 1.13 40 19 6
-14.38 -22.08 1.16 40 25 35
-14.41 -22.13 1.20 56 41 51
-14.42 -22.20 1.21 35 27 33
-14.54 -22.21 1.38 142 134 140
-13.81 -22.71 0.37 240 238 239
-12.66 -23.47 -1.24 210 208 209
-12.62 -23.57 -1.28 202 202 202
-12.61 -23.65 -1.30 201 201 201
-12.57 -23.76 -1.36 208 209 201
-12.57 -23.84 -1.36 207 208 200
-12.57 -23.92 -1.36 210 205 204
-12.58 -23.99 -1.35 210 205 204
-12.58 -24.07 -1.35 211 206 205
-12.57 -24.15 -1.35 211 206 205
-12.57 -24.23 -1.36 212 207 206
-12.56 -24.32 -1.37 212 207 206
-12.56 -24.40 -1.37 213 208 207
-12.56 -24.48 -1.37 213 208 207
-12.56 -24.56 -1.38 211 206 205
-12.56 -24.64 -1.37 211 206 205
-12.56 -24.72 -1.38 211 206 205
-12.56 -24.79 -1.37 211 206 205
-12.56 -24.87 -1.37 211 206 205
-12.57 -24.95 -1.36 211 206 205
-12.56 -25.03 -1.37 211 206 205
-12.56 -25.11 -1.37 211 206 205
-12.56 -25.19 -1.37 211 206 208
-12.56 -25.28 -1.38 211 206 208
-12.55 -25.36 -1.38 211 206 208
-12.55 -25.44 -1.38 211 206 208
-12.55 -25.52 -1.38 211 206 208
-12.55 -25.60 -1.38 211 206 208
-12.55 -25.68 -1.39 211 206 208
-12.56 -25.75 -1.38 212 207 209
-12.56 -25.83 -1.38 213 208 210
-12.55 -25.91 -1.38 213 208 210
-12.55 -25.99 -1.38 213 208 210
-12.55 -26.07 -1.38 214 209 211
-12.55 -26.15 -1.38 216 211 213
-12.55 -26.23 -1.38 216 211 213
-12.55 -26.31 -1.38 217 212 214
-12.56 -26.39 -1.38 217 212 214
-12.56 -26.47 -1.38 217 212 214
-12.56 -26.55 -1.38 217 212 214
-12.56 -26.63 -1.37 217 212 214
-12.56 -26.70 -1.37 217 212 214
-12.57 -26.78 -1.36 217 212 214
-12.57 -26.86 -1.36 217 212 214
-12.57 -26.94 -1.36 217 212 214
-12.58 -27.01 -1.35 217 212 214
-12.57 -27.09 -1.35 217 212 214
-12.57 -27.17 -1.35 217 212 214
-12.58 -27.25 -1.35 217 212 214
-12.57 -27.33 -1.35 217 212 214
-12.58 -27.41 -1.35 217 212 214
-12.58 -27.49 -1.35 217 212 214
-12.57 -27.57 -1.35 217 212 211
-12.58 -27.64 -1.35 217 212 211
-12.58 -27.72 -1.35 217 212 209
-12.58 -27.81 -1.35 217 212 209
-12.58 -27.89 -1.35 217 212 209
-12.58 -27.96 -1.35 217 212 209
-12.58 -28.04 -1.35 217 212 209
-12.58 -28.12 -1.35 217 212 209
-12.59 -28.20 -1.34 217 212 209
-12.58 -28.28 -1.35 217 212 209
-12.58 -28.36 -1.34 217 212 209
-12.58 -28.44 -1.34 217 212 209
-12.58 -28.52 -1.34 217 212 209
-12.58 -28.60 -1.34 217 212 209
-12.59 -28.67 -1.34 217 212 209
-12.59 -28.75 -1.34 217 212 209
-12.59 -28.83 -1.34 217 212 209
-12.58 -28.91 -1.34 217 212 209
-12.58 -28.99 -1.35 219 212 215
-12.58 -29.07 -1.35 219 212 215
-12.58 -29.15 -1.35 219 212 215
-12.58 -29.24 -1.35 219 212 215
-12.59 -29.31 -1.34 219 212 215
-12.58 -29.39 -1.35 219 212 215
-12.58 -29.47 -1.35 219 212 215
-12.58 -29.55 -1.35 219 212 215
-12.58 -29.63 -1.34 220 213 216
-12.58 -29.71 -1.35 220 213 216
-12.58 -29.79 -1.35 220 213 216
-12.58 -29.87 -1.34 220 213 216
-12.59 -29.94 -1.34 220 213 216
-12.59 -30.02 -1.33 220 213 216
-12.59 -30.10 -1.34 220 213 216
-12.60 -30.17 -1.32 220 213 216
-12.60 -30.25 -1.32 220 213 216
-12.60 -30.32 -1.31 220 213 216
-12.60 -30.41 -1.31 220 213 216
-12.61 -30.48 -1.31 220 213 216
-12.61 -30.56 -1.31 220 213 216
-12.61 -30.64 -1.30 220 213 216
-12.61 -30.72 -1.30 220 213 216
-12.61 -30.79 -1.30 220 213 216
-12.62 -30.87 -1.29 221 214 217
-12.62 -30.95 -1.29 221 214 217
-12.62 -31.03 -1.29 221 214 217
-12.62 -31.10 -1.29 221 214 217
-12.62 -31.18 -1.28 221 214 217
-12.63 -31.25 -1.28 221 214 217
-12.64 -31.32 -1.26 220 215 217
-12.66 -31.39 -1.24 221 216 218
-12.66 -31.46 -1.23 222 222 222
-12.69 -31.52 -1.19 220 220 220
-12.72 -31.57 -1.15 218 218 218
-12.73 -31.64 -1.14 231 231 231
-12.74 -31.71 -1.13 255 255 255
-12.77 -31.77 -1.09 248 248 248
-12.98 -31.65 -0.79 192 192 192
-13.33 -31.42 -0.31 187 187 187
-13.58 -31.26 0.05 250 250 250
-13.69 -31.24 0.20 246 246 246
-13.79 -31.22 0.34 250 250 250
-13.79 -31.30 0.34 251 251 251
-13.41 -31.73 -0.19 207 207 207
-12.89 -32.28 -0.91 209 209 209
-12.77 -32.48 -1.09 250 250 250
-12.60 -32.71 -1.32 237 237 237
-12.24 18.39 -1.94 134 128 119
-12.21 18.34 -1.99 134 128 119
-12.19 18.27 -2.01 135 129 120
-12.14 18.24 -2.09 135 129 120
-12.14 18.16 -2.08 136 130 121
-12.14 18.08 -2.08 137 131 122
-12.11 18.02 -2.12 137 131 122
-12.10 17.95 -2.13 137 131 122
-12.10 17.87 -2.13 137 131 122
-12.09 17.80 -2.15 137 131 122
-12.09 17.72 -2.15 137 131 122
-12.09 17.64 -2.16 137 131 122
-12.08 17.57 -2.17 137 131 122
-12.08 17.49 -2.17 137 131 122
-12.07 17.41 -2.18 137 131 122
-12.07 17.33 -2.18 137 131 122
-12.06 17.26 -2.19 139 130 122
-12.05 17.19 -2.20 141 132 124
-12.04 17.12 -2.22 139 133 124
-12.03 17.04 -2.23 139 133 124
-12.03 16.97 -2.24 139 133 124
-12.02 16.89 -2.25 139 133 124
-12.01 16.81 -2.26 139 133 124
-12.00 16.74 -2.28 139 133 124
-11.98 16.68 -2.30 142 133 125
-11.97 16.61 -2.32 143 134 126
-11.96 16.53 -2.33 143 134 126
-11.95 16.46 -2.35 143 134 126
-11.95 16.38 -2.35 144 133 126
-11.94 16.31 -2.36 144 133 126
-11.93 16.23 -2.37 146 133 126
-11.93 16.16 -2.38 147 134 127
-11.92 16.08 -2.38 148 139 133
-11.92 16.00 -2.39 148 139 133
-11.91 15.93 -2.40 148 139 133
-11.91 15.84 -2.40 148 139 133
-11.91 15.76 -2.40 148 139 133
-11.91 15.68 -2.40 148 139 133
-11.91 15.60 -2.40 149 140 136
-11.91 15.52 -2.40 149 140 136
-11.91 15.43 -2.40 149 140 136
-11.91 15.36 -2.40 149 140 136
-11.91 15.28 -2.41 149 140 136
-11.90 15.20 -2.42 149 140 136
-11.89 15.13 -2.43 149 140 134
-11.89 15.05 -2.43 149 140 134
-11.88 14.97 -2.44 147 141 134
-11.88 14.89 -2.44 148 142 135
-11.88 14.81 -2.45 149 140 134
-11.87 14.73 -2.45 149 140 134
-11.86 14.66 -2.47 148 142 135
-11.86 14.58 -2.47 148 142 135
-11.86 14.50 -2.48 149 143 136
-11.86 14.42 -2.48 149 143 136
-11.85 14.35 -2.49 150 144 137
-11.84 14.27 -2.50 150 144 137
-11.84 14.19 -2.51 151 145 138
-11.83 14.11 -2.51 153 147 140
-11.83 14.03 -2.51 153 147 140
-11.84 13.94 -2.51 153 147 140
-11.84 13.86 -2.51 153 147 140
-11.84 13.78 -2.51 153 147 140
-11.83 13.70 -2.51 153 147 140
-11.83 13.62 -2.51 153 147 140
-11.83 13.54 -2.51 154 148 143
-11.83 13.46 -2.51 154 148 143
-11.82 13.38 -2.52 154 148 143
-11.82 13.30 -2.52 154 148 143
-11.82 13.22 -2.53 154 148 143
-11.82 13.14 -2.53 154 148 143
-11.82 13.06 -2.53 154 148 143
-11.81 12.98 -2.54 154 148 143
-11.81 12.90 -2.54 155 149 144
-11.80 12.82 -2.55 155 149 144
-11.80 12.74 -2.55 156 150 145
-11.80 12.66 -2.56 156 150 145
-11.80 12.58 -2.56 156 152 144
-11.80 12.50 -2.56 156 152 144
-11.79 12.42 -2.57 157 153 147
-11.79 12.34 -2.57 157 153 147
-11.78 12.27 -2.58 159 155 147
-11.78 12.18 -2.58 159 155 147
-11.78 12.10 -2.58 159 155 147
-11.78 12.02 -2.59 159 155 147
-11.77 11.95 -2.59 159 155 147
-11.77 11.87 -2.60 159 155 147
-11.77 11.79 -2.60 159 155 147
-11.77 11.70 -2.60 160 156 148
-11.76 11.63 -2.61 161 157 149
-11.76 11.55 -2.62 161 157 149
-11.77 11.46 -2.60 161 157 149
-11.76 11.38 -2.61 161 157 149
-11.76 11.30 -2.61 161 157 149
-11.76 11.22 -2.62 161 157 149
-11.76 11.14 -2.62 161 157 151
-11.76 11.06 -2.62 161 157 151
-11.75 10.98 -2.63 161 156 153
-11.75 10.90 -2.63 162 157 154
-11.74 10.82 -2.64 162 157 154
-11.74 10.74 -2.64 163 158 155
-11.74 10.66 -2.64 163 158 155
