ply
format ascii 1.0
element vertex 1543
property float x
property float y
property float z
property uchar red
property uchar green
property uchar blue
end_header
-10.60 11.57 -3.06 162 158 150
-10.59 11.49 -3.07 161 157 151
-10.60 11.40 -3.06 162 158 152
-10.59 11.32 -3.07 163 159 153
-10.59 11.24 -3.07 163 159 153
-10.58 11.16 -3.08 164 160 154
-10.58 11.08 -3.08 164 160 154
-10.57 11.00 -3.10 166 162 156
-10.57 10.91 -3.09 166 162 156
-10.58 10.83 -3.09 167 163 157
-10.57 10.74 -3.10 167 163 157
-10.57 10.66 -3.09 167 163 157
-10.57 10.58 -3.10 167 163 157
-10.57 10.49 -3.09 167 163 157
-10.57 10.41 -3.10 167 163 157
-10.57 10.32 -3.09 167 163 157
-10.57 10.24 -3.09 167 163 157
-10.58 10.15 -3.09 169 163 156
-10.58 10.07 -3.09 169 163 156
-10.58 9.98 -3.08 169 163 156
-10.59 9.89 -3.07 169 163 156
-10.59 9.80 -3.07 168 164 156
-10.59 9.72 -3.07 168 164 156
-10.59 9.64 -3.07 168 164 156
-10.59 9.55 -3.07 169 165 157
-10.59 9.47 -3.07 168 167 158
-10.59 9.38 -3.06 169 168 159
-10.59 9.30 -3.07 169 168 159
-10.59 9.22 -3.07 171 170 161
-10.59 9.13 -3.07 171 172 162
-10.60 9.04 -3.06 172 173 163
-10.59 8.96 -3.06 174 173 164
-10.59 8.88 -3.07 173 172 163
-10.60 8.79 -3.06 172 171 164
-10.59 8.71 -3.07 172 171 164
-10.59 8.62 -3.07 172 171 164
-10.59 8.54 -3.07 172 171 164
-10.59 8.46 -3.07 172 171 164
-10.59 8.37 -3.06 172 171 164
-10.59 8.29 -3.06 172 171 164
-10.59 8.20 -3.06 173 172 165
-10.59 8.12 -3.06 174 173 166
-10.59 8.04 -3.07 174 173 166
-10.59 7.95 -3.07 174 173 166
-10.59 7.87 -3.07 174 173 166
-10.60 7.78 -3.06 174 173 166
-10.59 7.70 -3.07 174 173 166
-10.59 7.62 -3.07 173 174 164
-10.59 7.53 -3.07 175 176 166
-10.58 7.45 -3.08 177 176 169
-10.58 7.37 -3.08 177 176 169
-10.58 7.28 -3.09 177 176 169
-10.57 7.20 -3.09 177 176 169
-10.56 7.12 -3.10 179 178 171
-10.56 7.04 -3.10 179 178 171
-10.56 6.96 -3.11 179 178 171
-10.56 6.87 -3.10 179 178 171
-10.56 6.79 -3.11 179 178 171
-10.57 6.70 -3.10 179 178 171
-10.56 6.62 -3.10 179 178 171
-10.57 6.53 -3.09 179 178 171
-10.58 6.44 -3.09 180 178 174
-10.57 6.36 -3.09 180 178 174
-10.58 6.27 -3.09 179 179 174
-10.56 6.19 -3.10 179 179 174
-10.57 6.11 -3.10 179 179 174
-10.56 6.02 -3.10 179 179 174
-10.57 5.94 -3.10 179 179 174
-10.57 5.85 -3.10 179 179 174
-10.56 5.77 -3.10 179 179 174
-10.57 5.68 -3.09 179 179 174
-10.57 5.60 -3.10 179 179 174
-10.56 5.52 -3.10 179 179 174
-10.56 5.43 -3.10 178 178 173
-10.57 5.35 -3.10 178 178 173
-10.57 5.26 -3.10 178 178 173
-10.57 5.18 -3.10 178 178 173
-10.57 5.09 -3.09 178 178 173
-10.57 5.01 -3.09 178 178 173
-10.57 4.93 -3.09 178 178 173
-10.58 4.84 -3.09 178 178 173
-10.57 4.76 -3.09 178 178 173
-10.57 4.67 -3.09 178 178 173
-10.57 4.59 -3.10 178 178 173
-10.57 4.50 -3.10 178 178 173
-10.56 4.42 -3.10 178 178 173
-10.57 4.33 -3.09 178 178 173
-10.56 4.25 -3.11 178 178 173
-10.57 4.17 -3.10 178 178 173
-10.56 4.09 -3.10 176 176 171
-10.56 4.00 -3.10 176 176 171
-10.56 3.92 -3.10 176 176 171
-10.56 3.83 -3.10 176 176 171
-10.56 3.75 -3.11 176 176 171
-10.56 3.66 -3.10 176 176 171
-10.56 3.58 -3.11 176 176 171
-10.56 3.50 -3.11 175 175 170
-10.56 3.41 -3.11 176 176 171
-10.56 3.33 -3.11 176 176 171
-10.56 3.24 -3.11 175 175 170
-10.56 3.16 -3.11 174 174 169
-10.56 3.07 -3.11 174 174 169
-10.56 2.99 -3.10 174 174 169
-10.56 2.90 -3.10 174 174 169
-10.56 2.82 -3.11 174 174 169
-10.56 2.74 -3.10 174 174 169
-10.56 2.65 -3.10 174 174 169
-10.56 2.57 -3.10 174 174 169
-10.57 2.48 -3.10 173 173 168
-10.57 2.40 -3.10 173 173 168
-10.58 2.31 -3.09 173 173 168
-10.57 2.23 -3.09 173 173 168
-10.57 2.14 -3.09 173 173 168
-10.58 2.06 -3.09 172 173 165
-10.58 1.97 -3.09 172 173 165
-10.58 1.89 -3.08 172 173 165
-10.58 1.80 -3.08 172 173 165
-10.58 1.72 -3.08 172 173 165
-10.59 1.63 -3.07 172 173 165
-10.59 1.55 -3.07 172 173 165
-10.59 1.46 -3.06 172 173 165
-10.59 1.38 -3.07 172 173 165
-10.60 1.29 -3.06 172 173 165
-10.60 1.21 -3.06 172 173 165
-10.60 1.12 -3.05 172 173 165
-10.61 1.04 -3.04 172 173 165
-10.60 0.95 -3.05 172 173 165
-10.61 0.87 -3.05 172 174 159
-10.60 0.79 -3.05 172 174 159
-10.61 0.70 -3.05 172 173 163
-10.60 0.62 -3.05 172 173 163
-10.60 0.53 -3.05 172 173 163
-10.61 0.45 -3.05 172 173 163
-10.61 0.36 -3.05 172 173 163
-10.61 0.28 -3.04 172 173 163
-10.61 0.19 -3.04 172 173 163
-10.62 0.11 -3.02 172 173 163
-10.62 0.02 -3.03 172 173 163
-10.63 -0.06 -3.02 172 173 163
-10.63 -0.15 -3.01 172 173 163
-10.63 -0.23 -3.01 172 173 163
-10.64 -0.32 -3.01 172 173 163
-10.64 -0.40 -3.01 172 173 163
-10.64 -0.49 -3.00 172 173 163
-10.64 -0.57 -3.00 172 173 163
-10.64 -0.66 -3.00 170 173 163
-10.63 -0.74 -3.01 170 173 163
-10.64 -0.82 -3.01 168 174 163
-10.63 -0.91 -3.01 168 174 163
-10.63 -0.99 -3.01 168 174 163
-10.64 -1.08 -3.00 168 174 163
-10.63 -1.16 -3.01 168 174 163
-10.63 -1.24 -3.01 168 174 163
-10.64 -1.33 -3.00 169 175 164
-10.64 -1.41 -3.00 169 175 164
-10.64 -1.50 -3.00 169 175 164
-10.64 -1.58 -3.00 169 175 164
-10.65 -1.67 -2.99 169 175 164
-10.65 -1.75 -2.99 169 175 164
-10.64 -1.83 -3.00 173 174 166
-10.65 -1.92 -2.99 173 174 166
-10.65 -2.00 -2.99 171 173 168
-10.65 -2.09 -2.99 171 173 168
-10.64 -2.17 -3.00 169 174 168
-10.64 -2.25 -3.00 169 174 168
-10.64 -2.34 -3.00 169 174 168
-10.64 -2.42 -3.00 169 174 168
-10.65 -2.51 -2.99 169 174 168
-10.64 -2.59 -3.00 169 174 168
-10.64 -2.68 -3.00 169 174 168
-10.65 -2.76 -2.99 169 174 168
-10.65 -2.84 -2.99 169 174 168
-10.65 -2.93 -2.99 169 174 168
-10.65 -3.01 -2.99 169 174 168
-10.65 -3.10 -2.98 169 174 168
-10.65 -3.18 -2.99 170 175 169
-10.65 -3.27 -2.99 170 175 169
-10.65 -3.35 -2.98 173 175 172
-10.65 -3.43 -2.99 173 175 172
-10.65 -3.52 -2.99 173 175 172
-10.65 -3.60 -2.98 174 176 173
-10.65 -3.69 -2.98 174 176 173
-10.65 -3.77 -2.98 174 176 173
-10.65 -3.85 -2.98 174 176 173
-10.65 -3.94 -2.98 174 176 173
-10.66 -4.02 -2.98 174 176 173
-10.65 -4.11 -2.98 174 176 173
-10.65 -4.19 -2.98 174 176 173
-10.65 -4.27 -2.99 174 176 173
-10.65 -4.36 -2.99 172 177 173
-10.65 -4.44 -2.99 172 177 173
-10.65 -4.53 -2.99 172 177 176
-10.66 -4.61 -2.97 174 179 178
-10.66 -4.70 -2.97 173 180 178
-10.65 -4.78 -2.98 173 180 178
-10.65 -4.86 -2.98 173 180 178
-10.65 -4.95 -2.99 173 180 178
-10.65 -5.03 -2.98 173 180 178
-10.65 -5.12 -2.99 173 180 178
-10.65 -5.20 -2.99 173 180 178
-10.65 -5.28 -2.99 173 180 178
-10.63 -5.37 -3.01 173 180 178
-10.64 -5.45 -3.00 173 180 178
-10.63 -5.53 -3.01 173 180 178
-10.63 -5.62 -3.01 173 180 178
-10.64 -5.70 -3.01 173 180 178
-10.63 -5.79 -3.01 173 180 178
-10.63 -5.87 -3.02 173 180 175
-10.62 -5.95 -3.03 173 180 175
-10.61 -6.04 -3.04 175 180 176
-10.59 -6.12 -3.06 175 180 176
-10.60 -6.21 -3.06 175 180 176
-10.60 -6.29 -3.05 175 180 176
-10.60 -6.37 -3.06 175 180 176
-10.59 -6.46 -3.07 175 180 176
-10.58 -6.54 -3.08 175 180 176
-10.58 -6.63 -3.09 175 180 176
-10.57 -6.71 -3.09 177 182 178
-10.58 -6.80 -3.09 176 181 177
-10.56 -6.88 -3.11 174 179 175
-10.56 -6.96 -3.11 175 180 176
-10.54 -7.05 -3.14 176 181 177
-10.50 -7.13 -3.20 178 183 179
-10.50 -7.22 -3.20 166 171 167
-10.73 -7.30 -2.88 167 172 168
-11.14 -7.39 -2.32 226 228 223
-11.37 -7.47 -2.01 246 248 243
-11.39 -7.55 -1.98 246 248 243
-11.41 -7.63 -1.96 249 251 246
-11.40 -7.71 -1.96 246 248 243
-11.39 -7.80 -1.98 244 246 241
-11.40 -7.88 -1.97 250 252 247
-11.38 -7.96 -1.99 254 255 251
-11.38 -8.04 -2.00 249 251 246
-11.37 -8.12 -2.01 249 251 246
-11.36 -8.21 -2.02 249 251 246
-11.36 -8.29 -2.03 249 251 246
-11.35 -8.37 -2.03 249 251 246
-11.34 -8.45 -2.05 249 251 246
-11.33 -8.54 -2.07 249 251 246
-11.32 -8.62 -2.08 249 251 246
-11.31 -8.70 -2.09 246 253 251
-11.31 -8.78 -2.09 246 253 251
-11.30 -8.87 -2.10 246 253 251
-11.29 -8.95 -2.12 246 253 251
-11.29 -9.03 -2.12 246 253 251
-11.29 -9.11 -2.12 246 253 251
-11.28 -9.20 -2.14 246 253 251
-11.27 -9.28 -2.14 246 253 251
-11.27 -9.36 -2.14 246 253 251
-11.27 -9.44 -2.15 246 253 251
-11.26 -9.53 -2.16 246 253 251
-11.26 -9.61 -2.16 246 253 251
-11.26 -9.69 -2.16 246 253 251
-11.27 -9.77 -2.15 246 253 251
-11.27 -9.86 -2.15 246 253 251
-11.27 -9.94 -2.15 246 253 251
-11.27 -10.02 -2.15 246 253 251
-11.27 -10.10 -2.15 246 253 251
-11.26 -10.19 -2.16 246 253 251
-11.27 -10.27 -2.15 246 253 251
-11.27 -10.35 -2.15 246 253 251
-11.27 -10.43 -2.15 246 253 251
-11.27 -10.51 -2.15 246 253 251
-11.27 -10.60 -2.15 246 253 251
-11.27 -10.68 -2.15 246 253 251
-11.28 -10.76 -2.14 246 253 251
-11.28 -10.84 -2.14 246 253 251
-11.28 -10.92 -2.13 246 253 251
-11.29 -11.01 -2.12 246 253 251
-11.29 -11.09 -2.11 246 253 251
-11.29 -11.17 -2.11 246 253 251
-11.30 -11.25 -2.11 246 253 251
-11.30 -11.33 -2.10 246 253 251
-11.30 -11.41 -2.10 246 253 251
-11.29 -11.50 -2.11 246 253 251
-11.29 -11.58 -2.12 246 253 251
-11.29 -11.66 -2.12 246 253 251
-11.29 -11.75 -2.12 246 253 251
-11.29 -11.83 -2.12 246 253 251
-11.29 -11.91 -2.11 246 253 251
-11.30 -11.99 -2.10 246 253 251
-11.30 -12.07 -2.10 246 253 251
-11.31 -12.15 -2.09 246 253 251
-11.31 -12.24 -2.09 246 253 251
-11.32 -12.32 -2.08 246 253 251
-11.32 -12.40 -2.08 246 253 251
-11.33 -12.48 -2.07 246 253 251
-11.33 -12.56 -2.07 246 253 251
-11.33 -12.64 -2.07 246 253 251
-11.33 -12.73 -2.07 247 254 252
-11.33 -12.81 -2.07 247 254 252
-11.32 -12.89 -2.09 247 254 252
-11.30 -12.98 -2.10 247 254 252
-11.29 -13.06 -2.12 246 253 251
-11.27 -13.15 -2.14 244 251 249
-11.27 -13.23 -2.15 244 251 249
-11.23 -13.32 -2.20 243 250 248
-11.11 -13.43 -2.36 241 248 246
-10.97 -13.54 -2.55 233 240 238
-10.79 -13.66 -2.80 208 215 213
-10.67 -13.77 -2.95 178 185 183
-10.65 -13.86 -2.99 173 180 178
-10.64 -13.95 -3.00 185 192 190
-10.67 -14.03 -2.97 192 199 197
-10.67 -14.11 -2.96 188 195 188
-10.69 -14.19 -2.94 187 194 187
-10.70 -14.27 -2.92 186 191 185
-10.71 -14.35 -2.91 189 194 188
-10.71 -14.43 -2.90 191 196 190
-10.72 -14.52 -2.89 192 197 191
-10.72 -14.60 -2.90 193 195 190
-10.72 -14.69 -2.90 191 193 188
-10.71 -14.77 -2.90 194 196 191
-10.72 -14.85 -2.89 194 196 191
-10.72 -14.94 -2.90 196 196 191
-10.71 -15.02 -2.90 196 196 191
-10.71 -15.11 -2.91 196 196 191
-10.70 -15.19 -2.91 196 196 191
-10.70 -15.28 -2.92 197 195 191
-10.70 -15.36 -2.92 197 195 191
-10.69 -15.45 -2.94 196 196 193
-10.69 -15.53 -2.94 196 196 193
-10.68 -15.62 -2.94 194 196 193
-10.67 -15.70 -2.95 194 196 193
-10.67 -15.79 -2.96 194 196 193
-10.66 -15.88 -2.97 194 196 193
-10.66 -15.96 -2.98 194 196 193
-10.65 -16.05 -2.98 195 197 194
-10.65 -16.13 -2.99 197 199 196
-10.64 -16.22 -3.00 197 199 196
-10.63 -16.31 -3.01 197 199 196
-10.63 -16.39 -3.02 195 197 194
-10.61 -16.48 -3.04 195 197 194
-10.61 -16.57 -3.04 195 197 194
-10.60 -16.65 -3.05 197 197 194
-10.60 -16.74 -3.06 197 197 194
-10.59 -16.83 -3.07 197 197 194
-10.58 -16.91 -3.08 196 196 193
-10.58 -17.00 -3.09 195 195 192
-10.56 -17.09 -3.10 192 192 189
-10.56 -17.17 -3.10 188 188 185
-10.56 -17.26 -3.11 183 183 180
-10.56 -17.34 -3.11 179 179 176
-10.55 -17.43 -3.12 176 176 173
-10.55 -17.51 -3.13 173 173 170
-10.54 -17.60 -3.13 170 170 167
-10.54 -17.68 -3.13 171 171 168
-10.54 -17.77 -3.14 172 172 169
-10.53 -17.86 -3.15 172 172 169
-10.53 -17.94 -3.15 172 172 169
-10.52 -18.03 -3.17 171 171 168
-10.51 -18.12 -3.18 171 171 168
-10.50 -18.20 -3.19 172 174 171
-10.49 -18.29 -3.20 168 170 167
-10.49 -18.38 -3.20 162 164 161
-10.49 -18.46 -3.20 156 158 155
-10.48 -18.55 -3.22 154 156 153
-10.47 -18.64 -3.23 155 157 154
-10.47 -18.72 -3.23 158 160 157
-10.47 -18.81 -3.23 161 163 160
-10.47 -18.89 -3.24 166 168 165
-10.47 -18.98 -3.23 177 179 176
-10.47 -19.06 -3.23 177 179 176
-10.47 -19.15 -3.24 176 178 175
-10.47 -19.23 -3.24 176 178 175
-10.47 -19.32 -3.24 174 176 173
-10.46 -19.40 -3.24 172 174 171
-10.45 -19.49 -3.25 158 160 157
-10.44 -19.58 -3.27 150 149 152
-10.44 -19.67 -3.27 139 138 141
-10.45 -19.75 -3.26 131 130 133
-10.46 -19.83 -3.25 139 138 141
-10.47 -19.91 -3.23 152 151 154
-10.49 -19.98 -3.20 158 157 160
-10.53 -20.05 -3.16 151 150 153
-10.56 -20.13 -3.11 143 142 145
-10.59 -20.19 -3.07 121 120 123
-10.63 -20.26 -3.01 85 84 87
-10.69 -20.32 -2.93 45 44 47
-10.75 -20.37 -2.85 19 18 21
-10.81 -20.44 -2.78 27 26 29
-10.85 -20.50 -2.71 44 43 46
-10.92 -20.55 -2.63 52 51 54
-10.98 -20.60 -2.53 67 66 69
-11.04 -20.66 -2.46 69 67 63
-11.11 -20.71 -2.36 67 65 61
-11.19 -20.76 -2.25 65 65 62
-11.26 -20.81 -2.16 58 58 55
-11.38 -20.83 -2.00 53 53 50
-11.63 -20.79 -1.65 41 41 38
-11.97 -20.72 -1.20 36 38 38
-12.42 -20.58 -0.59 30 32 32
-12.72 -20.51 -0.18 30 29 44
-12.98 -20.46 0.17 17 16 31
-13.12 -20.47 0.36 58 58 86
-13.22 -20.50 0.49 72 72 100
-13.26 -20.56 0.55 29 28 61
-13.26 -20.63 0.55 39 38 71
-13.26 -20.71 0.55 48 50 75
-13.24 -20.80 0.52 40 42 67
-13.21 -20.89 0.49 51 48 63
-13.24 -20.95 0.52 27 24 39
-13.26 -21.02 0.55 137 135 143
-13.29 -21.08 0.59 231 229 237
-13.33 -21.13 0.64 204 206 201
-13.35 -21.20 0.67 198 200 195
-13.36 -21.27 0.68 159 160 150
-13.38 -21.33 0.72 121 122 112
-13.42 -21.39 0.76 51 51 51
-13.41 -21.47 0.76 20 20 20
-13.44 -21.53 0.80 11 5 26
-13.43 -21.61 0.78 25 19 40
-13.46 -21.67 0.82 37 26 60
-13.50 -21.73 0.88 46 35 69
-13.50 -21.81 0.87 35 22 59
-13.34 -21.97 0.66 30 17 54
-12.99 -22.24 0.19 54 43 70
-12.56 -22.55 -0.40 120 109 136
-12.15 -22.86 -0.95 182 175 187
-11.77 -23.15 -1.47 234 227 239
-11.57 -23.35 -1.74 231 228 232
-11.55 -23.44 -1.77 211 208 212
-11.54 -23.53 -1.78 202 202 199
-11.57 -23.59 -1.74 214 214 211
-11.55 -23.69 -1.77 202 205 195
-11.55 -23.77 -1.77 205 208 198
-11.55 -23.85 -1.77 209 209 204
-11.56 -23.93 -1.76 210 210 205
-11.57 -24.00 -1.74 210 208 209
-11.56 -24.09 -1.75 210 208 209
-11.56 -24.17 -1.75 212 208 202
-11.56 -24.25 -1.75 212 208 202
-11.55 -24.34 -1.76 214 209 208
-11.56 -24.42 -1.76 214 209 208
-11.56 -24.50 -1.76 214 209 208
-11.56 -24.57 -1.75 214 209 208
-11.56 -24.66 -1.75 214 209 208
-11.56 -24.74 -1.75 214 209 208
-11.56 -24.82 -1.75 214 209 208
-11.56 -24.90 -1.75 214 209 208
-11.57 -24.98 -1.74 216 211 210
-11.56 -25.06 -1.75 216 211 210
-11.56 -25.15 -1.76 216 211 210
-11.55 -25.23 -1.76 216 211 210
-11.55 -25.32 -1.77 216 211 210
-11.54 -25.40 -1.78 216 211 210
-11.55 -25.48 -1.77 216 211 210
-11.54 -25.57 -1.78 216 211 210
-11.54 -25.65 -1.78 217 212 214
-11.54 -25.73 -1.78 217 212 214
-11.54 -25.81 -1.78 217 212 214
-11.54 -25.90 -1.79 217 212 214
-11.54 -25.98 -1.78 217 212 214
-11.53 -26.06 -1.79 217 212 214
-11.54 -26.14 -1.79 217 212 214
-11.53 -26.22 -1.79 217 212 214
-11.53 -26.31 -1.79 217 212 214
-11.53 -26.39 -1.79 217 212 214
-11.54 -26.46 -1.78 217 212 214
-11.54 -26.55 -1.78 217 212 214
-11.54 -26.63 -1.78 217 212 214
-11.54 -26.71 -1.79 217 212 214
-11.54 -26.79 -1.79 217 212 214
-11.54 -26.87 -1.79 217 212 214
-11.54 -26.96 -1.79 217 212 214
-11.54 -27.03 -1.78 217 212 214
-11.54 -27.12 -1.78 217 212 214
-11.54 -27.20 -1.78 217 212 214
-11.55 -27.27 -1.77 217 212 214
-11.55 -27.35 -1.76 217 212 214
-11.55 -27.43 -1.76 217 212 214
-11.55 -27.52 -1.77 217 212 214
-11.55 -27.60 -1.77 218 213 215
-11.55 -27.68 -1.77 218 213 215
-11.55 -27.76 -1.77 218 213 215
-11.55 -27.85 -1.77 218 213 215
-11.55 -27.92 -1.77 218 213 215
-11.55 -28.01 -1.77 218 213 215
-11.55 -28.09 -1.77 218 213 212
-11.54 -28.17 -1.78 218 213 212
-11.54 -28.26 -1.79 218 213 210
-11.54 -28.34 -1.79 218 213 210
-11.54 -28.42 -1.78 218 213 210
-11.54 -28.50 -1.78 218 213 210
-11.54 -28.58 -1.78 218 213 210
-11.55 -28.66 -1.77 218 213 210
-11.54 -28.75 -1.78 218 213 210
-11.54 -28.83 -1.78 218 213 210
-11.55 -28.91 -1.77 219 214 211
-11.55 -28.98 -1.77 219 214 211
-11.55 -29.06 -1.76 219 214 211
-11.55 -29.15 -1.77 219 214 211
-11.56 -29.22 -1.75 219 214 211
-11.55 -29.31 -1.76 219 214 211
-11.56 -29.39 -1.76 219 214 211
-11.56 -29.47 -1.76 219 214 211
-11.55 -29.55 -1.76 221 214 212
-11.55 -29.63 -1.76 221 214 212
-11.56 -29.71 -1.76 221 214 212
-11.55 -29.80 -1.76 221 214 212
-11.55 -29.88 -1.76 221 214 212
-11.55 -29.96 -1.76 221 214 212
-11.55 -30.04 -1.76 221 214 212
-11.54 -30.13 -1.78 221 214 212
-11.55 -30.21 -1.77 222 215 213
-11.55 -30.29 -1.77 222 215 213
-11.54 -30.38 -1.78 222 215 213
-11.55 -30.45 -1.77 222 215 213
-11.55 -30.54 -1.77 222 215 213
-11.55 -30.62 -1.77 222 215 213
-11.55 -30.70 -1.77 222 215 213
-11.55 -30.78 -1.77 224 217 215
-11.55 -30.86 -1.77 224 217 215
-11.55 -30.94 -1.77 225 218 216
-11.55 -31.02 -1.77 225 218 216
-11.54 -31.11 -1.78 225 218 216
-11.54 -31.19 -1.78 225 218 216
-11.54 -31.27 -1.78 225 218 216
-11.56 -31.34 -1.76 225 218 216
-11.56 -31.42 -1.75 225 218 216
-11.57 -31.50 -1.74 224 217 215
-11.57 -31.57 -1.74 224 217 215
-11.58 -31.65 -1.73 224 217 215
-11.59 -31.72 -1.72 225 218 216
-11.61 -31.79 -1.69 226 219 217
-11.62 -31.86 -1.68 226 219 217
-11.62 -31.94 -1.67 226 221 218
-11.65 -32.00 -1.63 226 221 218
-11.67 -32.05 -1.60 224 224 221
-11.71 -32.10 -1.55 224 224 221
-11.76 -32.14 -1.48 244 244 241
-11.81 -32.18 -1.42 250 250 247
-12.04 -32.05 -1.10 251 251 248
-12.46 -31.76 -0.53 252 252 249
-12.76 -31.57 -0.13 250 250 247
-12.86 -31.56 0.01 252 252 249
-12.84 -31.65 -0.01 252 252 249
-12.72 -31.84 -0.18 248 248 245
-12.48 -32.14 -0.51 249 249 246
-12.21 -32.46 -0.88 251 251 248
-12.02 -32.71 -1.12 252 252 249
-12.22 -32.61 -0.86 250 250 247
-12.21 -32.70 -0.88 245 245 242
-9.10 -35.64 -5.09 145 145 142
-11.21 19.04 -2.35 137 131 122
-11.21 18.97 -2.36 137 131 122
-11.22 18.87 -2.34 137 131 122
-11.19 18.82 -2.39 137 131 122
-11.18 18.74 -2.40 137 131 122
-11.18 18.66 -2.40 137 131 122
-11.14 18.62 -2.45 137 131 122
-11.12 18.55 -2.47 137 131 122
-11.12 18.47 -2.48 137 131 122
-11.12 18.39 -2.48 137 131 122
-11.11 18.31 -2.49 139 133 124
-11.11 18.23 -2.49 139 133 124
-11.10 18.15 -2.50 139 133 124
-11.09 18.08 -2.52 139 133 124
-11.09 18.00 -2.52 139 133 124
-11.09 17.91 -2.52 139 133 124
-11.08 17.84 -2.54 139 133 124
-11.07 17.76 -2.54 140 134 125
-11.07 17.68 -2.55 141 135 126
-11.07 17.60 -2.55 141 135 126
-11.07 17.52 -2.55 141 135 126
-11.07 17.44 -2.55 141 135 126
-11.07 17.35 -2.55 141 135 126
-11.06 17.28 -2.56 141 135 126
-11.05 17.20 -2.58 141 135 126
-11.05 17.12 -2.57 141 135 126
-11.04 17.04 -2.58 142 136 127
-11.04 16.96 -2.59 142 136 127
-11.03 16.89 -2.60 143 137 128
-11.01 16.82 -2.63 143 137 128
-11.00 16.74 -2.64 144 138 129
-11.00 16.66 -2.65 144 138 129
-10.99 16.59 -2.66 146 137 131
-10.98 16.51 -2.67 146 137 131
-10.98 16.43 -2.67 146 137 131
-10.97 16.36 -2.69 146 137 131
-10.96 16.28 -2.69 146 137 131
-10.95 16.20 -2.70 148 139 133
-10.95 16.12 -2.71 150 141 135
-10.94 16.04 -2.72 150 141 135
-10.94 15.96 -2.72 149 140 134
-10.93 15.89 -2.74 149 140 134
-10.92 15.81 -2.74 149 140 134
-10.92 15.73 -2.75 149 140 134
-10.91 15.65 -2.76 147 141 134
-10.91 15.57 -2.76 146 140 133
-10.91 15.48 -2.76 146 140 133
-10.90 15.41 -2.77 147 141 134
-10.90 15.32 -2.78 147 141 134
-10.90 15.24 -2.78 147 141 134
-10.89 15.16 -2.79 148 142 135
-10.88 15.09 -2.80 148 142 135
-10.87 15.01 -2.81 149 143 136
-10.87 14.93 -2.81 149 143 136
-10.87 14.85 -2.82 150 144 137
-10.86 14.77 -2.83 150 144 137
-10.85 14.69 -2.84 151 145 138
-10.84 14.62 -2.85 153 147 140
-10.84 14.53 -2.85 153 147 140
-10.84 14.45 -2.86 153 147 140
-10.83 14.37 -2.87 153 147 140
-10.83 14.29 -2.87 153 147 140
-10.83 14.21 -2.88 153 147 140
-10.82 14.13 -2.88 153 147 140
-10.82 14.05 -2.88 154 148 141
-10.82 13.97 -2.89 154 148 141
-10.81 13.89 -2.89 154 148 141
-10.82 13.80 -2.89 154 148 141
-10.81 13.72 -2.90 154 148 141
-10.81 13.63 -2.89 155 149 142
-10.81 13.55 -2.90 156 150 143
-10.81 13.47 -2.90 157 151 144
-10.80 13.39 -2.91 157 151 144
-10.80 13.31 -2.92 157 151 144
-10.79 13.23 -2.92 157 151 144
-10.79 13.15 -2.93 157 151 144
-10.78 13.07 -2.94 157 151 144
-10.78 12.99 -2.94 158 152 145
-10.78 12.90 -2.94 158 152 145
-10.77 12.82 -2.95 160 154 147
-10.77 12.74 -2.96 159 155 147
-10.76 12.66 -2.96 159 155 147
-10.76 12.58 -2.96 159 155 147
-10.77 12.49 -2.96 159 155 147
-10.77 12.41 -2.96 159 155 147
-10.76 12.33 -2.96 159 155 147
-10.76 12.24 -2.96 159 155 147
-10.76 12.16 -2.97 159 155 147
-10.76 12.08 -2.97 160 156 148
-10.76 11.99 -2.97 160 156 148
-10.76 11.91 -2.97 160 156 148
-10.75 11.83 -2.98 160 156 148
-10.75 11.75 -2.97 160 156 148
-10.74 11.67 -2.99 160 156 148
-10.75 11.59 -2.99 160 156 148
-10.74 11.50 -2.99 162 158 150
-10.74 11.42 -2.99 161 157 151
-10.74 11.33 -2.99 162 158 152
-10.74 11.25 -3.00 163 159 153
-10.73 11.17 -3.00 163 159 153
-10.73 11.09 -3.00 164 160 154
-10.73 11.00 -3.00 164 160 154
-10.73 10.93 -3.01 166 162 156
-10.72 10.84 -3.02 166 162 156
-10.72 10.76 -3.02 167 163 157
-10.72 10.68 -3.02 167 163 157
-10.72 10.60 -3.03 167 163 157
-10.71 10.51 -3.03 167 163 157
-10.72 10.43 -3.02 167 163 157
-10.71 10.35 -3.03 167 163 157
-10.72 10.26 -3.02 167 163 157
-10.72 10.17 -3.02 167 163 157
-10.72 10.09 -3.02 169 163 156
-10.72 10.00 -3.02 169 163 156
-10.72 9.92 -3.02 169 163 156
-10.73 9.83 -3.00 169 163 156
-10.74 9.74 -2.99 168 164 156
-10.73 9.66 -3.00 168 164 156
-10.74 9.57 -3.00 168 164 156
-10.74 9.49 -2.99 169 165 157
-10.74 9.41 -3.00 168 167 158
-10.74 9.32 -2.99 169 168 159
-10.74 9.24 -2.99 169 168 159
-10.73 9.16 -3.00 171 170 161
-10.73 9.07 -3.00 171 172 162
-10.73 8.99 -3.00 172 173 163
-10.73 8.91 -3.00 174 173 164
-10.73 8.82 -3.01 173 172 163
-10.74 8.74 -3.00 172 171 164
-10.74 8.65 -3.00 172 171 164
-10.74 8.57 -2.99 172 171 164
-10.73 8.49 -3.00 172 171 164
-10.74 8.40 -3.00 172 171 164
-10.73 8.32 -3.00 172 171 164
-10.74 8.23 -3.00 172 171 164
-10.74 8.15 -3.00 173 172 165
-10.73 8.07 -3.00 174 173 166
-10.74 7.98 -3.00 174 173 166
-10.73 7.90 -3.00 174 173 166
-10.73 7.81 -3.00 174 173 166
-10.73 7.73 -3.00 174 173 166
-10.73 7.65 -3.00 174 173 166
-10.74 7.56 -3.00 174 173 166
-10.73 7.48 -3.00 176 175 168
-10.73 7.39 -3.00 177 176 169
-10.73 7.31 -3.01 177 176 169
-10.72 7.23 -3.02 177 176 169
-10.72 7.15 -3.03 177 176 169
-10.71 7.07 -3.03 179 178 171
-10.71 6.98 -3.03 179 178 171
-10.70 6.90 -3.04 179 178 171
-10.70 6.82 -3.04 179 178 171
-10.70 6.74 -3.05 179 178 171
-10.71 6.65 -3.04 179 178 171
-10.71 6.57 -3.04 179 177 173
-10.71 6.48 -3.04 179 177 173
-10.71 6.40 -3.03 180 178 174
-10.71 6.31 -3.04 180 178 174
-10.71 6.23 -3.03 179 179 174
-10.71 6.14 -3.03 179 179 174
-10.71 6.06 -3.03 179 179 174
-10.70 5.98 -3.04 179 179 174
-10.71 5.89 -3.03 179 179 174
-10.71 5.81 -3.03 179 179 174
-10.70 5.73 -3.04 179 179 174
-10.71 5.64 -3.03 179 179 174
-10.71 5.56 -3.03 179 179 174
-10.71 5.47 -3.03 179 179 174
-10.71 5.39 -3.03 178 178 173
-10.71 5.30 -3.03 178 178 173
-10.71 5.22 -3.03 178 178 173
-10.71 5.14 -3.03 178 178 173
-10.71 5.05 -3.03 178 178 173
-10.71 4.97 -3.03 178 178 173
-10.71 4.88 -3.03 178 178 173
-10.71 4.80 -3.04 178 178 173
-10.71 4.72 -3.04 178 178 173
-10.71 4.63 -3.04 178 178 173
-10.71 4.55 -3.04 178 178 173
-10.71 4.47 -3.04 178 178 173
-10.71 4.38 -3.04 178 178 173
-10.71 4.30 -3.04 178 178 173
-10.71 4.21 -3.04 178 178 173
-10.71 4.13 -3.04 178 178 173
-10.71 4.04 -3.04 176 176 171
-10.71 3.96 -3.03 176 176 171
-10.71 3.88 -3.04 176 176 171
-10.70 3.80 -3.05 176 176 171
-10.71 3.71 -3.04 176 176 171
-10.70 3.63 -3.05 176 176 171
-10.70 3.54 -3.05 176 176 171
-10.70 3.46 -3.05 175 175 170
-10.70 3.38 -3.05 176 176 171
-10.70 3.29 -3.05 176 176 171
-10.70 3.21 -3.05 175 175 170
-10.70 3.12 -3.04 174 174 169
-10.71 3.04 -3.04 174 174 169
-10.71 2.95 -3.04 174 174 169
-10.71 2.87 -3.04 174 174 169
-10.71 2.78 -3.04 174 174 169
-10.71 2.70 -3.04 174 174 169
-10.71 2.62 -3.04 174 174 169
-10.71 2.53 -3.04 174 174 169
-10.71 2.45 -3.04 173 173 168
-10.71 2.36 -3.03 173 173 168
-10.71 2.28 -3.03 173 173 168
-10.71 2.19 -3.03 173 173 168
-10.71 2.11 -3.03 173 173 168
-10.71 2.03 -3.03 172 173 165
-10.71 1.94 -3.03 172 173 165
-10.72 1.86 -3.02 172 173 165
-10.73 1.77 -3.01 172 173 165
-10.73 1.69 -3.01 172 173 165
-10.73 1.60 -3.01 172 173 165
-10.73 1.52 -3.01 172 173 165
-10.73 1.43 -3.01 172 173 165
-10.73 1.35 -3.01 172 173 165
-10.74 1.26 -2.99 172 173 165
-10.74 1.18 -2.99 172 173 165
-10.74 1.09 -2.99 172 173 165
-10.75 1.01 -2.98 172 173 165
-10.75 0.92 -2.99 172 173 165
-10.75 0.84 -2.99 172 173 161
-10.74 0.76 -2.99 172 173 161
-10.74 0.67 -2.99 172 173 163
-10.74 0.59 -3.00 172 173 163
-10.74 0.51 -2.99 172 173 163
-10.74 0.42 -2.99 172 173 163
-10.75 0.34 -2.98 172 173 163
-10.76 0.25 -2.97 172 173 163
-10.76 0.17 -2.97 172 173 163
-10.76 0.08 -2.96 172 173 163
-10.76 -0.00 -2.96 172 173 163
-10.77 -0.09 -2.95 172 173 163
-10.77 -0.17 -2.95 172 173 163
-10.77 -0.26 -2.95 172 173 163
-10.78 -0.34 -2.94 172 173 163
-10.78 -0.43 -2.94 172 173 163
-10.78 -0.51 -2.94 172 173 163
-10.78 -0.59 -2.94 172 173 163
-10.78 -0.68 -2.94 172 173 165
-10.78 -0.76 -2.94 172 173 165
-10.78 -0.85 -2.94 170 173 165
-10.78 -0.93 -2.94 170 173 165
-10.78 -1.01 -2.95 170 173 165
-10.78 -1.10 -2.94 170 173 165
-10.78 -1.18 -2.94 170 173 165
-10.78 -1.27 -2.94 170 173 165
-10.78 -1.35 -2.94 171 174 166
-10.78 -1.43 -2.94 171 174 166
-10.78 -1.52 -2.94 171 174 166
-10.78 -1.60 -2.93 171 174 166
-10.79 -1.69 -2.92 171 174 166
-10.79 -1.77 -2.93 171 174 166
-10.79 -1.85 -2.92 173 174 166
-10.79 -1.94 -2.93 173 174 166
-10.79 -2.02 -2.93 171 173 168
-10.79 -2.11 -2.93 171 173 168
-10.79 -2.19 -2.93 169 174 168
-10.78 -2.27 -2.93 169 174 168
-10.79 -2.36 -2.93 169 174 168
-10.79 -2.44 -2.93 169 174 168
-10.79 -2.52 -2.93 169 174 168
-10.79 -2.61 -2.93 169 174 168
-10.79 -2.69 -2.93 169 174 168
-10.80 -2.78 -2.91 169 174 168
-10.79 -2.86 -2.93 169 174 168
-10.80 -2.94 -2.92 169 174 168
-10.79 -3.03 -2.92 169 174 168
-10.80 -3.11 -2.91 169 174 168
-10.80 -3.20 -2.91 170 175 169
-10.80 -3.28 -2.91 170 175 169
-10.80 -3.36 -2.91 172 174 171
-10.80 -3.45 -2.92 173 175 172
-10.80 -3.53 -2.91 173 175 172
-10.80 -3.62 -2.92 173 175 172
-10.80 -3.70 -2.91 174 176 173
-10.80 -3.78 -2.91 174 176 173
-10.80 -3.87 -2.91 174 176 173
-10.80 -3.95 -2.91 174 176 173
-10.80 -4.03 -2.91 174 176 173
-10.80 -4.12 -2.92 174 176 173
-10.79 -4.20 -2.93 174 176 173
-10.79 -4.28 -2.93 174 176 173
-10.79 -4.37 -2.93 172 177 173
-10.79 -4.45 -2.93 172 177 173
-10.79 -4.54 -2.93 172 177 176
-10.79 -4.62 -2.92 174 179 178
-10.80 -4.70 -2.92 173 180 178
-10.79 -4.79 -2.93 173 180 178
-10.80 -4.87 -2.92 173 180 178
-10.79 -4.96 -2.92 173 180 178
-10.78 -5.04 -2.93 173 180 178
-10.79 -5.12 -2.93 173 180 178
-10.79 -5.21 -2.92 173 180 178
-10.79 -5.29 -2.93 173 180 178
-10.78 -5.37 -2.93 173 180 178
-10.78 -5.46 -2.94 173 180 178
-10.77 -5.54 -2.95 173 180 178
-10.77 -5.62 -2.95 173 180 178
-10.77 -5.71 -2.95 173 180 178
-10.76 -5.79 -2.96 173 180 178
-10.76 -5.88 -2.97 173 180 175
-10.76 -5.96 -2.97 173 180 175
-10.75 -6.04 -2.99 175 180 176
-10.74 -6.13 -2.99 175 180 176
-10.73 -6.21 -3.00 175 180 176
-10.73 -6.29 -3.00 175 180 176
-10.73 -6.38 -3.01 175 180 176
-10.72 -6.46 -3.02 175 180 176
-10.71 -6.55 -3.04 175 180 176
-10.70 -6.63 -3.04 175 180 176
-10.70 -6.71 -3.05 171 176 172
-10.69 -6.80 -3.06 176 181 177
-10.69 -6.88 -3.06 172 177 173
-10.67 -6.97 -3.09 174 179 175
-10.62 -7.05 -3.15 186 191 187
-10.61 -7.13 -3.17 166 171 167
-10.87 -7.22 -2.82 164 169 165
-11.34 -7.30 -2.17 211 216 212
-11.51 -7.39 -1.95 248 250 245
-11.52 -7.47 -1.93 244 246 241
-11.52 -7.55 -1.93 250 252 247
-11.54 -7.63 -1.91 243 245 240
-11.55 -7.71 -1.89 244 246 241
-11.55 -7.79 -1.90 247 249 244
-11.54 -7.88 -1.91 249 251 246
-11.53 -7.96 -1.92 250 252 247
-11.53 -8.04 -1.92 249 251 246
-11.52 -8.12 -1.94 249 251 246
-11.51 -8.20 -1.95 249 251 246
-11.50 -8.29 -1.96 249 251 246
-11.49 -8.37 -1.98 249 251 246
-11.48 -8.45 -1.99 249 251 246
-11.47 -8.53 -2.01 249 251 246
-11.46 -8.61 -2.02 249 251 246
-11.45 -8.70 -2.02 246 253 251
-11.44 -8.78 -2.04 246 253 251
-11.44 -8.86 -2.04 246 253 251
-11.43 -8.94 -2.05 246 253 251
-11.42 -9.03 -2.07 246 253 251
-11.42 -9.11 -2.07 246 253 251
-11.42 -9.19 -2.07 246 253 251
-11.41 -9.27 -2.08 246 253 251
-11.41 -9.35 -2.08 246 253 251
-11.42 -9.44 -2.07 246 253 251
-11.41 -9.52 -2.08 246 253 251
-11.41 -9.60 -2.09 246 253 251
-11.41 -9.68 -2.08 246 253 251
-11.41 -9.76 -2.08 246 253 251
-11.41 -9.85 -2.08 246 253 251
-11.41 -9.93 -2.08 246 253 251
-11.41 -10.01 -2.09 246 253 251
-11.41 -10.09 -2.08 246 253 251
-11.40 -10.18 -2.09 246 253 251
-11.41 -10.26 -2.08 246 253 251
-11.41 -10.34 -2.08 246 253 251
-11.41 -10.42 -2.09 246 253 251
-11.41 -10.50 -2.09 246 253 251
-11.41 -10.58 -2.08 246 253 251
-11.41 -10.67 -2.08 246 253 251
-11.42 -10.75 -2.07 246 253 251
-11.42 -10.83 -2.07 246 253 251
-11.43 -10.91 -2.06 246 253 251
-11.42 -10.99 -2.07 246 253 251
-11.43 -11.07 -2.06 246 253 251
-11.43 -11.16 -2.05 246 253 251
-11.43 -11.24 -2.06 246 253 251
-11.43 -11.32 -2.05 246 253 251
-11.43 -11.40 -2.05 246 253 251
-11.44 -11.48 -2.04 246 253 251
-11.44 -11.57 -2.04 246 253 251
-11.44 -11.65 -2.04 246 253 251
-11.44 -11.73 -2.04 246 253 251
-11.43 -11.81 -2.05 246 253 251
-11.43 -11.89 -2.05 246 253 251
-11.44 -11.97 -2.04 246 253 251
-11.45 -12.06 -2.03 246 253 251
-11.45 -12.14 -2.03 246 253 251
-11.45 -12.22 -2.02 246 253 251
-11.46 -12.30 -2.02 246 253 251
-11.46 -12.38 -2.02 246 253 251
-11.47 -12.46 -2.00 246 253 251
-11.47 -12.54 -2.00 246 253 251
-11.47 -12.62 -2.00 248 255 253
-11.47 -12.71 -2.01 248 255 253
-11.47 -12.79 -2.00 246 253 251
-11.46 -12.87 -2.01 244 251 249
-11.46 -12.95 -2.01 243 250 248
-11.45 -13.04 -2.02 241 248 246
-11.44 -13.12 -2.04 241 248 246
-11.42 -13.21 -2.07 241 248 246
-11.41 -13.29 -2.08 244 251 249
-11.39 -13.38 -2.11 243 250 248
-11.35 -13.47 -2.17 247 254 252
-11.25 -13.57 -2.30 240 247 245
-11.08 -13.69 -2.53 216 223 221
-10.93 -13.81 -2.74 195 202 200
-10.80 -13.92 -2.91 187 194 192
-10.78 -14.01 -2.94 182 189 187
-10.80 -14.09 -2.92 180 187 180
-10.83 -14.17 -2.88 182 189 182
-10.86 -14.24 -2.84 186 191 185
-10.86 -14.33 -2.83 189 194 188
-10.88 -14.41 -2.81 189 194 188
-10.88 -14.49 -2.81 190 195 189
-10.88 -14.57 -2.81 193 195 190
-10.88 -14.65 -2.80 194 196 191
-10.89 -14.74 -2.79 194 196 191
-10.89 -14.82 -2.79 194 196 191
-10.89 -14.90 -2.79 196 196 191
-10.88 -14.99 -2.81 196 196 191
-10.88 -15.07 -2.81 196 196 191
-10.87 -15.16 -2.81 196 196 191
-10.86 -15.24 -2.82 197 195 191
-10.86 -15.33 -2.83 197 195 191
-10.86 -15.41 -2.84 196 196 193
-10.85 -15.50 -2.85 196 196 193
-10.84 -15.59 -2.86 194 196 193
-10.84 -15.67 -2.86 194 196 193
-10.83 -15.76 -2.87 194 196 193
-10.83 -15.84 -2.87 194 196 193
-10.82 -15.93 -2.88 194 196 193
-10.82 -16.01 -2.89 194 196 193
-10.81 -16.10 -2.89 194 196 193
-10.81 -16.18 -2.90 194 196 193
-10.80 -16.27 -2.91 194 196 193
-10.80 -16.35 -2.92 194 196 193
-10.78 -16.44 -2.93 193 195 192
-10.78 -16.52 -2.94 193 195 192
-10.77 -16.61 -2.95 194 194 191
-10.76 -16.70 -2.96 197 197 194
-10.76 -16.78 -2.97 199 199 196
-10.76 -16.87 -2.97 200 200 197
-10.75 -16.95 -2.97 202 202 199
-10.75 -17.04 -2.98 203 203 200
-10.75 -17.12 -2.99 201 201 198
-10.74 -17.21 -2.99 197 197 194
-10.74 -17.29 -3.00 192 192 189
-10.73 -17.38 -3.01 187 187 184
-10.73 -17.47 -3.01 182 182 179
-10.73 -17.55 -3.01 178 178 175
-10.72 -17.64 -3.02 175 175 172
-10.72 -17.72 -3.03 174 174 171
-10.71 -17.81 -3.04 172 172 169
-10.70 -17.89 -3.05 172 172 169
-10.70 -17.98 -3.05 172 172 169
-10.70 -18.06 -3.05 172 172 169
-10.69 -18.15 -3.06 166 168 165
-10.69 -18.24 -3.07 166 168 165
-10.68 -18.32 -3.07 166 168 165
-10.68 -18.41 -3.07 166 168 165
-10.68 -18.49 -3.08 164 166 163
-10.66 -18.58 -3.10 162 164 161
-10.66 -18.67 -3.10 159 161 158
-10.66 -18.75 -3.11 158 160 157
-10.65 -18.84 -3.12 157 159 156
-10.65 -18.92 -3.12 161 163 160
-10.66 -19.01 -3.11 161 163 160
-10.66 -19.09 -3.11 169 171 168
-10.66 -19.17 -3.11 173 175 172
-10.65 -19.26 -3.11 173 175 172
-10.66 -19.34 -3.11 178 180 177
-10.65 -19.43 -3.11 177 179 176
-10.65 -19.51 -3.12 175 174 177
-10.65 -19.60 -3.12 166 165 168
-10.64 -19.68 -3.13 156 155 158
-10.64 -19.77 -3.13 147 146 149
-10.64 -19.86 -3.14 138 137 140
-10.64 -19.94 -3.13 133 132 135
-10.66 -20.02 -3.11 137 136 139
-10.67 -20.09 -3.08 145 144 147
-10.69 -20.17 -3.06 153 152 155
-10.72 -20.24 -3.02 137 136 139
-10.76 -20.31 -2.97 128 127 130
-10.81 -20.37 -2.90 102 101 104
-10.86 -20.43 -2.84 72 71 74
-10.89 -20.50 -2.79 51 50 53
-10.96 -20.55 -2.70 38 37 40
-11.02 -20.61 -2.61 37 36 39
-11.08 -20.66 -2.53 53 51 49
-11.16 -20.71 -2.42 49 47 45
-11.23 -20.76 -2.33 57 57 54
-11.30 -20.81 -2.24 57 57 54
-11.46 -20.82 -2.02 55 55 52
-11.75 -20.76 -1.62 44 44 41
-12.10 -20.67 -1.14 36 37 40
-12.55 -20.54 -0.54 30 31 34
-12.82 -20.48 -0.17 34 32 52
-13.08 -20.43 0.19 41 39 59
-13.24 -20.43 0.41 67 66 99
-13.34 -20.46 0.54 69 68 101
-13.40 -20.51 0.62 26 25 56
-13.42 -20.57 0.66 23 22 53
-13.45 -20.63 0.69 64 67 85
-13.46 -20.71 0.70 39 42 60
-13.45 -20.79 0.69 38 35 9
-13.45 -20.86 0.70 19 16 0
-13.46 -20.93 0.70 144 141 101
-13.48 -21.00 0.73 249 246 206
-13.50 -21.06 0.77 207 204 151
-13.52 -21.13 0.79 208 205 152
-13.55 -21.19 0.82 202 197 142
-13.55 -21.26 0.83 203 198 143
-13.57 -21.33 0.86 183 174 129
-13.58 -21.40 0.86 156 147 102
-13.59 -21.47 0.89 92 79 47
-13.61 -21.54 0.90 60 47 15
-13.62 -21.61 0.93 43 27 10
-13.64 -21.67 0.95 43 27 10
-13.66 -21.74 0.97 37 19 14
-13.67 -21.81 0.99 27 9 4
-13.66 -21.89 0.98 33 18 40
-13.63 -21.98 0.94 40 25 47
-13.51 -22.12 0.77 70 59 68
-12.98 -22.49 0.06 136 125 134
-12.33 -22.94 -0.83 196 190 195
-11.81 -23.32 -1.54 238 232 237
-11.62 -23.50 -1.79 238 235 239
-11.71 -23.54 -1.67 204 201 205
-11.70 -23.62 -1.69 206 206 201
-11.68 -23.72 -1.72 206 206 201
-11.68 -23.79 -1.71 207 207 204
-11.70 -23.87 -1.69 208 208 205
-11.70 -23.95 -1.68 210 208 209
-11.71 -24.02 -1.67 211 209 210
-11.71 -24.10 -1.67 214 210 202
-11.71 -24.18 -1.67 216 212 204
-11.71 -24.26 -1.67 214 209 208
-11.72 -24.34 -1.65 214 209 208
-11.72 -24.42 -1.65 214 209 208
-11.72 -24.50 -1.66 214 209 208
-11.72 -24.58 -1.66 214 209 208
-11.71 -24.67 -1.67 214 209 208
-11.72 -24.75 -1.66 214 209 208
-11.72 -24.83 -1.66 214 209 208
-11.71 -24.91 -1.67 216 211 210
-11.71 -25.00 -1.67 216 211 210
-11.71 -25.08 -1.68 216 211 210
-11.70 -25.17 -1.69 216 211 210
-11.69 -25.25 -1.70 216 211 210
-11.69 -25.33 -1.70 216 211 210
-11.69 -25.41 -1.70 216 211 210
-11.69 -25.50 -1.70 216 211 210
-11.69 -25.58 -1.70 217 212 214
-11.68 -25.66 -1.71 217 212 214
-11.68 -25.75 -1.72 217 212 214
-11.68 -25.83 -1.71 217 212 214
-11.68 -25.91 -1.71 217 212 214
-11.68 -25.99 -1.72 217 212 214
-11.68 -26.07 -1.72 217 212 214
-11.68 -26.15 -1.72 217 212 214
-11.67 -26.24 -1.73 217 212 214
-11.67 -26.32 -1.72 217 212 214
-11.67 -26.41 -1.73 217 212 214
-11.68 -26.48 -1.72 217 212 214
-11.67 -26.57 -1.73 217 212 214
-11.67 -26.64 -1.72 217 212 214
-11.67 -26.73 -1.72 217 212 214
-11.68 -26.80 -1.72 217 212 214
-11.68 -26.88 -1.71 217 212 214
-11.68 -26.97 -1.72 217 212 214
-11.69 -27.04 -1.70 217 212 214
-11.69 -27.12 -1.70 217 212 214
-11.69 -27.20 -1.70 217 212 214
-11.69 -27.28 -1.70 217 212 214
-11.69 -27.36 -1.70 217 212 214
-11.69 -27.45 -1.70 217 212 214
-11.69 -27.53 -1.70 218 213 215
-11.69 -27.61 -1.70 218 213 215
-11.68 -27.69 -1.71 218 213 215
-11.69 -27.77 -1.70 218 213 215
-11.69 -27.85 -1.70 218 213 215
-11.68 -27.94 -1.71 218 213 215
-11.68 -28.02 -1.71 218 213 212
-11.68 -28.10 -1.71 218 213 212
-11.68 -28.18 -1.71 218 213 210
-11.68 -28.26 -1.71 218 213 210
-11.67 -28.35 -1.72 218 213 210
-11.68 -28.43 -1.71 218 213 210
-11.68 -28.51 -1.72 218 213 210
-11.68 -28.59 -1.71 218 213 210
-11.68 -28.67 -1.71 218 213 210
-11.69 -28.74 -1.70 218 213 210
-11.69 -28.83 -1.70 219 214 211
-11.70 -28.90 -1.69 219 214 211
-11.69 -28.99 -1.70 219 214 211
-11.69 -29.07 -1.70 219 214 211
-11.70 -29.15 -1.69 219 214 211
-11.69 -29.23 -1.70 219 214 211
-11.69 -29.31 -1.70 219 214 211
-11.69 -29.39 -1.70 219 214 211
-11.69 -29.48 -1.70 221 214 212
-11.69 -29.55 -1.70 221 214 212
-11.70 -29.63 -1.69 221 214 212
-11.70 -29.71 -1.69 221 214 212
-11.69 -29.80 -1.70 221 214 212
-11.70 -29.88 -1.69 221 214 212
-11.70 -29.96 -1.69 221 214 212
-11.70 -30.04 -1.69 221 214 212
-11.69 -30.12 -1.70 222 215 213
-11.70 -30.20 -1.69 222 215 213
-11.69 -30.28 -1.70 222 215 213
-11.70 -30.36 -1.69 222 215 213
-11.70 -30.44 -1.69 222 215 213
-11.70 -30.53 -1.69 222 215 213
-11.70 -30.61 -1.69 222 215 213
-11.70 -30.69 -1.69 224 217 215
-11.70 -30.77 -1.69 224 217 215
-11.70 -30.85 -1.69 225 218 216
-11.70 -30.93 -1.69 225 218 216
-11.70 -31.01 -1.69 225 218 216
-11.70 -31.09 -1.69 225 218 216
-11.70 -31.17 -1.69 225 218 216
-11.71 -31.25 -1.68 225 218 216
-11.71 -31.32 -1.67 224 217 215
-11.72 -31.40 -1.66 224 217 215
-11.73 -31.47 -1.65 222 215 213
-11.72 -31.56 -1.65 224 217 215
-11.72 -31.64 -1.65 224 217 215
-11.74 -31.71 -1.64 225 218 216
-11.76 -31.77 -1.61 226 219 217
-11.78 -31.83 -1.57 225 220 217
-11.82 -31.88 -1.53 226 221 218
-11.82 -31.96 -1.52 225 225 222
-11.86 -32.00 -1.46 227 227 224
-11.91 -32.04 -1.40 239 239 236
-11.95 -32.09 -1.34 253 253 250
-12.10 -32.04 -1.14 251 251 248
-12.51 -31.75 -0.59 251 251 248
-12.84 -31.54 -0.14 249 249 246
-12.95 -31.51 0.01 250 250 247
-12.98 -31.56 0.05 252 252 249
-12.89 -31.72 -0.07 245 245 242
-12.69 -31.98 -0.34 246 246 243
-12.42 -32.30 -0.70 231 231 228
-12.02 -32.75 -1.25 242 242 239
-12.23 -32.64 -0.97 255 255 252
-12.24 -32.71 -0.95 250 250 247
-10.54 -34.35 -3.26 153 153 150
-11.31 18.99 -2.34 137 131 122
-11.31 18.91 -2.34 137 131 122
-11.31 18.82 -2.34 137 131 122
-11.27 18.78 -2.40 137 131 122
-11.28 18.69 -2.39 137 131 122
-11.28 18.61 -2.39 137 131 122
-11.25 18.55 -2.42 137 131 122
-11.23 18.48 -2.45 137 131 122
-11.23 18.40 -2.45 137 131 122
-11.22 18.33 -2.46 137 131 122
-11.22 18.25 -2.47 139 133 124
-11.21 18.17 -2.48 139 133 124
-11.21 18.09 -2.49 139 133 124
-11.20 18.01 -2.49 139 133 124
-11.19 17.94 -2.50 139 133 124
-11.19 17.86 -2.51 139 133 124
-11.19 17.78 -2.51 139 133 124
-11.19 17.70 -2.51 140 134 125
-11.18 17.62 -2.53 141 135 126
-11.17 17.54 -2.53 141 135 126
-11.17 17.46 -2.53 141 135 126
-11.17 17.38 -2.54 141 135 126
-11.17 17.30 -2.54 141 135 126
-11.16 17.23 -2.55 141 135 126
-11.15 17.15 -2.56 141 135 126
-11.15 17.06 -2.56 141 135 126
-11.15 16.98 -2.56 142 136 127
-11.14 16.91 -2.58 142 136 127
-11.14 16.83 -2.58 143 137 128
-11.12 16.76 -2.60 143 137 128
-11.12 16.68 -2.61 144 138 129
-11.11 16.60 -2.62 144 138 129
-11.10 16.53 -2.63 146 137 131
-11.10 16.45 -2.63 146 137 131
-11.09 16.37 -2.65 146 137 131
-11.08 16.29 -2.66 146 137 131
-11.07 16.22 -2.67 146 137 131
-11.07 16.14 -2.68 148 139 133
-11.06 16.06 -2.69 150 141 135
-11.05 15.98 -2.69 150 141 135
-11.05 15.91 -2.70 149 140 134
-11.04 15.83 -2.71 149 140 134
-11.03 15.75 -2.72 149 140 134
-11.03 15.67 -2.73 149 140 134
-11.02 15.59 -2.74 147 141 134
-11.02 15.51 -2.74 146 140 133
-11.02 15.43 -2.74 146 140 133
-11.02 15.35 -2.75 147 141 134
-11.01 15.27 -2.76 147 141 134
-11.01 15.19 -2.76 147 141 134
-11.00 15.12 -2.77 148 142 135
-10.99 15.04 -2.78 148 142 135
-10.98 14.96 -2.79 149 143 136
-10.97 14.88 -2.80 149 143 136
-10.97 14.80 -2.81 150 144 137
-10.97 14.72 -2.81 150 144 137
-10.96 14.64 -2.82 151 145 138
-10.96 14.56 -2.83 153 147 140
-10.95 14.48 -2.84 153 147 140
-10.94 14.40 -2.84 153 147 140
-10.94 14.32 -2.85 153 147 140
-10.94 14.24 -2.85 153 147 140
-10.94 14.16 -2.85 153 147 140
-10.93 14.08 -2.86 153 147 140
-10.93 14.00 -2.86 154 148 141
-10.93 13.91 -2.86 154 148 141
-10.93 13.83 -2.87 154 148 141
-10.93 13.75 -2.86 154 148 141
-10.93 13.67 -2.87 154 148 141
-10.92 13.59 -2.87 155 149 142
-10.92 13.50 -2.87 156 150 143
-10.91 13.42 -2.88 157 151 144
-10.91 13.34 -2.89 157 151 144
-10.91 13.26 -2.89 157 151 144
-10.90 13.18 -2.91 157 151 144
-10.90 13.10 -2.91 157 151 144
-10.89 13.02 -2.91 157 151 144
-10.89 12.94 -2.92 158 152 145
-10.89 12.86 -2.92 158 152 145
-10.88 12.78 -2.93 160 154 147
-10.88 12.70 -2.93 159 155 147
-10.88 12.61 -2.93 159 155 147
-10.88 12.53 -2.94 159 155 147
-10.88 12.45 -2.94 159 155 147
-10.87 12.37 -2.94 159 155 147
-10.87 12.28 -2.94 159 155 147
-10.87 12.20 -2.94 159 155 147
-10.87 12.12 -2.95 160 156 148
-10.87 12.03 -2.94 160 156 148
-10.87 11.95 -2.94 160 156 148
-10.87 11.87 -2.94 160 156 148
-10.87 11.78 -2.94 160 156 148
-10.87 11.70 -2.95 160 156 148
-10.86 11.62 -2.95 160 156 148
-10.86 11.54 -2.96 160 156 148
-10.86 11.46 -2.96 162 158 150
-10.85 11.37 -2.97 161 157 151
-10.86 11.29 -2.96 162 158 152
-10.85 11.21 -2.97 163 159 153
-10.85 11.12 -2.97 163 159 153
-10.84 11.05 -2.98 164 160 154
-10.84 10.96 -2.99 164 160 154
-10.84 10.88 -2.99 166 162 156
-10.84 10.80 -2.99 166 162 156
-10.84 10.71 -2.99 167 163 157
-10.83 10.63 -2.99 167 163 157
-10.83 10.55 -2.99 167 163 157
-10.83 10.47 -3.01 167 163 157
-10.83 10.38 -3.00 167 163 157
-10.83 10.30 -3.00 167 163 157
-10.83 10.22 -3.00 167 163 157
-10.83 10.13 -3.00 167 163 157
-10.83 10.05 -3.00 169 163 156
-10.83 9.96 -3.00 169 163 156
-10.83 9.88 -3.00 169 163 156
-10.84 9.79 -2.99 169 163 156
-10.84 9.71 -2.99 168 164 156
-10.84 9.62 -2.98 168 164 156
-10.85 9.54 -2.98 168 164 156
-10.84 9.45 -2.98 169 165 157
-10.85 9.37 -2.97 168 167 158
-10.85 9.28 -2.97 169 168 159
-10.85 9.20 -2.98 169 168 159
-10.85 9.12 -2.98 171 170 161
-10.85 9.03 -2.98 171 172 162
-10.84 8.95 -2.98 172 173 163
-10.84 8.87 -2.98 174 173 164
-10.84 8.78 -2.98 173 172 163
-10.84 8.70 -2.98 172 171 164
-10.84 8.62 -2.99 172 171 164
-10.84 8.53 -2.98 172 171 164
-10.84 8.45 -2.98 172 171 164
-10.85 8.36 -2.97 172 171 164
-10.85 8.28 -2.98 172 171 164
-10.85 8.19 -2.98 172 171 164
-10.85 8.11 -2.97 173 172 165
-10.85 8.03 -2.97 174 173 166
-10.85 7.94 -2.97 174 173 166
-10.85 7.86 -2.97 174 173 166
-10.85 7.78 -2.97 174 173 166
-10.85 7.69 -2.98 174 173 166
-10.84 7.61 -2.99 174 173 166
-10.84 7.53 -2.98 174 173 166
-10.84 7.44 -2.98 176 175 168
-10.84 7.36 -2.98 177 176 169
-10.83 7.28 -2.99 177 176 169
-10.83 7.20 -3.00 177 176 169
-10.83 7.12 -3.01 177 176 169
-10.82 7.03 -3.01 179 178 171
-10.82 6.95 -3.02 179 178 171
-10.81 6.87 -3.02 179 178 171
-10.82 6.79 -3.02 179 178 171
-10.81 6.70 -3.03 179 178 171
-10.82 6.62 -3.02 179 178 171
-10.82 6.53 -3.01 179 177 173
-10.82 6.45 -3.02 179 177 173
-10.82 6.36 -3.01 180 178 174
-10.83 6.28 -3.00 180 178 174
-10.83 6.19 -3.00 180 180 175
-10.82 6.11 -3.01 180 180 175
-10.83 6.03 -3.00 180 180 175
-10.83 5.94 -3.01 180 180 175
-10.83 5.86 -3.01 180 180 175
-10.83 5.78 -3.01 180 180 175
-10.83 5.69 -3.01 180 180 175
-10.82 5.61 -3.01 180 180 175
-10.82 5.52 -3.01 180 180 175
-10.82 5.44 -3.02 180 180 175
-10.82 5.36 -3.01 179 179 174
-10.82 5.27 -3.01 179 179 174
-10.82 5.19 -3.01 179 179 174
-10.82 5.11 -3.01 179 179 174
-10.82 5.02 -3.01 179 179 174
-10.82 4.94 -3.01 179 179 174
-10.82 4.85 -3.01 179 179 174
-10.82 4.77 -3.01 179 179 174
-10.82 4.69 -3.02 178 178 173
-10.82 4.60 -3.01 178 178 173
-10.82 4.52 -3.01 178 178 173
-10.82 4.44 -3.02 178 178 173
-10.82 4.35 -3.02 178 178 173
-10.82 4.27 -3.02 178 178 173
-10.82 4.19 -3.02 178 178 173
-10.82 4.10 -3.01 178 178 173
-10.82 4.02 -3.01 176 176 171
-10.82 3.93 -3.01 176 176 171
-10.82 3.85 -3.01 176 176 171
-10.81 3.77 -3.02 176 176 171
-10.82 3.68 -3.02 176 176 171
-10.81 3.60 -3.03 176 176 171
-10.81 3.52 -3.03 176 176 171
-10.81 3.43 -3.03 175 175 170
-10.81 3.35 -3.03 176 176 171
-10.81 3.26 -3.02 176 176 171
-10.81 3.18 -3.03 175 175 170
-10.82 3.10 -3.02 174 174 169
-10.82 3.01 -3.02 174 174 169
-10.82 2.93 -3.02 174 174 169
-10.82 2.84 -3.02 174 174 169
-10.82 2.76 -3.02 174 174 169
-10.82 2.68 -3.02 174 174 169
-10.82 2.59 -3.02 174 174 169
-10.82 2.51 -3.02 174 174 169
-10.81 2.43 -3.03 173 173 168
-10.82 2.34 -3.02 173 173 168
-10.82 2.26 -3.02 173 173 168
-10.82 2.17 -3.01 173 173 168
-10.83 2.09 -3.01 173 173 168
-10.82 2.00 -3.01 172 173 165
-10.83 1.92 -3.00 172 173 165
-10.83 1.83 -3.00 172 173 165
-10.84 1.75 -2.99 172 173 165
-10.84 1.66 -2.99 172 173 165
-10.83 1.58 -2.99 172 173 165
-10.84 1.50 -2.99 172 173 165
-10.85 1.41 -2.98 172 173 165
-10.84 1.33 -2.98 172 173 165
-10.85 1.24 -2.97 172 173 165
-10.85 1.16 -2.97 172 173 165
-10.86 1.07 -2.96 172 173 165
-10.87 0.99 -2.95 172 173 165
-10.86 0.90 -2.96 172 173 165
-10.86 0.82 -2.95 172 173 161
-10.86 0.74 -2.96 172 173 161
-10.86 0.65 -2.96 172 173 163
-10.86 0.57 -2.96 172 173 163
-10.86 0.48 -2.96 172 173 163
-10.86 0.40 -2.95 172 173 163
-10.87 0.32 -2.95 172 173 163
-10.87 0.23 -2.94 172 173 163
-10.87 0.15 -2.94 172 173 163
-10.88 0.06 -2.94 172 173 163
-10.88 -0.02 -2.93 172 173 163
-10.89 -0.11 -2.92 172 173 163
-10.89 -0.19 -2.92 172 173 163
-10.90 -0.28 -2.91 172 173 163
-10.89 -0.36 -2.91 172 173 163
-10.89 -0.44 -2.92 172 173 163
-10.90 -0.53 -2.91 172 173 163
-10.90 -0.61 -2.91 172 173 163
-10.90 -0.70 -2.91 172 173 165
-10.90 -0.78 -2.91 172 173 165
-10.90 -0.86 -2.91 170 173 165
-10.89 -0.95 -2.91 170 173 165
-10.90 -1.03 -2.91 170 173 165
-10.89 -1.11 -2.91 170 173 165
-10.89 -1.20 -2.92 170 173 165
-10.89 -1.28 -2.91 170 173 165
-10.90 -1.37 -2.91 171 174 166
-10.90 -1.45 -2.90 171 174 166
-10.90 -1.53 -2.90 171 174 166
-10.91 -1.62 -2.89 171 174 166
-10.91 -1.70 -2.89 171 174 166
-10.91 -1.79 -2.89 171 174 166
-10.91 -1.87 -2.89 173 174 166
-10.91 -1.95 -2.89 173 174 166
-10.91 -2.04 -2.89 171 173 168
-10.91 -2.12 -2.89 171 173 168
-10.91 -2.20 -2.89 169 174 168
-10.91 -2.29 -2.89 169 174 168
-10.90 -2.37 -2.90 169 174 168
-10.90 -2.45 -2.90 169 174 168
-10.90 -2.54 -2.90 169 174 168
-10.91 -2.62 -2.90 169 174 168
-10.91 -2.70 -2.90 169 174 168
-10.91 -2.79 -2.89 169 174 168
-10.91 -2.87 -2.89 169 174 168
-10.91 -2.96 -2.89 169 174 168
-10.91 -3.04 -2.88 169 174 168
-10.91 -3.12 -2.89 169 174 168
-10.91 -3.21 -2.89 170 175 169
-10.91 -3.29 -2.89 169 174 168
-10.92 -3.37 -2.88 172 174 171
-10.91 -3.46 -2.88 172 174 171
-10.92 -3.54 -2.88 173 175 172
-10.92 -3.63 -2.88 173 175 172
-10.92 -3.71 -2.88 174 176 173
-10.92 -3.79 -2.88 174 176 173
-10.91 -3.88 -2.88 174 176 173
-10.91 -3.96 -2.89 174 176 173
-10.91 -4.04 -2.88 174 176 173
-10.91 -4.13 -2.89 174 176 173
-10.91 -4.21 -2.90 174 176 173
-10.90 -4.29 -2.90 174 176 173
-10.90 -4.38 -2.90 172 177 173
-10.90 -4.46 -2.90 172 177 173
-10.90 -4.54 -2.91 172 177 176
-10.90 -4.63 -2.90 174 179 178
-10.90 -4.71 -2.90 173 180 178
-10.90 -4.79 -2.90 173 180 178
-10.90 -4.88 -2.90 173 180 178
-10.90 -4.96 -2.91 173 180 178
-10.90 -5.04 -2.91 173 180 178
-10.90 -5.13 -2.91 173 180 178
-10.90 -5.21 -2.91 173 180 178
-10.89 -5.30 -2.91 173 180 178
-10.89 -5.38 -2.92 173 180 178
-10.89 -5.46 -2.92 173 180 178
-10.88 -5.55 -2.93 173 180 178
-10.88 -5.63 -2.93 173 180 178
-10.88 -5.71 -2.93 173 180 178
-10.88 -5.80 -2.93 173 180 178
-10.87 -5.88 -2.94 173 180 175
-10.87 -5.96 -2.95 173 180 175
-10.86 -6.05 -2.96 175 180 176
-10.86 -6.13 -2.96 175 180 176
-10.85 -6.21 -2.97 175 180 176
-10.85 -6.30 -2.97 175 180 176
-10.84 -6.38 -2.99 175 180 176
-10.83 -6.46 -2.99 175 180 176
-10.83 -6.55 -3.00 175 180 176
-10.82 -6.63 -3.01 175 180 176
-10.81 -6.71 -3.03 175 180 176
-10.82 -6.80 -3.02 178 183 179
-10.81 -6.88 -3.02 178 183 179
-10.78 -6.97 -3.07 175 180 176
-10.73 -7.05 -3.14 175 180 176
-10.78 -7.13 -3.07 160 165 161
-11.23 -7.22 -2.45 193 198 194
-11.62 -7.30 -1.92 241 246 242
-11.66 -7.39 -1.87 247 249 244
-11.67 -7.47 -1.86 247 249 244
-11.65 -7.55 -1.88 254 255 251
-11.65 -7.63 -1.88 246 248 243
-11.66 -7.71 -1.87 249 251 246
-11.66 -7.79 -1.86 246 248 243
-11.65 -7.87 -1.88 247 249 244
-11.65 -7.96 -1.88 248 250 245
-11.64 -8.04 -1.89 249 251 246
-11.63 -8.12 -1.90 249 251 246
-11.62 -8.20 -1.93 249 251 246
-11.60 -8.28 -1.94 249 251 246
-11.60 -8.37 -1.95 249 251 246
-11.59 -8.45 -1.96 249 251 246
-11.58 -8.53 -1.97 249 251 246
-11.58 -8.61 -1.98 249 251 246
-11.57 -8.69 -1.99 246 253 251
-11.57 -8.77 -1.99 246 253 251
-11.56 -8.86 -2.01 246 253 251
-11.55 -8.94 -2.02 246 253 251
-11.54 -9.02 -2.03 246 253 251
-11.53 -9.10 -2.04 246 253 251
-11.53 -9.19 -2.05 246 253 251
-11.52 -9.27 -2.06 246 253 251
-11.52 -9.35 -2.05 246 253 251
-11.52 -9.43 -2.06 246 253 251
-11.52 -9.51 -2.06 246 253 251
-11.52 -9.60 -2.06 246 253 251
-11.52 -9.68 -2.05 246 253 251
-11.53 -9.76 -2.05 246 253 251
-11.53 -9.84 -2.05 246 253 251
-11.53 -9.92 -2.05 246 253 251
-11.52 -10.00 -2.05 246 253 251
-11.53 -10.09 -2.05 246 253 251
-11.53 -10.17 -2.05 246 253 251
-11.52 -10.25 -2.05 246 253 251
-11.53 -10.33 -2.05 246 253 251
-11.52 -10.41 -2.06 246 253 251
