ply
format ascii 1.0
element vertex 1551
property float x
property float y
property float z
property uchar red
property uchar green
property uchar blue
end_header
-14.96 -12.40 0.60 12 16 20
-14.94 -12.48 0.56 16 20 24
-14.94 -12.56 0.56 33 37 41
-14.95 -12.63 0.59 40 44 48
-14.98 -12.70 0.62 36 40 44
-15.01 -12.76 0.66 34 38 42
-15.02 -12.83 0.68 41 45 49
-15.04 -12.90 0.71 37 41 45
-15.04 -12.98 0.71 39 43 47
-15.02 -13.05 0.68 42 46 50
-15.00 -13.13 0.65 40 44 48
-14.96 -13.22 0.60 42 46 50
-14.92 -13.30 0.54 40 44 48
-14.90 -13.38 0.50 40 44 48
-14.87 -13.46 0.46 26 30 32
-14.82 -13.55 0.39 2 6 8
-14.69 -13.65 0.20 85 89 91
-14.35 -13.81 -0.28 241 245 247
-14.13 -13.94 -0.61 247 252 251
-14.08 -14.03 -0.68 244 249 248
-14.05 -14.12 -0.73 246 251 250
-14.03 -14.20 -0.75 246 251 250
-14.00 -14.28 -0.79 246 251 247
-13.99 -14.36 -0.81 246 251 247
-13.98 -14.44 -0.83 246 251 247
-13.97 -14.52 -0.83 246 251 247
-13.97 -14.60 -0.84 246 251 245
-13.96 -14.68 -0.86 246 251 245
-13.95 -14.76 -0.87 249 251 248
-13.94 -14.84 -0.88 249 251 248
-13.94 -14.92 -0.89 248 250 247
-13.94 -14.99 -0.88 247 249 246
-13.94 -15.07 -0.88 246 248 245
-13.94 -15.14 -0.88 247 249 246
-13.95 -15.22 -0.87 249 251 248
-13.95 -15.29 -0.87 251 253 250
-13.97 -15.37 -0.84 254 255 253
-13.97 -15.44 -0.84 249 251 248
-13.99 -15.51 -0.81 249 251 248
-13.97 -15.60 -0.84 250 252 249
-13.91 -15.69 -0.92 247 249 246
-13.82 -15.80 -1.05 242 244 241
-13.72 -15.91 -1.21 233 235 232
-13.60 -16.03 -1.38 219 221 218
-13.50 -16.14 -1.52 192 191 194
-13.43 -16.24 -1.62 192 191 194
-13.41 -16.32 -1.65 192 191 194
-13.39 -16.41 -1.67 192 191 194
-13.39 -16.49 -1.68 192 191 194
-13.39 -16.56 -1.68 192 191 194
-13.39 -16.64 -1.67 192 191 194
-13.40 -16.72 -1.67 192 191 194
-13.41 -16.79 -1.65 196 195 198
-13.42 -16.87 -1.64 196 195 198
-13.42 -16.94 -1.63 196 195 198
-13.43 -17.02 -1.62 196 195 198
-13.43 -17.10 -1.61 196 195 198
-13.43 -17.18 -1.62 196 195 198
-13.42 -17.26 -1.64 196 195 198
-13.42 -17.34 -1.63 196 195 198
-13.42 -17.42 -1.64 196 195 200
-13.41 -17.50 -1.65 196 195 200
-13.40 -17.58 -1.66 196 195 200
-13.40 -17.66 -1.66 196 195 200
-13.40 -17.74 -1.67 196 195 200
-13.40 -17.82 -1.67 196 195 200
-13.39 -17.90 -1.68 196 195 200
-13.38 -17.98 -1.69 196 195 200
-13.39 -18.06 -1.68 194 193 198
-13.38 -18.14 -1.70 194 193 198
-13.37 -18.22 -1.70 194 193 198
-13.37 -18.30 -1.71 194 193 198
-13.37 -18.38 -1.71 194 193 198
-13.37 -18.45 -1.70 194 193 198
-13.37 -18.53 -1.71 194 193 198
-13.37 -18.61 -1.71 194 193 198
-13.37 -18.69 -1.71 196 195 200
-13.36 -18.77 -1.72 196 195 200
-13.37 -18.85 -1.71 196 195 200
-13.37 -18.92 -1.70 196 195 200
-13.38 -19.00 -1.69 196 195 200
-13.39 -19.08 -1.68 196 195 200
-13.39 -19.15 -1.68 196 195 200
-13.39 -19.23 -1.67 196 195 200
-13.40 -19.31 -1.67 188 187 192
-13.41 -19.38 -1.65 193 192 197
-13.42 -19.45 -1.63 185 184 189
-13.44 -19.52 -1.61 186 185 190
-13.44 -19.60 -1.60 188 187 192
-13.46 -19.67 -1.57 185 184 189
-13.49 -19.74 -1.54 182 181 186
-13.51 -19.80 -1.51 176 175 180
-13.53 -19.87 -1.47 179 178 183
-13.54 -19.95 -1.47 171 170 175
-13.55 -20.02 -1.44 165 164 169
-13.58 -20.08 -1.41 163 162 167
-13.60 -20.15 -1.37 160 159 164
-13.62 -20.22 -1.34 152 151 156
-13.63 -20.29 -1.33 130 129 134
-13.62 -20.37 -1.35 102 101 106
-13.56 -20.48 -1.43 64 63 68
-13.46 -20.61 -1.57 43 42 47
-13.48 -20.68 -1.55 39 38 43
-13.51 -20.74 -1.51 52 51 56
-13.67 -20.73 -1.27 51 50 55
-14.02 -20.63 -0.77 51 50 55
-14.70 -20.36 0.22 53 52 57
-14.97 -20.29 0.61 54 53 58
-14.96 -20.37 0.60 52 51 54
-14.91 -20.47 0.52 46 45 48
-14.88 -20.56 0.48 15 17 31
-14.85 -20.65 0.44 0 1 15
-14.86 -20.72 0.45 19 23 52
-14.85 -20.80 0.43 40 44 73
-14.83 -20.89 0.41 31 37 81
-14.82 -20.96 0.40 29 35 79
-14.82 -21.04 0.39 24 28 80
-14.79 -21.13 0.35 16 20 72
-14.78 -21.21 0.33 14 18 70
-14.77 -21.29 0.32 12 16 68
-14.80 -21.35 0.36 12 14 57
-14.83 -21.40 0.41 25 27 70
-14.88 -21.45 0.48 41 41 78
-14.91 -21.51 0.52 41 41 78
-14.92 -21.58 0.53 41 40 84
-14.94 -21.64 0.57 39 38 82
-14.94 -21.71 0.56 41 38 83
-14.93 -21.79 0.55 37 34 79
-14.91 -21.88 0.52 39 36 81
-14.90 -21.96 0.51 37 34 79
-14.89 -22.04 0.49 35 29 77
-14.87 -22.12 0.46 43 37 85
-14.87 -22.19 0.47 36 30 76
-14.80 -22.31 0.36 51 45 91
-14.10 -22.80 -0.65 128 124 160
-13.48 -23.26 -1.55 158 154 190
-13.48 -23.33 -1.55 150 148 168
-13.45 -23.43 -1.60 142 140 160
-13.42 -23.53 -1.64 137 136 141
-13.44 -23.60 -1.61 136 135 140
-13.45 -23.67 -1.60 145 139 146
-13.42 -23.76 -1.63 148 142 149
-13.42 -23.84 -1.64 142 136 143
-13.40 -23.93 -1.67 133 127 134
-13.40 -24.01 -1.67 108 102 109
-13.39 -24.10 -1.68 90 84 91
-13.39 -24.17 -1.68 69 63 70
-13.42 -24.24 -1.64 61 55 62
-13.45 -24.29 -1.59 57 51 58
-13.50 -24.34 -1.52 57 51 58
-13.55 -24.38 -1.44 61 55 62
-13.61 -24.42 -1.36 64 58 65
-13.68 -24.46 -1.26 65 59 66
-13.78 -24.47 -1.12 71 65 72
-13.84 -24.50 -1.02 72 66 73
-13.88 -24.55 -0.96 64 58 65
-13.92 -24.61 -0.91 64 54 58
-13.94 -24.67 -0.89 61 51 55
-13.97 -24.73 -0.84 58 48 52
-13.99 -24.79 -0.81 59 49 53
-14.00 -24.86 -0.80 78 68 72
-14.00 -24.94 -0.80 94 84 88
-14.01 -25.01 -0.79 123 113 117
-14.01 -25.08 -0.78 150 140 144
-14.02 -25.15 -0.77 193 183 187
-14.02 -25.23 -0.76 203 193 197
-14.02 -25.30 -0.76 216 206 210
-14.02 -25.38 -0.76 226 216 220
-14.04 -25.45 -0.74 226 216 220
-14.04 -25.52 -0.74 221 211 215
-14.05 -25.59 -0.72 216 206 210
-14.05 -25.66 -0.72 214 204 208
-14.05 -25.74 -0.72 207 202 204
-14.06 -25.81 -0.71 207 202 204
-14.05 -25.89 -0.72 207 202 204
-14.06 -25.96 -0.70 209 204 206
-14.06 -26.04 -0.71 210 205 207
-14.06 -26.12 -0.70 210 205 207
-14.07 -26.19 -0.69 211 206 208
-14.07 -26.26 -0.69 211 206 208
-14.07 -26.34 -0.69 210 205 207
-14.08 -26.41 -0.68 210 205 207
-14.08 -26.49 -0.68 210 205 207
-14.08 -26.56 -0.68 210 205 207
-14.08 -26.64 -0.67 210 205 207
-14.08 -26.72 -0.68 210 205 207
-14.08 -26.79 -0.67 210 205 207
-14.09 -26.86 -0.67 210 205 207
-14.09 -26.94 -0.67 213 206 209
-14.09 -27.01 -0.67 213 206 209
-14.09 -27.09 -0.67 213 206 209
-14.09 -27.17 -0.67 213 206 209
-14.08 -27.25 -0.68 213 206 209
-14.08 -27.32 -0.67 213 206 209
-14.08 -27.40 -0.68 213 206 209
-14.08 -27.48 -0.68 213 206 209
-14.07 -27.56 -0.69 213 206 209
-14.07 -27.64 -0.69 213 206 209
-14.06 -27.72 -0.71 213 206 209
-14.06 -27.80 -0.71 213 206 209
-14.05 -27.88 -0.72 213 206 209
-14.05 -27.96 -0.72 213 206 209
-14.05 -28.04 -0.72 213 206 209
-14.04 -28.12 -0.73 213 206 209
-14.04 -28.20 -0.74 214 206 212
-14.04 -28.27 -0.74 214 206 212
-14.04 -28.35 -0.74 214 206 212
-14.03 -28.43 -0.75 214 206 212
-14.02 -28.52 -0.76 214 206 212
-14.02 -28.59 -0.76 214 206 212
-14.02 -28.67 -0.76 214 206 212
-14.01 -28.76 -0.78 215 207 213
-14.01 -28.83 -0.78 215 207 213
-14.02 -28.91 -0.77 215 207 213
-14.02 -28.98 -0.77 215 207 213
-14.02 -29.06 -0.77 215 207 213
-14.02 -29.14 -0.77 215 207 213
-14.02 -29.21 -0.77 215 207 213
-14.03 -29.28 -0.76 215 208 211
-14.03 -29.35 -0.75 215 208 211
-14.03 -29.43 -0.75 220 207 215
-14.04 -29.50 -0.74 221 208 216
-14.03 -29.58 -0.75 220 210 214
-14.04 -29.65 -0.74 220 210 214
-14.04 -29.73 -0.73 220 210 214
-14.05 -29.80 -0.72 220 210 214
-14.05 -29.87 -0.72 220 210 214
-14.06 -29.94 -0.70 220 210 214
-14.07 -30.01 -0.69 220 210 214
-14.08 -30.08 -0.68 220 210 214
-14.08 -30.15 -0.68 220 210 214
-14.09 -30.22 -0.67 220 210 214
-14.09 -30.29 -0.66 220 210 214
-14.10 -30.36 -0.65 220 210 214
-14.11 -30.43 -0.63 220 210 214
-14.11 -30.50 -0.63 220 210 214
-14.12 -30.57 -0.62 216 206 207
-14.12 -30.65 -0.62 220 210 211
-14.14 -30.71 -0.60 219 212 212
-14.17 -30.76 -0.55 221 214 214
-14.19 -30.81 -0.52 214 209 208
-14.23 -30.86 -0.47 232 227 226
-14.27 -30.89 -0.40 255 253 252
-14.32 -30.92 -0.33 255 250 249
-14.42 -30.91 -0.19 194 194 191
-14.62 -30.80 0.10 178 178 175
-14.80 -30.71 0.36 225 225 222
-14.89 -30.69 0.50 251 251 248
-14.93 -30.73 0.55 249 251 248
-14.97 -30.77 0.60 242 244 241
-14.99 -30.82 0.63 202 207 203
-14.89 -30.99 0.50 196 201 197
-13.59 17.56 -1.52 128 128 128
-13.55 17.52 -1.57 128 128 128
-13.54 17.45 -1.59 129 127 128
-13.50 17.41 -1.64 129 127 128
-13.51 17.33 -1.63 129 127 128
-13.49 17.27 -1.66 129 127 128
-13.46 17.22 -1.70 131 126 128
-13.45 17.15 -1.71 132 127 129
-13.43 17.08 -1.74 131 126 128
-13.41 17.03 -1.78 128 123 125
-13.40 16.96 -1.79 130 123 126
-13.38 16.90 -1.81 135 128 131
-13.37 16.83 -1.83 136 129 132
-13.35 16.77 -1.86 134 127 130
-13.33 16.71 -1.89 133 126 126
-13.31 16.65 -1.92 134 127 127
-13.29 16.59 -1.95 131 129 130
-13.28 16.52 -1.96 132 130 131
-13.28 16.44 -1.96 135 129 136
-13.28 16.36 -1.96 136 130 137
-13.27 16.29 -1.98 136 130 137
-13.26 16.22 -1.99 135 129 136
-13.27 16.13 -1.98 135 128 126
-13.28 16.04 -1.96 134 127 125
-13.28 15.96 -1.96 136 130 121
-13.32 15.85 -1.91 139 133 124
-13.34 15.75 -1.87 141 135 126
-13.34 15.67 -1.87 139 133 124
-13.38 15.56 -1.81 139 132 135
-13.37 15.49 -1.84 137 130 133
-13.36 15.42 -1.85 140 131 146
-13.38 15.33 -1.82 141 132 147
-13.34 15.28 -1.88 135 134 149
-13.34 15.21 -1.88 137 136 151
-13.31 15.15 -1.92 139 139 136
-13.27 15.11 -1.98 139 139 136
-13.22 15.07 -2.05 143 142 133
-13.20 15.00 -2.07 139 138 129
-13.19 14.94 -2.09 139 134 136
-13.19 14.86 -2.09 143 138 140
-13.20 14.77 -2.08 144 133 140
-13.20 14.69 -2.08 145 134 141
-13.20 14.61 -2.08 146 135 130
-13.20 14.53 -2.08 147 136 131
-13.20 14.45 -2.08 147 136 131
-13.19 14.38 -2.09 149 138 133
-13.19 14.30 -2.09 151 137 142
-13.19 14.23 -2.10 152 138 143
-13.19 14.15 -2.10 149 139 138
-13.18 14.08 -2.11 149 139 138
-13.18 14.00 -2.11 149 139 138
-13.17 13.92 -2.12 149 139 138
-13.18 13.84 -2.11 149 139 138
-13.17 13.76 -2.12 149 139 138
-13.16 13.69 -2.13 149 139 138
-13.16 13.61 -2.13 149 139 138
-13.15 13.54 -2.15 149 139 138
-13.15 13.46 -2.15 150 140 139
-13.15 13.39 -2.16 150 140 139
-13.14 13.31 -2.17 151 141 140
-13.14 13.24 -2.17 149 142 140
-13.13 13.16 -2.18 150 143 141
-13.13 13.08 -2.18 151 144 144
-13.13 13.00 -2.18 153 146 146
-13.12 12.93 -2.19 154 147 150
-13.12 12.85 -2.20 154 147 150
-13.12 12.77 -2.20 154 147 150
-13.11 12.70 -2.21 154 147 150
-13.11 12.62 -2.21 154 147 150
-13.11 12.54 -2.21 154 147 150
-13.11 12.46 -2.21 154 147 150
-13.11 12.38 -2.21 154 147 150
-13.11 12.30 -2.21 155 148 151
-13.11 12.22 -2.21 155 148 151
-13.10 12.15 -2.22 155 148 151
-13.10 12.07 -2.22 155 148 151
-13.10 11.99 -2.22 156 149 152
-13.11 11.91 -2.21 156 149 152
-13.10 11.83 -2.22 155 150 149
-13.10 11.75 -2.22 156 151 150
-13.10 11.67 -2.22 157 152 154
-13.10 11.59 -2.22 157 152 154
-13.11 11.51 -2.21 157 152 154
-13.11 11.43 -2.21 159 154 156
-13.11 11.35 -2.20 159 154 156
-13.11 11.27 -2.21 160 155 157
-13.11 11.19 -2.21 160 155 157
-13.11 11.11 -2.20 161 156 158
-13.11 11.03 -2.21 161 156 158
-13.12 10.95 -2.20 161 156 158
-13.11 10.87 -2.20 161 156 158
-13.11 10.80 -2.21 161 156 158
-13.11 10.72 -2.21 161 156 158
-13.10 10.64 -2.22 161 156 158
-13.10 10.56 -2.22 161 156 158
-13.10 10.49 -2.23 161 156 158
-13.09 10.41 -2.23 162 156 161
-13.09 10.33 -2.24 163 157 162
-13.09 10.25 -2.23 163 157 162
-13.09 10.17 -2.24 164 158 163
-13.09 10.09 -2.24 164 158 163
-13.09 10.01 -2.24 166 160 165
-13.08 9.94 -2.25 166 160 165
-13.09 9.85 -2.24 167 161 166
-13.08 9.78 -2.25 167 161 166
-13.07 9.71 -2.26 167 161 166
-13.07 9.63 -2.26 167 161 166
-13.07 9.55 -2.27 167 161 166
-13.07 9.47 -2.26 167 161 166
-13.07 9.39 -2.27 167 161 166
-13.07 9.31 -2.27 167 161 166
-13.07 9.23 -2.27 167 161 166
-13.06 9.16 -2.28 169 162 165
-13.06 9.08 -2.28 169 162 165
-13.06 9.00 -2.28 170 163 166
-13.06 8.92 -2.28 170 163 166
-13.06 8.84 -2.28 170 165 167
-13.05 8.76 -2.29 171 166 168
-13.06 8.68 -2.28 171 166 168
-13.05 8.61 -2.30 173 168 170
-13.05 8.53 -2.30 171 169 170
-13.05 8.45 -2.30 172 170 171
-13.05 8.37 -2.30 172 170 171
-13.05 8.29 -2.30 173 171 172
-13.04 8.21 -2.31 172 172 172
-13.05 8.13 -2.30 173 173 173
-13.04 8.05 -2.31 174 171 175
-13.05 7.97 -2.30 175 172 176
-13.04 7.90 -2.31 175 172 176
-13.05 7.81 -2.29 176 173 177
-13.05 7.73 -2.30 176 173 177
-13.05 7.65 -2.30 177 174 178
-13.05 7.57 -2.30 177 174 178
-13.04 7.50 -2.31 179 176 180
-13.05 7.41 -2.30 179 176 180
-13.04 7.34 -2.31 179 176 180
-13.05 7.26 -2.30 179 176 180
-13.04 7.18 -2.31 179 176 180
-13.05 7.10 -2.30 180 177 181
-13.05 7.02 -2.30 180 177 181
-13.05 6.94 -2.30 181 178 182
-13.05 6.86 -2.30 182 179 183
-13.05 6.78 -2.29 182 179 183
-13.05 6.70 -2.30 183 180 184
-13.05 6.62 -2.30 179 178 181
-13.05 6.54 -2.30 180 179 182
-13.04 6.46 -2.31 180 179 182
-13.05 6.38 -2.30 181 180 183
-13.05 6.30 -2.30 181 180 183
-13.05 6.22 -2.29 182 181 184
-13.05 6.14 -2.29 182 181 184
-13.05 6.06 -2.29 182 181 184
-13.05 5.98 -2.29 182 181 184
-13.05 5.90 -2.29 182 181 184
-13.06 5.82 -2.28 182 181 184
-13.05 5.74 -2.29 182 181 184
-13.06 5.66 -2.28 183 182 185
-13.06 5.58 -2.28 183 182 185
-13.06 5.50 -2.28 183 182 185
-13.06 5.42 -2.28 185 184 187
-13.05 5.35 -2.30 186 185 188
-13.05 5.26 -2.29 185 184 187
-13.05 5.18 -2.29 185 184 187
-13.05 5.11 -2.29 185 184 187
-13.04 5.03 -2.31 185 184 187
-13.05 4.95 -2.30 185 184 187
-13.04 4.87 -2.31 185 184 187
-13.04 4.79 -2.31 183 182 185
-13.04 4.71 -2.32 182 181 184
-13.04 4.63 -2.32 181 180 183
-13.04 4.56 -2.32 181 180 183
-13.03 4.48 -2.32 181 180 183
-13.04 4.40 -2.32 181 180 183
-13.03 4.32 -2.32 181 180 183
-13.03 4.24 -2.32 181 180 185
-13.03 4.16 -2.32 181 180 185
-13.04 4.08 -2.32 180 179 182
-13.03 4.00 -2.32 180 179 182
-13.04 3.92 -2.31 179 178 181
-13.03 3.84 -2.32 179 178 181
-13.03 3.76 -2.32 178 177 180
-13.04 3.68 -2.32 178 177 180
-13.04 3.60 -2.31 176 175 178
-13.04 3.52 -2.31 176 175 178
-13.04 3.44 -2.31 175 174 177
-13.05 3.36 -2.30 175 174 177
-13.05 3.28 -2.30 175 174 177
-13.05 3.19 -2.29 175 174 177
-13.05 3.12 -2.30 174 173 176
-13.05 3.04 -2.29 174 173 176
-13.06 2.95 -2.28 174 173 176
-13.05 2.88 -2.29 174 173 176
-13.05 2.80 -2.29 174 173 176
-13.05 2.72 -2.30 174 173 176
-13.05 2.64 -2.30 173 172 175
-13.05 2.56 -2.30 173 172 175
-13.05 2.48 -2.30 173 172 175
-13.05 2.40 -2.30 173 172 175
-13.05 2.32 -2.30 173 172 175
-13.05 2.24 -2.30 172 171 174
-13.05 2.16 -2.29 172 171 174
-13.05 2.08 -2.29 172 171 174
-13.06 2.00 -2.27 172 171 174
-13.06 1.92 -2.27 172 171 174
-13.07 1.84 -2.27 172 171 174
-13.07 1.76 -2.27 172 171 174
-13.07 1.68 -2.27 172 172 172
-13.08 1.59 -2.25 171 171 171
-13.08 1.52 -2.25 171 170 173
-13.09 1.43 -2.24 171 170 173
-13.08 1.36 -2.25 171 170 173
-13.09 1.27 -2.24 171 170 173
-13.09 1.20 -2.24 171 170 173
-13.10 1.11 -2.23 171 170 173
-13.10 1.03 -2.23 171 170 173
-13.09 0.96 -2.23 171 170 173
-13.09 0.88 -2.23 168 167 170
-13.10 0.80 -2.23 168 167 170
-13.10 0.71 -2.22 167 166 169
-13.10 0.63 -2.22 167 166 169
-13.10 0.56 -2.22 166 165 168
-13.11 0.47 -2.21 165 164 167
-13.11 0.39 -2.21 165 164 167
-13.12 0.31 -2.19 165 164 167
-13.12 0.23 -2.19 162 162 170
-13.13 0.15 -2.18 162 162 170
-13.13 0.07 -2.18 161 161 169
-13.14 -0.01 -2.17 161 161 169
-13.15 -0.09 -2.16 159 159 167
-13.15 -0.17 -2.16 158 158 166
-13.15 -0.25 -2.16 158 159 164
-13.15 -0.33 -2.15 156 157 162
-13.15 -0.41 -2.16 157 156 159
-13.15 -0.49 -2.15 157 156 159
-13.15 -0.57 -2.15 157 156 159
-13.15 -0.65 -2.14 157 156 159
-13.16 -0.73 -2.13 157 156 159
-13.17 -0.81 -2.12 157 156 159
-13.17 -0.89 -2.12 157 156 159
-13.18 -0.97 -2.10 156 155 158
-13.19 -1.05 -2.10 152 156 158
-13.19 -1.13 -2.09 152 156 158
-13.19 -1.21 -2.09 152 156 158
-13.20 -1.29 -2.08 152 156 158
-13.20 -1.37 -2.08 152 156 158
-13.20 -1.45 -2.08 152 156 158
-13.21 -1.53 -2.07 152 156 158
-13.21 -1.61 -2.07 152 156 158
-13.21 -1.69 -2.06 152 156 158
-13.22 -1.77 -2.05 152 156 158
-13.22 -1.85 -2.05 152 156 158
-13.22 -1.93 -2.05 152 156 158
-13.23 -2.01 -2.04 152 156 158
-13.23 -2.09 -2.04 152 156 158
-13.24 -2.17 -2.02 152 156 158
-13.23 -2.25 -2.03 152 156 158
-13.23 -2.33 -2.03 154 156 156
-13.24 -2.41 -2.02 155 157 157
-13.23 -2.49 -2.03 155 156 159
-13.23 -2.57 -2.03 156 157 160
-13.23 -2.64 -2.03 156 157 160
-13.23 -2.72 -2.04 158 159 162
-13.23 -2.80 -2.04 159 160 165
-13.23 -2.88 -2.04 159 160 165
-13.22 -2.96 -2.05 162 163 168
-13.23 -3.04 -2.04 161 162 167
-13.22 -3.12 -2.05 162 162 170
-13.23 -3.20 -2.03 161 161 169
-13.23 -3.28 -2.04 164 165 168
-13.23 -3.36 -2.04 168 169 172
-13.23 -3.44 -2.03 166 168 168
-13.23 -3.51 -2.03 166 168 168
-13.23 -3.59 -2.04 168 173 172
-13.23 -3.67 -2.04 168 173 172
-13.23 -3.75 -2.04 168 172 174
-13.23 -3.83 -2.03 168 172 174
-13.23 -3.91 -2.03 170 171 174
-13.24 -3.99 -2.02 170 171 174
-13.24 -4.07 -2.02 170 171 176
-13.24 -4.15 -2.01 170 171 176
-13.25 -4.23 -2.01 171 172 177
-13.25 -4.31 -2.00 171 172 177
-13.25 -4.39 -2.00 171 172 177
-13.25 -4.46 -2.00 171 172 177
-13.25 -4.54 -2.00 171 172 177
-13.25 -4.62 -2.00 171 172 177
-13.24 -4.70 -2.01 171 172 177
-13.24 -4.78 -2.02 171 172 177
-13.23 -4.86 -2.03 171 172 177
-13.23 -4.94 -2.04 171 172 177
-13.23 -5.02 -2.04 171 172 177
-13.22 -5.09 -2.05 171 172 177
-13.21 -5.17 -2.06 171 172 177
-13.21 -5.25 -2.06 171 172 177
-13.21 -5.33 -2.07 171 172 177
-13.21 -5.41 -2.06 171 172 177
-13.22 -5.49 -2.05 171 172 177
-13.23 -5.57 -2.04 165 166 171
-13.24 -5.65 -2.02 169 170 175
-13.21 -5.73 -2.06 170 171 176
-13.21 -5.80 -2.06 169 170 175
-13.21 -5.88 -2.06 159 160 165
-13.22 -5.96 -2.05 168 169 174
-13.49 -6.06 -1.65 211 212 217
-13.76 -6.15 -1.27 250 250 250
-13.86 -6.23 -1.12 250 250 250
-13.88 -6.31 -1.09 248 250 250
-13.89 -6.38 -1.08 248 250 250
-13.90 -6.46 -1.06 248 250 250
-13.91 -6.54 -1.05 248 250 250
-13.92 -6.62 -1.03 246 251 250
-13.92 -6.69 -1.04 246 251 250
-13.90 -6.77 -1.06 247 252 251
-13.90 -6.85 -1.06 247 252 251
-13.88 -6.92 -1.09 246 253 251
-13.88 -7.00 -1.09 246 253 251
-13.87 -7.08 -1.10 246 253 251
-13.86 -7.16 -1.12 246 253 251
-13.86 -7.23 -1.12 244 254 251
-13.85 -7.31 -1.14 244 254 251
-13.84 -7.39 -1.15 245 252 250
-13.83 -7.46 -1.16 245 252 250
-13.82 -7.54 -1.17 245 252 250
-13.82 -7.62 -1.18 245 252 250
-13.82 -7.70 -1.18 245 252 250
-13.82 -7.77 -1.18 245 252 250
-13.81 -7.85 -1.19 245 252 250
-13.81 -7.93 -1.19 245 252 250
-13.82 -8.00 -1.18 245 252 250
-13.81 -8.08 -1.19 245 252 250
-13.81 -8.16 -1.20 245 252 250
-13.81 -8.24 -1.20 245 252 250
-13.81 -8.31 -1.19 245 252 250
-13.82 -8.39 -1.18 245 252 250
-13.82 -8.47 -1.18 245 252 250
-13.82 -8.55 -1.18 245 252 250
-13.81 -8.62 -1.19 246 253 251
-13.81 -8.70 -1.19 246 253 251
-13.81 -8.78 -1.20 246 253 251
-13.80 -8.86 -1.20 246 253 251
-13.81 -8.93 -1.19 246 253 251
-13.81 -9.01 -1.19 246 253 251
-13.81 -9.09 -1.19 246 253 251
-13.82 -9.16 -1.18 246 253 251
-13.82 -9.24 -1.18 246 253 251
-13.82 -9.32 -1.18 246 253 251
-13.82 -9.40 -1.18 246 253 251
-13.82 -9.47 -1.17 246 253 251
-13.83 -9.55 -1.17 246 253 251
-13.83 -9.63 -1.16 246 253 251
-13.84 -9.70 -1.15 246 253 251
-13.84 -9.78 -1.15 246 253 251
-13.85 -9.86 -1.14 246 253 251
-13.85 -9.93 -1.13 246 253 251
-13.86 -10.01 -1.12 246 253 251
-13.87 -10.09 -1.10 246 253 251
-13.88 -10.16 -1.09 246 253 251
-13.88 -10.24 -1.09 246 253 251
-13.89 -10.32 -1.07 246 253 251
-13.90 -10.39 -1.06 246 253 251
-13.91 -10.47 -1.05 250 255 255
-13.91 -10.54 -1.04 244 251 249
-13.91 -10.62 -1.04 252 255 255
-13.92 -10.70 -1.03 247 254 252
-13.93 -10.77 -1.02 243 250 248
-13.93 -10.85 -1.01 245 252 250
-13.94 -10.93 -1.01 244 251 249
-13.95 -11.00 -0.99 246 253 251
-13.95 -11.08 -0.99 246 251 250
-13.95 -11.15 -0.99 246 251 250
-13.96 -11.23 -0.98 245 250 249
-13.97 -11.31 -0.96 244 249 248
-13.97 -11.38 -0.96 247 252 251
-13.99 -11.46 -0.93 248 253 252
-13.99 -11.53 -0.93 248 253 252
-14.00 -11.61 -0.92 248 253 252
-14.00 -11.68 -0.92 251 255 255
-14.00 -11.76 -0.92 242 247 246
-14.03 -11.83 -0.87 247 252 251
-14.10 -11.90 -0.77 247 252 251
-14.23 -11.95 -0.58 244 249 248
-14.44 -11.99 -0.27 216 221 220
-14.67 -12.02 0.06 166 171 170
-14.90 -12.05 0.38 110 115 114
-15.00 -12.11 0.54 54 57 66
-15.06 -12.17 0.62 20 23 32
-15.04 -12.25 0.60 13 16 25
-15.00 -12.33 0.54 26 29 38
-15.00 -12.40 0.53 39 42 51
-14.99 -12.48 0.53 30 33 42
-15.00 -12.55 0.53 36 39 48
-15.02 -12.62 0.56 40 43 52
-15.03 -12.69 0.57 39 42 51
-15.06 -12.76 0.62 41 44 53
-15.07 -12.83 0.64 41 44 53
-15.08 -12.90 0.66 37 40 49
-15.08 -12.98 0.65 34 37 46
-15.06 -13.05 0.63 36 39 48
-15.05 -13.13 0.60 41 44 53
-15.03 -13.21 0.58 42 45 54
-15.00 -13.29 0.53 44 48 52
-14.96 -13.37 0.48 39 43 47
-14.94 -13.45 0.45 35 39 41
-14.90 -13.53 0.40 6 10 12
-14.81 -13.63 0.26 5 9 11
-14.52 -13.78 -0.17 153 157 159
-14.22 -13.93 -0.60 247 252 251
-14.15 -14.03 -0.70 240 245 244
-14.14 -14.10 -0.72 246 251 250
-14.13 -14.18 -0.73 246 251 250
-14.11 -14.27 -0.76 246 251 247
-14.09 -14.35 -0.79 246 251 247
-14.08 -14.42 -0.79 246 251 247
-14.07 -14.50 -0.82 246 251 247
-14.06 -14.58 -0.83 246 251 245
-14.05 -14.66 -0.85 246 251 245
-14.03 -14.74 -0.87 248 250 247
-14.02 -14.82 -0.88 248 250 247
-14.02 -14.90 -0.89 248 250 247
-14.02 -14.98 -0.89 248 250 247
-14.03 -15.05 -0.88 248 250 247
-14.03 -15.13 -0.88 248 250 247
-14.04 -15.20 -0.86 248 250 247
-14.04 -15.28 -0.85 248 250 247
-14.06 -15.35 -0.83 248 250 247
-14.07 -15.42 -0.81 248 250 247
-14.08 -15.50 -0.80 248 250 247
-14.08 -15.57 -0.79 248 250 247
-14.08 -15.65 -0.80 248 250 247
-14.05 -15.73 -0.84 248 250 247
-14.00 -15.83 -0.92 248 250 247
-13.91 -15.94 -1.05 248 250 247
-13.79 -16.05 -1.22 235 234 237
-13.68 -16.17 -1.38 215 214 217
-13.58 -16.28 -1.52 193 192 195
-13.53 -16.37 -1.60 186 185 188
-13.50 -16.46 -1.64 189 188 191
-13.49 -16.54 -1.65 194 193 196
-13.50 -16.62 -1.64 194 193 196
-13.51 -16.69 -1.62 193 192 195
-13.52 -16.77 -1.61 196 195 198
-13.52 -16.85 -1.62 194 193 196
-13.53 -16.92 -1.59 194 193 196
-13.53 -17.00 -1.60 195 194 197
-13.53 -17.08 -1.60 196 195 198
-13.53 -17.15 -1.60 196 195 198
-13.52 -17.23 -1.61 193 192 195
-13.52 -17.31 -1.61 192 191 194
-13.52 -17.39 -1.61 194 193 198
-13.52 -17.47 -1.61 194 193 198
-13.52 -17.55 -1.62 194 193 198
-13.51 -17.63 -1.62 194 193 198
-13.51 -17.71 -1.62 194 193 198
-13.51 -17.79 -1.63 194 193 198
-13.51 -17.87 -1.63 194 193 198
-13.50 -17.95 -1.64 194 193 198
-13.49 -18.03 -1.65 194 193 198
-13.49 -18.11 -1.66 194 193 198
-13.48 -18.19 -1.67 194 193 198
-13.48 -18.27 -1.67 194 193 198
-13.48 -18.35 -1.67 194 193 198
-13.48 -18.42 -1.66 194 193 198
-13.48 -18.50 -1.67 194 193 198
-13.48 -18.58 -1.67 194 193 198
-13.47 -18.66 -1.68 195 194 199
-13.47 -18.74 -1.68 195 194 199
-13.47 -18.82 -1.69 195 194 199
-13.47 -18.90 -1.69 195 194 199
-13.48 -18.98 -1.68 195 194 199
-13.48 -19.05 -1.67 195 194 199
-13.48 -19.13 -1.66 195 194 199
-13.50 -19.20 -1.64 195 194 199
-13.50 -19.28 -1.64 195 194 199
-13.51 -19.35 -1.63 193 192 197
-13.52 -19.42 -1.61 190 189 194
-13.53 -19.50 -1.59 189 188 193
-13.55 -19.57 -1.57 187 186 191
-13.57 -19.64 -1.55 183 182 187
-13.58 -19.71 -1.52 179 178 183
-13.60 -19.78 -1.49 174 173 178
-13.62 -19.85 -1.47 175 174 179
-13.63 -19.92 -1.46 166 165 170
-13.64 -19.99 -1.43 159 158 163
-13.67 -20.06 -1.40 159 158 163
-13.69 -20.12 -1.36 156 155 160
-13.72 -20.19 -1.33 156 155 160
-13.72 -20.26 -1.32 103 102 107
-13.70 -20.35 -1.36 51 50 55
-13.61 -20.47 -1.48 44 43 48
-13.54 -20.59 -1.59 45 44 49
-13.54 -20.67 -1.59 47 46 51
-13.54 -20.74 -1.58 51 50 55
-13.70 -20.74 -1.36 52 51 56
-13.98 -20.67 -0.94 53 52 57
-14.61 -20.43 -0.04 53 52 57
-14.98 -20.31 0.50 52 51 56
-14.95 -20.40 0.46 51 51 51
-14.88 -20.51 0.36 43 43 43
-14.88 -20.58 0.36 14 16 32
-14.89 -20.65 0.37 0 1 17
-14.91 -20.71 0.40 18 23 60
-14.91 -20.79 0.40 51 56 93
-14.91 -20.86 0.40 36 43 98
-14.92 -20.93 0.42 36 43 98
-14.92 -21.01 0.41 27 35 96
-14.87 -21.10 0.35 24 32 93
-14.85 -21.19 0.31 21 29 86
-14.85 -21.27 0.31 19 27 84
-14.87 -21.33 0.35 8 16 64
-14.90 -21.38 0.39 19 27 75
-14.92 -21.45 0.41 44 50 92
-14.94 -21.51 0.44 38 44 86
-14.93 -21.59 0.43 41 43 88
-14.93 -21.67 0.43 44 46 91
-14.93 -21.74 0.44 33 35 78
-14.92 -21.82 0.42 37 39 82
-14.92 -21.89 0.42 38 40 81
-14.91 -21.97 0.40 39 41 82
-14.88 -22.06 0.37 33 31 71
-14.86 -22.15 0.33 40 38 78
-14.83 -22.24 0.29 49 45 81
-14.68 -22.40 0.08 51 47 83
-13.95 -22.92 -0.98 143 136 164
-13.53 -23.25 -1.60 168 161 189
-13.53 -23.33 -1.60 168 163 179
-13.50 -23.42 -1.64 158 153 169
-13.50 -23.50 -1.64 164 161 167
-13.50 -23.58 -1.64 153 150 156
-13.51 -23.65 -1.62 145 139 146
-13.52 -23.73 -1.62 142 136 143
-13.51 -23.81 -1.62 141 135 142
-13.50 -23.89 -1.64 142 136 143
-13.51 -23.97 -1.63 143 137 144
-13.50 -24.05 -1.64 139 133 140
-13.51 -24.12 -1.63 128 122 129
-13.51 -24.20 -1.63 119 113 120
-13.51 -24.28 -1.63 89 83 90
-13.51 -24.36 -1.63 77 71 78
-13.53 -24.42 -1.60 61 55 62
-13.55 -24.48 -1.56 50 44 51
-13.60 -24.53 -1.49 50 44 51
-13.70 -24.54 -1.35 58 52 59
-13.79 -24.56 -1.22 67 61 68
-13.87 -24.59 -1.11 74 68 75
-13.92 -24.63 -1.03 77 66 75
-13.95 -24.69 -0.99 73 62 71
-14.00 -24.73 -0.92 71 60 69
-14.03 -24.78 -0.87 63 52 61
-14.06 -24.84 -0.82 66 55 64
-14.07 -24.91 -0.82 52 41 50
-14.09 -24.98 -0.79 57 46 55
-14.09 -25.05 -0.78 67 56 65
-14.10 -25.12 -0.77 92 81 90
-14.11 -25.19 -0.76 125 114 123
-14.11 -25.27 -0.75 158 147 156
-14.12 -25.33 -0.74 181 170 179
-14.13 -25.41 -0.72 203 192 201
-14.14 -25.47 -0.71 221 210 219
-14.15 -25.55 -0.70 226 215 224
-14.15 -25.62 -0.69 229 218 227
-14.16 -25.69 -0.69 214 212 213
-14.16 -25.77 -0.69 211 209 210
-14.16 -25.84 -0.68 205 203 204
-14.17 -25.91 -0.67 207 205 206
-14.17 -25.99 -0.67 203 201 202
-14.18 -26.06 -0.66 208 206 207
-14.18 -26.14 -0.66 205 203 204
-14.18 -26.21 -0.65 207 205 206
-14.18 -26.29 -0.66 209 207 208
-14.18 -26.36 -0.65 209 207 208
-14.18 -26.44 -0.65 211 209 210
-14.18 -26.51 -0.65 212 210 211
-14.18 -26.59 -0.65 209 207 208
-14.18 -26.66 -0.65 205 203 204
-14.18 -26.74 -0.65 209 207 208
-14.19 -26.81 -0.64 217 215 216
-14.19 -26.89 -0.64 217 210 213
-14.18 -26.97 -0.65 212 205 208
-14.18 -27.05 -0.65 211 204 207
-14.19 -27.12 -0.64 214 207 210
-14.19 -27.20 -0.64 215 208 211
-14.18 -27.27 -0.65 213 206 209
-14.18 -27.35 -0.65 213 206 209
-14.18 -27.43 -0.66 217 210 213
-14.18 -27.51 -0.66 215 208 211
-14.18 -27.59 -0.66 215 208 211
-14.16 -27.67 -0.68 215 208 211
-14.16 -27.75 -0.69 215 208 211
-14.15 -27.83 -0.69 215 208 211
-14.15 -27.91 -0.70 215 208 211
-14.14 -27.99 -0.71 215 208 211
-14.14 -28.07 -0.71 215 208 211
-14.14 -28.15 -0.72 214 206 212
-14.13 -28.23 -0.72 214 206 212
-14.13 -28.31 -0.72 214 206 212
-14.12 -28.39 -0.74 214 206 212
-14.12 -28.47 -0.74 214 206 212
-14.12 -28.55 -0.74 214 206 212
-14.12 -28.63 -0.75 214 206 212
-14.11 -28.71 -0.76 215 207 213
-14.11 -28.79 -0.76 215 207 213
-14.11 -28.86 -0.76 215 207 213
-14.11 -28.94 -0.76 215 207 213
-14.11 -29.01 -0.76 215 207 213
-14.11 -29.09 -0.75 215 207 213
-14.11 -29.16 -0.75 215 207 213
-14.12 -29.24 -0.75 215 208 211
-14.12 -29.31 -0.74 215 208 211
-14.13 -29.38 -0.73 218 205 213
-14.13 -29.45 -0.72 220 207 215
-14.13 -29.53 -0.73 220 210 214
-14.14 -29.60 -0.72 220 210 214
-14.14 -29.68 -0.72 220 210 214
-14.14 -29.75 -0.71 220 210 214
-14.15 -29.82 -0.70 220 210 214
-14.16 -29.89 -0.69 220 210 214
-14.16 -29.96 -0.69 220 210 214
-14.16 -30.04 -0.68 220 210 214
-14.18 -30.10 -0.66 220 210 214
-14.18 -30.17 -0.66 220 210 214
-14.19 -30.24 -0.64 220 210 214
-14.20 -30.31 -0.63 220 210 214
-14.20 -30.38 -0.62 220 210 214
-14.20 -30.46 -0.62 220 210 214
-14.21 -30.52 -0.61 217 207 208
-14.22 -30.59 -0.59 220 210 211
-14.24 -30.66 -0.57 219 212 212
-14.26 -30.71 -0.54 222 215 215
-14.29 -30.76 -0.50 217 212 211
-14.33 -30.80 -0.43 212 207 206
-14.36 -30.85 -0.39 249 244 243
-14.41 -30.87 -0.32 251 246 245
-14.49 -30.88 -0.21 194 194 191
-14.67 -30.78 0.06 174 174 171
-14.86 -30.68 0.33 201 201 198
-14.94 -30.68 0.45 249 249 246
-14.98 -30.72 0.51 247 249 246
-15.02 -30.75 0.57 247 249 246
-15.05 -30.80 0.61 216 221 217
-14.99 -30.93 0.53 182 187 183
-13.70 17.50 -1.48 128 128 128
-13.66 17.45 -1.53 128 128 128
-13.66 17.38 -1.54 126 124 125
-13.63 17.33 -1.58 126 124 125
-13.63 17.25 -1.58 125 123 124
-13.62 17.18 -1.59 125 123 124
-13.60 17.12 -1.62 127 122 124
-13.59 17.05 -1.63 128 123 125
-13.58 16.98 -1.65 131 126 128
-13.56 16.93 -1.68 132 127 129
-13.54 16.86 -1.71 133 126 129
-13.52 16.80 -1.74 132 125 128
-13.51 16.74 -1.75 134 127 130
-13.48 16.69 -1.80 137 130 133
-13.46 16.62 -1.82 137 130 130
-13.44 16.57 -1.86 133 126 126
-13.41 16.51 -1.89 131 129 130
-13.41 16.44 -1.90 130 128 129
-13.38 16.38 -1.93 132 126 133
-13.38 16.30 -1.94 132 126 133
-13.38 16.22 -1.94 133 127 134
-13.38 16.15 -1.94 135 129 136
-13.39 16.06 -1.93 140 133 131
-13.42 15.96 -1.89 141 134 132
-13.44 15.86 -1.85 129 123 114
-13.41 15.81 -1.90 137 131 122
-13.42 15.72 -1.89 137 131 122
-13.47 15.60 -1.81 133 127 118
-13.68 15.33 -1.50 134 127 130
-14.01 14.97 -1.03 137 130 133
-14.29 14.65 -0.61 135 126 141
-14.29 14.57 -0.61 132 123 138
-13.97 14.78 -1.09 131 130 145
-13.57 15.04 -1.67 134 133 148
-13.41 15.10 -1.89 135 135 132
-13.39 15.03 -1.92 136 136 133
-13.35 14.99 -1.98 140 139 130
-13.32 14.94 -2.03 139 138 129
-13.30 14.88 -2.06 139 134 136
-13.30 14.79 -2.05 143 138 140
-13.31 14.71 -2.04 144 133 140
-13.32 14.62 -2.02 145 134 141
-13.31 14.55 -2.04 146 135 130
-13.31 14.47 -2.05 147 136 131
-13.31 14.39 -2.04 147 136 131
-13.31 14.32 -2.05 149 138 133
-13.30 14.24 -2.05 151 137 142
-13.30 14.17 -2.06 152 138 143
-13.29 14.09 -2.07 149 139 138
-13.29 14.02 -2.07 149 139 138
-13.28 13.94 -2.09 149 139 138
-13.28 13.86 -2.09 149 139 138
-13.27 13.79 -2.10 149 139 138
-13.27 13.71 -2.10 149 139 138
-13.26 13.64 -2.11 149 139 138
-13.26 13.57 -2.12 149 139 138
-13.25 13.49 -2.13 149 139 138
-13.25 13.42 -2.14 149 139 138
-13.23 13.35 -2.16 150 140 139
-13.23 13.27 -2.16 150 140 139
-13.23 13.19 -2.16 149 142 140
-13.22 13.12 -2.17 149 142 140
-13.22 13.04 -2.17 150 143 143
-13.22 12.96 -2.17 153 146 146
-13.22 12.88 -2.18 154 147 150
-13.22 12.81 -2.18 154 147 150
-13.22 12.73 -2.18 154 147 150
-13.22 12.65 -2.18 154 147 150
-13.22 12.57 -2.17 154 147 150
-13.22 12.49 -2.18 154 147 150
-13.22 12.41 -2.18 154 147 150
-13.22 12.33 -2.18 154 147 150
-13.21 12.26 -2.19 155 148 151
-13.21 12.18 -2.18 155 148 151
-13.21 12.10 -2.19 155 148 151
-13.21 12.02 -2.19 155 148 151
-13.20 11.95 -2.20 155 148 151
-13.21 11.86 -2.19 155 148 151
-13.20 11.79 -2.20 154 149 148
-13.20 11.71 -2.20 156 151 150
-13.20 11.63 -2.20 156 151 153
-13.20 11.55 -2.20 157 152 154
-13.21 11.47 -2.19 157 152 154
-13.22 11.38 -2.18 159 154 156
-13.22 11.30 -2.18 159 154 156
-13.22 11.22 -2.17 160 155 157
-13.22 11.14 -2.17 160 155 157
-13.22 11.06 -2.17 161 156 158
-13.23 10.98 -2.16 161 156 158
-13.23 10.90 -2.16 161 156 158
-13.22 10.83 -2.18 161 156 158
-13.22 10.75 -2.18 161 156 158
-13.22 10.67 -2.18 161 156 158
-13.21 10.59 -2.19 161 156 158
-13.20 10.52 -2.20 161 156 158
-13.20 10.44 -2.20 161 156 158
-13.19 10.37 -2.21 162 156 161
-13.19 10.29 -2.21 163 157 162
-13.19 10.21 -2.22 163 157 162
-13.18 10.14 -2.23 164 158 163
-13.19 10.05 -2.22 164 158 163
-13.19 9.98 -2.22 166 160 165
-13.19 9.89 -2.22 166 160 165
-13.19 9.81 -2.22 167 161 166
-13.19 9.74 -2.22 167 161 166
-13.18 9.66 -2.23 167 161 166
-13.18 9.58 -2.23 167 161 166
-13.18 9.51 -2.23 167 161 166
-13.18 9.43 -2.23 167 161 166
-13.18 9.35 -2.23 167 161 166
-13.18 9.27 -2.23 167 161 166
-13.18 9.19 -2.24 167 161 166
-13.18 9.11 -2.23 168 161 164
-13.18 9.03 -2.24 169 162 165
-13.17 8.96 -2.25 169 162 165
-13.17 8.88 -2.25 170 163 166
-13.17 8.80 -2.25 170 165 167
-13.17 8.72 -2.25 171 166 168
-13.16 8.64 -2.26 173 168 170
-13.16 8.56 -2.26 173 168 170
-13.16 8.49 -2.27 172 170 171
-13.16 8.41 -2.26 172 170 171
-13.16 8.33 -2.27 173 171 172
-13.15 8.25 -2.27 173 171 172
-13.16 8.17 -2.26 173 173 173
-13.16 8.09 -2.27 173 173 173
-13.16 8.01 -2.26 175 172 176
-13.16 7.93 -2.26 175 172 176
-13.17 7.85 -2.25 175 172 176
-13.16 7.77 -2.26 176 173 177
-13.17 7.69 -2.25 176 173 177
-13.16 7.61 -2.26 177 174 178
-13.16 7.53 -2.26 177 174 178
-13.16 7.45 -2.26 179 176 180
-13.16 7.38 -2.27 179 176 180
-13.16 7.30 -2.26 180 177 181
-13.16 7.22 -2.27 179 176 180
-13.16 7.13 -2.26 180 177 181
-13.16 7.06 -2.27 180 177 181
-13.16 6.98 -2.27 181 178 182
-13.16 6.90 -2.27 181 178 182
-13.16 6.82 -2.27 182 179 183
-13.16 6.74 -2.26 182 179 183
-13.16 6.66 -2.27 183 180 184
-13.16 6.58 -2.27 180 179 182
-13.15 6.51 -2.27 181 180 183
-13.15 6.43 -2.27 181 180 183
-13.16 6.34 -2.27 182 181 184
-13.16 6.27 -2.27 182 181 184
-13.16 6.18 -2.26 183 182 185
-13.15 6.11 -2.27 183 182 185
-13.16 6.03 -2.26 183 182 185
-13.16 5.95 -2.27 183 182 185
-13.16 5.87 -2.27 183 182 185
-13.16 5.79 -2.26 183 182 185
-13.16 5.71 -2.26 183 182 185
-13.17 5.63 -2.25 183 182 185
-13.16 5.55 -2.26 185 184 187
-13.17 5.47 -2.25 185 184 187
-13.16 5.39 -2.26 185 184 187
-13.15 5.31 -2.27 186 185 188
-13.16 5.23 -2.26 185 184 187
-13.16 5.15 -2.26 185 184 187
-13.15 5.08 -2.27 185 184 187
-13.15 5.00 -2.27 185 184 187
-13.15 4.92 -2.28 185 184 187
-13.14 4.84 -2.28 185 184 187
-13.14 4.76 -2.28 183 182 185
-13.14 4.68 -2.29 182 181 184
-13.14 4.61 -2.29 181 180 183
-13.14 4.53 -2.29 181 180 183
-13.14 4.45 -2.29 181 180 183
-13.14 4.37 -2.29 181 180 183
-13.14 4.29 -2.29 181 180 183
-13.14 4.21 -2.29 181 180 185
-13.14 4.13 -2.29 181 180 185
-13.14 4.05 -2.29 181 180 183
-13.14 3.97 -2.29 180 179 182
-13.15 3.89 -2.28 179 178 181
-13.14 3.81 -2.29 179 178 181
-13.15 3.73 -2.27 178 177 180
-13.15 3.65 -2.27 178 177 180
-13.15 3.57 -2.27 176 175 178
-13.15 3.49 -2.27 176 175 178
-13.15 3.41 -2.27 175 174 177
-13.16 3.33 -2.27 174 173 176
-13.16 3.25 -2.27 174 173 176
-13.17 3.17 -2.25 174 173 176
-13.17 3.09 -2.25 174 173 176
-13.16 3.01 -2.26 174 173 176
-13.17 2.93 -2.25 174 173 176
-13.16 2.85 -2.26 174 173 176
-13.16 2.77 -2.26 174 173 176
-13.16 2.69 -2.27 174 173 176
-13.15 2.62 -2.27 173 172 175
-13.15 2.54 -2.28 173 172 175
-13.15 2.46 -2.27 173 172 175
-13.15 2.38 -2.28 173 172 175
-13.15 2.30 -2.27 173 172 175
-13.15 2.22 -2.27 172 171 174
-13.16 2.14 -2.26 172 171 174
-13.16 2.06 -2.27 172 171 174
-13.17 1.98 -2.25 172 171 174
-13.17 1.89 -2.24 172 171 174
-13.18 1.81 -2.23 172 171 174
-13.18 1.73 -2.23 172 171 174
-13.19 1.65 -2.22 172 172 172
-13.19 1.57 -2.21 171 171 171
-13.19 1.49 -2.21 171 170 173
-13.20 1.41 -2.20 171 170 173
-13.21 1.33 -2.19 171 170 173
-13.21 1.25 -2.19 171 170 173
-13.20 1.17 -2.20 171 170 173
-13.20 1.09 -2.20 171 170 173
-13.20 1.01 -2.21 171 170 173
-13.20 0.93 -2.20 171 170 173
-13.20 0.85 -2.20 168 167 170
-13.20 0.77 -2.20 168 167 170
-13.20 0.70 -2.20 167 166 169
-13.21 0.61 -2.19 167 166 169
-13.21 0.54 -2.19 166 165 168
-13.22 0.45 -2.18 165 164 167
-13.22 0.37 -2.18 165 164 167
-13.22 0.29 -2.17 165 164 167
-13.22 0.21 -2.17 162 162 170
-13.23 0.13 -2.16 162 162 170
-13.24 0.05 -2.15 161 161 169
-13.24 -0.03 -2.14 161 161 169
-13.25 -0.11 -2.14 159 159 167
-13.25 -0.19 -2.13 158 158 166
-13.25 -0.27 -2.13 158 159 164
-13.25 -0.35 -2.13 156 157 162
-13.25 -0.43 -2.13 157 156 159
-13.25 -0.51 -2.13 157 156 159
-13.26 -0.59 -2.12 157 156 159
-13.26 -0.67 -2.12 157 156 159
-13.26 -0.75 -2.11 157 156 159
-13.28 -0.83 -2.09 157 156 159
-13.28 -0.91 -2.08 157 156 159
-13.29 -0.99 -2.08 156 155 158
-13.30 -1.07 -2.06 152 156 158
-13.30 -1.15 -2.06 152 156 158
-13.30 -1.23 -2.06 152 156 158
-13.30 -1.31 -2.05 152 156 158
-13.31 -1.39 -2.05 152 156 158
-13.31 -1.47 -2.04 152 156 158
-13.31 -1.55 -2.04 152 156 158
-13.31 -1.63 -2.04 152 156 158
-13.32 -1.71 -2.03 152 156 158
-13.32 -1.79 -2.02 152 156 158
-13.33 -1.87 -2.02 152 156 158
-13.32 -1.94 -2.02 152 156 158
-13.33 -2.02 -2.01 152 156 158
-13.34 -2.10 -2.01 152 156 158
-13.34 -2.18 -2.00 152 156 158
-13.34 -2.26 -2.00 152 156 158
-13.34 -2.34 -2.00 154 156 156
-13.34 -2.42 -2.00 155 157 157
-13.34 -2.50 -2.00 155 156 159
-13.34 -2.58 -2.00 156 157 160
-13.34 -2.66 -2.00 156 157 160
-13.34 -2.74 -2.01 158 159 162
-13.33 -2.81 -2.01 159 160 165
-13.33 -2.89 -2.01 159 160 165
-13.33 -2.97 -2.01 162 163 168
-13.33 -3.05 -2.01 161 162 167
-13.33 -3.13 -2.01 162 162 170
-13.33 -3.21 -2.01 161 161 169
-13.33 -3.29 -2.01 164 165 168
-13.34 -3.37 -2.00 168 169 172
-13.33 -3.44 -2.01 166 168 168
-13.34 -3.52 -2.00 166 168 168
-13.34 -3.60 -2.00 168 173 172
-13.34 -3.68 -2.00 168 173 172
-13.34 -3.76 -2.00 168 172 174
-13.34 -3.84 -2.00 168 172 174
-13.34 -3.92 -2.00 170 171 174
-13.34 -4.00 -1.99 170 171 174
-13.35 -4.08 -1.98 170 171 176
-13.36 -4.16 -1.97 170 171 176
-13.37 -4.24 -1.96 171 172 177
-13.37 -4.32 -1.96 171 172 177
-13.37 -4.39 -1.96 171 172 177
-13.37 -4.47 -1.96 171 172 177
-13.37 -4.55 -1.96 171 172 177
-13.36 -4.63 -1.97 171 172 177
-13.35 -4.71 -1.98 172 173 178
-13.34 -4.79 -2.00 172 173 178
-13.33 -4.86 -2.01 171 172 177
-13.33 -4.94 -2.01 171 172 177
-13.32 -5.02 -2.03 171 172 177
-13.32 -5.10 -2.03 171 172 177
-13.32 -5.18 -2.02 171 172 177
-13.32 -5.26 -2.03 171 172 177
-13.33 -5.34 -2.02 171 172 177
-13.34 -5.42 -2.00 171 172 177
-13.34 -5.50 -1.99 170 171 176
-13.35 -5.57 -1.98 171 172 177
-13.34 -5.65 -2.00 170 171 176
-13.31 -5.73 -2.05 168 169 174
-13.31 -5.81 -2.05 159 160 165
-13.41 -5.89 -1.89 165 166 171
-13.62 -5.98 -1.59 195 196 201
-13.85 -6.07 -1.25 242 243 248
-13.95 -6.15 -1.11 250 250 250
-13.98 -6.23 -1.07 250 250 250
-13.98 -6.31 -1.07 248 250 250
-13.98 -6.39 -1.07 248 250 250
-13.99 -6.46 -1.05 248 250 250
-14.00 -6.54 -1.04 248 250 250
-14.00 -6.62 -1.03 246 251 250
-14.01 -6.70 -1.02 246 251 250
-14.01 -6.77 -1.02 247 252 251
-13.99 -6.85 -1.05 247 252 251
-13.98 -6.93 -1.07 246 253 251
-13.97 -7.00 -1.08 246 253 251
-13.97 -7.08 -1.09 246 253 251
-13.97 -7.16 -1.09 246 253 251
-13.97 -7.23 -1.08 244 254 251
-13.97 -7.31 -1.09 244 254 251
-13.97 -7.39 -1.08 245 252 250
-13.96 -7.46 -1.10 245 252 250
-13.95 -7.54 -1.11 245 252 250
-13.95 -7.62 -1.11 245 252 250
-13.94 -7.69 -1.12 245 252 250
-13.94 -7.77 -1.12 245 252 250
-13.94 -7.85 -1.13 245 252 250
-13.93 -7.93 -1.14 245 252 250
-13.92 -8.00 -1.15 245 252 250
-13.92 -8.08 -1.16 245 252 250
-13.91 -8.16 -1.16 245 252 250
-13.91 -8.24 -1.17 245 252 250
-13.92 -8.31 -1.16 245 252 250
-13.92 -8.39 -1.16 245 252 250
-13.92 -8.47 -1.16 245 252 250
-13.91 -8.54 -1.17 245 252 250
-13.91 -8.62 -1.16 246 253 251
-13.90 -8.70 -1.18 246 253 251
-13.91 -8.78 -1.17 246 253 251
-13.91 -8.85 -1.17 246 253 251
-13.90 -8.93 -1.18 246 253 251
-13.91 -9.01 -1.16 246 253 251
-13.91 -9.08 -1.17 246 253 251
-13.91 -9.16 -1.16 246 253 251
-13.91 -9.24 -1.16 246 253 251
-13.92 -9.31 -1.16 246 253 251
-13.92 -9.39 -1.16 246 253 251
-13.92 -9.47 -1.15 246 253 251
-13.92 -9.54 -1.15 246 253 251
-13.93 -9.62 -1.14 246 253 251
-13.93 -9.70 -1.14 246 253 251
-13.94 -9.77 -1.12 246 253 251
-13.95 -9.85 -1.11 246 253 251
-13.96 -9.93 -1.10 246 253 251
-13.97 -10.00 -1.08 246 253 251
-13.98 -10.08 -1.07 246 253 251
-13.99 -10.16 -1.06 246 253 251
-13.99 -10.23 -1.05 246 253 251
-14.00 -10.31 -1.04 246 253 251
-14.01 -10.38 -1.02 246 253 251
-14.02 -10.46 -1.00 248 255 253
-14.02 -10.53 -1.00 241 248 246
-14.04 -10.61 -0.99 247 254 252
-14.04 -10.69 -0.97 245 252 250
-14.05 -10.76 -0.97 246 253 251
-14.06 -10.84 -0.96 246 253 251
-14.06 -10.91 -0.94 246 253 251
-14.08 -10.99 -0.93 241 248 246
-14.08 -11.06 -0.92 242 247 246
-14.08 -11.14 -0.92 245 250 249
-14.08 -11.22 -0.92 246 251 250
-14.11 -11.29 -0.88 244 249 248
-14.10 -11.37 -0.89 245 250 249
-14.10 -11.44 -0.89 242 247 246
-14.11 -11.52 -0.87 244 249 248
-14.18 -11.59 -0.78 241 246 245
-14.23 -11.65 -0.71 247 252 251
-14.35 -11.71 -0.52 235 240 239
-14.51 -11.76 -0.29 217 222 221
-14.67 -11.80 -0.06 190 195 194
-14.91 -11.84 0.29 159 164 163
-15.04 -11.89 0.47 94 99 98
-15.09 -11.95 0.54 39 44 43
-15.09 -12.02 0.56 11 16 15
-15.08 -12.10 0.53 13 16 25
-15.06 -12.18 0.50 19 22 31
-15.02 -12.26 0.45 40 43 52
-15.01 -12.34 0.43 44 47 56
-15.02 -12.41 0.45 41 44 53
-15.05 -12.47 0.49 32 35 44
-15.07 -12.55 0.51 37 40 49
-15.09 -12.61 0.54 36 39 48
-15.10 -12.69 0.56 40 43 52
-15.11 -12.76 0.58 36 39 48
-15.12 -12.83 0.59 35 38 47
-15.12 -12.90 0.59 36 39 48
-15.11 -12.98 0.58 34 37 46
-15.11 -13.05 0.58 30 33 42
-15.11 -13.13 0.57 34 37 46
-15.09 -13.20 0.54 40 43 52
-15.07 -13.28 0.52 42 46 50
-15.02 -13.37 0.45 30 34 38
-14.98 -13.45 0.40 20 24 26
-14.94 -13.53 0.33 15 19 21
-14.91 -13.62 0.28 21 25 27
-14.71 -13.74 -0.01 100 104 106
-14.42 -13.89 -0.43 247 252 251
-14.31 -13.99 -0.59 240 245 244
-14.28 -14.08 -0.63 246 251 250
-14.26 -14.16 -0.65 246 251 250
-14.23 -14.24 -0.70 246 251 247
-14.21 -14.32 -0.73 246 251 247
-14.19 -14.41 -0.76 246 251 247
-14.18 -14.48 -0.77 246 251 247
-14.17 -14.56 -0.79 246 251 245
-14.16 -14.64 -0.81 246 251 245
-14.15 -14.72 -0.82 248 250 247
-14.14 -14.80 -0.84 248 250 247
-14.12 -14.88 -0.86 248 250 247
-14.12 -14.96 -0.86 248 250 247
-14.12 -15.04 -0.86 248 250 247
-14.12 -15.11 -0.86 248 250 247
-14.14 -15.18 -0.84 248 250 247
-14.14 -15.26 -0.83 248 250 247
-14.16 -15.33 -0.80 248 250 247
-14.17 -15.40 -0.79 248 250 247
-14.17 -15.48 -0.79 248 250 247
-14.18 -15.55 -0.77 248 250 247
-14.19 -15.63 -0.76 248 250 247
-14.20 -15.70 -0.75 248 250 247
-14.21 -15.77 -0.74 248 250 247
-14.19 -15.86 -0.76 248 250 247
-14.14 -15.95 -0.84 243 242 245
-14.04 -16.06 -0.98 241 240 243
-13.92 -16.18 -1.16 229 228 231
-13.79 -16.30 -1.35 208 207 210
-13.70 -16.41 -1.48 192 191 194
-13.64 -16.50 -1.56 188 187 190
-13.62 -16.59 -1.59 190 189 192
-13.63 -16.66 -1.58 193 192 195
-13.63 -16.74 -1.57 190 189 192
-13.64 -16.82 -1.56 193 192 195
-13.64 -16.89 -1.56 197 196 199
-13.64 -16.97 -1.56 197 196 199
-13.66 -17.04 -1.54 196 195 198
-13.66 -17.12 -1.54 194 193 196
-13.66 -17.20 -1.54 193 192 195
-13.66 -17.27 -1.53 192 191 194
-13.66 -17.35 -1.53 194 193 198
-13.66 -17.43 -1.54 194 193 198
-13.65 -17.51 -1.55 194 193 198
-13.64 -17.59 -1.56 194 193 198
-13.64 -17.67 -1.56 194 193 198
-13.64 -17.75 -1.56 194 193 198
-13.63 -17.83 -1.57 194 193 198
-13.63 -17.91 -1.57 194 193 198
-13.63 -17.99 -1.58 194 193 198
-13.62 -18.07 -1.59 194 193 198
-13.62 -18.15 -1.60 194 193 198
-13.61 -18.23 -1.61 194 193 198
-13.61 -18.31 -1.60 194 193 198
-13.61 -18.39 -1.61 194 193 198
-13.61 -18.47 -1.61 194 193 198
-13.60 -18.55 -1.61 194 193 198
-13.60 -18.63 -1.62 195 194 199
-13.60 -18.70 -1.62 195 194 199
-13.59 -18.79 -1.64 195 194 199
-13.59 -18.86 -1.64 195 194 199
-13.59 -18.94 -1.63 195 194 199
-13.60 -19.02 -1.63 195 194 199
-13.60 -19.09 -1.61 195 194 199
-13.61 -19.17 -1.60 195 194 199
-13.62 -19.24 -1.60 195 194 199
-13.62 -19.32 -1.59 193 192 197
-13.64 -19.39 -1.57 190 189 194
-13.65 -19.46 -1.55 188 187 192
-13.66 -19.53 -1.53 187 186 191
-13.68 -19.60 -1.50 183 182 187
-13.69 -19.67 -1.48 178 177 182
-13.71 -19.74 -1.46 174 173 178
-13.73 -19.81 -1.44 178 177 182
-13.73 -19.89 -1.43 170 169 174
-13.74 -19.96 -1.42 161 160 165
-13.76 -20.03 -1.39 160 159 164
-13.78 -20.10 -1.36 150 149 154
-13.81 -20.16 -1.32 145 144 149
-13.81 -20.24 -1.31 67 66 71
-13.77 -20.33 -1.37 29 28 33
-13.66 -20.47 -1.53 44 43 48
-13.57 -20.59 -1.66 45 44 49
-13.57 -20.67 -1.67 48 47 52
-13.61 -20.73 -1.61 51 50 55
-13.74 -20.74 -1.42 52 51 56
-13.99 -20.69 -1.05 53 52 57
-14.57 -20.46 -0.21 52 51 56
-14.97 -20.33 0.37 52 51 56
-14.99 -20.40 0.40 46 46 46
-14.89 -20.52 0.26 43 43 43
-14.94 -20.57 0.33 18 20 36
-15.00 -20.61 0.42 0 2 18
-15.00 -20.68 0.42 15 20 57
-15.01 -20.75 0.43 53 58 95
-15.01 -20.83 0.43 43 50 105
-15.01 -20.90 0.43 39 46 101
-15.00 -20.98 0.42 32 40 101
-14.97 -21.07 0.38 28 36 97
-14.95 -21.16 0.34 26 34 91
-14.93 -21.24 0.32 21 29 86
-14.95 -21.30 0.34 8 16 64
-14.95 -21.38 0.35 20 28 76
-14.95 -21.45 0.35 44 50 92
-14.96 -21.52 0.36 33 39 81
-14.93 -21.61 0.32 37 39 84
-14.90 -21.71 0.27 38 40 85
-14.88 -21.79 0.25 30 32 75
-14.88 -21.87 0.24 36 38 81
-14.88 -21.94 0.24 33 35 76
-14.87 -22.02 0.23 38 40 81
-14.85 -22.10 0.21 36 34 74
-14.82 -22.19 0.16 40 38 78
-14.69 -22.35 -0.04 49 45 81
-14.27 -22.67 -0.64 76 72 108
-13.79 -23.04 -1.35 151 144 172
-13.67 -23.19 -1.51 164 157 185
-13.68 -23.26 -1.51 165 160 176
-13.61 -23.38 -1.60 165 160 176
-13.60 -23.47 -1.63 174 171 177
-13.61 -23.54 -1.61 176 173 179
-13.62 -23.61 -1.59 173 167 174
-13.64 -23.68 -1.57 163 157 164
-13.63 -23.76 -1.57 152 146 153
-13.63 -23.84 -1.58 145 139 146
-13.63 -23.91 -1.57 143 137 144
-13.62 -24.00 -1.59 146 140 147
-13.62 -24.07 -1.59 148 142 149
-13.62 -24.16 -1.60 148 142 149
-13.61 -24.24 -1.61 146 140 147
-13.60 -24.32 -1.62 131 125 132
-13.59 -24.41 -1.64 107 101 108
-13.58 -24.49 -1.64 89 83 90
-13.61 -24.55 -1.60 77 71 78
-13.66 -24.60 -1.54 69 63 70
-13.72 -24.63 -1.44 63 57 64
-13.80 -24.66 -1.34 60 54 61
-13.86 -24.69 -1.24 61 50 59
-13.89 -24.75 -1.20 68 57 66
-13.92 -24.81 -1.16 73 62 71
-13.99 -24.84 -1.06 68 57 66
-14.06 -24.87 -0.96 78 67 76
-14.11 -24.91 -0.87 78 67 76
-14.15 -24.96 -0.82 73 62 71
-14.16 -25.03 -0.80 60 49 58
-14.18 -25.09 -0.77 50 39 48
-14.18 -25.17 -0.77 59 48 57
-14.20 -25.23 -0.75 67 56 65
-14.21 -25.30 -0.74 84 73 82
-14.23 -25.37 -0.71 113 102 111
-14.25 -25.43 -0.68 146 135 144
-14.25 -25.50 -0.67 181 170 179
-14.26 -25.57 -0.65 213 202 211
-14.28 -25.64 -0.64 209 207 208
-14.28 -25.71 -0.63 209 207 208
-14.28 -25.78 -0.62 209 207 208
-14.30 -25.85 -0.61 215 213 214
-14.30 -25.92 -0.61 210 208 209
-14.30 -26.00 -0.60 209 207 208
-14.30 -26.07 -0.59 203 201 202
-14.31 -26.14 -0.59 205 203 204
-14.31 -26.22 -0.59 207 205 206
-14.30 -26.30 -0.59 205 203 204
-14.31 -26.37 -0.59 204 202 203
-14.30 -26.45 -0.59 205 203 204
-14.30 -26.53 -0.59 205 203 204
-14.31 -26.60 -0.59 205 203 204
-14.31 -26.68 -0.59 208 206 207
-14.30 -26.75 -0.59 211 209 210
-14.30 -26.83 -0.59 212 205 208
-14.30 -26.91 -0.60 211 204 207
-14.30 -26.98 -0.59 208 201 204
-14.31 -27.06 -0.59 208 201 204
-14.31 -27.13 -0.59 211 204 207
-14.31 -27.21 -0.59 213 206 209
-14.30 -27.29 -0.59 214 207 210
-14.30 -27.36 -0.59 212 205 208
-14.30 -27.44 -0.60 214 207 210
-14.30 -27.52 -0.61 214 207 210
-14.28 -27.61 -0.63 214 207 210
-14.28 -27.69 -0.64 214 207 210
-14.27 -27.77 -0.64 214 207 210
-14.26 -27.85 -0.66 214 207 210
-14.26 -27.93 -0.66 214 207 210
-14.25 -28.01 -0.67 214 207 210
-14.25 -28.09 -0.68 214 206 212
-14.25 -28.17 -0.68 214 206 212
-14.25 -28.25 -0.68 214 206 212
-14.24 -28.32 -0.69 214 206 212
-14.24 -28.41 -0.69 214 206 212
-14.24 -28.48 -0.69 214 206 212
-14.23 -28.56 -0.70 214 206 212
-14.23 -28.64 -0.70 214 206 212
-14.23 -28.72 -0.71 215 207 213
-14.23 -28.80 -0.71 215 207 213
-14.23 -28.87 -0.70 215 207 213
-14.23 -28.95 -0.71 215 207 213
-14.23 -29.02 -0.70 215 207 213
-14.23 -29.09 -0.70 215 207 213
-14.24 -29.17 -0.69 215 208 211
-14.24 -29.24 -0.69 215 208 211
-14.24 -29.32 -0.69 220 207 215
-14.24 -29.39 -0.69 220 207 215
-14.25 -29.46 -0.68 219 209 213
-14.24 -29.54 -0.69 219 209 213
-14.25 -29.61 -0.68 219 209 213
-14.25 -29.69 -0.67 219 209 213
-14.26 -29.75 -0.66 219 209 213
-14.27 -29.82 -0.65 219 209 213
-14.27 -29.90 -0.65 219 209 213
-14.28 -29.97 -0.63 219 209 213
-14.29 -30.04 -0.62 219 209 213
-14.30 -30.10 -0.61 219 209 213
-14.31 -30.17 -0.59 219 209 213
-14.31 -30.24 -0.59 219 209 213
-14.32 -30.31 -0.57 219 209 213
-14.33 -30.38 -0.56 219 209 213
-14.33 -30.45 -0.56 220 210 211
-14.35 -30.51 -0.53 221 211 212
-14.36 -30.58 -0.52 219 212 212
-14.38 -30.63 -0.48 220 213 213
-14.42 -30.68 -0.43 214 209 208
-14.45 -30.73 -0.39 209 204 203
-14.48 -30.77 -0.34 240 235 234
-14.52 -30.81 -0.29 245 240 239
-14.58 -30.83 -0.20 204 204 201
-14.73 -30.76 0.03 189 189 186
-14.91 -30.67 0.29 186 186 183
-15.00 -30.66 0.42 249 249 246
-15.04 -30.70 0.47 249 251 248
-15.08 -30.73 0.53 246 248 245
-15.12 -30.76 0.60 216 221 217
-15.04 -30.91 0.48 189 194 190
-13.78 17.45 -1.48 122 123 128
-13.76 17.39 -1.51 122 123 128
-13.77 17.30 -1.49 123 124 127
-13.74 17.26 -1.54 124 125 128
-13.75 17.17 -1.53 126 127 130
-13.76 17.09 -1.52 127 128 131
-13.74 17.03 -1.55 129 129 129
-13.74 16.95 -1.55 129 129 129
-13.73 16.88 -1.56 125 125 122
-13.71 16.82 -1.58 129 129 126
-13.71 16.75 -1.59 129 127 123
-13.68 16.70 -1.63 125 123 119
-13.65 16.64 -1.67 124 123 116
-13.62 16.59 -1.72 127 126 119
-13.60 16.53 -1.75 133 129 121
-13.56 16.49 -1.80 133 129 121
-13.54 16.43 -1.83 129 126 130
-13.52 16.37 -1.86 129 126 130
-13.50 16.31 -1.89 131 124 134
