ply
format ascii 1.0
element vertex 1585
property float x
property float y
property float z
property uchar red
property uchar green
property uchar blue
end_header
-6.95 -3.64 -4.22 173 180 175
-6.95 -3.74 -4.23 174 179 175
-6.95 -3.83 -4.22 174 179 175
-6.95 -3.92 -4.23 175 180 176
-6.94 -4.01 -4.23 175 180 176
-6.94 -4.10 -4.24 175 180 176
-6.94 -4.19 -4.24 175 180 176
-6.94 -4.28 -4.24 175 180 176
-6.94 -4.37 -4.25 175 180 176
-6.93 -4.46 -4.25 175 180 176
-6.93 -4.56 -4.25 175 180 176
-6.92 -4.65 -4.26 176 183 178
-6.93 -4.74 -4.25 176 183 178
-6.94 -4.83 -4.24 176 183 178
-6.93 -4.92 -4.25 176 183 178
-6.93 -5.01 -4.26 176 183 178
-6.94 -5.10 -4.25 176 183 178
-6.93 -5.19 -4.25 176 183 178
-6.93 -5.29 -4.25 175 182 177
-6.93 -5.38 -4.25 175 182 177
-6.93 -5.47 -4.25 175 182 177
-6.93 -5.56 -4.25 175 182 177
-6.94 -5.65 -4.25 175 182 177
-6.94 -5.74 -4.25 173 183 180
-6.94 -5.83 -4.24 174 184 181
-6.94 -5.92 -4.25 176 183 181
-6.93 -6.02 -4.25 176 183 181
-6.93 -6.11 -4.26 176 183 181
-6.93 -6.20 -4.25 176 183 181
-6.93 -6.29 -4.25 176 183 181
-6.93 -6.38 -4.25 176 183 181
-6.92 -6.47 -4.26 177 184 182
-6.92 -6.56 -4.26 178 185 183
-6.91 -6.65 -4.27 178 185 183
-6.90 -6.75 -4.29 178 185 183
-6.90 -6.84 -4.28 178 185 183
-6.89 -6.93 -4.30 178 185 183
-6.90 -7.02 -4.29 178 185 183
-6.88 -7.11 -4.31 178 185 183
-6.88 -7.20 -4.31 178 185 183
-6.88 -7.29 -4.32 178 185 183
-6.87 -7.39 -4.33 181 186 180
-6.87 -7.48 -4.33 181 186 180
-6.85 -7.57 -4.35 180 187 180
-6.85 -7.66 -4.35 180 187 180
-6.84 -7.75 -4.37 180 187 180
-6.83 -7.84 -4.38 180 187 180
-6.82 -7.93 -4.38 180 187 180
-6.82 -8.03 -4.38 180 187 180
-6.82 -8.12 -4.39 183 190 183
-6.80 -8.21 -4.41 181 188 181
-6.80 -8.30 -4.41 178 185 178
-6.79 -8.39 -4.42 180 187 180
-6.79 -8.49 -4.43 182 189 182
-6.80 -8.58 -4.42 183 190 183
-6.80 -8.67 -4.42 182 187 181
-6.80 -8.76 -4.41 181 186 180
-6.82 -8.85 -4.38 181 188 186
-6.81 -8.94 -4.40 170 177 175
-6.80 -9.03 -4.41 178 185 183
-6.84 -9.12 -4.36 167 174 172
-7.18 -9.20 -3.94 178 185 183
-7.68 -9.26 -3.32 175 182 180
-7.81 -9.34 -3.16 212 219 217
-7.78 -9.43 -3.20 240 247 245
-7.62 -9.53 -3.40 236 243 241
-7.32 -9.64 -3.77 218 225 223
-7.04 -9.75 -4.11 194 201 199
-6.85 -9.86 -4.35 178 185 183
-6.77 -9.95 -4.45 177 184 182
-6.78 -10.04 -4.43 183 190 188
-6.80 -10.14 -4.42 183 190 188
-6.80 -10.23 -4.41 178 185 183
-6.80 -10.32 -4.41 188 195 193
-6.80 -10.41 -4.41 187 194 192
-6.83 -10.50 -4.37 185 192 190
-6.85 -10.59 -4.35 185 192 190
-6.86 -10.68 -4.34 185 192 190
-6.88 -10.77 -4.31 187 194 192
-6.88 -10.86 -4.31 187 194 192
-6.89 -10.95 -4.30 187 194 192
-6.89 -11.04 -4.30 183 190 188
-6.89 -11.13 -4.31 184 191 189
-6.89 -11.22 -4.30 187 194 192
-6.88 -11.32 -4.31 188 195 193
-6.87 -11.41 -4.33 189 196 194
-6.87 -11.50 -4.33 188 195 193
-6.86 -11.59 -4.34 188 195 193
-6.85 -11.69 -4.35 187 194 192
-6.85 -11.78 -4.35 187 194 192
-6.84 -11.87 -4.36 187 194 192
-6.84 -11.96 -4.37 188 195 193
-6.83 -12.06 -4.38 188 195 193
-6.82 -12.15 -4.39 189 196 194
-6.81 -12.24 -4.40 189 196 194
-6.80 -12.33 -4.41 190 197 195
-6.79 -12.43 -4.42 192 199 197
-6.79 -12.52 -4.43 192 199 197
-6.78 -12.61 -4.44 192 199 197
-6.77 -12.71 -4.45 192 199 197
-6.77 -12.80 -4.45 192 199 197
-6.76 -12.89 -4.46 192 199 197
-6.76 -12.98 -4.46 192 199 197
-6.76 -13.08 -4.47 190 200 197
-6.75 -13.17 -4.47 190 200 197
-6.74 -13.26 -4.49 190 200 197
-6.73 -13.36 -4.50 190 200 197
-6.73 -13.45 -4.50 192 202 199
-6.72 -13.54 -4.51 192 202 199
-6.72 -13.63 -4.51 192 197 193
-6.71 -13.73 -4.52 191 196 192
-6.71 -13.82 -4.53 189 193 195
-6.71 -13.91 -4.52 186 190 192
-6.71 -14.00 -4.53 197 201 205
-6.72 -14.09 -4.51 181 185 189
-6.73 -14.18 -4.49 170 175 169
-6.75 -14.27 -4.47 170 175 169
-6.80 -14.35 -4.41 188 196 201
-6.89 -14.42 -4.30 26 34 39
-7.10 -14.47 -4.04 8 11 49
-7.20 -14.54 -3.91 50 53 91
-7.21 -14.63 -3.91 48 62 126
-7.21 -14.72 -3.91 47 61 125
-7.23 -14.80 -3.88 43 54 133
-7.24 -14.89 -3.86 44 55 134
-7.24 -14.98 -3.86 44 58 140
-7.24 -15.07 -3.87 37 51 133
-7.24 -15.16 -3.86 33 48 121
-7.25 -15.25 -3.86 39 54 127
-7.26 -15.34 -3.84 43 56 113
-7.28 -15.42 -3.82 42 55 112
-7.31 -15.51 -3.78 40 53 79
-7.34 -15.59 -3.74 59 72 98
-7.37 -15.67 -3.70 110 121 122
-7.41 -15.75 -3.66 137 148 149
-7.44 -15.83 -3.61 153 160 158
-7.48 -15.91 -3.57 142 149 147
-7.52 -15.99 -3.52 155 158 146
-7.57 -16.07 -3.46 156 159 147
-7.61 -16.15 -3.41 165 164 153
-7.66 -16.22 -3.35 173 172 161
-7.71 -16.30 -3.29 176 172 162
-7.77 -16.37 -3.21 174 170 160
-7.81 -16.45 -3.16 173 174 155
-7.87 -16.52 -3.08 174 175 156
-7.92 -16.59 -3.02 172 175 155
-7.98 -16.67 -2.95 175 178 158
-8.04 -16.74 -2.88 173 175 160
-8.08 -16.81 -2.83 172 174 159
-8.11 -16.89 -2.79 179 178 167
-8.14 -16.97 -2.75 176 175 164
-8.18 -17.05 -2.70 174 171 158
-8.20 -17.13 -2.67 176 173 160
-8.24 -17.20 -2.63 177 177 163
-8.27 -17.28 -2.59 176 176 162
-8.30 -17.36 -2.56 175 175 161
-8.33 -17.44 -2.52 176 176 162
-8.36 -17.52 -2.48 177 177 163
-8.38 -17.60 -2.45 176 176 162
-8.41 -17.67 -2.41 172 171 160
-8.44 -17.75 -2.38 167 166 155
-8.45 -17.83 -2.37 171 170 161
-8.47 -17.91 -2.34 169 168 159
-8.50 -17.99 -2.31 167 166 157
-8.52 -18.07 -2.28 164 163 154
-8.54 -18.15 -2.25 160 159 152
-8.57 -18.23 -2.22 157 156 149
-8.59 -18.31 -2.20 154 153 146
-8.61 -18.39 -2.16 153 152 145
-8.63 -18.47 -2.14 151 152 144
-8.65 -18.55 -2.12 152 153 145
-8.67 -18.63 -2.09 156 156 151
-8.69 -18.71 -2.07 160 160 155
-8.69 -18.79 -2.06 161 162 152
-8.71 -18.87 -2.04 153 154 144
-8.72 -18.95 -2.03 142 143 135
-8.73 -19.03 -2.01 131 132 124
-8.75 -19.12 -1.99 98 98 93
-8.77 -19.19 -1.97 82 82 77
-8.79 -19.27 -1.94 72 72 67
-8.82 -19.35 -1.91 83 83 78
-8.86 -19.42 -1.86 76 76 76
-8.90 -19.49 -1.81 52 52 52
-8.93 -19.56 -1.77 52 52 52
-8.96 -19.63 -1.73 61 61 61
-8.98 -19.71 -1.70 58 60 57
-9.03 -19.78 -1.64 53 55 52
-9.08 -19.84 -1.58 49 51 48
-9.13 -19.91 -1.52 44 46 43
-9.18 -19.97 -1.46 39 41 38
-9.22 -20.04 -1.41 31 33 30
-9.26 -20.11 -1.36 22 24 21
-9.30 -20.18 -1.31 15 17 14
-9.35 -20.24 -1.25 16 18 15
-9.39 -20.31 -1.20 21 23 20
-9.44 -20.37 -1.13 21 23 20
-9.48 -20.44 -1.09 20 22 19
-9.53 -20.50 -1.03 27 29 26
-9.57 -20.57 -0.97 28 30 27
-9.62 -20.63 -0.92 32 34 31
-9.68 -20.69 -0.84 41 43 40
-9.72 -20.75 -0.79 58 50 56
-9.76 -20.82 -0.74 63 55 61
-9.76 -20.90 -0.74 26 18 0
-9.71 -21.01 -0.80 203 195 173
-9.16 -21.34 -1.49 255 247 205
-8.13 -21.90 -2.76 224 214 172
-7.54 -22.26 -3.50 229 218 183
-7.57 -22.33 -3.46 228 217 182
-7.66 -22.38 -3.35 226 219 201
-7.68 -22.46 -3.33 223 216 198
-7.66 -22.56 -3.35 220 216 210
-7.65 -22.65 -3.35 220 216 210
-7.66 -22.74 -3.35 222 221 214
-7.65 -22.84 -3.36 222 221 214
-7.64 -22.93 -3.37 221 217 211
-7.63 -23.02 -3.38 221 217 211
-7.62 -23.11 -3.39 216 218 215
-7.63 -23.20 -3.38 216 218 215
-7.64 -23.29 -3.37 216 218 215
-7.65 -23.37 -3.36 216 218 215
-7.65 -23.46 -3.36 216 218 215
-7.66 -23.55 -3.35 216 218 215
-7.66 -23.63 -3.35 216 218 215
-7.67 -23.72 -3.34 218 220 217
-7.67 -23.81 -3.33 219 221 218
-7.66 -23.90 -3.34 219 221 218
-7.67 -23.99 -3.34 219 221 218
-7.68 -24.07 -3.33 219 221 218
-7.67 -24.16 -3.33 219 221 218
-7.67 -24.25 -3.33 219 221 218
-7.67 -24.34 -3.33 219 221 218
-7.67 -24.43 -3.33 219 221 218
-7.67 -24.52 -3.33 219 221 218
-7.67 -24.61 -3.33 219 221 218
-7.67 -24.70 -3.33 219 221 218
-7.68 -24.78 -3.33 219 221 218
-7.68 -24.87 -3.33 219 221 218
-7.68 -24.96 -3.32 219 221 218
-7.69 -25.05 -3.31 219 221 218
-7.70 -25.13 -3.30 219 221 218
-7.70 -25.22 -3.30 219 221 218
-7.70 -25.30 -3.29 219 221 218
-7.71 -25.39 -3.28 219 221 218
-7.72 -25.47 -3.27 219 221 218
-7.73 -25.56 -3.26 220 222 219
-7.74 -25.64 -3.25 220 222 219
-7.74 -25.73 -3.24 220 222 219
-7.74 -25.82 -3.24 220 222 219
-7.75 -25.90 -3.24 221 223 220
-7.76 -25.99 -3.22 221 223 220
-7.76 -26.08 -3.23 221 223 220
-7.76 -26.16 -3.22 221 223 220
-7.76 -26.25 -3.22 221 223 220
-7.77 -26.34 -3.21 221 223 220
-7.77 -26.42 -3.21 221 223 220
-7.77 -26.51 -3.21 221 223 220
-7.77 -26.60 -3.21 221 223 220
-7.77 -26.69 -3.21 221 223 220
-7.77 -26.78 -3.21 221 223 220
-7.77 -26.87 -3.21 221 223 220
-7.77 -26.96 -3.21 221 223 220
-7.77 -27.05 -3.21 221 223 220
-7.77 -27.13 -3.21 221 223 220
-7.76 -27.23 -3.22 221 223 220
-7.77 -27.32 -3.21 224 222 223
-7.78 -27.40 -3.20 224 222 223
-7.78 -27.49 -3.20 224 222 223
-7.78 -27.57 -3.20 224 222 223
-7.78 -27.66 -3.20 224 222 223
-7.78 -27.75 -3.19 224 222 223
-7.79 -27.84 -3.19 224 222 223
-7.79 -27.93 -3.19 224 222 223
-7.78 -28.02 -3.20 223 221 222
-7.78 -28.11 -3.20 223 221 222
-7.79 -28.19 -3.19 223 221 222
-7.80 -28.27 -3.17 223 221 222
-7.80 -28.36 -3.17 223 221 222
-7.80 -28.45 -3.17 223 221 222
-7.80 -28.54 -3.17 223 221 222
-7.80 -28.62 -3.17 224 222 223
-7.81 -28.71 -3.16 226 224 225
-7.81 -28.80 -3.16 226 224 225
-7.81 -28.88 -3.15 226 224 225
-7.82 -28.97 -3.15 226 224 225
-7.82 -29.06 -3.15 226 224 225
-7.82 -29.15 -3.15 226 224 225
-7.81 -29.24 -3.15 226 224 225
-7.81 -29.33 -3.15 226 224 225
-7.82 -29.42 -3.15 225 223 224
-7.81 -29.51 -3.16 225 223 224
-7.81 -29.60 -3.16 226 224 225
-7.80 -29.69 -3.17 226 224 225
-7.81 -29.78 -3.16 228 226 227
-7.82 -29.86 -3.15 228 226 227
-7.81 -29.96 -3.16 229 227 228
-7.81 -30.04 -3.15 229 227 228
-7.81 -30.13 -3.16 230 228 226
-7.81 -30.22 -3.16 230 228 226
-7.82 -30.30 -3.15 230 228 226
-7.83 -30.39 -3.14 230 228 226
-7.83 -30.47 -3.13 230 228 226
-7.83 -30.56 -3.13 230 228 226
-7.84 -30.64 -3.12 230 228 226
-7.84 -30.73 -3.12 230 228 226
-7.84 -30.82 -3.12 230 228 226
-7.83 -30.91 -3.13 230 228 226
-7.83 -31.00 -3.13 230 228 226
-7.84 -31.09 -3.13 230 228 226
-7.83 -31.18 -3.13 230 228 229
-7.84 -31.27 -3.13 230 228 229
-7.84 -31.35 -3.12 232 230 231
-7.84 -31.44 -3.12 232 230 231
-7.84 -31.53 -3.12 234 229 231
-7.84 -31.62 -3.12 234 229 231
-7.85 -31.70 -3.11 234 229 231
-7.85 -31.79 -3.11 234 229 231
-7.85 -31.87 -3.10 234 229 231
-7.86 -31.96 -3.09 234 229 231
-7.87 -32.04 -3.08 234 229 231
-7.87 -32.13 -3.09 234 229 231
-7.87 -32.22 -3.08 235 230 232
-7.87 -32.31 -3.09 235 230 232
-7.87 -32.39 -3.08 237 232 234
-7.87 -32.48 -3.08 237 232 234
-7.87 -32.57 -3.08 238 233 235
-7.88 -32.65 -3.07 238 233 235
-7.88 -32.74 -3.07 239 234 236
-7.89 -32.82 -3.06 239 234 236
-7.89 -32.91 -3.06 239 234 236
-7.90 -32.99 -3.05 239 234 236
-7.90 -33.08 -3.05 237 235 236
-7.91 -33.16 -3.04 237 235 236
-7.92 -33.24 -3.02 237 235 236
-7.93 -33.32 -3.01 237 235 236
-7.94 -33.41 -3.00 237 235 236
-7.94 -33.49 -2.99 237 235 236
-7.95 -33.57 -2.99 237 235 236
-7.95 -33.66 -2.99 237 235 236
-7.95 -33.75 -2.98 237 235 236
-7.96 -33.83 -2.98 237 235 236
-7.96 -33.92 -2.97 237 235 236
-7.97 -33.99 -2.96 237 235 236
-7.98 -34.07 -2.94 237 235 236
-7.99 -34.15 -2.93 237 235 236
-8.01 -34.23 -2.91 234 236 231
-8.03 -34.30 -2.89 234 236 231
-8.05 -34.37 -2.86 235 235 230
-8.07 -34.44 -2.84 235 235 230
-8.09 -34.51 -2.82 238 236 232
-8.13 -34.57 -2.77 236 234 230
-8.09 -34.69 -2.81 237 232 229
-8.12 -34.75 -2.78 239 234 231
-8.14 -34.82 -2.75 243 233 232
-8.17 -34.88 -2.71 242 232 231
-7.69 21.19 -3.44 139 130 122
-7.65 21.14 -3.49 139 130 122
-7.67 21.03 -3.47 139 130 122
-7.62 20.98 -3.52 139 130 122
-7.64 20.88 -3.50 139 130 122
-7.66 20.77 -3.48 139 130 122
-7.63 20.71 -3.51 139 130 122
-7.62 20.63 -3.52 139 130 122
-7.62 20.54 -3.52 141 132 124
-7.61 20.46 -3.54 141 132 124
-7.60 20.38 -3.55 141 132 124
-7.60 20.29 -3.55 141 132 124
-7.59 20.21 -3.57 143 134 126
-7.59 20.12 -3.57 143 134 126
-7.58 20.04 -3.58 143 134 126
-7.56 19.96 -3.60 143 134 126
-7.56 19.87 -3.60 143 134 126
-7.55 19.79 -3.61 143 134 126
-7.55 19.70 -3.61 143 134 126
-7.54 19.62 -3.62 143 134 126
-7.54 19.53 -3.63 143 134 126
-7.53 19.45 -3.64 143 134 126
-7.53 19.36 -3.64 143 134 126
-7.52 19.28 -3.65 143 134 126
-7.51 19.19 -3.66 144 135 127
-7.51 19.11 -3.66 144 135 127
-7.51 19.02 -3.67 145 136 128
-7.50 18.94 -3.68 145 136 128
-7.49 18.85 -3.68 146 137 129
-7.48 18.77 -3.70 146 137 129
-7.48 18.68 -3.70 146 137 129
-7.46 18.61 -3.72 146 137 129
-7.46 18.52 -3.73 148 139 131
-7.44 18.45 -3.75 148 139 131
-7.44 18.36 -3.76 148 139 131
-7.42 18.28 -3.77 148 139 131
-7.42 18.19 -3.78 148 139 131
-7.41 18.11 -3.78 148 139 131
-7.41 18.02 -3.79 149 140 132
-7.41 17.93 -3.79 150 141 133
-7.39 17.85 -3.81 148 142 133
-7.40 17.76 -3.81 148 142 133
-7.39 17.68 -3.82 148 142 133
-7.39 17.59 -3.82 148 142 133
-7.38 17.50 -3.83 148 142 133
-7.38 17.41 -3.83 148 142 133
-7.38 17.32 -3.83 148 142 133
-7.37 17.24 -3.84 149 143 134
-7.36 17.15 -3.85 149 143 136
-7.36 17.06 -3.85 149 143 136
-7.36 16.98 -3.86 150 144 137
-7.36 16.89 -3.86 150 144 137
-7.35 16.80 -3.86 150 144 137
-7.35 16.71 -3.86 151 145 138
-7.35 16.62 -3.87 151 145 138
-7.34 16.54 -3.87 151 145 138
-7.34 16.45 -3.87 151 145 138
-7.32 16.37 -3.90 151 145 138
-7.33 16.28 -3.89 151 145 138
-7.32 16.19 -3.90 153 147 140
-7.32 16.10 -3.90 153 147 140
-7.32 16.01 -3.90 154 148 141
-7.31 15.93 -3.91 154 148 141
-7.31 15.84 -3.91 154 148 141
-7.31 15.75 -3.91 153 147 140
-7.30 15.66 -3.93 153 147 140
-7.30 15.57 -3.92 154 148 141
-7.30 15.48 -3.92 154 148 141
-7.30 15.39 -3.93 154 148 141
-7.30 15.31 -3.93 154 148 141
-7.30 15.22 -3.93 154 148 141
-7.28 15.13 -3.95 154 148 141
-7.27 15.05 -3.96 154 148 141
-7.28 14.95 -3.95 154 148 141
-7.27 14.87 -3.97 154 148 141
-7.28 14.78 -3.96 155 149 142
-7.27 14.69 -3.97 155 149 142
-7.27 14.60 -3.97 155 149 142
-7.27 14.51 -3.97 155 149 140
-7.26 14.43 -3.98 157 151 142
-7.25 14.34 -3.99 156 152 142
-7.24 14.26 -4.00 157 153 143
-7.23 14.17 -4.01 157 153 143
-7.23 14.09 -4.02 159 155 145
-7.23 13.99 -4.01 159 155 145
-7.23 13.90 -4.02 160 156 146
-7.23 13.81 -4.01 160 156 146
-7.23 13.72 -4.02 160 156 146
-7.23 13.63 -4.01 160 156 146
-7.23 13.54 -4.01 160 156 146
-7.22 13.45 -4.02 160 156 146
-7.23 13.36 -4.01 160 156 146
-7.23 13.27 -4.01 160 156 148
-7.23 13.18 -4.01 160 156 148
-7.23 13.09 -4.01 161 157 151
-7.23 13.00 -4.01 161 157 151
-7.23 12.91 -4.02 161 157 149
-7.23 12.82 -4.02 161 157 149
-7.23 12.72 -4.01 161 157 149
-7.24 12.63 -4.01 161 157 149
-7.24 12.54 -4.01 162 158 150
-7.25 12.44 -3.99 163 159 151
-7.24 12.35 -4.00 164 160 152
-7.25 12.26 -3.99 166 162 154
-7.24 12.17 -4.00 166 162 154
-7.23 12.09 -4.01 166 162 154
-7.23 12.00 -4.01 166 162 154
-7.23 11.91 -4.01 166 162 154
-7.22 11.82 -4.02 166 162 154
-7.22 11.73 -4.02 167 163 155
-7.22 11.64 -4.03 167 163 153
-7.22 11.55 -4.03 167 163 153
-7.21 11.47 -4.04 167 163 155
-7.22 11.37 -4.03 167 163 155
-7.21 11.29 -4.04 167 163 155
-7.21 11.20 -4.04 167 163 155
-7.21 11.10 -4.03 167 163 155
-7.21 11.01 -4.04 167 163 155
-7.21 10.92 -4.04 167 163 155
-7.21 10.84 -4.04 167 163 155
-7.21 10.74 -4.04 168 164 156
-7.19 10.66 -4.06 168 164 156
-7.20 10.57 -4.05 168 164 156
-7.20 10.48 -4.05 168 164 156
-7.19 10.39 -4.06 168 164 156
-7.19 10.30 -4.06 168 164 156
-7.19 10.21 -4.06 166 165 156
-7.19 10.12 -4.07 167 166 157
-7.18 10.04 -4.08 167 166 157
-7.18 9.95 -4.08 168 167 158
-7.16 9.86 -4.10 168 167 158
-7.17 9.77 -4.09 168 167 158
-7.17 9.68 -4.09 168 167 158
-7.17 9.59 -4.09 169 168 159
-7.17 9.50 -4.09 171 170 161
-7.16 9.41 -4.10 171 170 161
-7.15 9.32 -4.11 171 170 161
-7.15 9.23 -4.11 171 170 161
-7.15 9.14 -4.11 171 170 161
-7.15 9.05 -4.11 171 170 161
-7.14 8.96 -4.12 171 170 161
-7.14 8.87 -4.12 171 170 161
-7.14 8.78 -4.13 170 171 161
-7.13 8.70 -4.13 170 171 161
-7.13 8.61 -4.13 170 171 161
-7.13 8.51 -4.13 170 171 161
-7.13 8.42 -4.14 170 171 161
-7.13 8.33 -4.14 170 171 161
-7.13 8.24 -4.13 171 172 162
-7.14 8.15 -4.13 171 172 162
-7.14 8.06 -4.13 171 172 162
-7.14 7.97 -4.13 171 172 162
-7.14 7.88 -4.13 171 172 162
-7.14 7.79 -4.13 171 172 162
-7.13 7.70 -4.14 171 172 162
-7.13 7.61 -4.13 171 172 162
-7.14 7.51 -4.13 172 173 163
-7.13 7.43 -4.14 172 173 163
-7.13 7.33 -4.13 172 173 163
-7.13 7.24 -4.13 172 173 163
-7.13 7.15 -4.14 173 174 164
-7.13 7.06 -4.14 173 174 164
-7.13 6.97 -4.14 173 174 164
-7.13 6.88 -4.14 173 174 164
-7.13 6.79 -4.14 173 174 164
-7.13 6.70 -4.14 173 174 164
-7.12 6.61 -4.14 173 174 164
-7.12 6.52 -4.15 173 174 164
-7.12 6.43 -4.15 173 174 166
-7.12 6.34 -4.15 173 174 166
-7.11 6.25 -4.16 173 174 166
-7.12 6.16 -4.15 173 174 166
-7.11 6.07 -4.16 173 174 166
-7.11 5.98 -4.16 173 174 166
-7.12 5.89 -4.15 173 174 166
-7.12 5.79 -4.15 173 174 166
-7.12 5.70 -4.15 174 175 165
-7.11 5.62 -4.17 174 175 165
-7.11 5.53 -4.16 174 175 165
-7.11 5.43 -4.16 174 175 165
-7.11 5.34 -4.16 174 175 165
-7.11 5.25 -4.16 174 175 165
-7.11 5.16 -4.16 174 175 165
-7.12 5.07 -4.15 174 175 165
-7.11 4.98 -4.16 173 174 164
-7.11 4.89 -4.16 173 174 164
-7.11 4.80 -4.16 173 174 164
-7.12 4.70 -4.15 173 174 164
-7.12 4.61 -4.15 173 174 164
-7.12 4.52 -4.15 173 174 164
-7.12 4.43 -4.15 173 174 164
-7.12 4.34 -4.15 173 174 164
-7.12 4.25 -4.15 173 174 164
-7.12 4.16 -4.14 173 174 164
-7.12 4.07 -4.15 172 172 167
-7.13 3.97 -4.13 172 172 167
-7.13 3.88 -4.13 172 172 167
-7.14 3.79 -4.13 172 172 167
-7.14 3.70 -4.12 172 172 167
-7.14 3.61 -4.12 172 172 167
-7.13 3.52 -4.14 172 172 167
-7.12 3.43 -4.14 172 172 167
-7.12 3.34 -4.14 173 173 168
-7.12 3.25 -4.15 173 173 168
-7.12 3.16 -4.15 173 173 168
-7.12 3.07 -4.15 173 173 168
-7.12 2.98 -4.15 173 173 168
-7.12 2.89 -4.15 173 173 168
-7.12 2.79 -4.15 172 173 165
-7.12 2.70 -4.15 172 173 165
-7.12 2.61 -4.14 172 173 165
-7.12 2.52 -4.14 172 173 165
-7.12 2.43 -4.15 172 173 165
-7.13 2.34 -4.14 172 173 165
-7.13 2.25 -4.14 172 173 165
-7.13 2.16 -4.14 172 173 165
-7.13 2.06 -4.14 172 173 165
-7.13 1.97 -4.13 172 173 165
-7.13 1.88 -4.14 172 173 165
-7.13 1.79 -4.13 172 173 165
-7.13 1.70 -4.13 172 173 165
-7.13 1.61 -4.13 172 173 165
-7.14 1.52 -4.13 172 173 165
-7.13 1.43 -4.14 172 173 165
-7.13 1.34 -4.14 172 173 165
-7.13 1.25 -4.14 172 173 165
-7.14 1.15 -4.13 172 173 165
-7.14 1.06 -4.13 172 173 165
-7.14 0.97 -4.13 172 173 165
-7.14 0.88 -4.13 172 173 165
-7.13 0.79 -4.13 172 173 165
-7.13 0.70 -4.14 172 173 165
-7.13 0.61 -4.14 173 174 166
-7.12 0.52 -4.14 173 174 166
-7.13 0.43 -4.14 173 174 166
-7.13 0.34 -4.13 173 174 166
-7.13 0.25 -4.14 173 174 166
-7.13 0.16 -4.14 173 174 166
-7.14 0.06 -4.13 173 174 166
-7.14 -0.03 -4.13 173 174 166
-7.13 -0.12 -4.13 168 173 167
-7.14 -0.21 -4.13 168 173 167
-7.13 -0.30 -4.14 168 173 167
-7.14 -0.39 -4.13 168 173 167
-7.13 -0.48 -4.13 168 173 167
-7.13 -0.57 -4.13 168 173 167
-7.13 -0.66 -4.13 168 173 167
-7.14 -0.75 -4.13 168 173 167
-7.14 -0.84 -4.13 169 174 168
-7.14 -0.94 -4.13 169 174 168
-7.13 -1.02 -4.14 169 174 168
-7.13 -1.12 -4.13 169 174 168
-7.14 -1.21 -4.13 169 174 168
-7.14 -1.30 -4.13 169 174 168
-7.13 -1.39 -4.13 169 174 168
-7.13 -1.48 -4.14 169 174 168
-7.12 -1.57 -4.14 172 174 169
-7.12 -1.66 -4.15 172 174 169
-7.12 -1.75 -4.15 170 177 170
-7.12 -1.84 -4.15 170 177 170
-7.12 -1.93 -4.15 170 177 170
-7.12 -2.02 -4.15 170 177 170
-7.12 -2.11 -4.15 170 177 170
-7.12 -2.20 -4.15 170 177 170
-7.11 -2.29 -4.16 170 177 170
-7.11 -2.38 -4.16 171 178 171
-7.11 -2.48 -4.16 173 180 173
-7.11 -2.57 -4.17 173 180 173
-7.11 -2.66 -4.16 173 180 173
-7.11 -2.75 -4.17 173 180 173
-7.11 -2.84 -4.16 173 180 173
-7.11 -2.93 -4.17 173 180 173
-7.11 -3.02 -4.17 173 180 173
-7.10 -3.11 -4.17 173 180 173
-7.11 -3.20 -4.17 173 180 173
-7.11 -3.29 -4.17 173 180 173
-7.11 -3.38 -4.17 171 181 175
-7.10 -3.47 -4.17 171 181 175
-7.10 -3.57 -4.17 173 180 175
-7.10 -3.66 -4.17 173 180 175
-7.10 -3.75 -4.18 174 179 175
-7.09 -3.84 -4.18 174 179 175
-7.09 -3.93 -4.18 174 179 175
-7.09 -4.02 -4.18 174 179 175
-7.09 -4.11 -4.18 174 179 175
-7.09 -4.20 -4.19 174 179 175
-7.09 -4.29 -4.19 174 179 175
-7.08 -4.38 -4.20 175 180 176
-7.07 -4.47 -4.21 175 180 176
-7.07 -4.56 -4.21 175 180 176
-7.07 -4.65 -4.21 176 183 178
-7.08 -4.75 -4.20 176 183 178
-7.08 -4.84 -4.20 176 183 178
-7.08 -4.93 -4.20 176 183 178
-7.08 -5.02 -4.20 176 183 178
-7.08 -5.11 -4.20 176 183 178
-7.08 -5.20 -4.20 176 183 178
-7.07 -5.29 -4.21 175 182 177
-7.08 -5.38 -4.20 175 182 177
-7.08 -5.47 -4.20 175 182 177
-7.08 -5.57 -4.20 175 182 177
-7.09 -5.66 -4.19 175 182 177
-7.08 -5.75 -4.20 173 183 180
-7.08 -5.84 -4.20 174 184 181
-7.08 -5.93 -4.20 176 183 181
-7.08 -6.02 -4.20 176 183 181
-7.09 -6.11 -4.19 176 183 181
-7.08 -6.20 -4.20 176 183 181
-7.08 -6.29 -4.20 176 183 181
-7.08 -6.38 -4.20 176 183 181
-7.08 -6.48 -4.20 177 184 182
-7.07 -6.57 -4.22 178 185 183
-7.06 -6.66 -4.22 178 185 183
-7.04 -6.75 -4.25 178 185 183
-7.04 -6.84 -4.24 178 185 183
-7.03 -6.93 -4.26 178 185 183
-7.03 -7.02 -4.26 178 185 183
-7.03 -7.11 -4.26 178 185 183
-7.03 -7.20 -4.27 178 185 183
-7.02 -7.29 -4.28 178 185 183
-7.01 -7.39 -4.28 181 186 180
-7.00 -7.48 -4.29 181 186 180
-6.99 -7.57 -4.32 180 187 180
-6.98 -7.66 -4.32 180 187 180
-6.98 -7.75 -4.33 180 187 180
-6.97 -7.84 -4.33 180 187 180
-6.97 -7.93 -4.34 180 187 180
-6.97 -8.02 -4.34 180 187 180
-6.97 -8.12 -4.34 183 190 183
-6.97 -8.21 -4.34 181 188 181
-6.97 -8.30 -4.34 178 185 178
-6.97 -8.39 -4.34 180 187 180
-6.96 -8.48 -4.35 182 189 182
-6.97 -8.57 -4.33 182 189 182
-6.98 -8.66 -4.33 181 186 180
-7.01 -8.75 -4.28 182 187 181
-7.03 -8.84 -4.26 181 188 186
-6.98 -8.94 -4.32 177 184 182
-6.98 -9.03 -4.32 189 196 194
-7.31 -9.10 -3.92 192 199 197
-7.71 -9.17 -3.41 192 199 197
-7.95 -9.25 -3.11 201 208 206
-7.91 -9.34 -3.17 246 253 251
-7.92 -9.42 -3.16 241 248 246
-7.95 -9.51 -3.12 248 255 253
-7.91 -9.60 -3.17 244 251 249
-7.79 -9.70 -3.32 231 238 236
-7.50 -9.81 -3.67 211 218 216
-7.28 -9.92 -3.96 188 195 193
-7.12 -10.02 -4.15 174 181 179
-7.02 -10.12 -4.27 173 180 178
-6.99 -10.21 -4.31 176 183 181
-6.95 -10.31 -4.36 181 188 186
-6.97 -10.40 -4.33 187 194 192
-6.97 -10.49 -4.34 190 197 195
-6.99 -10.58 -4.31 189 196 194
-7.01 -10.67 -4.29 184 191 189
-7.03 -10.76 -4.27 185 192 190
-7.03 -10.85 -4.26 188 195 193
-7.03 -10.94 -4.26 189 196 194
-7.04 -11.03 -4.25 187 194 192
-7.03 -11.12 -4.26 187 194 192
-7.03 -11.21 -4.27 188 195 193
-7.02 -11.31 -4.27 188 195 193
-7.02 -11.40 -4.28 188 195 193
-7.01 -11.49 -4.28 188 195 193
-7.01 -11.58 -4.29 188 195 193
-7.00 -11.67 -4.30 188 195 193
-6.98 -11.77 -4.32 187 194 192
-6.99 -11.86 -4.32 187 194 192
-6.98 -11.95 -4.33 188 195 193
-6.97 -12.04 -4.34 188 195 193
-6.97 -12.13 -4.34 189 196 194
-6.96 -12.23 -4.35 189 196 194
-6.96 -12.32 -4.35 190 197 195
-6.95 -12.41 -4.36 191 198 196
-6.95 -12.50 -4.36 191 198 196
-6.93 -12.60 -4.38 191 198 196
-6.92 -12.69 -4.40 191 198 196
-6.92 -12.78 -4.40 191 198 196
-6.92 -12.87 -4.40 191 198 196
-6.92 -12.96 -4.40 191 198 196
-6.91 -13.06 -4.42 189 199 196
-6.90 -13.15 -4.42 189 199 196
-6.89 -13.24 -4.43 189 199 196
-6.88 -13.34 -4.44 190 200 197
-6.88 -13.43 -4.44 190 200 197
-6.87 -13.52 -4.46 190 200 197
-6.86 -13.61 -4.47 192 197 193
-6.86 -13.71 -4.47 190 195 191
-6.86 -13.80 -4.48 188 192 194
-6.85 -13.89 -4.48 186 190 192
-6.85 -13.98 -4.49 179 183 187
-6.86 -14.07 -4.48 177 181 185
-6.87 -14.16 -4.47 171 176 170
-6.88 -14.25 -4.45 162 167 161
-6.92 -14.34 -4.40 188 196 201
-7.01 -14.41 -4.28 33 41 46
-7.18 -14.46 -4.08 16 19 57
-7.25 -14.54 -3.98 47 50 88
-7.27 -14.62 -3.97 40 54 118
-7.26 -14.72 -3.97 42 56 120
-7.28 -14.80 -3.95 40 51 130
-7.29 -14.89 -3.94 41 52 131
-7.29 -14.98 -3.94 41 55 137
-7.28 -15.07 -3.95 38 52 134
-7.28 -15.16 -3.95 35 50 123
-7.28 -15.25 -3.95 38 53 126
-7.29 -15.34 -3.94 44 57 114
-7.31 -15.43 -3.91 36 49 106
-7.34 -15.51 -3.87 38 51 77
-7.37 -15.59 -3.84 53 66 92
-7.42 -15.67 -3.77 92 103 104
-7.47 -15.75 -3.72 117 128 129
-7.51 -15.83 -3.67 151 158 156
-7.54 -15.91 -3.63 158 165 163
-7.58 -15.99 -3.58 169 172 160
-7.62 -16.07 -3.52 169 172 160
-7.66 -16.15 -3.47 173 172 161
-7.71 -16.22 -3.42 175 174 163
-7.75 -16.30 -3.36 175 171 161
-7.80 -16.37 -3.30 174 170 160
-7.84 -16.45 -3.25 172 173 154
-7.90 -16.53 -3.18 173 174 155
-7.94 -16.60 -3.12 171 174 154
-7.99 -16.68 -3.07 175 178 158
-8.04 -16.75 -3.01 176 178 163
-8.09 -16.82 -2.94 175 177 162
-8.14 -16.90 -2.89 175 174 163
-8.17 -16.97 -2.84 173 172 161
-8.21 -17.05 -2.79 175 172 159
-8.24 -17.13 -2.75 178 175 162
-8.27 -17.21 -2.72 176 176 162
-8.30 -17.29 -2.68 176 176 162
-8.33 -17.36 -2.64 177 177 163
-8.36 -17.44 -2.61 179 179 165
-8.39 -17.52 -2.57 180 180 166
-8.43 -17.60 -2.52 179 179 165
-8.46 -17.67 -2.48 176 175 164
-8.48 -17.75 -2.46 174 173 162
-8.51 -17.83 -2.42 173 172 163
-8.53 -17.91 -2.39 171 170 161
-8.55 -17.99 -2.37 169 168 159
-8.58 -18.07 -2.33 166 165 156
-8.61 -18.14 -2.30 162 161 154
-8.63 -18.22 -2.26 160 159 152
-8.66 -18.30 -2.24 158 157 150
-8.68 -18.38 -2.20 157 156 149
-8.71 -18.45 -2.17 157 158 150
-8.72 -18.54 -2.15 154 155 147
-8.74 -18.62 -2.13 152 152 147
-8.77 -18.69 -2.10 150 150 145
-8.78 -18.78 -2.09 150 151 141
-8.80 -18.85 -2.06 149 150 140
-8.81 -18.94 -2.05 149 150 142
-8.82 -19.02 -2.03 150 151 143
-8.83 -19.10 -2.02 150 150 145
-8.85 -19.18 -2.00 133 133 128
-8.87 -19.26 -1.97 110 110 105
-8.90 -19.33 -1.93 103 103 98
-8.94 -19.40 -1.88 98 98 98
-8.98 -19.47 -1.83 81 81 81
-9.01 -19.55 -1.80 59 59 59
-9.03 -19.62 -1.77 33 33 33
-9.05 -19.70 -1.74 36 38 35
-9.09 -19.77 -1.70 38 40 37
-9.13 -19.84 -1.65 43 45 42
-9.17 -19.91 -1.60 49 51 48
-9.22 -19.97 -1.53 52 54 51
-9.26 -20.04 -1.48 49 51 48
-9.29 -20.11 -1.44 41 43 40
-9.33 -20.18 -1.40 34 36 33
-9.37 -20.25 -1.34 21 23 20
-9.42 -20.31 -1.29 27 29 26
-9.47 -20.38 -1.22 25 27 24
-9.52 -20.44 -1.17 20 22 19
-9.57 -20.50 -1.11 18 20 17
-9.62 -20.57 -1.04 15 17 14
-9.67 -20.63 -0.98 18 20 17
-9.73 -20.68 -0.90 28 30 27
-9.77 -20.75 -0.85 38 30 36
-9.81 -20.82 -0.81 29 21 27
-9.81 -20.90 -0.80 33 25 3
-9.70 -21.03 -0.94 234 226 204
-9.09 -21.39 -1.69 252 242 200
-8.20 -21.89 -2.80 228 218 176
-7.72 -22.20 -3.40 228 217 182
-7.67 -22.31 -3.47 228 217 182
-7.72 -22.37 -3.40 224 217 199
-7.79 -22.43 -3.32 224 217 199
-7.78 -22.53 -3.33 216 212 206
-7.78 -22.62 -3.33 218 214 208
-7.78 -22.70 -3.32 216 215 208
-7.79 -22.79 -3.32 216 215 208
-7.78 -22.88 -3.33 214 210 204
-7.77 -22.98 -3.34 220 216 210
-7.76 -23.07 -3.35 216 218 215
-7.77 -23.16 -3.34 216 218 215
-7.77 -23.24 -3.34 216 218 215
-7.78 -23.33 -3.33 216 218 215
-7.79 -23.41 -3.32 216 218 215
-7.79 -23.50 -3.31 216 218 215
-7.80 -23.58 -3.30 216 218 215
-7.80 -23.67 -3.30 218 220 217
-7.81 -23.76 -3.29 218 220 217
-7.82 -23.84 -3.28 218 220 217
-7.81 -23.93 -3.29 218 220 217
-7.82 -24.02 -3.28 218 220 217
-7.82 -24.11 -3.28 218 220 217
-7.82 -24.20 -3.28 218 220 217
-7.82 -24.29 -3.28 218 220 217
-7.82 -24.38 -3.28 219 221 218
-7.82 -24.46 -3.28 219 221 218
-7.82 -24.55 -3.28 219 221 218
-7.82 -24.64 -3.28 219 221 218
-7.82 -24.73 -3.28 219 221 218
-7.83 -24.81 -3.27 219 221 218
-7.83 -24.90 -3.26 219 221 218
-7.84 -24.99 -3.25 219 221 218
-7.85 -25.07 -3.25 219 221 218
-7.84 -25.16 -3.25 219 221 218
-7.85 -25.25 -3.25 219 221 218
-7.86 -25.33 -3.23 219 221 218
-7.87 -25.42 -3.22 219 221 218
-7.87 -25.50 -3.22 219 221 218
-7.88 -25.59 -3.20 220 222 219
-7.88 -25.67 -3.20 220 222 219
-7.89 -25.76 -3.19 220 222 219
-7.90 -25.84 -3.18 220 222 219
-7.90 -25.93 -3.18 220 222 219
-7.90 -26.02 -3.18 220 222 219
-7.91 -26.10 -3.17 220 222 219
-7.91 -26.19 -3.17 220 222 219
-7.91 -26.27 -3.16 220 222 219
-7.91 -26.36 -3.16 220 222 219
-7.92 -26.45 -3.16 220 222 219
-7.92 -26.54 -3.16 220 222 219
-7.91 -26.63 -3.16 220 222 219
-7.91 -26.72 -3.16 220 222 219
-7.93 -26.80 -3.15 220 222 219
-7.93 -26.89 -3.15 220 222 219
-7.93 -26.98 -3.15 220 222 219
-7.93 -27.06 -3.14 220 222 219
-7.92 -27.16 -3.16 220 222 219
-7.93 -27.24 -3.14 224 222 223
-7.92 -27.34 -3.16 224 222 223
-7.93 -27.42 -3.15 224 222 223
-7.93 -27.51 -3.14 224 222 223
-7.93 -27.59 -3.14 224 222 223
-7.93 -27.68 -3.14 224 222 223
-7.94 -27.77 -3.13 224 222 223
-7.94 -27.86 -3.13 223 221 222
-7.93 -27.95 -3.14 223 221 222
-7.93 -28.04 -3.14 223 221 222
-7.94 -28.12 -3.13 223 221 222
-7.95 -28.21 -3.12 223 221 222
-7.95 -28.29 -3.12 223 221 222
-7.95 -28.38 -3.11 223 221 222
-7.96 -28.46 -3.10 223 221 222
-7.96 -28.55 -3.10 224 222 223
-7.96 -28.64 -3.10 225 223 224
-7.96 -28.72 -3.10 225 223 224
-7.97 -28.81 -3.10 225 223 224
-7.96 -28.90 -3.10 225 223 224
-7.96 -28.99 -3.10 225 223 224
-7.97 -29.07 -3.09 225 223 224
-7.97 -29.17 -3.10 225 223 224
-7.96 -29.26 -3.10 225 223 224
-7.97 -29.34 -3.10 225 223 224
-7.96 -29.43 -3.10 225 223 224
-7.96 -29.52 -3.10 225 223 224
-7.96 -29.62 -3.11 226 224 225
-7.96 -29.70 -3.10 228 226 227
-7.97 -29.78 -3.09 228 226 227
-7.96 -29.88 -3.10 229 227 228
-7.97 -29.96 -3.10 229 227 228
-7.97 -30.05 -3.10 229 227 225
-7.96 -30.14 -3.10 229 227 225
-7.97 -30.22 -3.09 229 227 225
-7.98 -30.31 -3.08 229 227 225
-7.99 -30.39 -3.07 229 227 225
-7.98 -30.48 -3.08 229 227 225
-7.99 -30.57 -3.07 230 228 226
-7.97 -30.67 -3.09 230 228 226
-7.98 -30.75 -3.08 230 228 226
-7.99 -30.83 -3.07 230 228 226
-7.99 -30.92 -3.07 230 228 226
-7.99 -31.01 -3.07 230 228 226
-7.99 -31.10 -3.07 230 228 229
-7.98 -31.19 -3.08 230 228 229
-7.99 -31.28 -3.07 231 229 230
-7.99 -31.36 -3.07 232 230 231
-7.99 -31.45 -3.07 233 228 230
-7.99 -31.54 -3.07 233 228 230
-7.99 -31.62 -3.06 233 228 230
-8.00 -31.71 -3.06 233 228 230
-8.00 -31.80 -3.05 233 228 230
-8.00 -31.88 -3.05 233 228 230
-8.01 -31.96 -3.04 233 228 230
-8.01 -32.05 -3.04 233 228 230
-8.01 -32.14 -3.04 235 230 232
-8.02 -32.23 -3.03 235 230 232
-8.02 -32.31 -3.03 235 230 232
-8.02 -32.40 -3.03 237 232 234
-8.02 -32.49 -3.02 237 232 234
-8.03 -32.57 -3.02 238 233 235
-8.03 -32.66 -3.02 239 234 236
-8.03 -32.75 -3.02 239 234 236
-8.04 -32.83 -3.00 238 233 235
-8.04 -32.91 -3.00 238 233 235
-8.05 -33.00 -3.00 236 234 235
-8.06 -33.08 -2.98 236 234 235
-8.07 -33.16 -2.97 236 234 235
-8.07 -33.24 -2.97 236 234 235
-8.08 -33.33 -2.96 236 234 235
-8.09 -33.41 -2.95 236 234 235
-8.08 -33.50 -2.96 236 234 235
-8.09 -33.58 -2.95 236 234 235
-8.10 -33.66 -2.93 236 234 235
-8.10 -33.75 -2.93 236 234 235
-8.10 -33.83 -2.93 236 234 235
-8.12 -33.91 -2.90 236 234 235
-8.12 -33.99 -2.90 236 234 235
-8.14 -34.07 -2.89 236 234 235
-8.15 -34.15 -2.87 232 234 229
-8.16 -34.23 -2.86 232 234 229
-8.18 -34.30 -2.83 234 234 229
-8.21 -34.36 -2.79 234 234 229
-8.22 -34.44 -2.78 235 233 229
-8.26 -34.49 -2.73 235 233 229
-8.22 -34.62 -2.78 237 232 229
-8.25 -34.68 -2.74 237 232 229
-8.18 -34.82 -2.83 240 230 229
-8.49 -34.65 -2.45 248 238 237
-7.84 21.10 -3.38 139 130 122
-7.80 21.04 -3.43 139 130 122
-7.82 20.94 -3.41 139 130 122
-7.79 20.87 -3.44 139 130 122
-7.80 20.77 -3.43 139 130 122
-7.82 20.68 -3.42 139 130 122
-7.79 20.61 -3.45 139 130 122
-7.77 20.54 -3.47 139 130 122
-7.78 20.44 -3.47 141 132 124
-7.76 20.36 -3.48 141 132 124
-7.76 20.28 -3.49 141 132 124
-7.75 20.20 -3.50 141 132 124
-7.74 20.12 -3.51 143 134 126
-7.74 20.03 -3.51 143 134 126
-7.73 19.95 -3.52 143 134 126
-7.73 19.86 -3.53 143 134 126
-7.72 19.78 -3.54 143 134 126
-7.71 19.70 -3.55 143 134 126
-7.70 19.62 -3.56 143 134 126
-7.69 19.53 -3.57 143 134 126
-7.69 19.44 -3.57 143 134 126
-7.68 19.37 -3.59 143 134 126
-7.67 19.28 -3.59 143 134 126
-7.67 19.20 -3.60 143 134 126
-7.66 19.11 -3.61 144 135 127
-7.66 19.02 -3.61 144 135 127
-7.66 18.93 -3.61 145 136 128
-7.65 18.85 -3.62 145 136 128
-7.64 18.77 -3.64 146 137 129
-7.63 18.68 -3.64 146 137 129
-7.63 18.60 -3.65 146 137 129
-7.61 18.52 -3.67 146 137 129
-7.61 18.44 -3.68 148 139 131
-7.59 18.36 -3.69 148 139 131
-7.59 18.27 -3.70 148 139 131
-7.58 18.19 -3.72 148 139 131
-7.57 18.11 -3.72 148 139 131
-7.56 18.02 -3.73 148 139 131
-7.56 17.94 -3.74 149 140 132
-7.55 17.85 -3.74 149 140 132
-7.54 17.77 -3.76 147 141 132
-7.54 17.68 -3.76 147 141 132
-7.53 17.60 -3.77 147 141 132
-7.52 17.52 -3.78 147 141 132
-7.52 17.43 -3.78 147 141 132
-7.52 17.34 -3.79 147 141 132
-7.51 17.25 -3.79 148 142 133
-7.50 17.17 -3.81 149 143 134
-7.51 17.08 -3.80 149 143 136
-7.51 16.99 -3.80 149 143 136
-7.51 16.90 -3.80 150 144 137
-7.50 16.81 -3.81 150 144 137
-7.50 16.72 -3.81 151 145 138
-7.50 16.63 -3.81 151 145 138
-7.49 16.55 -3.82 151 145 138
-7.49 16.46 -3.82 151 145 138
-7.49 16.37 -3.83 151 145 138
-7.48 16.29 -3.84 151 145 138
-7.48 16.20 -3.83 153 147 140
-7.48 16.11 -3.84 153 147 140
-7.48 16.02 -3.83 154 148 141
-7.47 15.93 -3.84 154 148 141
-7.47 15.85 -3.85 154 148 141
-7.46 15.76 -3.86 154 148 141
-7.46 15.67 -3.85 153 147 140
-7.46 15.58 -3.86 154 148 141
-7.46 15.49 -3.86 154 148 141
-7.45 15.41 -3.87 154 148 141
-7.44 15.32 -3.88 154 148 141
-7.45 15.23 -3.88 154 148 141
-7.44 15.15 -3.89 154 148 141
-7.44 15.06 -3.89 154 148 141
-7.42 14.98 -3.90 154 148 141
-7.43 14.89 -3.90 154 148 141
-7.42 14.80 -3.91 154 148 141
-7.42 14.71 -3.91 155 149 142
-7.42 14.62 -3.91 155 149 140
-7.42 14.53 -3.91 155 149 140
-7.42 14.44 -3.91 155 149 140
-7.40 14.36 -3.93 157 151 142
-7.40 14.27 -3.93 157 153 143
-7.39 14.19 -3.95 157 153 143
-7.39 14.10 -3.95 159 155 145
-7.39 14.01 -3.95 159 155 145
-7.38 13.92 -3.96 160 156 146
-7.39 13.83 -3.95 160 156 146
-7.39 13.74 -3.95 160 156 146
-7.39 13.65 -3.95 160 156 146
-7.38 13.56 -3.96 160 156 146
-7.38 13.47 -3.96 160 156 146
-7.38 13.39 -3.97 160 156 146
-7.38 13.29 -3.96 160 156 146
-7.38 13.20 -3.96 160 156 148
-7.38 13.11 -3.97 160 156 148
-7.38 13.02 -3.97 161 157 151
-7.37 12.94 -3.97 161 157 151
-7.37 12.85 -3.97 161 157 149
-7.37 12.75 -3.97 161 157 149
-7.38 12.66 -3.96 161 157 149
-7.38 12.57 -3.96 161 157 149
-7.38 12.48 -3.96 162 158 150
-7.39 12.39 -3.95 163 159 151
-7.38 12.30 -3.96 164 160 152
-7.38 12.21 -3.96 166 162 154
-7.38 12.12 -3.96 166 162 154
-7.38 12.03 -3.97 166 162 154
-7.38 11.94 -3.97 166 162 154
-7.37 11.85 -3.97 166 162 154
-7.37 11.76 -3.97 166 162 154
-7.36 11.68 -3.98 167 163 155
-7.36 11.59 -3.99 167 163 153
-7.36 11.50 -3.98 167 163 153
-7.36 11.41 -3.98 167 163 155
-7.37 11.31 -3.98 167 163 155
-7.36 11.23 -3.99 167 163 155
-7.36 11.14 -3.99 167 163 155
-7.35 11.05 -3.99 167 163 155
-7.36 10.96 -3.99 167 163 155
-7.36 10.87 -3.99 167 163 155
-7.36 10.78 -3.99 167 163 155
-7.36 10.69 -3.99 168 164 156
-7.35 10.60 -4.00 168 164 156
-7.35 10.51 -4.00 168 164 156
-7.35 10.42 -4.00 168 164 156
-7.34 10.33 -4.00 168 164 156
-7.34 10.24 -4.00 168 164 156
-7.34 10.15 -4.01 166 165 156
-7.33 10.07 -4.02 167 166 157
-7.33 9.98 -4.02 167 166 157
-7.33 9.89 -4.02 168 167 158
-7.32 9.80 -4.03 169 168 159
-7.31 9.71 -4.04 169 168 159
-7.32 9.62 -4.03 169 168 159
-7.32 9.53 -4.03 169 168 159
-7.32 9.44 -4.03 171 170 161
-7.32 9.35 -4.03 171 170 161
-7.31 9.26 -4.05 171 170 161
-7.31 9.18 -4.05 171 170 161
-7.31 9.09 -4.05 171 170 161
-7.30 9.00 -4.06 171 170 161
-7.29 8.91 -4.07 171 170 161
-7.30 8.82 -4.06 171 170 161
-7.29 8.73 -4.07 171 172 162
-7.28 8.64 -4.08 171 172 162
-7.28 8.55 -4.08 170 171 161
-7.28 8.46 -4.08 171 172 162
-7.28 8.37 -4.08 171 172 162
-7.28 8.28 -4.08 171 172 162
-7.29 8.19 -4.08 171 172 162
-7.29 8.10 -4.07 171 172 162
-7.29 8.01 -4.07 171 172 162
-7.29 7.92 -4.07 171 172 162
-7.30 7.82 -4.07 171 172 162
-7.28 7.74 -4.08 171 172 162
-7.29 7.65 -4.07 171 172 162
-7.29 7.56 -4.08 171 172 162
-7.29 7.46 -4.07 172 173 163
-7.29 7.38 -4.08 173 174 164
-7.28 7.29 -4.08 173 174 164
-7.28 7.19 -4.08 173 174 164
-7.28 7.10 -4.08 173 174 164
-7.28 7.01 -4.08 173 174 164
-7.28 6.93 -4.08 173 174 164
-7.28 6.84 -4.09 173 174 164
-7.28 6.74 -4.08 173 174 164
-7.28 6.65 -4.09 173 174 164
-7.27 6.57 -4.09 173 174 164
-7.27 6.48 -4.10 173 174 164
-7.27 6.39 -4.10 173 174 166
-7.26 6.30 -4.11 173 174 166
-7.27 6.21 -4.10 173 174 166
-7.27 6.12 -4.10 173 174 166
-7.27 6.03 -4.10 173 174 166
-7.27 5.93 -4.10 173 174 166
-7.27 5.84 -4.10 173 174 166
-7.27 5.75 -4.10 173 174 166
-7.27 5.66 -4.10 174 175 165
-7.26 5.57 -4.11 174 175 165
-7.25 5.49 -4.12 174 175 165
-7.26 5.39 -4.11 174 175 165
-7.26 5.30 -4.11 174 175 165
-7.26 5.21 -4.11 174 175 165
-7.26 5.12 -4.11 174 175 165
-7.26 5.03 -4.11 174 175 165
-7.26 4.94 -4.11 173 174 164
-7.26 4.85 -4.11 173 174 164
-7.25 4.76 -4.12 173 174 164
-7.25 4.67 -4.12 173 174 164
-7.26 4.58 -4.11 173 174 164
-7.26 4.49 -4.11 173 174 164
-7.27 4.39 -4.10 173 174 164
-7.26 4.31 -4.11 173 174 164
-7.27 4.21 -4.10 173 174 164
-7.27 4.12 -4.09 173 174 164
-7.26 4.03 -4.11 172 172 167
-7.28 3.94 -4.09 172 172 167
-7.28 3.85 -4.09 172 172 167
-7.28 3.75 -4.08 172 172 167
-7.28 3.66 -4.08 172 172 167
-7.28 3.57 -4.08 172 172 167
-7.28 3.48 -4.08 172 172 167
-7.28 3.39 -4.08 172 172 167
-7.28 3.30 -4.08 173 173 168
-7.28 3.21 -4.08 173 173 168
-7.28 3.12 -4.08 173 173 168
-7.28 3.03 -4.09 173 173 168
-7.28 2.94 -4.09 173 173 168
-7.27 2.85 -4.09 173 173 168
-7.27 2.76 -4.09 172 173 165
-7.28 2.67 -4.08 172 173 165
-7.28 2.58 -4.08 172 173 165
-7.28 2.49 -4.09 172 173 165
-7.28 2.40 -4.08 172 173 165
-7.28 2.31 -4.08 172 173 165
-7.28 2.21 -4.08 172 173 165
-7.28 2.12 -4.08 172 173 165
-7.28 2.03 -4.08 172 173 165
-7.29 1.94 -4.07 172 173 165
-7.28 1.85 -4.08 172 173 165
-7.28 1.76 -4.08 172 173 165
-7.28 1.67 -4.08 172 173 165
-7.28 1.58 -4.08 172 173 165
-7.29 1.49 -4.08 172 173 165
-7.29 1.40 -4.07 172 173 165
-7.28 1.31 -4.08 172 173 165
-7.29 1.22 -4.08 172 173 165
-7.28 1.13 -4.08 172 173 165
-7.29 1.04 -4.07 172 173 165
-7.29 0.95 -4.08 172 173 165
-7.29 0.85 -4.07 172 173 165
-7.29 0.76 -4.07 172 173 165
-7.28 0.67 -4.08 172 173 165
-7.29 0.58 -4.07 173 174 166
-7.28 0.50 -4.09 173 174 166
-7.28 0.40 -4.08 173 174 166
-7.28 0.31 -4.08 173 174 166
-7.29 0.22 -4.08 173 174 166
-7.28 0.13 -4.08 173 174 166
-7.28 0.04 -4.08 173 174 166
-7.29 -0.05 -4.07 173 174 166
-7.29 -0.14 -4.07 168 173 167
-7.29 -0.23 -4.07 168 173 167
-7.29 -0.32 -4.07 168 173 167
-7.29 -0.41 -4.07 168 173 167
-7.29 -0.50 -4.07 168 173 167
-7.29 -0.59 -4.07 168 173 167
-7.29 -0.69 -4.07 168 173 167
-7.29 -0.78 -4.07 168 173 167
-7.29 -0.87 -4.07 169 174 168
-7.30 -0.96 -4.07 169 174 168
-7.28 -1.05 -4.08 169 174 168
-7.30 -1.14 -4.07 169 174 168
-7.29 -1.23 -4.07 169 174 168
-7.29 -1.32 -4.07 169 174 168
-7.29 -1.41 -4.07 169 174 168
-7.28 -1.50 -4.08 169 174 168
-7.29 -1.59 -4.07 171 173 168
-7.28 -1.68 -4.09 171 173 168
-7.28 -1.77 -4.09 170 175 169
-7.28 -1.86 -4.09 170 175 169
-7.28 -1.95 -4.09 170 175 169
-7.27 -2.04 -4.09 170 175 169
-7.27 -2.13 -4.10 170 175 169
-7.27 -2.22 -4.10 170 175 169
-7.26 -2.31 -4.11 170 175 169
-7.27 -2.40 -4.10 171 176 170
-7.27 -2.49 -4.10 172 177 171
-7.27 -2.58 -4.10 172 177 171
-7.27 -2.67 -4.09 172 177 171
-7.27 -2.76 -4.10 172 177 171
-7.27 -2.86 -4.10 172 177 171
-7.27 -2.95 -4.09 172 177 171
-7.27 -3.04 -4.09 171 178 171
-7.27 -3.13 -4.10 171 178 171
-7.26 -3.22 -4.11 171 178 171
-7.26 -3.31 -4.11 171 178 171
-7.27 -3.40 -4.10 171 181 175
-7.27 -3.49 -4.10 171 181 175
-7.26 -3.58 -4.11 173 180 175
-7.25 -3.67 -4.12 173 180 175
-7.25 -3.76 -4.12 174 179 178
-7.26 -3.85 -4.11 174 179 178
-7.25 -3.94 -4.12 174 179 178
-7.25 -4.03 -4.12 174 179 178
-7.24 -4.12 -4.13 174 179 178
-7.24 -4.21 -4.13 174 179 178
-7.25 -4.30 -4.13 174 179 178
-7.24 -4.39 -4.13 175 180 179
-7.24 -4.48 -4.14 174 179 178
-7.23 -4.57 -4.14 175 180 179
-7.24 -4.66 -4.14 176 183 178
-7.23 -4.75 -4.15 176 183 178
-7.24 -4.85 -4.14 176 183 178
-7.24 -4.94 -4.14 176 183 178
-7.23 -5.03 -4.14 176 183 178
-7.24 -5.12 -4.14 176 183 178
-7.23 -5.21 -4.14 176 183 178
-7.24 -5.30 -4.14 175 182 177
-7.24 -5.39 -4.13 175 182 177
-7.23 -5.48 -4.14 175 182 177
-7.24 -5.57 -4.13 175 182 177
-7.24 -5.66 -4.14 175 182 177
-7.24 -5.75 -4.14 173 183 180
-7.24 -5.84 -4.14 174 184 181
-7.23 -5.93 -4.14 176 183 181
-7.23 -6.02 -4.14 176 183 181
-7.23 -6.12 -4.14 176 183 181
-7.24 -6.21 -4.13 176 183 181
-7.23 -6.30 -4.15 176 183 181
-7.23 -6.39 -4.14 176 183 181
-7.23 -6.48 -4.15 177 184 182
-7.22 -6.57 -4.16 177 184 182
-7.22 -6.66 -4.16 177 184 182
-7.21 -6.75 -4.18 177 184 182
-7.20 -6.84 -4.18 177 184 182
-7.20 -6.93 -4.19 177 184 182
-7.19 -7.02 -4.19 177 184 182
-7.19 -7.11 -4.20 177 184 182
-7.18 -7.20 -4.21 178 185 183
-7.17 -7.29 -4.22 180 187 185
-7.16 -7.39 -4.23 181 186 180
-7.16 -7.48 -4.24 181 186 180
-7.15 -7.57 -4.25 180 187 180
-7.15 -7.66 -4.25 180 187 180
-7.14 -7.75 -4.26 180 187 180
-7.12 -7.84 -4.28 180 187 180
-7.12 -7.93 -4.28 180 187 180
-7.12 -8.02 -4.28 181 188 181
-7.12 -8.11 -4.29 181 188 181
-7.13 -8.20 -4.28 178 185 178
-7.12 -8.30 -4.29 180 187 180
-7.13 -8.39 -4.27 180 187 180
-7.13 -8.48 -4.28 181 188 181
-7.13 -8.57 -4.27 180 187 180
-7.15 -8.66 -4.25 179 184 178
-7.15 -8.75 -4.25 183 188 182
-7.14 -8.84 -4.26 175 182 180
-7.08 -8.93 -4.33 173 180 178
-7.37 -9.01 -3.98 211 218 216
-8.00 -9.07 -3.18 227 234 232
-8.12 -9.15 -3.04 239 246 244
-8.10 -9.24 -3.06 245 252 250
-8.07 -9.33 -3.09 240 247 245
-8.05 -9.42 -3.13 244 251 249
-8.07 -9.51 -3.09 248 255 253
-8.09 -9.59 -3.07 245 252 250
-8.12 -9.68 -3.04 246 253 251
-8.10 -9.77 -3.06 246 253 251
-8.01 -9.86 -3.17 231 238 236
-7.80 -9.97 -3.43 204 211 209
-7.51 -10.08 -3.80 183 190 188
-7.30 -10.19 -4.05 176 183 181
-7.12 -10.30 -4.28 173 180 178
-7.11 -10.39 -4.29 184 191 189
-7.13 -10.48 -4.27 194 201 199
-7.15 -10.57 -4.24 191 198 196
-7.18 -10.66 -4.21 185 192 190
-7.18 -10.75 -4.21 185 192 190
-7.18 -10.84 -4.21 188 195 193
-7.19 -10.93 -4.20 187 194 192
-7.19 -11.02 -4.20 189 196 194
-7.17 -11.11 -4.22 189 196 194
-7.17 -11.20 -4.22 189 196 194
-7.17 -11.29 -4.22 188 195 193
-7.16 -11.38 -4.23 188 195 193
-7.15 -11.48 -4.25 188 195 193
-7.15 -11.57 -4.25 188 195 193
-7.14 -11.66 -4.26 188 195 193
-7.13 -11.75 -4.28 187 194 192
-7.13 -11.84 -4.28 187 194 192
-7.12 -11.94 -4.28 188 195 193
-7.11 -12.03 -4.29 188 195 193
-7.11 -12.12 -4.30 189 196 194
-7.11 -12.21 -4.30 189 196 194
-7.12 -12.30 -4.28 190 197 195
-7.10 -12.39 -4.30 191 198 196
-7.10 -12.49 -4.31 191 198 196
-7.10 -12.58 -4.31 191 198 196
-7.10 -12.67 -4.31 191 198 196
-7.10 -12.76 -4.31 191 198 196
-7.10 -12.85 -4.31 191 198 196
-7.10 -12.94 -4.31 191 198 196
-7.09 -13.03 -4.32 189 199 193
-7.09 -13.13 -4.33 189 199 193
-7.09 -13.22 -4.33 189 199 193
-7.08 -13.31 -4.34 189 199 193
-7.07 -13.40 -4.35 190 200 197
-7.06 -13.49 -4.36 190 200 197
-7.05 -13.59 -4.37 192 197 193
-7.04 -13.68 -4.39 190 195 191
-7.03 -13.77 -4.39 188 193 192
-7.03 -13.87 -4.40 186 191 190
-7.02 -13.96 -4.41 182 186 190
-7.02 -14.05 -4.41 172 176 180
-7.02 -14.14 -4.41 163 168 164
-7.04 -14.23 -4.39 159 164 160
-7.08 -14.31 -4.33 179 188 190
-7.13 -14.39 -4.27 89 98 100
-7.24 -14.46 -4.13 10 15 41
-7.31 -14.53 -4.05 40 45 71
-7.31 -14.62 -4.04 37 46 96
-7.32 -14.71 -4.04 45 54 104
-7.32 -14.80 -4.03 43 53 116
-7.32 -14.89 -4.03 40 50 113
-7.33 -14.98 -4.02 44 53 121
-7.32 -15.08 -4.04 46 55 123
-7.30 -15.17 -4.05 43 54 114
-7.29 -15.26 -4.07 40 51 111
-7.30 -15.35 -4.06 45 55 100
-7.32 -15.44 -4.03 33 43 88
-7.35 -15.52 -4.00 42 53 66
-7.39 -15.60 -3.95 38 49 62
-7.43 -15.68 -3.90 40 52 45
-7.48 -15.76 -3.83 54 66 59
-7.54 -15.83 -3.76 97 103 104
-7.59 -15.91 -3.70 130 136 137
-7.62 -15.99 -3.66 159 162 154
-7.66 -16.07 -3.61 173 176 168
-7.69 -16.15 -3.57 183 184 176
-7.74 -16.23 -3.51 183 184 176
-7.79 -16.30 -3.45 181 180 173
-7.83 -16.38 -3.40 179 178 171
-7.88 -16.45 -3.34 175 174 163
-7.92 -16.53 -3.29 172 171 160
-7.96 -16.61 -3.24 171 170 159
-8.01 -16.68 -3.18 171 170 159
-8.05 -16.76 -3.12 174 173 162
-8.10 -16.83 -3.06 175 174 163
-8.14 -16.91 -3.01 176 172 162
-8.18 -16.98 -2.95 176 172 162
-8.22 -17.06 -2.91 177 173 163
-8.26 -17.14 -2.86 176 172 162
-8.29 -17.22 -2.83 173 175 160
-8.32 -17.29 -2.78 174 176 161
-8.36 -17.37 -2.74 176 177 165
-8.39 -17.45 -2.70 178 179 167
-8.42 -17.52 -2.66 176 177 165
-8.46 -17.60 -2.61 176 177 165
-8.49 -17.68 -2.57 176 177 167
-8.52 -17.75 -2.53 176 177 167
-8.55 -17.83 -2.50 173 174 164
-8.58 -17.91 -2.46 172 173 163
-8.60 -17.99 -2.43 171 172 164
-8.62 -18.07 -2.41 168 169 161
-8.65 -18.14 -2.37 166 167 159
-8.69 -18.22 -2.33 164 165 157
-8.72 -18.29 -2.29 161 162 154
-8.75 -18.37 -2.25 160 161 153
-8.77 -18.45 -2.22 159 160 150
-8.79 -18.53 -2.19 157 158 148
-8.81 -18.61 -2.17 153 154 146
-8.84 -18.68 -2.14 151 152 144
-8.86 -18.76 -2.11 149 150 142
-8.88 -18.84 -2.09 150 151 143
-8.89 -18.92 -2.07 152 152 147
-8.90 -19.00 -2.06 153 153 148
-8.92 -19.08 -2.04 157 157 154
-8.94 -19.16 -2.01 159 159 156
-8.96 -19.24 -1.98 152 152 149
-8.99 -19.31 -1.95 149 149 146
-9.02 -19.39 -1.91 150 149 152
-9.05 -19.46 -1.87 142 141 144
-9.08 -19.53 -1.83 117 116 119
-9.11 -19.61 -1.80 83 82 85
-9.12 -19.69 -1.78 44 46 41
-9.15 -19.76 -1.75 35 37 32
-9.18 -19.84 -1.71 27 29 24
-9.23 -19.90 -1.66 29 31 26
-9.27 -19.97 -1.60 39 41 36
-9.30 -20.04 -1.56 48 50 45
-9.34 -20.11 -1.52 48 50 45
-9.37 -20.18 -1.47 44 46 41
-9.41 -20.25 -1.43 37 39 34
-9.45 -20.32 -1.37 35 37 32
-9.51 -20.38 -1.30 27 29 24
-9.56 -20.44 -1.24 21 23 18
-9.61 -20.51 -1.18 21 23 18
-9.66 -20.56 -1.11 21 23 18
-9.72 -20.62 -1.04 21 23 18
-9.78 -20.68 -0.96 24 26 21
-9.82 -20.75 -0.92 36 26 27
-9.86 -20.81 -0.87 10 0 1
-9.85 -20.90 -0.87 67 58 31
-9.69 -21.06 -1.08 255 252 225
-9.09 -21.41 -1.83 246 235 191
-8.46 -21.79 -2.62 235 224 180
-7.97 -22.10 -3.23 232 222 184
-7.65 -22.34 -3.63 232 222 184
-7.73 -22.39 -3.52 221 214 198
-7.88 -22.41 -3.34 219 212 196
-7.91 -22.48 -3.29 218 214 208
-7.92 -22.57 -3.29 219 215 209
-7.93 -22.65 -3.28 209 207 203
-7.93 -22.74 -3.27 219 217 213
-7.92 -22.83 -3.28 219 218 211
-7.92 -22.93 -3.29 218 217 210
-7.91 -23.02 -3.30 216 218 215
-7.92 -23.10 -3.29 216 218 215
-7.92 -23.19 -3.29 216 218 215
-7.93 -23.28 -3.28 216 218 215
-7.93 -23.36 -3.27 216 218 215
-7.94 -23.45 -3.26 216 218 215
-7.95 -23.53 -3.24 216 218 215
-7.97 -23.61 -3.23 216 218 215
-7.97 -23.70 -3.22 218 220 217
-7.98 -23.78 -3.21 218 220 217
-7.98 -23.87 -3.21 218 220 217
-7.99 -23.96 -3.20 218 220 217
-7.99 -24.04 -3.20 218 220 217
-7.99 -24.13 -3.20 218 220 217
-7.99 -24.22 -3.19 218 220 217
-7.99 -24.31 -3.20 218 220 217
-7.99 -24.40 -3.20 218 220 217
-7.99 -24.49 -3.20 218 220 217
-7.99 -24.57 -3.20 218 220 217
-7.99 -24.66 -3.19 218 220 217
-8.01 -24.74 -3.18 219 221 218
-8.00 -24.83 -3.18 219 221 218
-8.01 -24.92 -3.17 219 221 218
-8.02 -25.00 -3.16 219 221 218
-8.02 -25.09 -3.16 219 221 218
-8.02 -25.17 -3.16 219 221 218
-8.03 -25.26 -3.15 219 221 218
-8.03 -25.35 -3.14 219 221 218
-8.04 -25.43 -3.13 219 221 218
-8.05 -25.51 -3.13 219 221 218
-8.05 -25.60 -3.12 219 221 218
-8.06 -25.68 -3.11 219 221 218
-8.06 -25.77 -3.11 220 222 219
-8.07 -25.86 -3.10 220 222 219
-8.07 -25.95 -3.10 220 222 219
-8.07 -26.03 -3.10 220 222 219
-8.07 -26.12 -3.09 220 222 219
-8.08 -26.21 -3.09 220 222 219
-8.08 -26.29 -3.09 220 222 219
-8.08 -26.38 -3.09 220 222 219
-8.08 -26.47 -3.09 220 222 219
-8.07 -26.56 -3.09 220 222 219
-8.08 -26.64 -3.08 220 222 219
-8.08 -26.73 -3.08 220 222 219
-8.08 -26.82 -3.09 220 222 219
-8.08 -26.91 -3.08 220 222 219
-8.08 -27.00 -3.08 220 222 219
-8.08 -27.08 -3.08 220 222 219
-8.08 -27.17 -3.08 223 221 222
-8.08 -27.26 -3.08 223 221 222
-8.08 -27.35 -3.08 223 221 222
-8.09 -27.43 -3.07 223 221 222
-8.10 -27.52 -3.06 223 221 222
-8.10 -27.60 -3.06 223 221 222
-8.10 -27.69 -3.06 223 221 222
-8.10 -27.78 -3.06 223 221 222
-8.10 -27.87 -3.06 223 221 222
-8.11 -27.95 -3.05 223 221 222
-8.10 -28.04 -3.06 223 221 222
-8.10 -28.13 -3.06 223 221 222
-8.11 -28.22 -3.05 223 221 222
-8.11 -28.31 -3.05 223 221 222
-8.11 -28.39 -3.04 223 221 222
-8.12 -28.47 -3.04 224 222 223
-8.12 -28.56 -3.03 225 223 224
-8.12 -28.65 -3.03 225 223 224
-8.13 -28.73 -3.03 225 223 224
-8.13 -28.82 -3.03 225 223 224
-8.13 -28.91 -3.03 225 223 224
-8.13 -29.00 -3.03 225 223 224
-8.13 -29.08 -3.02 225 223 224
-8.13 -29.17 -3.02 225 223 224
-8.13 -29.26 -3.03 224 222 223
-8.13 -29.35 -3.03 225 223 224
-8.13 -29.44 -3.03 225 223 224
-8.12 -29.53 -3.03 226 224 225
-8.13 -29.62 -3.03 226 224 225
-8.13 -29.70 -3.02 228 226 227
-8.13 -29.79 -3.03 228 226 227
-8.13 -29.88 -3.02 228 226 227
-8.13 -29.97 -3.02 228 226 224
-8.13 -30.05 -3.02 228 226 224
-8.13 -30.14 -3.02 228 226 224
-8.14 -30.23 -3.01 228 226 224
-8.14 -30.31 -3.01 228 226 224
-8.15 -30.40 -3.00 228 226 224
-8.15 -30.48 -3.00 230 228 226
-8.15 -30.57 -3.00 230 228 226
-8.15 -30.66 -3.00 230 228 226
-8.15 -30.75 -3.00 230 228 226
-8.15 -30.84 -3.00 230 228 226
-8.14 -30.93 -3.01 230 228 226
-8.14 -31.01 -3.01 230 228 226
-8.14 -31.10 -3.01 230 228 226
-8.14 -31.19 -3.01 231 229 230
-8.15 -31.27 -3.00 231 229 230
-8.15 -31.36 -3.00 233 228 230
-8.15 -31.45 -3.00 233 228 230
-8.15 -31.54 -3.00 233 228 230
-8.15 -31.62 -2.99 233 228 230
