ply
format ascii 1.0
element vertex 1721
property float x
property float y
property float z
property uchar red
property uchar green
property uchar blue
end_header
8.05 10.41 28.30 155 171 84
10.47 11.59 27.80 136 147 91
10.01 11.33 27.88 183 194 138
9.86 11.18 27.90 179 194 112
7.28 10.13 28.35 170 185 103
17.28 14.18 26.51 119 130 74
9.59 11.19 27.87 181 192 136
10.37 11.39 27.73 174 189 107
8.17 10.48 28.12 172 187 105
9.82 11.01 27.83 141 138 123
10.05 11.38 27.70 168 177 133
10.19 11.34 27.68 181 193 126
9.50 11.00 27.80 183 195 128
7.35 10.11 28.18 173 173 143
11.69 12.01 27.32 140 149 105
9.80 11.21 27.66 177 189 122
9.93 11.17 27.64 191 203 136
8.04 10.38 27.98 179 179 149
14.35 12.63 26.85 133 133 103
18.49 14.59 26.01 101 108 76
8.86 10.88 27.75 158 168 117
10.01 11.22 27.54 183 193 142
9.09 10.79 27.71 186 186 141
8.47 10.47 27.82 146 146 101
9.32 11.06 27.58 148 158 107
8.79 10.78 27.68 173 183 132
9.46 10.94 27.56 179 179 134
6.96 9.93 28.01 157 157 112
13.18 12.13 26.88 87 92 56
12.21 12.17 26.97 145 152 116
7.89 10.46 27.76 158 165 129
8.96 10.77 27.56 182 185 121
7.39 10.10 27.85 177 180 116
8.07 10.27 27.73 137 143 93
7.85 10.46 27.69 181 188 152
8.35 10.56 27.59 196 199 135
8.03 10.35 27.65 204 207 143
5.98 9.51 28.03 175 181 131
10.61 11.51 27.09 169 174 154
7.70 10.33 27.63 192 194 119
8.62 10.59 27.46 196 198 123
6.76 9.81 27.81 175 179 121
8.57 10.39 27.47 155 159 101
14.75 13.08 26.22 120 125 105
6.95 10.07 27.69 185 187 112
8.52 10.57 27.40 194 196 121
7.95 10.27 27.50 175 179 121
6.51 9.65 27.78 125 129 71
6.83 10.04 27.64 181 184 106
8.18 10.46 27.38 202 205 127
8.38 10.45 27.34 184 189 124
5.89 9.44 27.82 140 145 80
15.51 12.89 25.98 67 68 31
10.09 11.27 26.93 169 172 94
7.50 10.22 27.43 193 196 118
8.45 10.49 27.24 182 187 122
6.62 9.72 27.60 146 151 86
6.30 9.52 27.66 100 101 64
13.57 12.59 26.17 141 145 76
6.61 9.91 27.52 177 181 112
8.20 10.41 27.21 197 203 135
7.50 10.07 27.35 173 179 111
5.44 9.22 27.75 135 135 92
6.55 9.90 27.45 174 178 109
8.45 10.52 27.08 192 198 130
8.00 10.27 27.17 181 187 119
5.53 9.27 27.65 154 154 111
13.54 12.12 26.08 79 79 36
9.64 11.07 26.76 156 151 110
7.93 10.34 27.10 188 185 120
8.64 10.52 26.96 169 166 101
7.20 9.90 27.24 170 164 100
5.78 9.30 27.52 125 119 55
12.65 12.21 26.07 139 134 93
6.78 9.93 27.25 182 179 114
7.70 10.19 27.06 179 176 111
7.82 10.15 27.04 198 192 128
5.65 9.26 27.47 149 143 79
16.02 13.48 25.30 114 109 77
5.22 9.36 27.48 168 163 108
6.97 9.93 27.13 181 176 121
7.32 9.98 27.06 201 194 135
5.96 9.39 27.33 168 161 102
13.79 12.17 25.75 89 81 47
5.90 9.63 27.26 170 165 110
6.63 9.82 27.12 188 183 128
7.40 10.02 26.96 189 182 123
6.51 9.61 27.14 176 169 110
7.64 9.94 26.91 117 109 75
9.45 10.97 26.46 182 178 132
7.32 10.09 26.89 190 186 140
7.77 10.17 26.80 179 172 115
7.18 9.87 26.92 177 170 113
5.70 9.24 27.22 174 167 126
11.88 11.90 25.87 178 174 128
6.22 9.70 27.04 187 183 137
8.04 10.29 26.66 185 178 121
7.33 9.94 26.81 185 178 121
5.62 9.23 27.16 183 176 135
16.18 12.99 24.98 173 166 125
4.47 9.07 27.32 172 166 130
6.69 9.80 26.86 189 182 121
7.32 9.95 26.73 181 174 113
6.25 9.48 26.95 160 155 102
8.91 10.36 26.40 147 142 89
4.86 9.23 27.16 154 148 112
6.07 9.59 26.91 191 184 123
6.71 9.74 26.77 183 176 115
7.03 9.78 26.71 161 156 103
6.17 9.38 26.89 151 146 93
5.59 9.51 26.93 139 137 106
5.52 9.40 26.95 189 183 117
6.72 9.76 26.69 193 187 121
7.04 9.80 26.62 176 171 102
5.91 9.30 26.86 165 160 91
19.68 14.22 23.94 75 70 31
15.35 13.16 24.77 114 112 81
5.34 9.35 26.90 179 173 107
6.73 9.78 26.61 192 186 120
6.99 9.79 26.55 184 179 110
6.07 9.37 26.75 174 169 100
11.34 11.20 25.62 100 95 56
6.26 9.71 26.63 168 164 104
6.87 9.85 26.49 188 184 124
7.15 9.87 26.43 192 186 111
6.60 9.58 26.55 184 178 103
7.20 9.72 26.42 130 125 70
7.85 10.32 26.20 158 154 94
6.32 9.66 26.53 187 183 123
7.38 9.97 26.30 194 188 113
6.92 9.71 26.40 192 186 111
6.09 9.33 26.58 149 144 89
16.12 13.41 24.30 140 133 90
5.62 9.42 26.60 183 176 133
7.21 9.92 26.26 191 185 108
7.20 9.83 26.26 195 189 112
5.46 9.11 26.64 163 161 89
13.19 11.83 24.95 98 96 24
6.06 9.59 26.43 175 168 125
6.71 9.75 26.28 187 181 104
7.03 9.79 26.21 197 191 114
6.40 9.47 26.35 176 174 102
7.88 9.92 26.03 123 121 49
6.40 9.74 26.27 163 151 123
6.00 9.51 26.36 184 178 103
6.55 9.62 26.24 195 189 114
6.55 9.54 26.24 185 182 101
6.08 9.28 26.34 146 143 62
9.99 11.09 25.38 153 141 113
5.61 9.38 26.36 184 178 103
6.57 9.65 26.15 194 188 113
6.75 9.63 26.11 187 184 103
5.40 9.05 26.41 158 155 74
6.38 9.68 26.11 175 167 104
6.90 9.78 25.99 176 168 105
7.31 9.85 25.90 187 179 96
5.51 9.11 26.31 171 163 80
8.69 10.18 25.59 128 120 66
7.03 9.93 25.88 168 160 97
6.24 9.56 26.06 180 172 109
6.89 9.71 25.91 186 178 95
5.82 9.23 26.16 174 166 83
4.82 8.79 26.38 142 134 80
7.87 10.26 25.60 154 145 89
5.19 9.19 26.22 186 177 121
6.16 9.46 26.00 182 174 91
5.48 9.12 26.15 175 167 84
3.75 8.42 26.55 160 153 94
17.42 13.82 23.31 133 124 68
5.35 9.26 26.10 188 179 123
6.35 9.54 25.87 180 172 89
5.86 9.28 25.98 177 169 86
3.60 8.38 26.51 175 168 109
13.44 11.85 24.23 104 97 38
7.14 9.94 25.60 184 175 130
6.00 9.43 25.87 178 173 91
5.94 9.33 25.88 177 172 90
4.21 8.61 26.29 184 178 112
5.59 9.03 25.97 127 121 55
6.28 9.63 25.72 176 167 122
4.59 8.93 26.12 178 173 91
5.00 9.00 26.02 182 177 95
4.63 8.78 26.11 186 180 114
4.23 8.55 26.20 146 140 74
13.82 12.44 23.85 163 154 123
4.90 9.06 25.96 179 176 95
5.45 9.18 25.84 183 180 99
5.28 9.03 25.88 182 178 102
3.46 8.29 26.31 161 157 81
3.88 8.70 26.13 181 178 97
4.81 8.96 25.91 183 180 99
5.26 9.04 25.80 176 172 96
3.41 8.28 26.24 171 167 91
8.62 10.08 25.00 118 113 74
6.06 9.51 25.53 174 173 96
5.20 9.12 25.73 184 183 106
5.61 9.18 25.63 185 185 103
4.19 8.58 25.97 180 180 98
5.22 8.87 25.73 138 135 82
11.67 11.60 24.09 174 173 96
5.13 9.10 25.67 185 184 107
5.37 9.11 25.61 184 184 102
4.36 8.66 25.86 177 177 95
3.01 8.09 26.18 143 140 87
12.31 11.85 23.84 167 165 93
3.92 8.68 25.88 181 179 107
4.62 8.85 25.71 180 180 96
4.36 8.67 25.78 174 174 90
2.69 7.99 26.18 152 149 84
12.43 11.41 23.81 89 86 21
15.90 13.20 22.86 154 152 80
3.61 8.58 25.88 173 171 99
5.56 9.21 25.40 177 177 93
4.87 8.87 25.57 175 175 91
3.23 8.20 25.97 156 153 88
7.79 9.76 24.85 117 114 49
3.16 8.42 25.91 163 162 95
4.64 8.89 25.54 180 180 96
4.93 8.91 25.47 180 180 96
4.04 8.50 25.69 159 157 83
3.98 8.40 25.71 134 132 58
5.77 9.40 25.18 156 155 88
4.63 8.90 25.47 183 183 99
4.68 8.83 25.45 183 183 99
4.48 8.68 25.50 160 158 84
2.63 7.93 25.96 144 142 68
19.27 13.83 21.82 87 79 45
7.72 10.13 24.61 145 143 81
3.44 8.48 25.68 181 181 97
3.75 8.51 25.61 182 182 98
4.11 8.56 25.52 165 164 85
3.09 8.11 25.77 151 150 71
13.02 11.60 23.28 107 100 61
12.67 11.98 23.27 136 134 72
3.20 8.40 25.67 176 176 92
4.18 8.68 25.42 180 180 96
4.20 8.61 25.41 170 169 90
3.26 8.18 25.65 156 155 76
6.85 9.40 24.74 124 117 78
4.27 8.81 25.32 176 178 103
4.39 8.77 25.28 169 171 96
4.86 8.86 25.16 168 171 82
4.14 8.52 25.35 168 171 82
3.45 8.19 25.52 133 132 67
5.46 9.26 24.93 174 176 101
3.49 8.46 25.43 159 161 86
4.12 8.61 25.27 170 173 84
3.94 8.46 25.32 180 183 94
2.41 7.83 25.71 145 144 79
18.58 13.55 21.56 94 93 28
7.51 10.03 24.31 162 167 106
2.79 8.21 25.54 155 160 99
3.59 8.43 25.33 172 177 85
3.52 8.32 25.35 180 185 93
2.63 7.92 25.58 153 156 67
12.51 11.39 23.02 110 113 24
14.83 12.75 22.32 154 159 98
2.67 8.19 25.49 156 161 100
4.08 8.62 25.12 171 176 84
4.07 8.54 25.12 177 182 90
3.23 8.15 25.34 164 167 78
6.42 9.22 24.51 125 128 39
3.43 8.48 25.21 160 162 107
3.54 8.44 25.18 170 173 82
3.65 8.40 25.15 175 178 87
3.62 8.31 25.16 172 171 78
3.29 8.11 25.25 144 143 50
4.40 8.85 24.88 163 165 110
3.66 8.50 25.07 173 176 85
3.73 8.44 25.05 173 176 85
3.95 8.44 24.99 172 171 78
3.13 8.06 25.21 157 156 63
9.90 10.89 23.33 159 156 114
3.45 8.44 25.05 181 181 95
3.76 8.47 24.96 177 177 91
4.06 8.49 24.89 177 174 78
3.11 8.07 25.14 169 166 70
14.77 12.17 22.04 98 104 54
13.47 12.22 22.28 144 141 99
2.77 8.20 25.15 179 179 93
3.63 8.43 24.92 179 179 93
4.00 8.49 24.82 178 175 79
3.37 8.18 24.99 173 170 74
7.25 9.49 23.95 113 119 69
3.04 8.31 25.00 180 179 102
3.53 8.41 24.86 174 173 96
3.98 8.50 24.74 171 171 71
3.73 8.32 24.81 171 171 71
4.86 8.65 24.51 129 137 73
4.13 8.73 24.62 180 179 102
3.38 8.37 24.82 176 175 98
3.59 8.37 24.77 172 172 72
3.55 8.27 24.78 175 175 75
3.02 8.00 24.92 141 149 85
3.96 8.68 24.59 177 176 111
3.26 8.34 24.78 175 174 109
3.52 8.36 24.71 172 171 74
3.48 8.26 24.72 177 176 79
2.56 7.85 24.97 149 153 84
15.79 12.50 21.35 90 94 25
7.49 9.99 23.53 172 171 106
2.66 8.14 24.86 180 179 114
3.41 8.33 24.66 175 174 77
3.58 8.31 24.61 177 176 79
2.97 8.01 24.78 156 160 91
9.93 10.42 22.86 119 123 54
16.81 13.44 20.86 156 153 98
3.24 8.37 24.62 177 174 119
3.53 8.39 24.54 171 170 77
3.33 8.24 24.60 176 175 82
3.19 8.10 24.64 164 166 95
3.72 8.22 24.49 137 139 68
3.28 8.40 24.53 172 169 114
3.65 8.45 24.43 168 167 74
3.21 8.21 24.55 169 168 75
3.36 8.18 24.51 167 169 98
2.81 7.90 24.66 148 150 79
2.06 7.96 24.79 171 168 115
2.62 8.09 24.63 171 169 81
2.66 8.02 24.62 164 162 74
3.24 8.15 24.46 166 168 86
2.61 7.85 24.64 160 162 80
15.29 12.30 21.08 108 105 61
4.89 9.02 23.91 173 170 117
3.27 8.34 24.37 174 172 84
2.87 8.11 24.48 160 158 70
3.14 8.13 24.41 164 166 84
2.98 7.99 24.45 165 167 85
9.28 10.17 22.67 121 118 74
8.60 10.39 22.77 143 139 104
3.62 8.48 24.19 168 166 92
3.66 8.42 24.18 173 171 97
3.78 8.38 24.14 167 169 75
3.57 8.22 24.20 167 169 75
3.85 8.24 24.12 130 127 74
9.93 10.90 22.30 143 139 104
2.62 8.13 24.39 174 172 98
3.14 8.24 24.25 176 174 100
3.35 8.24 24.18 168 170 76
3.06 8.05 24.27 170 172 78
1.15 7.28 24.82 135 132 79
18.22 13.29 19.93 61 58 5
17.37 13.66 20.06 134 129 97
1.40 7.70 24.66 171 171 99
2.07 7.86 24.47 170 170 98
2.35 7.89 24.39 168 170 76
2.54 7.88 24.34 170 172 78
1.26 7.34 24.71 140 138 78
11.73 11.00 21.69 73 71 11
3.26 8.40 24.05 161 161 89
2.78 8.14 24.19 161 161 89
2.59 7.99 24.24 167 169 75
2.84 8.00 24.17 170 172 78
2.15 7.67 24.37 145 143 83
6.15 9.02 23.21 95 93 33
4.17 8.74 23.70 153 152 85
3.74 8.50 23.83 163 162 95
3.63 8.38 23.86 168 170 76
2.92 8.04 24.07 166 168 74
2.42 7.78 24.21 151 151 81
2.26 7.65 24.26 119 119 49
5.34 9.19 23.27 149 148 81
2.25 7.97 24.18 173 172 105
3.06 8.19 23.94 169 171 77
2.93 8.06 23.98 162 164 70
2.84 7.95 24.01 156 156 86
1.75 7.48 24.33 135 135 65
13.08 12.05 20.90 137 137 76
2.45 8.06 24.04 178 178 117
2.22 7.90 24.11 173 175 81
1.92 7.71 24.20 166 168 74
2.56 7.86 24.01 157 158 79
1.50 7.40 24.32 144 145 66
13.50 11.60 20.77 59 59 16
16.24 13.23 19.86 127 127 66
1.64 7.78 24.20 177 177 116
3.74 8.46 23.58 169 171 77
2.80 8.04 23.86 163 165 71
2.59 7.89 23.92 157 158 79
1.70 7.49 24.19 146 147 68
5.17 8.65 23.15 78 78 35
3.52 8.48 23.56 167 166 114
3.22 8.29 23.65 169 170 81
2.76 8.04 23.79 163 164 75
2.68 7.93 23.81 158 161 72
2.45 7.77 23.88 146 149 60
3.10 7.92 23.68 98 100 43
4.08 8.70 23.31 165 164 112
2.83 8.17 23.68 173 174 85
2.51 7.97 23.78 162 163 74
2.15 7.76 23.89 157 160 71
2.25 7.71 23.86 146 149 60
1.50 7.37 24.09 111 113 56
2.23 8.04 23.78 156 156 111
1.65 7.75 23.96 172 172 90
2.17 7.86 23.80 162 162 80
2.27 7.82 23.77 156 160 64
2.51 7.82 23.70 144 148 52
1.72 7.46 23.94 123 128 56
12.52 11.22 20.66 58 63 0
6.00 9.44 22.55 143 143 98
2.26 7.99 23.69 170 170 88
2.55 8.01 23.61 163 163 81
2.59 7.95 23.59 154 158 62
2.68 7.90 23.57 147 151 55
1.68 7.46 23.87 135 140 68
5.25 8.65 22.78 72 77 5
10.87 11.25 20.97 123 123 82
2.04 7.92 23.68 174 170 94
2.41 7.98 23.57 165 161 85
2.11 7.79 23.66 154 157 56
2.36 7.79 23.58 152 155 54
1.88 7.54 23.73 145 149 66
1.91 7.47 23.72 91 95 12
12.21 11.76 20.45 99 99 58
0.75 7.46 24.00 177 173 97
1.77 7.76 23.68 168 164 88
1.50 7.58 23.77 152 155 54
1.59 7.53 23.74 152 155 54
1.91 7.57 23.64 149 153 70
1.42 7.31 23.79 109 113 30
1.33 7.69 23.74 178 170 107
2.08 7.89 23.51 169 161 98
2.20 7.85 23.47 154 153 60
2.06 7.72 23.51 156 155 62
2.04 7.63 23.52 150 155 65
1.06 7.20 23.83 121 126 36
16.75 12.69 18.94 57 58 21
1.88 7.91 23.49 164 156 93
1.89 7.83 23.49 170 162 99
1.78 7.71 23.52 155 154 61
1.86 7.66 23.49 156 155 62
2.07 7.66 23.43 156 161 71
0.72 7.09 23.85 130 135 45
8.90 9.92 21.29 67 68 31
5.24 9.15 22.35 151 138 88
2.34 8.01 23.26 173 160 110
2.06 7.82 23.35 159 154 70
0.98 7.36 23.69 158 153 69
1.20 7.35 23.62 161 164 73
0.84 7.15 23.73 137 140 49
6.42 9.06 21.98 77 77 36
6.40 9.59 21.89 139 126 76
1.07 7.56 23.58 171 158 108
1.53 7.64 23.44 163 158 74
1.27 7.47 23.52 159 154 70
1.32 7.41 23.50 159 162 71
0.79 7.14 23.67 139 142 51
2.95 7.83 22.99 85 85 44
8.22 10.28 21.22 124 110 65
0.23 7.26 23.77 168 154 109
0.63 7.33 23.64 167 164 81
0.50 7.21 23.68 160 157 74
1.11 7.35 23.49 157 161 67
1.11 7.27 23.49 143 147 53
1.93 7.49 23.23 98 99 49
17.75 13.81 18.07 112 98 53
1.36 7.69 23.33 167 153 108
1.56 7.68 23.27 171 168 85
0.66 7.28 23.55 160 157 74
0.89 7.29 23.48 156 160 66
0.99 7.24 23.45 146 150 56
0.33 6.93 23.66 108 109 59
2.07 7.97 23.02 162 150 113
2.18 7.93 22.99 172 168 90
1.21 7.49 23.30 158 154 76
0.75 7.25 23.45 154 158 60
0.86 7.21 23.41 149 153 55
0.18 6.89 23.63 116 120 53
0.86 7.54 23.33 154 142 105
0.92 7.48 23.31 170 166 88
0.82 7.37 23.35 158 154 76
0.61 7.21 23.41 152 156 58
0.65 7.15 23.40 151 155 57
-0.25 6.75 23.69 126 130 63
13.30 11.49 19.29 82 86 19
3.12 8.38 22.51 139 130 101
-0.04 7.15 23.55 166 164 90
-0.24 6.99 23.61 156 154 80
0.08 7.03 23.51 151 156 55
0.47 7.10 23.38 151 156 55
-0.14 6.80 23.58 135 141 60
9.44 10.14 20.45 101 107 26
6.14 9.51 21.44 131 122 93
0.24 7.26 23.38 163 161 87
0.46 7.26 23.30 158 156 82
-0.05 7.00 23.47 150 155 54
0.16 7.00 23.40 150 155 54
-0.27 6.77 23.54 142 148 67
3.96 8.20 22.15 118 124 43
7.98 10.20 20.74 115 106 87
-0.94 6.84 23.69 167 167 97
0.35 7.24 23.26 158 158 88
0.59 7.25 23.18 157 165 58
0.42 7.11 23.24 152 160 53
0.04 6.90 23.36 142 147 57
1.77 7.43 22.79 127 132 42
0.46 7.37 23.15 159 159 89
0.09 7.16 23.27 156 156 86
0.01 7.05 23.30 155 163 56
0.09 7.00 23.27 151 159 52
0.20 6.97 23.23 144 149 59
0.58 7.03 23.10 131 136 46
2.13 8.00 22.51 146 147 79
0.73 7.40 22.98 152 153 85
0.54 7.26 23.04 153 161 54
0.15 7.04 23.17 151 159 52
0.20 6.98 23.15 148 153 61
-0.44 6.68 23.36 138 143 51
18.00 13.15 17.19 64 64 23
1.53 7.79 22.62 136 137 69
-0.48 6.98 23.30 152 153 85
0.05 7.09 23.12 155 163 56
0.04 7.01 23.13 152 160 53
0.20 6.99 23.07 150 155 63
-0.60 6.63 23.34 143 148 56
8.46 9.78 20.29 77 77 36
4.19 8.78 21.64 123 127 60
-0.79 6.88 23.33 151 155 88
-0.12 7.04 23.10 157 165 58
-0.04 7.00 23.07 153 161 54
0.24 7.02 22.98 151 156 66
-0.08 6.83 23.09 145 150 60
3.94 8.18 21.73 89 92 32
11.35 11.43 19.12 112 116 49
0.53 7.37 22.80 151 155 88
0.77 7.38 22.72 158 166 59
0.29 7.13 22.88 156 164 57
0.26 7.04 22.89 152 157 67
0.08 6.90 22.96 145 150 60
0.10 6.83 22.95 104 107 47
14.82 12.73 17.82 99 102 38
-0.65 6.96 23.13 148 151 87
0.27 7.22 22.81 158 166 59
0.23 7.12 22.82 157 165 58
0.31 7.08 22.80 152 156 71
0.40 7.03 22.77 145 149 64
0.16 6.87 22.85 121 126 54
1.29 7.68 22.38 144 147 83
0.86 7.44 22.53 158 166 59
0.41 7.20 22.68 157 165 58
0.37 7.11 22.69 153 157 72
0.51 7.08 22.65 144 148 63
-0.16 6.76 22.88 137 142 70
19.40 13.64 16.13 63 68 0
-0.20 7.15 22.81 141 141 98
0.18 7.21 22.68 159 161 79
0.31 7.18 22.64 157 159 77
0.40 7.14 22.60 152 153 62
0.70 7.16 22.50 149 150 59
-0.02 6.83 22.75 139 138 73
10.14 10.36 19.23 79 78 13
-0.01 7.23 22.67 137 137 94
0.09 7.19 22.63 161 163 81
0.36 7.21 22.54 158 160 78
0.46 7.17 22.50 154 155 64
0.61 7.14 22.45 152 153 62
0.22 6.93 22.59 142 141 76
5.26 8.64 20.83 93 92 27
4.35 8.85 21.06 125 125 82
-0.04 7.16 22.60 158 159 80
0.13 7.14 22.54 154 155 76
0.31 7.13 22.47 151 154 65
0.58 7.15 22.38 146 149 60
0.44 7.02 22.43 142 141 74
1.69 7.39 21.99 107 106 39
6.31 9.59 20.28 113 113 70
-0.38 7.05 22.64 156 157 78
0.28 7.21 22.40 154 155 76
0.40 7.18 22.36 151 154 65
0.50 7.13 22.33 146 149 60
0.63 7.10 22.28 142 141 74
0.53 6.99 22.32 122 121 54
15.49 12.99 16.93 101 101 60
-0.38 7.06 22.56 151 153 78
0.21 7.20 22.35 156 158 83
0.42 7.20 22.27 152 154 68
0.52 7.15 22.24 147 149 63
0.75 7.16 22.16 142 142 72
-0.18 6.75 22.49 133 133 63
12.96 11.33 17.83 64 64 23
-0.58 7.00 22.55 149 151 76
0.12 7.18 22.30 162 164 89
0.32 7.18 22.23 156 158 72
0.37 7.12 22.21 152 154 68
0.64 7.13 22.11 146 146 76
0.10 6.86 22.31 140 140 70
7.69 9.48 19.60 73 73 32
-0.27 7.13 22.36 144 146 75
-0.05 7.13 22.28 164 166 95
0.34 7.20 22.14 154 156 72
0.38 7.13 22.12 153 155 71
0.63 7.14 22.04 150 150 76
0.36 6.97 22.13 144 144 70
3.08 7.86 21.16 82 84 31
1.56 7.82 21.62 138 140 69
0.20 7.24 22.11 164 166 95
0.44 7.25 22.02 151 153 69
0.34 7.13 22.06 151 153 69
0.48 7.11 22.01 149 149 75
0.62 7.08 21.96 145 145 71
0.36 6.90 22.05 91 93 40
2.15 8.05 21.32 132 138 70
-0.25 7.09 22.19 159 165 97
0.38 7.24 21.96 157 160 80
0.42 7.18 21.95 149 152 72
0.46 7.11 21.93 145 148 70
0.63 7.09 21.87 146 149 71
0.01 6.79 22.10 111 114 52
5.69 9.37 19.94 128 134 66
-0.38 7.05 22.16 157 163 95
0.15 7.17 21.97 157 160 80
0.07 7.06 21.99 152 155 75
0.26 7.05 21.92 145 148 70
0.57 7.09 21.81 150 153 75
-0.31 6.69 22.13 119 122 60
11.95 10.97 17.66 72 75 13
10.53 11.17 18.07 122 127 64
-0.49 7.03 22.12 154 159 96
0.28 7.23 21.83 156 159 81
-0.11 7.01 21.98 153 156 78
-0.08 6.95 21.97 146 150 67
0.39 7.04 21.79 153 157 74
-0.33 6.70 22.06 129 134 60
4.69 8.40 20.22 92 97 23
14.58 12.68 16.48 121 126 63
-1.05 6.84 22.24 153 158 95
0.35 7.27 21.73 156 159 81
0.36 7.20 21.72 153 156 78
0.30 7.10 21.75 151 155 72
0.35 7.04 21.73 155 159 76
0.01 6.83 21.85 139 144 70
2.32 7.58 21.00 112 117 43
0.20 7.31 21.70 153 157 101
0.44 7.32 21.61 157 159 88
0.16 7.14 21.72 152 154 83
0.03 7.01 21.77 156 160 77
0.19 6.99 21.71 151 155 72
0.04 6.86 21.76 146 149 71
-0.02 6.76 21.78 130 133 55
1.34 7.74 21.19 150 154 98
0.53 7.37 21.49 159 161 90
0.30 7.21 21.58 151 153 82
0.39 7.16 21.55 157 161 78
0.21 7.01 21.61 150 154 71
0.26 6.95 21.60 148 151 73
-0.37 6.65 21.83 139 142 64
19.68 13.67 14.35 77 79 33
0.53 7.46 21.41 147 154 99
-0.39 7.05 21.76 164 166 95
-0.40 6.96 21.76 152 154 83
-0.11 6.99 21.65 158 160 76
0.03 6.96 21.60 153 155 71
0.15 6.93 21.55 146 150 67
-0.89 6.48 21.95 144 148 65
11.70 10.86 17.22 98 101 52
-0.03 7.27 21.54 144 151 96
-0.58 6.99 21.75 166 168 97
-0.15 7.07 21.59 153 155 84
-0.10 7.01 21.57 156 158 74
-0.31 6.85 21.65 156 158 74
-0.34 6.76 21.66 148 152 69
-0.86 6.50 21.85 145 149 66
7.36 9.34 18.75 114 117 68
6.63 9.74 18.93 124 130 80
-0.57 7.01 21.66 162 166 99
-0.61 6.91 21.68 153 157 90
-0.70 6.80 21.71 156 162 65
-0.72 6.72 21.72 156 162 65
-0.38 6.76 21.59 148 153 63
-0.70 6.57 21.71 144 149 59
2.13 7.50 20.64 117 116 60
11.61 11.60 16.94 120 126 76
-0.72 6.97 21.64 156 160 93
0.02 7.16 21.36 155 159 92
0.02 7.08 21.36 158 164 67
-0.30 6.88 21.48 156 162 65
-0.41 6.77 21.52 149 154 64
-0.46 6.67 21.54 143 148 58
0.32 6.87 21.24 114 113 57
14.31 12.61 15.80 117 122 77
-1.76 6.60 21.96 148 151 89
-0.66 6.93 21.53 156 159 97
-0.51 6.90 21.48 158 164 69
-0.49 6.83 21.47 156 162 67
-0.40 6.79 21.44 150 155 65
-0.42 6.70 21.44 143 148 58
-0.50 6.59 21.48 113 113 54
-1.56 6.69 21.80 140 143 81
-0.89 6.85 21.54 155 158 96
-0.85 6.79 21.53 157 163 68
-0.99 6.66 21.58 156 162 67
-0.85 6.64 21.53 150 155 65
-0.49 6.69 21.39 146 151 61
-0.92 6.46 21.55 122 122 63
13.98 11.66 15.81 95 95 36
0.08 7.30 21.09 134 136 81
-0.26 7.10 21.22 150 152 97
-0.39 6.97 21.27 153 157 70
-0.68 6.79 21.38 155 159 72
-0.81 6.66 21.43 149 153 66
-0.59 6.67 21.35 151 155 68
-1.17 6.38 21.57 136 136 75
5.81 8.78 18.86 103 103 42
0.50 7.47 20.84 130 132 77
-0.82 6.91 21.35 147 149 94
-0.49 6.95 21.22 151 155 68
-0.57 6.84 21.26 153 157 70
-0.69 6.72 21.30 149 153 66
-0.62 6.67 21.27 156 160 73
-0.83 6.52 21.36 145 145 84
3.23 7.88 19.77 110 110 49
4.02 8.79 19.38 128 128 83
-0.75 6.95 21.25 147 147 102
-0.78 6.86 21.26 152 155 75
-1.29 6.60 21.46 153 156 76
-1.16 6.57 21.40 150 154 69
-0.82 6.61 21.27 156 160 75
-0.83 6.53 21.28 145 146 80
0.54 6.94 20.74 116 117 51
7.06 9.92 18.09 128 128 83
-0.95 6.89 21.24 147 147 102
-0.46 6.99 21.05 153 156 76
-0.68 6.83 21.14 153 156 76
-0.70 6.75 21.14 151 155 70
-0.72 6.66 21.15 155 159 74
-0.57 6.64 21.09 142 143 77
-0.55 6.57 21.09 120 121 55
8.89 10.62 17.27 112 110 77
-2.03 6.51 21.59 153 151 118
-1.20 6.73 21.26 152 154 83
-1.36 6.60 21.32 153 155 84
-1.23 6.57 21.27 156 160 77
-1.14 6.53 21.23 152 156 73
-1.09 6.46 21.22 149 151 80
-1.87 6.11 21.52 127 129 58
16.67 12.60 14.18 80 79 41
15.34 13.02 14.59 109 107 74
-1.50 6.71 21.30 150 148 115
-0.54 6.99 20.92 152 154 83
-0.73 6.84 20.99 152 154 83
-0.89 6.70 21.06 155 159 76
-0.96 6.60 21.08 152 156 73
-0.88 6.55 21.05 151 153 82
-1.45 6.28 21.28 131 133 62
13.66 11.55 15.26 85 84 46
-0.09 7.25 20.65 146 143 119
-0.66 6.96 20.88 152 152 89
-1.27 6.66 21.12 152 152 89
-1.49 6.50 21.21 152 155 75
-1.46 6.44 21.20 153 156 76
-1.21 6.45 21.10 155 157 82
-1.77 6.18 21.32 137 139 64
6.81 9.14 17.89 93 93 48
-0.13 7.25 20.58 141 138 114
-0.60 7.00 20.77 153 153 90
-0.87 6.82 20.88 151 151 88
-0.90 6.73 20.89 151 154 74
-1.18 6.55 21.01 153 156 76
-1.29 6.44 21.05 158 160 85
-1.66 6.23 21.20 144 146 71
3.39 7.94 19.17 105 105 60
-0.72 7.04 20.74 137 133 116
-1.27 6.76 20.96 153 153 94
-1.21 6.71 20.94 152 152 93
-1.12 6.66 20.90 150 153 75
-1.09 6.60 20.89 155 158 80
-1.00 6.55 20.85 158 161 83
-1.39 6.34 21.01 149 152 74
1.04 7.12 20.03 116 118 65
0.52 7.52 20.15 135 131 114
-1.14 6.83 20.83 153 153 94
-1.20 6.73 20.85 153 153 94
-1.44 6.56 20.95 150 153 75
-1.68 6.40 21.04 153 156 78
-1.65 6.33 21.03 157 160 82
-1.81 6.20 21.10 152 155 77
-1.29 6.31 20.89 128 130 77
4.49 9.00 18.44 133 128 114
-1.12 6.85 20.74 153 152 98
-1.38 6.68 20.84 155 154 100
-1.62 6.51 20.94 151 154 76
-1.80 6.37 21.01 153 156 78
-1.74 6.31 20.99 155 158 78
-1.71 6.25 20.98 153 156 76
-1.49 6.25 20.89 137 139 82
5.16 9.26 18.08 133 128 114
-1.73 6.64 20.90 153 152 98
-1.62 6.60 20.86 156 155 101
-1.65 6.51 20.87 151 154 76
-1.87 6.36 20.96 152 155 77
-1.85 6.29 20.95 152 155 75
-1.76 6.24 20.92 153 156 76
-2.49 5.91 21.22 142 144 87
16.44 12.54 13.44 112 114 57
8.61 10.56 16.55 100 106 97
-1.63 6.69 20.78 147 155 104
-1.21 6.77 20.61 149 157 106
-1.26 6.67 20.63 152 164 87
-1.45 6.52 20.71 150 162 85
-1.68 6.36 20.80 148 159 76
-1.58 6.32 20.76 148 159 76
-1.98 6.10 20.93 135 140 77
12.00 10.99 15.16 110 115 52
11.88 11.79 15.09 94 100 91
-1.95 6.58 20.84 145 153 102
-1.48 6.68 20.64 149 157 106
-1.61 6.55 20.69 152 164 87
-1.76 6.42 20.75 150 162 85
-1.81 6.33 20.78 147 158 75
-1.66 6.31 20.72 148 159 76
-2.42 5.96 21.03 136 141 78
3.69 8.05 18.49 112 117 54
14.59 12.82 13.85 86 92 83
-2.99 6.21 21.19 140 147 99
-1.91 6.54 20.74 147 154 106
-2.04 6.41 20.79 152 164 87
-2.45 6.19 20.96 149 161 84
-2.44 6.12 20.96 147 158 75
-2.06 6.18 20.80 148 159 76
-2.29 6.02 20.90 139 144 81
0.99 7.11 19.53 118 123 60
-0.75 7.06 20.17 135 142 94
-1.46 6.72 20.46 145 152 104
-1.87 6.49 20.64 151 163 86
-2.05 6.35 20.72 147 159 82
-1.92 6.32 20.66 147 158 75
-1.87 6.26 20.64 148 159 76
-2.26 6.04 20.80 141 146 83
-1.99 6.06 20.69 125 130 67
1.10 7.76 19.30 129 136 90
-0.39 7.12 19.93 144 151 105
-1.00 6.82 20.19 151 163 88
-1.82 6.45 20.53 146 158 83
-2.11 6.26 20.66 146 157 74
-2.00 6.23 20.61 148 159 76
-1.99 6.16 20.61 143 148 83
-2.24 5.99 20.71 133 138 73
-0.48 7.18 19.89 124 131 85
-2.29 6.44 20.65 142 149 103
-1.64 6.60 20.38 150 162 87
-1.86 6.45 20.47 145 157 82
-1.91 6.35 20.49 146 157 74
-2.02 6.23 20.54 148 159 76
-2.05 6.15 20.55 146 151 86
-2.76 5.82 20.85 140 145 80
16.33 12.51 12.76 83 91 68
1.85 8.06 18.81 119 126 82
-2.85 6.25 20.81 140 147 103
-2.44 6.32 20.63 150 161 89
-2.65 6.17 20.73 144 155 83
-2.34 6.21 20.59 145 156 73
-2.17 6.19 20.52 148 159 76
-2.10 6.14 20.49 148 154 84
-2.85 5.80 20.81 146 152 82
10.14 10.33 15.28 86 95 67
8.30 10.47 15.96 117 124 80
-2.43 6.41 20.55 140 147 103
-1.72 6.60 20.25 149 160 88
-2.07 6.39 20.40 144 155 83
-2.30 6.23 20.50 145 156 73
-2.38 6.13 20.53 148 159 76
-2.29 6.09 20.49 149 155 85
-3.03 5.75 20.81 149 155 85
4.22 8.25 17.71 90 99 71
17.47 13.90 11.91 114 120 79
-1.70 6.70 20.15 135 141 100
-1.36 6.74 20.01 152 163 93
-1.84 6.49 20.21 145 156 86
-2.05 6.34 20.31 145 157 71
-2.13 6.23 20.34 145 157 71
-2.17 6.14 20.36 153 160 87
-2.58 5.92 20.53 149 156 83
2.74 7.74 18.24 107 117 82
-3.14 6.18 20.69 133 139 98
-2.24 6.43 20.31 151 162 92
-2.28 6.35 20.32 145 156 86
-2.38 6.23 20.37 145 157 71
-2.37 6.16 20.36 145 157 71
-2.25 6.13 20.31 153 160 87
-2.49 5.97 20.41 149 156 83
-0.53 6.59 19.57 111 121 86
-0.42 7.20 19.43 131 137 98
-1.91 6.57 20.08 150 160 95
-2.15 6.40 20.19 145 155 90
-2.23 6.30 20.22 145 157 71
-2.26 6.21 20.23 145 157 71
-2.23 6.15 20.22 153 160 83
-2.31 6.05 20.25 148 155 78
-1.61 6.22 19.95 113 124 82
-1.00 7.00 19.60 129 135 96
-2.17 6.49 20.11 149 159 94
-2.10 6.44 20.08 144 154 89
-2.29 6.29 20.16 145 157 71
-2.38 6.19 20.20 145 157 71
-2.33 6.13 20.18 153 160 83
-2.26 6.07 20.15 148 155 78
-2.97 5.75 20.46 117 128 86
18.33 13.23 11.16 93 104 62
-0.37 7.25 19.24 125 130 94
-2.82 6.26 20.32 146 156 91
-2.34 6.36 20.11 144 154 89
-2.16 6.35 20.03 145 157 71
-2.20 6.26 20.04 146 158 72
-2.32 6.14 20.10 153 161 81
-2.23 6.10 20.06 147 155 75
-2.89 5.79 20.34 121 133 86
12.22 11.08 13.72 99 111 64
3.30 8.62 17.54 123 128 92
-2.49 6.40 20.09 145 155 90
-2.20 6.43 19.96 143 153 88
-2.22 6.35 19.97 145 157 71
-2.28 6.25 20.00 146 158 72
-2.36 6.14 20.03 152 160 80
-2.18 6.13 19.95 147 155 75
-2.95 5.78 20.29 125 137 90
4.96 8.52 16.80 105 117 70
10.05 11.15 14.45 121 126 92
-2.35 6.47 19.94 144 154 91
-2.09 6.49 19.83 143 153 90
-2.26 6.34 19.91 145 157 71
-2.36 6.23 19.95 146 158 72
-2.43 6.13 19.98 152 160 80
-2.10 6.17 19.84 147 155 75
-2.31 6.02 19.93 128 141 89
2.26 7.57 17.90 110 123 71
11.64 11.76 13.63 119 124 90
-3.08 6.21 20.19 143 153 90
-1.99 6.54 19.70 143 153 90
-1.99 6.46 19.70 145 157 71
-2.07 6.35 19.74 146 158 72
-2.16 6.24 19.78 152 160 80
-2.02 6.22 19.72 147 155 75
-2.09 6.11 19.75 129 142 90
-0.65 6.55 19.10 112 125 73
-2.77 6.34 19.97 135 142 96
-2.19 6.48 19.71 139 146 100
-2.13 6.42 19.68 147 151 82
-2.34 6.27 19.77 148 152 83
-2.37 6.18 19.79 154 153 88
-2.11 6.20 19.67 150 149 84
-2.02 6.15 19.63 143 150 93
-2.30 5.98 19.76 124 131 74
-2.88 6.31 19.94 135 142 96
-2.34 6.43 19.69 138 145 99
-2.05 6.46 19.56 146 150 81
-2.05 6.39 19.56 147 151 82
-2.10 6.29 19.58 154 153 88
-2.12 6.21 19.59 150 149 84
-1.89 6.21 19.49 141 148 91
-2.32 5.98 19.68 125 132 75
0.09 7.43 18.51 135 143 92
-1.88 6.62 19.40 137 145 94
-1.81 6.57 19.37 143 148 76
-2.19 6.35 19.54 146 151 79
-2.24 6.25 19.57 154 153 86
-2.07 6.24 19.49 150 149 82
-1.80 6.26 19.37 141 148 89
-2.86 5.80 19.85 127 134 75
10.65 10.52 13.74 98 103 60
1.32 7.90 17.87 131 139 88
-2.67 6.34 19.68 135 143 92
-1.92 6.54 19.34 142 147 75
-1.85 6.49 19.31 146 151 79
-1.96 6.37 19.36 154 153 86
-2.10 6.24 19.42 150 149 82
-1.86 6.25 19.31 141 148 89
-2.39 5.98 19.55 130 137 78
7.95 9.58 14.85 104 109 66
7.45 10.20 14.98 126 134 83
-2.11 6.56 19.34 133 141 90
-1.74 6.62 19.17 143 148 74
-2.02 6.44 19.30 146 151 77
-1.91 6.40 19.25 153 153 83
-1.88 6.33 19.24 150 150 80
-1.71 6.32 19.16 141 149 87
-2.29 6.03 19.42 133 141 79
1.84 7.43 17.53 111 116 73
8.28 10.52 14.49 118 126 75
-2.54 6.42 19.45 131 139 88
-1.57 6.70 19.01 146 151 77
-1.83 6.52 19.13 146 151 77
-2.03 6.37 19.22 151 151 81
-2.06 6.28 19.23 149 149 79
-1.87 6.28 19.15 141 149 87
-2.04 6.14 19.22 136 144 82
-0.75 6.52 18.63 118 123 80
9.64 11.05 13.75 111 119 66
-3.87 5.94 19.98 131 139 86
-2.18 6.49 19.20 149 154 78
-1.95 6.49 19.10 146 151 75
-1.88 6.44 19.07 150 150 78
-1.86 6.37 19.06 149 149 77
-1.76 6.33 19.01 140 148 84
-1.77 6.25 19.01 138 146 82
-1.49 6.27 18.88 123 128 81
18.90 14.53 9.36 107 115 62
-3.37 6.14 19.67 130 138 85
-1.96 6.58 19.02 151 156 80
-2.00 6.49 19.04 146 151 75
-2.11 6.37 19.09 149 149 77
-2.12 6.29 19.09 149 149 77
-2.01 6.25 19.04 140 148 84
-1.88 6.22 18.98 139 147 83
-2.77 5.83 19.40 126 131 84
-0.69 7.15 18.34 132 139 91
-1.87 6.63 18.89 146 151 79
-1.92 6.53 18.92 153 158 86
-2.04 6.41 18.97 145 144 77
-2.13 6.30 19.01 152 151 84
-2.12 6.23 19.01 141 150 81
-1.88 6.24 18.90 141 150 81
-2.57 5.91 19.22 129 135 85
11.88 10.97 12.49 116 122 72
0.56 7.63 17.67 132 139 91
-2.18 6.53 18.95 142 147 75
-2.09 6.48 18.91 149 154 82
-2.02 6.43 18.88 146 145 78
-2.19 6.29 18.96 152 151 84
-2.24 6.20 18.98 144 153 84
-2.00 6.21 18.87 143 152 83
-2.99 5.78 19.33 131 137 87
1.73 7.38 17.12 119 125 75
-1.14 7.01 18.38 131 138 94
-2.77 6.32 19.14 139 143 76
-2.40 6.39 18.97 146 150 83
-2.29 6.35 18.92 149 147 85
-2.32 6.26 18.93 152 150 88
-2.41 6.15 18.97 145 154 85
-2.21 6.14 18.88 143 152 83
-2.71 5.89 19.12 132 138 86
-1.25 6.33 18.43 124 130 78
0.26 7.54 17.63 128 135 91
-3.00 6.25 19.17 134 138 71
-2.29 6.44 18.84 141 145 78
-2.31 6.35 18.84 150 148 86
-2.40 6.24 18.89 152 150 88
-2.50 6.13 18.93 144 153 84
-2.40 6.09 18.89 141 150 81
-2.68 5.91 19.02 132 138 86
-3.00 5.72 19.17 126 132 80
9.47 11.00 13.17 122 128 89
-3.26 6.17 19.21 132 135 75
-2.44 6.40 18.82 137 140 80
-2.37 6.35 18.79 149 147 89
-2.44 6.24 18.82 151 149 91
-2.49 6.15 18.84 141 150 79
-2.46 6.08 18.83 140 149 78
-2.54 5.98 18.87 132 139 84
-3.02 5.73 19.10 126 133 78
18.71 14.47 8.66 116 122 83
-3.10 6.24 19.05 132 135 75
-2.35 6.45 18.69 136 139 79
-2.46 6.33 18.75 147 145 87
-2.52 6.23 18.77 150 148 90
-2.57 6.13 18.80 141 150 79
-2.59 6.05 18.81 140 149 78
-2.56 5.98 18.79 134 141 86
-3.39 5.61 19.19 126 133 78
16.02 12.42 9.94 95 100 68
-3.55 6.09 19.18 135 137 80
-2.70 6.33 18.78 137 139 82
-2.57 6.30 18.71 146 143 92
-2.69 6.18 18.77 150 147 96
-2.80 6.07 18.82 144 153 82
-2.72 6.02 18.78 143 152 81
-2.62 5.98 18.74 139 146 91
-3.37 5.63 19.10 129 136 81
9.00 9.95 13.17 110 115 83
-2.20 6.61 18.45 137 139 82
-2.63 6.37 18.66 141 143 86
-2.64 6.29 18.66 147 144 93
-2.71 6.19 18.70 150 147 96
-2.79 6.08 18.73 145 154 83
-2.85 5.98 18.77 145 154 83
-2.71 5.96 18.70 143 150 95
-3.36 5.65 19.01 130 137 82
1.50 7.30 16.67 122 127 95
-2.33 6.57 18.43 122 127 91
-2.97 6.26 18.74 131 136 100
-2.57 6.33 18.54 146 153 96
-2.75 6.19 18.63 146 153 96
-2.83 6.08 18.67 152 155 77
-2.85 6.00 18.68 151 154 76
-2.82 5.93 18.67 146 152 82
-3.13 5.75 18.81 142 148 78
-1.28 6.33 17.92 131 136 93
1.06 7.85 16.70 121 126 90
-3.27 6.16 18.80 132 137 101
-2.86 6.24 18.60 147 154 97
-2.84 6.17 18.59 146 153 96
-2.90 6.07 18.62 151 154 76
-2.93 5.98 18.64 150 153 75
-2.88 5.92 18.61 146 152 82
-2.98 5.81 18.66 142 148 78
-3.34 5.61 18.83 131 136 93
5.33 9.46 14.52 118 124 85
-3.42 6.12 18.79 131 137 98
-2.83 6.26 18.50 146 153 98
-2.94 6.15 18.55 144 151 96
-2.89 6.09 18.53 149 152 74
-2.92 6.00 18.54 149 152 74
-2.94 5.91 18.56 145 151 83
-2.87 5.86 18.52 142 148 80
-3.45 5.58 18.81 131 136 91
15.06 12.07 9.77 105 110 65
9.85 11.17 12.20 115 121 82
-3.63 6.06 18.81 129 135 96
-2.89 6.25 18.45 145 152 97
-2.94 6.16 18.47 140 147 92
-3.03 6.05 18.52 148 151 73
-3.03 5.97 18.52 148 151 73
-3.06 5.89 18.53 145 151 83
-2.96 5.85 18.48 142 148 80
-3.67 5.51 18.83 132 137 92
6.24 8.96 13.97 111 116 71
-2.74 6.40 18.29 126 131 97
-3.17 6.16 18.50 141 147 95
-3.12 6.11 18.47 138 144 92
-3.16 6.01 18.50 146 148 75
-3.18 5.93 18.51 146 148 75
-3.20 5.85 18.52 143 149 81
-3.01 5.84 18.42 142 148 80
-3.56 5.57 18.69 133 138 91
0.88 7.07 16.50 118 123 76
-2.21 6.61 17.94 125 130 96
-3.09 6.21 18.38 140 146 94
-3.26 6.07 18.46 136 142 90
-3.24 6.00 18.45 146 148 75
-3.20 5.94 18.43 144 146 73
-3.21 5.86 18.44 142 148 80
-3.07 5.83 18.37 142 148 80
-3.33 5.66 18.49 134 139 92
-1.30 6.31 17.49 124 129 82
-3.24 6.24 18.37 123 128 96
-3.62 6.02 18.56 140 145 98
-3.35 6.05 18.42 136 141 94
-3.32 5.99 18.41 146 147 79
-3.34 5.90 18.42 145 146 78
-3.33 5.83 18.41 143 149 81
-3.12 5.83 18.31 143 149 81
-3.21 5.72 18.35 136 142 90
-3.10 5.68 18.30 130 136 84
-1.51 6.90 17.42 119 124 92
-3.79 5.97 18.56 139 144 97
-3.60 5.97 18.46 134 139 92
-3.57 5.91 18.45 146 147 79
-3.62 5.81 18.47 146 147 79
-3.60 5.74 18.46 145 151 83
-3.40 5.74 18.36 145 151 83
-3.26 5.72 18.29 138 144 92
-3.80 5.45 18.56 134 140 88
13.60 11.54 9.87 96 102 73
0.52 7.67 16.31 122 126 99
-3.51 6.09 18.33 138 142 102
-3.44 6.04 18.30 141 145 105
-3.53 5.93 18.34 142 143 77
-3.64 5.82 18.40 141 142 76
-3.66 5.74 18.41 146 152 84
-3.49 5.72 18.32 146 152 84
-3.38 5.69 18.27 143 150 93
-3.76 5.47 18.46 144 151 94
7.66 9.45 12.73 106 113 79
2.09 8.28 15.42 119 123 96
-4.25 5.83 18.62 138 142 102
-3.79 5.93 18.39 141 145 105
-3.76 5.86 18.38 144 145 79
-3.79 5.78 18.39 143 144 78
-3.82 5.69 18.40 147 153 85
-3.67 5.67 18.33 146 152 84
-3.39 5.70 18.19 143 150 93
-3.77 5.49 18.38 144 151 94
1.98 7.45 15.48 107 114 80
11.26 11.73 10.69 116 119 97
-3.67 6.06 18.25 137 140 105
-3.74 5.96 18.28 143 146 111
-3.98 5.80 18.40 145 145 86
-4.00 5.71 18.41 145 145 86
-3.96 5.66 18.39 146 152 82
-3.74 5.66 18.28 146 152 82
-3.48 5.68 18.15 141 149 87
-3.47 5.61 18.14 143 151 89
-0.80 6.48 16.79 108 116 77
11.78 11.94 10.30 112 115 93
-4.51 5.76 18.59 136 139 104
-3.91 5.91 18.28 143 146 111
-3.99 5.81 18.33 146 146 87
-4.03 5.72 18.35 146 146 87
-4.05 5.64 18.35 145 151 81
-3.88 5.62 18.27 145 151 81
-3.55 5.67 18.10 141 149 87
-3.53 5.60 18.09 141 149 87
-3.44 5.55 18.05 109 117 78
18.34 13.19 6.96 92 100 61
-3.66 6.09 18.07 133 136 105
-4.07 5.87 18.28 141 144 113
-4.17 5.76 18.33 144 143 87
-4.15 5.69 18.32 145 144 88
-4.15 5.61 18.32 141 147 77
-4.03 5.58 18.26 142 148 78
-3.80 5.59 18.14 139 147 81
-3.71 5.55 18.10 139 147 81
-3.97 5.38 18.23 112 121 77
9.79 10.18 11.20 94 103 59
-2.33 6.61 17.30 130 133 102
-4.39 5.76 18.36 139 142 111
-4.35 5.70 18.34 142 141 85
-4.37 5.62 18.35 144 143 87
-4.35 5.55 18.34 139 145 75
-4.23 5.52 18.28 141 147 77
-4.03 5.52 18.18 139 147 81
-3.72 5.56 18.02 140 148 82
-4.32 5.27 18.33 116 125 81
2.87 7.74 14.63 98 107 63
-0.91 7.15 16.48 126 129 94
-4.64 5.68 18.41 134 137 102
-4.49 5.67 18.33 140 143 83
-4.50 5.59 18.34 142 145 85
-4.48 5.52 18.33 138 144 74
-4.39 5.48 18.28 141 147 77
-4.17 5.48 18.17 140 148 82
-3.70 5.58 17.92 143 151 85
-3.97 5.41 18.06 121 130 84
1.20 7.17 15.39 101 110 64
1.98 8.25 14.90 124 127 92
-4.60 5.71 18.30 132 135 100
-4.56 5.65 18.29 140 143 83
-4.58 5.57 18.29 143 146 86
-4.50 5.53 18.25 136 142 72
-4.33 5.51 18.17 142 148 78
-4.16 5.50 18.08 143 151 85
-3.79 5.56 17.89 145 153 87
-3.86 5.46 17.92 123 132 86
-0.91 6.43 16.39 103 112 66
1.90 8.24 14.84 116 128 108
-4.90 5.61 18.38 126 138 118
-4.73 5.60 18.29 140 142 87
-4.86 5.48 18.36 140 142 87
-4.74 5.45 18.30 139 146 71
-4.64 5.41 18.24 139 146 71
-4.51 5.39 18.18 137 146 75
-4.05 5.48 17.94 137 146 75
-4.25 5.33 18.04 137 143 91
-3.86 5.39 17.84 137 143 91
4.05 9.06 13.62 111 123 103
-5.14 5.54 18.42 126 138 118
-4.59 5.67 18.13 140 142 87
-4.88 5.49 18.29 140 142 87
-4.81 5.44 18.25 139 146 71
-4.70 5.40 18.19 139 146 71
-4.61 5.36 18.15 137 146 75
-4.27 5.41 17.97 137 146 75
-4.40 5.29 18.04 137 143 91
-4.73 5.10 18.21 137 143 91
15.28 12.11 7.75 84 91 57
13.09 12.47 8.77 102 117 91
-4.92 5.63 18.23 124 139 113
-4.90 5.57 18.21 140 142 89
-5.05 5.44 18.29 140 142 89
-4.95 5.40 18.24 139 146 73
-4.79 5.39 18.15 139 146 73
-4.78 5.32 18.15 137 146 77
-4.48 5.35 17.99 137 146 77
-4.47 5.28 17.99 137 143 91
-4.84 5.07 18.18 137 143 91
9.43 10.06 10.69 88 95 59
-4.18 5.92 17.75 123 138 112
-4.92 5.57 18.14 140 142 89
-5.09 5.44 18.23 140 142 89
-5.02 5.39 18.19 139 146 73
-4.89 5.36 18.13 139 146 73
-4.87 5.30 18.12 137 146 77
-4.66 5.30 18.00 137 146 77
-4.60 5.25 17.97 137 143 91
-5.12 4.99 18.25 137 143 91
2.95 7.78 13.99 95 102 66
-2.45 6.58 16.75 120 135 109
-5.24 5.47 18.23 140 141 91
-5.28 5.38 18.25 140 141 91
-5.14 5.36 18.18 139 145 75
-5.06 5.31 18.13 139 145 75
-5.07 5.24 18.14 137 146 77
-4.88 5.23 18.04 137 146 77
-4.79 5.19 17.99 137 143 91
-5.17 4.98 18.19 137 143 91
-0.95 6.41 15.96 102 110 69
-1.09 7.11 15.94 117 132 106
-5.28 5.46 18.17 140 141 91
-5.34 5.37 18.20 140 141 91
-5.34 5.30 18.20 139 145 75
-5.17 5.29 18.11 139 145 75
-5.16 5.22 18.10 137 146 77
-5.05 5.18 18.04 137 146 77
-4.93 5.15 17.98 137 143 91
-5.13 5.01 18.09 137 143 91
-3.55 5.50 17.25 109 117 76
2.51 8.47 13.92 114 129 103
-5.68 5.33 18.30 140 140 95
-5.38 5.37 18.14 140 140 95
-5.46 5.27 18.18 139 144 79
-5.34 5.24 18.12 139 144 79
-5.27 5.19 18.08 137 145 79
-5.15 5.16 18.02 137 145 79
-5.04 5.13 17.96 137 144 89
-5.12 5.02 18.00 137 144 89
-4.56 5.15 17.70 114 123 77
5.59 9.64 12.17 113 128 102
-5.92 5.26 18.34 140 140 95
-5.45 5.36 18.10 140 140 95
-5.50 5.27 18.12 139 144 79
-5.46 5.21 18.10 139 144 79
-5.42 5.15 18.08 137 145 79
-5.32 5.11 18.02 137 145 79
-5.25 5.06 17.99 137 144 89
-5.25 4.99 17.99 137 144 89
-5.49 4.83 18.12 116 125 79
10.64 10.47 9.45 78 87 41
12.77 12.36 8.18 97 112 88
-6.00 5.24 18.31 139 139 98
-5.69 5.28 18.14 139 139 98
-5.57 5.25 18.07 138 143 82
-5.49 5.21 18.04 138 143 82
-5.49 5.14 18.03 136 144 80
-5.44 5.08 18.01 136 144 80
-5.37 5.03 17.97 136 143 88
-5.30 4.98 17.93 136 143 88
-5.67 4.78 18.13 126 136 85
4.75 8.40 12.51 93 103 52
-4.33 5.88 17.32 139 139 98
-5.73 5.28 18.08 139 139 98
-5.69 5.22 18.06 138 143 82
-5.53 5.21 17.97 138 143 82
-5.53 5.13 17.97 136 144 80
-5.54 5.06 17.98 136 144 80
-5.52 4.99 17.97 136 143 88
-5.35 4.98 17.87 136 143 88
-5.67 4.79 18.05 124 134 83
-0.47 6.57 15.23 98 108 57
-3.34 6.26 16.70 139 138 102
-5.66 5.32 17.96 139 138 102
-5.83 5.18 18.05 138 142 86
-5.82 5.12 18.05 138 142 86
-5.71 5.08 17.99 136 144 82
-5.70 5.01 17.99 136 144 82
-5.62 4.97 17.94 136 143 86
-5.38 4.98 17.81 136 143 86
-5.67 4.81 17.97 123 134 78
-3.41 5.54 16.73 106 117 61
-4.24 5.94 17.10 139 138 102
-6.19 5.13 18.17 139 138 102
-5.68 5.25 17.89 138 142 86
-5.82 5.13 17.97 138 142 86
-5.79 5.07 17.95 136 144 82
-5.76 5.01 17.93 136 144 82
-5.73 4.94 17.92 136 143 86
-5.53 4.94 17.81 136 143 86
-5.65 4.83 17.88 123 134 78
-4.61 5.13 17.30 114 125 69
-1.16 7.11 15.33 139 137 104
-6.54 5.02 18.28 139 137 104
-5.83 5.21 17.89 138 142 88
-5.84 5.13 17.89 138 142 88
-5.90 5.04 17.93 136 143 84
-5.87 4.98 17.91 136 143 84
-5.88 4.90 17.92 136 143 86
-5.67 4.91 17.80 136 143 86
-5.71 4.82 17.82 126 137 79
-5.62 4.78 17.78 121 132 74
10.83 10.52 8.75 94 101 67
5.85 9.76 11.37 139 137 104
-6.39 5.09 18.12 139 137 104
-6.17 5.10 18.00 138 142 88
-5.97 5.10 17.89 138 142 88
-5.85 5.07 17.82 136 143 84
-5.88 4.99 17.83 136 143 84
-5.96 4.89 17.88 136 143 86
-5.84 4.86 17.81 136 143 86
-5.73 4.82 17.75 129 140 82
-5.73 4.75 17.75 124 135 77
4.00 8.13 12.39 101 108 74
13.78 12.76 6.86 139 137 106
-5.25 5.53 17.40 139 137 106
-6.17 5.11 17.91 138 141 90
-6.24 5.01 17.95 138 141 90
-5.99 5.03 17.82 136 143 86
-5.97 4.97 17.80 136 143 86
-6.05 4.87 17.85 136 143 84
-5.91 4.85 17.77 136 143 84
-5.75 4.83 17.68 133 144 84
-5.85 4.72 17.74 126 137 77
-1.57 6.17 15.37 105 112 76
10.26 11.45 8.70 139 137 106
-5.79 5.34 17.62 139 137 106
-5.80 5.26 17.63 138 141 90
-6.18 5.05 17.84 138 141 90
-6.05 5.02 17.77 136 143 86
-5.97 4.98 17.72 136 143 86
-6.11 4.86 17.80 136 143 84
-6.04 4.81 17.76 136 143 84
-5.83 4.82 17.64 136 147 87
-5.93 4.71 17.70 126 137 77
-4.40 5.17 16.85 107 114 78
13.18 12.57 6.94 107 114 78
-7.27 4.80 18.37 120 127 91
-6.25 5.11 17.80 131 142 84
-6.21 5.05 17.77 134 145 87
-6.13 5.01 17.73 134 142 78
-6.08 4.95 17.70 133 141 77
-6.19 4.84 17.76 136 143 88
-6.15 4.78 17.74 136 143 88
-5.96 4.78 17.63 138 147 78
-5.92 4.72 17.61 133 142 73
-4.99 4.98 17.09 115 119 79
15.44 12.12 5.68 96 100 60
-3.95 6.05 16.42 119 126 90
-6.37 5.08 17.78 131 142 84
-6.18 5.07 17.68 134 145 87
-6.02 5.06 17.59 134 142 78
-6.06 4.98 17.61 133 141 77
-6.18 4.86 17.68 136 143 88
-6.21 4.77 17.69 136 143 88
-6.09 4.75 17.62 137 146 77
-6.01 4.70 17.58 133 142 73
-5.69 4.75 17.40 113 117 77
6.57 9.01 10.52 96 100 60
0.28 7.66 13.95 116 123 89
-6.39 5.08 17.71 130 141 85
-6.29 5.05 17.66 133 144 88
-6.19 5.01 17.60 134 142 78
-6.10 4.97 17.55 134 142 78
-6.23 4.85 17.62 136 143 88
-6.29 4.76 17.66 136 143 88
-6.15 4.74 17.57 137 146 77
-5.98 4.73 17.48 132 141 72
-6.13 4.60 17.57 115 120 77
0.83 6.99 13.64 96 101 58
-1.00 7.19 14.58 114 121 87
-6.61 5.01 17.75 128 139 83
-6.24 5.08 17.55 133 144 88
-6.28 4.99 17.57 134 142 78
-6.17 4.96 17.51 134 142 78
-6.29 4.85 17.57 134 141 86
-6.33 4.76 17.59 136 143 88
-6.19 4.74 17.52 136 145 76
-5.94 4.75 17.38 132 141 72
-6.18 4.59 17.51 116 121 78
-2.77 5.73 15.58 97 102 59
1.46 8.13 13.09 110 116 87
-6.98 4.89 17.89 127 137 84
-6.23 5.09 17.46 131 141 88
-6.26 5.01 17.48 134 142 78
-6.26 4.94 17.47 134 142 78
-6.34 4.84 17.52 134 141 86
-6.40 4.74 17.55 134 141 86
-6.31 4.71 17.50 134 143 74
-6.00 4.75 17.33 132 141 72
-6.29 4.57 17.49 120 125 80
-5.36 4.83 16.96 102 107 62
14.15 11.63 5.87 71 76 54
10.72 11.64 7.70 108 114 85
-6.58 5.05 17.58 126 136 83
-6.33 5.07 17.43 131 141 88
-6.32 5.00 17.43 134 142 78
-6.34 4.92 17.44 134 142 78
-6.37 4.84 17.45 134 141 86
-6.40 4.76 17.47 134 141 86
-6.36 4.70 17.45 133 142 73
-6.15 4.70 17.33 132 141 72
-6.31 4.57 17.42 125 130 85
-6.05 4.60 17.27 109 114 69
5.59 8.63 10.62 74 79 57
-6.13 5.23 17.23 123 132 84
-6.34 5.08 17.36 131 140 92
-6.42 4.98 17.40 134 142 78
-6.39 4.92 17.39 134 142 78
-6.44 4.83 17.41 134 141 84
-6.44 4.76 17.41 134 141 84
-6.44 4.68 17.41 132 141 72
-6.22 4.69 17.28 132 141 72
-6.27 4.60 17.31 130 136 86
-6.22 4.55 17.29 115 121 71
0.68 6.91 13.33 78 84 57
-5.56 5.46 16.82 123 132 84
-6.33 5.10 17.27 130 139 91
-6.38 5.01 17.30 134 142 78
-6.48 4.90 17.35 134 142 78
-6.47 4.83 17.35 134 141 84
-6.42 4.78 17.32 133 140 83
-6.52 4.67 17.38 131 140 71
-6.39 4.64 17.30 133 142 73
-6.36 4.58 17.28 133 139 89
-6.37 4.51 17.29 119 125 75
-2.99 5.63 15.34 81 87 60
-4.65 5.82 16.21 122 130 89
-6.53 5.04 17.30 129 137 96
-6.38 5.02 17.21 133 141 77
-6.56 4.88 17.32 134 142 78
-6.55 4.81 17.31 133 140 83
-6.48 4.77 17.27 130 137 80
-6.58 4.66 17.33 130 139 70
-6.45 4.64 17.25 132 141 72
-6.42 4.57 17.24 133 140 85
-6.46 4.49 17.26 125 132 77
-5.05 4.91 16.44 103 110 76
-2.11 6.78 14.65 121 129 88
-6.96 4.89 17.46 128 136 95
-6.44 5.01 17.17 133 141 77
-6.57 4.89 17.24 134 142 78
-6.58 4.82 17.24 133 140 83
-6.51 4.77 17.20 131 138 81
-6.62 4.66 17.27 130 139 70
-6.52 4.62 17.21 132 141 72
-6.48 4.57 17.19 132 139 84
-6.41 4.52 17.15 126 133 78
-5.97 4.60 16.89 107 114 80
9.38 9.94 7.97 87 94 60
3.76 9.01 11.13 119 126 90
-7.12 4.84 17.48 128 135 99
-6.65 4.95 17.20 133 141 77
-6.77 4.83 17.27 133 141 77
-6.66 4.80 17.21 133 140 81
-6.54 4.77 17.14 131 138 79
-6.65 4.66 17.20 131 140 71
-6.58 4.61 17.16 131 140 71
-6.47 4.58 17.10 131 138 81
-6.36 4.55 17.04 129 136 79
-6.21 4.53 16.95 112 120 79
4.11 8.10 10.93 93 101 60
8.36 10.76 8.33 116 123 87
-7.17 4.84 17.42 127 134 98
-6.67 4.95 17.14 133 141 77
-6.83 4.82 17.23 132 140 76
-6.75 4.78 17.18 132 139 80
-6.61 4.76 17.10 132 139 80
-6.71 4.65 17.16 132 141 72
-6.66 4.60 17.13 130 139 70
-6.56 4.56 17.07 130 137 80
-6.40 4.55 16.97 130 137 80
-6.37 4.49 16.95 117 125 84
-0.38 6.53 13.45 99 107 66
-6.38 5.15 16.88 127 134 100
-6.83 4.91 17.14 133 141 77
-6.81 4.84 17.13 132 140 76
-6.76 4.79 17.10 132 139 80
-6.63 4.77 17.03 133 140 81
-6.71 4.67 17.07 132 140 74
-6.72 4.59 17.08 130 138 72
-6.61 4.56 17.02 130 138 76
-6.38 4.57 16.88 132 140 78
-6.43 4.48 16.91 121 130 84
-3.65 5.39 15.28 103 112 66
-5.00 5.68 15.98 126 133 99
-6.99 4.86 17.16 132 140 76
-6.86 4.84 17.08 131 139 75
-6.84 4.77 17.07 131 138 79
-6.72 4.74 17.00 134 141 82
-6.75 4.66 17.01 134 142 76
-6.72 4.60 17.00 131 139 73
-6.68 4.54 16.98 131 139 77
-6.48 4.55 16.85 132 140 78
-6.47 4.48 16.85 123 132 86
-4.91 4.95 15.93 106 115 69
-2.63 6.58 14.49 124 131 99
-7.29 4.76 17.26 132 140 76
-6.98 4.80 17.07 130 138 74
-6.90 4.77 17.02 131 138 79
-6.78 4.74 16.95 136 143 84
-6.82 4.65 16.97 134 142 76
-6.81 4.58 16.97 132 140 74
-6.80 4.52 16.96 132 140 78
-6.53 4.54 16.80 132 140 78
-6.49 4.48 16.78 122 131 83
-5.69 4.69 16.31 106 115 67
15.10 11.94 3.97 87 90 80
-0.63 7.35 13.20 124 131 99
-7.30 4.77 17.17 132 140 76
-7.00 4.81 17.00 130 138 74
-7.02 4.73 17.01 131 138 79
-6.87 4.72 16.92 136 143 84
-6.89 4.64 16.93 136 144 78
-6.83 4.59 16.90 133 141 75
-6.89 4.49 16.93 132 140 78
-6.71 4.49 16.83 133 141 79
-6.59 4.46 16.76 122 131 83
-6.17 4.54 16.50 106 115 67
9.20 9.88 7.35 88 91 81
2.09 8.39 11.48 120 124 107
-7.49 4.71 17.21 127 136 90
-6.96 4.84 16.89 127 136 90
-7.02 4.74 16.93 130 139 83
-6.92 4.71 16.87 132 141 85
-6.92 4.64 16.87 130 139 83
-6.94 4.56 16.88 131 140 84
-7.02 4.46 16.93 133 142 73
-6.81 4.47 16.80 133 142 73
-6.69 4.44 16.73 132 141 72
-6.74 4.35 16.76 123 132 63
2.18 7.42 11.42 104 105 68
5.89 9.84 9.09 119 123 106
-7.51 4.72 17.14 127 136 90
-7.01 4.84 16.84 127 136 90
-7.09 4.73 16.89 130 139 83
-7.03 4.68 16.85 132 141 85
-6.99 4.63 16.83 130 139 83
-6.97 4.56 16.82 131 140 84
-7.10 4.44 16.89 133 142 73
-6.94 4.43 16.80 133 142 73
-6.79 4.41 16.71 132 141 72
-6.80 4.34 16.71 123 132 63
-0.65 6.44 13.02 105 106 69
11.70 12.06 5.47 117 121 106
-7.34 4.79 16.96 126 135 91
-7.07 4.82 16.79 127 136 92
-7.16 4.72 16.85 129 138 82
-7.16 4.65 16.85 132 141 85
-7.10 4.60 16.81 130 139 83
-7.08 4.54 16.80 131 140 84
-7.18 4.43 16.86 132 140 74
-7.01 4.42 16.76 133 141 75
-6.88 4.39 16.68 132 140 74
-6.74 4.37 16.59 124 132 66
-2.22 5.90 13.86 106 107 68
18.76 14.75 1.06 115 119 104
-6.88 4.98 16.60 124 133 89
-7.23 4.78 16.80 127 136 92
-7.12 4.75 16.74 129 138 82
-7.20 4.65 16.79 131 140 84
-7.15 4.59 16.76 130 139 83
-7.09 4.54 16.72 130 139 83
-7.22 4.43 16.80 132 140 74
-7.08 4.41 16.71 132 140 74
-6.92 4.39 16.62 132 140 74
-6.89 4.33 16.60 125 133 67
-4.79 5.00 15.33 108 109 70
-5.47 5.53 15.65 123 131 90
-7.38 4.74 16.82 127 135 94
-7.17 4.74 16.69 129 138 80
-7.27 4.63 16.75 131 140 82
-7.28 4.56 16.76 130 139 81
-7.19 4.52 16.70 130 139 81
-7.31 4.41 16.77 131 139 73
-7.18 4.38 16.70 132 140 74
-7.02 4.37 16.60 132 140 76
-7.01 4.30 16.59 126 134 70
-5.65 4.71 15.76 111 113 71
17.46 12.77 1.70 94 96 54
-4.08 6.06 14.72 122 130 89
-7.64 4.65 16.89 126 134 93
-7.23 4.73 16.64 129 138 80
-7.32 4.63 16.70 130 139 81
-7.35 4.55 16.71 130 139 81
-7.23 4.52 16.64 130 139 81
-7.38 4.39 16.73 131 139 73
-7.28 4.36 16.67 131 139 73
-7.12 4.35 16.57 132 140 76
-7.04 4.30 16.53 127 135 71
-6.00 4.60 15.89 113 115 73
12.57 11.07 4.55 98 100 58
-1.32 7.12 12.93 122 130 91
-7.64 4.67 16.81 126 134 95
-7.32 4.71 16.61 129 138 78
-7.39 4.61 16.66 130 139 79
-7.45 4.52 16.69 130 139 79
-7.32 4.50 16.61 130 139 79
-7.44 4.38 16.69 131 139 75
-7.37 4.34 16.64 131 139 75
-7.18 4.34 16.53 132 140 78
-7.05 4.31 16.45 129 137 75
-6.19 4.54 15.92 115 117 73
8.47 9.64 6.93 100 102 58
1.41 8.16 11.15 121 129 90
-7.77 4.63 16.80 126 134 95
-7.37 4.71 16.56 129 138 78
-7.41 4.62 16.58 130 139 79
-7.48 4.53 16.63 130 139 79
-7.39 4.49 16.58 130 139 79
-7.49 4.38 16.63 130 138 74
-7.37 4.35 16.56 131 139 75
-7.19 4.35 16.45 132 140 78
-7.02 4.34 16.34 129 137 75
-6.76 4.35 16.19 117 119 75
2.13 7.42 10.71 101 103 59
5.76 9.82 8.35 115 122 86
-7.38 4.79 16.49 120 127 91
-7.46 4.69 16.54 126 136 73
-7.50 4.60 16.56 131 141 78
-7.45 4.55 16.53 130 140 77
-7.38 4.51 16.48 132 142 79
-7.54 4.37 16.58 134 142 80
-7.50 4.32 16.56 136 144 82
-7.30 4.32 16.44 137 144 85
-7.03 4.34 16.27 132 139 80
-6.80 4.35 16.13 120 122 76
-0.23 6.61 12.06 106 108 62
10.10 11.48 5.54 115 122 86
-6.88 4.99 16.09 120 127 91
-7.26 4.77 16.33 126 136 73
-7.57 4.59 16.52 131 141 78
-7.60 4.51 16.54 130 140 77
-7.44 4.49 16.44 131 141 78
-7.54 4.39 16.50 133 141 79
-7.48 4.34 16.46 133 141 79
-7.31 4.33 16.36 134 141 82
-7.00 4.37 16.16 132 139 80
-6.99 4.30 16.16 122 124 78
-3.19 5.57 13.80 111 113 67
15.27 13.46 2.19 114 121 85
-7.04 4.94 16.11 120 127 91
-7.40 4.74 16.33 126 136 71
-7.62 4.58 16.47 130 140 75
-7.68 4.49 16.50 130 140 75
-7.56 4.46 16.43 130 140 75
-7.64 4.36 16.48 131 138 79
-7.62 4.30 16.47 131 138 79
-7.47 4.28 16.38 132 139 82
-7.08 4.35 16.13 132 139 82
-6.98 4.32 16.07 127 130 81
-4.64 5.07 14.61 118 121 72
-6.35 5.22 15.59 119 126 90
-7.66 4.65 16.41 125 135 70
-7.57 4.61 16.35 130 140 75
