ply
format ascii 1.0
element vertex 1594
property float x
property float y
property float z
property uchar red
property uchar green
property uchar blue
end_header
-6.86 17.80 -4.07 148 142 135
-6.84 17.72 -4.09 149 143 136
-6.83 17.63 -4.10 149 143 136
-6.83 17.55 -4.11 150 144 137
-6.82 17.46 -4.11 150 144 137
-6.83 17.37 -4.11 150 144 137
-6.82 17.28 -4.12 150 144 137
-6.82 17.19 -4.12 150 144 137
-6.81 17.11 -4.13 150 144 137
-6.80 17.02 -4.14 151 145 138
-6.80 16.93 -4.14 151 145 138
-6.80 16.84 -4.15 151 145 138
-6.80 16.75 -4.15 151 145 138
-6.79 16.66 -4.16 151 145 138
-6.78 16.57 -4.16 151 145 138
-6.77 16.49 -4.18 151 145 138
-6.77 16.40 -4.18 153 147 140
-6.76 16.31 -4.19 154 148 141
-6.76 16.22 -4.19 154 148 141
-6.76 16.14 -4.20 154 148 141
-6.75 16.05 -4.20 151 145 138
-6.74 15.96 -4.21 153 147 140
-6.74 15.87 -4.21 154 148 141
-6.74 15.78 -4.22 154 148 141
-6.74 15.69 -4.22 154 148 141
-6.74 15.60 -4.22 154 148 141
-6.73 15.51 -4.23 154 148 141
-6.73 15.42 -4.23 155 149 142
-6.72 15.34 -4.24 155 149 142
-6.72 15.25 -4.24 155 149 142
-6.71 15.16 -4.25 155 149 142
-6.72 15.06 -4.24 155 149 142
-6.71 14.98 -4.25 155 149 142
-6.71 14.89 -4.25 155 149 142
-6.71 14.80 -4.26 155 149 142
-6.70 14.71 -4.26 157 151 144
-6.70 14.61 -4.26 155 154 143
-6.69 14.53 -4.27 155 154 143
-6.70 14.44 -4.27 157 156 145
-6.69 14.35 -4.28 157 156 145
-6.69 14.26 -4.28 158 157 146
-6.68 14.17 -4.29 158 157 146
-6.68 14.08 -4.29 158 157 146
-6.68 13.99 -4.30 158 157 146
-6.68 13.90 -4.30 158 157 146
-6.67 13.81 -4.30 158 157 146
-6.66 13.73 -4.31 158 157 148
-6.66 13.63 -4.31 158 157 148
-6.66 13.54 -4.31 158 157 150
-6.66 13.45 -4.31 159 158 151
-6.66 13.36 -4.31 159 158 151
-6.66 13.27 -4.31 159 158 151
-6.66 13.18 -4.32 161 157 149
-6.66 13.08 -4.31 161 157 149
-6.66 12.99 -4.31 161 157 149
-6.66 12.90 -4.31 161 157 149
-6.67 12.80 -4.30 162 158 150
-6.67 12.71 -4.31 163 159 151
-6.67 12.62 -4.30 164 160 152
-6.68 12.52 -4.29 164 160 152
-6.68 12.43 -4.28 164 160 152
-6.68 12.34 -4.29 164 160 152
-6.69 12.24 -4.28 164 160 152
-6.68 12.15 -4.28 164 160 152
-6.68 12.06 -4.29 166 162 154
-6.68 11.97 -4.28 167 163 155
-6.68 11.88 -4.30 167 163 153
-6.68 11.79 -4.29 167 163 153
-6.67 11.70 -4.30 167 163 155
-6.67 11.61 -4.31 167 163 155
-6.66 11.52 -4.31 167 163 155
-6.66 11.43 -4.31 167 163 155
-6.66 11.34 -4.31 167 163 155
-6.65 11.25 -4.33 167 163 155
-6.64 11.17 -4.34 167 163 155
-6.64 11.07 -4.33 168 164 156
-6.64 10.98 -4.34 168 164 156
-6.64 10.89 -4.34 168 164 156
-6.63 10.81 -4.35 168 164 156
-6.63 10.71 -4.35 168 164 156
-6.63 10.62 -4.35 168 164 156
-6.63 10.53 -4.35 168 164 156
-6.62 10.44 -4.36 167 166 157
-6.62 10.35 -4.37 167 166 157
-6.61 10.26 -4.37 168 164 156
-6.62 10.17 -4.37 169 165 157
-6.61 10.08 -4.37 167 166 157
-6.61 9.99 -4.37 168 167 158
-6.62 9.89 -4.37 168 167 158
-6.60 9.81 -4.39 168 167 158
-6.61 9.71 -4.38 168 167 158
-6.60 9.63 -4.39 169 168 159
-6.60 9.53 -4.39 171 170 161
-6.60 9.44 -4.39 171 170 161
-6.60 9.35 -4.39 171 170 161
-6.60 9.26 -4.39 171 170 161
-6.60 9.17 -4.39 171 170 161
-6.60 9.08 -4.39 171 170 161
-6.60 8.99 -4.39 171 170 161
-6.59 8.90 -4.40 171 170 161
-6.59 8.80 -4.40 170 171 161
-6.59 8.71 -4.41 170 171 161
-6.58 8.62 -4.41 170 171 161
-6.59 8.53 -4.40 170 171 161
-6.58 8.44 -4.41 170 171 161
-6.58 8.35 -4.41 171 172 162
-6.58 8.25 -4.41 171 172 162
-6.58 8.16 -4.41 171 172 162
-6.58 8.07 -4.41 171 172 162
-6.58 7.98 -4.41 171 172 162
-6.58 7.89 -4.41 171 172 162
-6.58 7.80 -4.41 171 172 162
-6.58 7.71 -4.41 171 172 162
-6.58 7.61 -4.41 172 173 163
-6.58 7.52 -4.42 172 173 163
-6.58 7.43 -4.42 172 173 163
-6.58 7.34 -4.41 172 173 165
-6.58 7.24 -4.41 172 173 165
-6.58 7.15 -4.41 172 173 165
-6.59 7.06 -4.40 172 173 165
-6.58 6.97 -4.41 172 173 165
-6.58 6.88 -4.41 172 173 165
-6.59 6.78 -4.40 172 173 165
-6.58 6.69 -4.41 172 173 165
-6.59 6.60 -4.40 172 173 165
-6.58 6.51 -4.41 172 173 165
-6.58 6.41 -4.41 172 173 165
-6.59 6.32 -4.40 172 173 165
-6.59 6.23 -4.40 172 173 165
-6.59 6.14 -4.40 172 173 165
-6.59 6.05 -4.40 172 173 165
-6.58 5.96 -4.41 172 173 165
-6.57 5.87 -4.42 173 174 164
-6.57 5.78 -4.42 173 174 164
-6.57 5.68 -4.42 173 174 164
-6.56 5.59 -4.43 173 174 164
-6.57 5.50 -4.43 173 174 164
-6.55 5.42 -4.45 173 174 164
-6.55 5.32 -4.45 173 174 164
-6.54 5.24 -4.46 173 174 164
-6.54 5.14 -4.46 173 174 164
-6.54 5.05 -4.47 173 174 164
-6.53 4.96 -4.47 173 174 164
-6.54 4.87 -4.47 173 174 164
-6.54 4.78 -4.47 173 174 164
-6.54 4.68 -4.46 173 174 164
-6.54 4.59 -4.47 173 174 164
-6.54 4.50 -4.46 173 174 164
-6.55 4.40 -4.45 173 174 164
-6.55 4.31 -4.45 173 174 164
-6.55 4.22 -4.45 173 173 168
-6.56 4.12 -4.43 173 173 168
-6.57 4.03 -4.43 173 173 168
-6.57 3.94 -4.43 173 173 168
-6.58 3.84 -4.42 173 173 168
-6.57 3.75 -4.42 173 173 168
-6.58 3.66 -4.41 173 173 168
-6.58 3.57 -4.42 173 173 168
-6.58 3.47 -4.41 172 172 167
-6.59 3.38 -4.40 172 172 167
-6.58 3.29 -4.42 172 172 167
-6.58 3.19 -4.41 172 172 167
-6.58 3.11 -4.42 172 172 167
-6.57 3.01 -4.42 172 172 167
-6.57 2.92 -4.43 172 173 165
-6.57 2.83 -4.42 172 173 165
-6.57 2.74 -4.43 172 173 165
-6.57 2.65 -4.43 172 173 165
-6.58 2.55 -4.42 172 173 165
-6.56 2.46 -4.43 172 173 165
-6.57 2.37 -4.43 172 173 165
-6.57 2.28 -4.43 172 173 165
-6.58 2.19 -4.42 172 173 165
-6.58 2.09 -4.42 172 173 165
-6.58 2.00 -4.41 172 173 165
-6.59 1.91 -4.40 172 173 165
-6.58 1.82 -4.42 172 173 165
-6.58 1.72 -4.41 172 173 165
-6.58 1.63 -4.42 172 173 165
-6.58 1.54 -4.42 172 173 165
-6.58 1.45 -4.42 172 173 165
-6.58 1.36 -4.42 172 173 165
-6.59 1.26 -4.41 172 173 165
-6.58 1.17 -4.41 172 173 165
-6.59 1.08 -4.40 172 173 165
-6.58 0.99 -4.41 172 173 165
-6.58 0.90 -4.41 172 173 165
-6.58 0.80 -4.42 172 173 165
-6.58 0.71 -4.42 172 173 165
-6.58 0.62 -4.41 172 173 165
-6.58 0.53 -4.42 172 173 165
-6.58 0.44 -4.42 172 173 165
-6.57 0.35 -4.43 172 173 165
-6.57 0.25 -4.43 172 173 165
-6.57 0.16 -4.42 172 173 165
-6.58 0.07 -4.42 172 173 165
-6.57 -0.02 -4.43 169 174 168
-6.58 -0.12 -4.42 169 174 168
-6.58 -0.21 -4.42 169 174 168
-6.58 -0.30 -4.42 169 174 168
-6.59 -0.39 -4.41 169 174 168
-6.58 -0.48 -4.41 169 174 168
-6.59 -0.58 -4.40 169 174 168
-6.58 -0.67 -4.41 169 174 168
-6.58 -0.76 -4.41 170 175 169
-6.58 -0.85 -4.41 170 175 169
-6.58 -0.94 -4.41 170 175 169
-6.58 -1.04 -4.41 170 175 169
-6.58 -1.13 -4.42 170 175 169
-6.58 -1.22 -4.41 170 175 169
-6.57 -1.31 -4.43 170 175 169
-6.57 -1.40 -4.42 170 175 169
-6.58 -1.50 -4.42 172 174 169
-6.58 -1.59 -4.42 172 174 169
-6.57 -1.68 -4.42 170 177 170
-6.57 -1.77 -4.43 170 177 170
-6.58 -1.86 -4.42 170 177 170
-6.58 -1.96 -4.41 170 177 170
-6.57 -2.05 -4.43 170 177 170
-6.57 -2.14 -4.43 170 177 170
-6.57 -2.23 -4.43 170 177 170
-6.58 -2.32 -4.42 171 178 171
-6.58 -2.42 -4.42 173 180 173
-6.58 -2.51 -4.42 173 180 173
-6.58 -2.60 -4.41 173 180 173
-6.58 -2.69 -4.42 173 180 173
-6.58 -2.79 -4.41 173 180 173
-6.58 -2.88 -4.42 173 180 173
-6.58 -2.97 -4.42 171 178 171
-6.58 -3.06 -4.42 171 178 171
-6.58 -3.15 -4.42 171 178 171
-6.57 -3.24 -4.43 171 178 171
-6.57 -3.33 -4.43 171 181 175
-6.57 -3.43 -4.43 171 181 175
-6.57 -3.52 -4.43 173 180 175
-6.57 -3.61 -4.43 173 180 175
-6.56 -3.70 -4.43 174 179 178
-6.56 -3.79 -4.44 174 179 178
-6.56 -3.89 -4.44 174 179 178
-6.56 -3.98 -4.44 174 179 178
-6.55 -4.07 -4.46 174 179 178
-6.54 -4.16 -4.46 174 179 178
-6.54 -4.25 -4.47 174 179 178
-6.53 -4.34 -4.47 175 180 179
-6.53 -4.44 -4.48 175 180 176
-6.52 -4.53 -4.49 177 182 178
-6.52 -4.62 -4.49 176 183 178
-6.51 -4.71 -4.50 176 183 178
-6.52 -4.80 -4.49 176 183 178
-6.51 -4.90 -4.49 176 183 178
-6.51 -4.99 -4.51 176 183 178
-6.51 -5.08 -4.51 176 183 178
-6.51 -5.17 -4.51 175 182 177
-6.51 -5.26 -4.50 175 182 177
-6.51 -5.36 -4.50 175 182 177
-6.51 -5.45 -4.50 175 182 177
-6.51 -5.54 -4.50 175 182 180
-6.51 -5.63 -4.51 175 182 180
-6.51 -5.73 -4.51 176 183 181
-6.50 -5.82 -4.52 176 183 181
-6.49 -5.91 -4.52 176 183 181
-6.49 -6.00 -4.52 176 183 181
-6.49 -6.09 -4.53 176 183 181
-6.48 -6.19 -4.53 176 183 181
-6.48 -6.28 -4.54 176 183 181
-6.48 -6.37 -4.54 176 183 181
-6.46 -6.46 -4.56 177 184 182
-6.47 -6.55 -4.56 178 185 183
-6.46 -6.65 -4.57 178 185 183
-6.45 -6.74 -4.58 178 185 183
-6.44 -6.83 -4.58 178 185 183
-6.44 -6.92 -4.59 178 185 183
-6.44 -7.02 -4.59 178 185 183
-6.43 -7.11 -4.59 178 185 183
-6.44 -7.20 -4.59 178 185 183
-6.43 -7.29 -4.60 178 185 183
-6.41 -7.39 -4.63 179 184 183
-6.40 -7.48 -4.64 179 184 183
-6.37 -7.57 -4.67 178 185 183
-6.37 -7.66 -4.68 178 185 183
-6.36 -7.76 -4.69 178 185 183
-6.35 -7.85 -4.69 178 185 183
-6.35 -7.94 -4.69 178 185 183
-6.35 -8.03 -4.70 180 187 185
-6.34 -8.13 -4.71 181 188 186
-6.34 -8.22 -4.71 181 188 186
-6.34 -8.31 -4.71 181 188 186
-6.34 -8.40 -4.71 181 188 186
-6.34 -8.50 -4.71 181 188 186
-6.34 -8.59 -4.71 181 188 186
-6.33 -8.68 -4.72 182 187 186
-6.34 -8.78 -4.71 179 184 183
-6.35 -8.87 -4.70 181 188 186
-6.36 -8.96 -4.69 180 187 185
-6.37 -9.05 -4.68 181 188 186
-6.36 -9.14 -4.68 182 189 187
-6.39 -9.24 -4.65 182 189 187
-6.43 -9.33 -4.60 181 188 186
-6.40 -9.42 -4.63 182 189 187
-6.41 -9.51 -4.62 187 194 192
-6.38 -9.61 -4.66 184 191 189
-6.34 -9.70 -4.71 184 191 189
-6.36 -9.79 -4.69 183 190 188
-6.37 -9.89 -4.67 184 191 189
-6.38 -9.98 -4.66 185 192 190
-6.37 -10.07 -4.67 185 192 190
-6.38 -10.16 -4.66 184 191 189
-6.38 -10.25 -4.66 183 190 188
-6.40 -10.35 -4.64 187 194 192
-6.41 -10.44 -4.62 187 194 192
-6.44 -10.53 -4.59 187 194 192
-6.45 -10.62 -4.58 187 194 192
-6.45 -10.71 -4.57 187 194 192
-6.47 -10.80 -4.56 187 194 192
-6.47 -10.89 -4.55 187 194 192
-6.47 -10.99 -4.54 187 194 192
-6.47 -11.08 -4.55 188 195 193
-6.47 -11.17 -4.55 188 195 193
-6.46 -11.26 -4.56 188 195 193
-6.47 -11.36 -4.55 188 195 193
-6.46 -11.45 -4.56 188 195 193
-6.47 -11.54 -4.56 188 195 193
-6.47 -11.63 -4.56 188 195 193
-6.46 -11.73 -4.57 188 195 193
-6.45 -11.82 -4.57 188 195 193
-6.45 -11.91 -4.57 188 195 193
-6.46 -12.00 -4.57 189 196 194
-6.45 -12.10 -4.57 189 196 194
-6.44 -12.19 -4.58 190 197 195
-6.44 -12.28 -4.59 190 197 195
-6.43 -12.38 -4.60 191 198 196
-6.43 -12.47 -4.59 192 199 197
-6.42 -12.56 -4.61 192 199 197
-6.41 -12.66 -4.62 192 199 197
-6.41 -12.75 -4.63 192 199 197
-6.41 -12.84 -4.62 192 199 197
-6.40 -12.94 -4.64 192 199 197
-6.40 -13.03 -4.64 192 199 197
-6.39 -13.12 -4.65 190 200 197
-6.38 -13.22 -4.66 189 199 196
-6.37 -13.31 -4.67 189 199 196
-6.36 -13.41 -4.68 189 199 196
-6.36 -13.50 -4.69 189 199 196
-6.34 -13.59 -4.71 189 199 196
-6.33 -13.69 -4.72 192 197 193
-6.32 -13.78 -4.73 192 197 193
-6.32 -13.88 -4.74 192 196 198
-6.31 -13.97 -4.75 192 196 198
-6.32 -14.06 -4.73 191 195 199
-6.33 -14.15 -4.72 188 192 196
-6.34 -14.24 -4.71 179 184 178
-6.37 -14.33 -4.67 178 183 177
-6.40 -14.42 -4.64 196 204 209
-6.50 -14.49 -4.51 143 151 156
-6.80 -14.51 -4.14 11 14 52
-6.95 -14.57 -3.95 23 26 64
-6.98 -14.66 -3.93 36 49 120
-6.97 -14.75 -3.93 39 52 123
-7.02 -14.83 -3.88 34 47 132
-7.04 -14.92 -3.84 38 51 136
-7.05 -15.00 -3.83 41 56 142
-7.07 -15.09 -3.81 33 48 134
-7.09 -15.18 -3.79 41 60 138
-7.10 -15.26 -3.77 36 55 133
-7.12 -15.35 -3.75 34 50 120
-7.13 -15.44 -3.74 39 55 125
-7.15 -15.53 -3.72 39 52 96
-7.17 -15.61 -3.69 33 46 90
-7.18 -15.70 -3.67 59 70 83
-7.21 -15.78 -3.64 87 98 111
-7.24 -15.86 -3.60 108 117 119
-7.26 -15.95 -3.57 111 120 122
-7.31 -16.03 -3.52 112 115 103
-7.36 -16.10 -3.46 92 95 83
-7.41 -16.18 -3.40 96 97 78
-7.48 -16.25 -3.31 137 138 119
-7.54 -16.32 -3.23 176 172 151
-7.61 -16.39 -3.15 180 176 155
-7.69 -16.46 -3.05 177 176 151
-7.77 -16.52 -2.95 179 178 153
-7.83 -16.59 -2.87 170 175 153
-7.87 -16.67 -2.83 170 175 153
-7.90 -16.75 -2.79 168 175 157
-7.93 -16.83 -2.76 168 175 157
-7.95 -16.91 -2.72 172 174 157
-7.98 -16.99 -2.69 172 174 157
-8.01 -17.07 -2.66 175 172 157
-8.03 -17.15 -2.62 175 172 157
-8.06 -17.23 -2.59 171 171 155
-8.09 -17.31 -2.56 169 169 153
-8.11 -17.39 -2.53 168 168 152
-8.14 -17.47 -2.50 166 166 150
-8.16 -17.55 -2.47 165 165 151
-8.18 -17.63 -2.45 165 165 151
-8.20 -17.71 -2.42 166 166 152
-8.22 -17.80 -2.40 167 167 153
-8.23 -17.88 -2.38 167 166 155
-8.24 -17.96 -2.37 160 159 148
-8.26 -18.04 -2.35 161 160 151
-8.28 -18.13 -2.32 160 159 150
-8.29 -18.21 -2.30 160 159 150
-8.31 -18.29 -2.28 160 159 150
-8.33 -18.37 -2.25 157 156 147
-8.35 -18.45 -2.23 155 154 145
-8.37 -18.53 -2.21 145 145 142
-8.39 -18.61 -2.19 130 130 127
-8.41 -18.69 -2.16 118 118 113
-8.44 -18.77 -2.12 94 94 89
-8.44 -18.85 -2.12 68 69 59
-8.46 -18.93 -2.10 40 41 31
-8.48 -19.01 -2.07 31 32 20
-8.50 -19.09 -2.05 36 37 25
-8.51 -19.17 -2.03 48 50 35
-8.54 -19.25 -2.00 69 71 56
-8.57 -19.32 -1.96 116 118 103
-8.60 -19.40 -1.92 128 130 115
-8.64 -19.47 -1.87 75 76 66
-8.69 -19.54 -1.81 46 47 37
-8.73 -19.61 -1.76 47 48 38
-8.79 -19.67 -1.69 32 33 23
-8.85 -19.73 -1.62 21 23 20
-8.90 -19.80 -1.55 21 23 20
-8.96 -19.86 -1.48 16 18 15
-9.00 -19.93 -1.43 18 20 17
-9.05 -19.99 -1.37 14 16 13
-9.08 -20.06 -1.33 22 24 21
-9.12 -20.13 -1.29 25 27 24
-9.15 -20.20 -1.24 31 33 30
-9.19 -20.27 -1.20 31 33 30
-9.23 -20.34 -1.15 35 37 34
-9.25 -20.42 -1.12 42 44 41
-9.29 -20.49 -1.08 49 51 48
-9.33 -20.55 -1.02 56 58 55
-9.36 -20.62 -0.99 62 64 61
-9.41 -20.69 -0.93 63 65 62
-9.46 -20.75 -0.87 65 67 64
-9.50 -20.82 -0.82 68 65 71
-9.54 -20.88 -0.76 68 65 71
-9.55 -20.96 -0.75 32 25 9
-9.55 -21.04 -0.75 117 110 94
-9.19 -21.29 -1.20 222 214 180
-7.99 -21.93 -2.68 239 231 197
-7.19 -22.38 -3.66 218 209 180
-7.29 -22.42 -3.54 223 214 185
-7.34 -22.49 -3.48 222 217 203
-7.32 -22.59 -3.50 222 217 203
-7.29 -22.69 -3.54 219 218 209
-7.29 -22.78 -3.54 219 218 209
-7.29 -22.87 -3.53 219 218 211
-7.29 -22.96 -3.54 219 218 211
-7.28 -23.06 -3.55 221 217 211
-7.28 -23.15 -3.55 221 217 211
-7.28 -23.24 -3.55 218 220 217
-7.28 -23.33 -3.56 218 220 217
-7.27 -23.42 -3.56 218 220 217
-7.27 -23.52 -3.57 218 220 217
-7.27 -23.60 -3.56 218 220 217
-7.28 -23.69 -3.56 218 220 217
-7.28 -23.78 -3.55 218 220 217
-7.28 -23.87 -3.55 219 221 218
-7.29 -23.95 -3.54 220 222 219
-7.29 -24.04 -3.54 220 222 219
-7.29 -24.14 -3.54 220 222 219
-7.28 -24.23 -3.55 220 222 219
-7.28 -24.32 -3.55 220 222 219
-7.28 -24.41 -3.55 220 222 219
-7.28 -24.50 -3.55 220 222 219
-7.28 -24.59 -3.55 220 222 219
-7.29 -24.68 -3.54 220 222 219
-7.29 -24.76 -3.54 220 222 219
-7.29 -24.85 -3.54 220 222 219
-7.30 -24.94 -3.53 220 222 219
-7.30 -25.03 -3.53 220 222 219
-7.30 -25.12 -3.52 220 222 219
-7.30 -25.21 -3.53 220 222 219
-7.31 -25.30 -3.52 220 222 219
-7.31 -25.39 -3.52 220 222 219
-7.32 -25.47 -3.51 220 222 219
-7.32 -25.56 -3.50 220 222 219
-7.33 -25.64 -3.49 220 222 219
-7.34 -25.73 -3.48 220 222 219
-7.34 -25.82 -3.48 220 222 219
-7.35 -25.90 -3.46 220 222 219
-7.34 -26.00 -3.48 220 222 219
-7.35 -26.08 -3.46 221 223 220
-7.35 -26.17 -3.46 221 223 220
-7.35 -26.26 -3.46 221 223 220
-7.36 -26.35 -3.45 221 223 220
-7.36 -26.43 -3.45 221 223 220
-7.37 -26.52 -3.44 221 223 220
-7.37 -26.61 -3.44 221 223 220
-7.37 -26.70 -3.44 221 223 220
-7.37 -26.79 -3.44 223 225 222
-7.38 -26.87 -3.43 223 225 222
-7.37 -26.97 -3.44 223 225 222
-7.37 -27.05 -3.44 223 225 222
-7.39 -27.14 -3.42 223 225 222
-7.38 -27.23 -3.43 223 225 222
-7.39 -27.32 -3.42 223 225 222
-7.38 -27.41 -3.42 223 225 222
-7.39 -27.50 -3.42 224 222 223
-7.39 -27.58 -3.41 224 222 223
-7.39 -27.67 -3.41 224 222 223
-7.40 -27.76 -3.40 224 222 223
-7.40 -27.85 -3.41 224 222 223
-7.40 -27.94 -3.41 224 222 223
-7.41 -28.02 -3.40 224 222 223
-7.41 -28.11 -3.39 224 222 223
-7.41 -28.20 -3.39 225 223 224
-7.41 -28.29 -3.39 225 223 224
-7.42 -28.37 -3.38 225 223 224
-7.42 -28.46 -3.38 225 223 224
-7.42 -28.55 -3.38 225 223 224
-7.43 -28.63 -3.36 225 223 224
-7.42 -28.73 -3.37 225 223 224
-7.44 -28.81 -3.36 225 223 224
-7.43 -28.90 -3.36 226 224 225
-7.44 -28.99 -3.36 226 224 225
-7.45 -29.07 -3.34 226 224 225
-7.44 -29.16 -3.35 226 224 225
-7.44 -29.25 -3.35 226 224 225
-7.44 -29.34 -3.35 226 224 225
-7.44 -29.43 -3.35 226 224 225
-7.44 -29.52 -3.35 226 224 225
-7.45 -29.61 -3.35 229 227 228
-7.44 -29.70 -3.35 229 227 228
-7.44 -29.79 -3.35 229 227 228
-7.45 -29.88 -3.34 229 227 228
-7.45 -29.97 -3.35 229 227 228
-7.45 -30.06 -3.34 229 227 228
-7.45 -30.14 -3.34 229 227 228
-7.45 -30.23 -3.34 229 227 228
-7.45 -30.32 -3.34 231 229 230
-7.45 -30.41 -3.34 231 229 230
-7.45 -30.50 -3.34 231 229 230
-7.45 -30.59 -3.34 231 229 230
-7.46 -30.68 -3.33 231 229 230
-7.45 -30.77 -3.34 231 229 230
-7.46 -30.86 -3.33 231 229 230
-7.45 -30.95 -3.35 231 229 230
-7.45 -31.04 -3.34 231 229 230
-7.46 -31.12 -3.33 231 229 230
-7.45 -31.22 -3.34 231 229 230
-7.45 -31.31 -3.34 231 229 230
-7.45 -31.40 -3.34 231 229 230
-7.45 -31.49 -3.34 231 229 230
-7.45 -31.58 -3.34 233 231 232
-7.46 -31.66 -3.33 233 231 232
-7.46 -31.75 -3.33 235 230 232
-7.46 -31.84 -3.33 235 230 232
-7.47 -31.93 -3.32 235 230 232
-7.47 -32.01 -3.31 235 230 232
-7.47 -32.10 -3.31 235 230 232
-7.48 -32.18 -3.31 235 230 232
-7.48 -32.27 -3.30 235 230 232
-7.48 -32.36 -3.30 235 230 232
-7.49 -32.44 -3.29 235 230 232
-7.49 -32.53 -3.29 235 230 232
-7.50 -32.62 -3.29 237 232 234
-7.50 -32.71 -3.28 237 232 234
-7.50 -32.79 -3.28 238 233 235
-7.51 -32.88 -3.27 239 234 236
-7.51 -32.96 -3.27 239 234 236
-7.51 -33.05 -3.27 239 234 236
-7.51 -33.14 -3.27 239 234 236
-7.52 -33.22 -3.25 239 234 236
-7.53 -33.31 -3.24 237 235 236
-7.53 -33.40 -3.24 237 235 236
-7.54 -33.48 -3.23 237 235 236
-7.54 -33.57 -3.23 237 235 236
-7.54 -33.65 -3.23 237 235 236
-7.55 -33.74 -3.22 237 235 236
-7.55 -33.83 -3.22 237 235 236
-7.55 -33.92 -3.22 237 235 236
-7.55 -34.00 -3.22 237 235 236
-7.55 -34.09 -3.22 237 235 236
-7.55 -34.18 -3.22 237 235 236
-7.55 -34.27 -3.21 237 235 236
-7.57 -34.34 -3.19 237 235 236
-7.59 -34.42 -3.17 237 235 236
-7.60 -34.50 -3.16 236 238 233
-7.61 -34.58 -3.14 234 236 231
-7.62 -34.66 -3.13 236 236 231
-7.63 -34.74 -3.11 239 239 234
-7.64 -34.82 -3.10 239 237 233
-7.59 -34.95 -3.17 237 235 231
-7.56 -35.06 -3.20 239 234 231
-7.59 -35.13 -3.16 241 236 233
-7.78 -35.06 -2.94 248 238 237
-5.98 -36.71 -5.16 222 212 211
-7.29 21.47 -3.67 142 133 125
-7.25 21.41 -3.72 142 133 125
-7.27 21.30 -3.69 142 133 125
-7.27 21.22 -3.70 142 133 125
-7.27 21.13 -3.70 142 133 125
-7.27 21.04 -3.70 142 133 125
-7.24 20.97 -3.73 142 133 125
-7.23 20.89 -3.75 142 133 125
-7.23 20.80 -3.74 142 133 125
-7.24 20.70 -3.74 142 133 125
-7.23 20.62 -3.74 142 133 125
-7.23 20.53 -3.75 142 133 125
-7.22 20.45 -3.76 143 134 126
-7.22 20.35 -3.75 143 134 126
-7.23 20.26 -3.75 143 134 126
-7.22 20.18 -3.76 143 134 126
-7.22 20.09 -3.76 143 134 126
-7.20 20.01 -3.78 143 134 126
-7.19 19.93 -3.79 143 134 126
-7.19 19.84 -3.79 143 134 126
-7.18 19.76 -3.80 144 135 127
-7.17 19.68 -3.82 144 135 127
-7.17 19.59 -3.82 144 135 127
-7.16 19.50 -3.83 144 135 127
-7.15 19.42 -3.85 145 136 128
-7.15 19.33 -3.84 145 136 128
-7.13 19.25 -3.87 145 136 128
-7.13 19.17 -3.87 145 136 128
-7.12 19.09 -3.89 146 137 129
-7.10 19.00 -3.90 146 137 129
-7.10 18.92 -3.91 146 137 129
-7.08 18.84 -3.93 146 137 129
-7.08 18.75 -3.93 146 137 129
-7.06 18.67 -3.95 146 137 129
-7.06 18.59 -3.96 146 137 129
-7.05 18.50 -3.97 146 137 129
-7.04 18.42 -3.98 146 137 131
-7.03 18.34 -3.99 148 139 133
-7.03 18.25 -3.99 150 141 135
-7.02 18.16 -4.00 150 141 135
-7.02 18.07 -4.00 148 142 135
-7.01 17.99 -4.02 148 142 135
-7.01 17.89 -4.01 148 142 135
-7.01 17.81 -4.02 148 142 135
-7.00 17.72 -4.03 148 142 135
-7.00 17.64 -4.04 149 143 136
-6.99 17.55 -4.04 149 143 136
-6.98 17.46 -4.05 150 144 137
-6.97 17.38 -4.07 150 144 137
-6.97 17.29 -4.06 150 144 137
-6.97 17.20 -4.07 150 144 137
-6.97 17.11 -4.07 150 144 137
-6.96 17.03 -4.08 150 144 137
-6.96 16.94 -4.08 151 145 138
-6.96 16.84 -4.08 151 145 138
-6.95 16.76 -4.09 151 145 138
-6.94 16.67 -4.10 151 145 138
-6.94 16.59 -4.11 151 145 138
-6.93 16.50 -4.12 151 145 138
-6.92 16.41 -4.12 151 145 138
-6.92 16.32 -4.13 153 147 140
-6.92 16.23 -4.13 154 148 141
-6.91 16.15 -4.14 154 148 141
-6.91 16.06 -4.15 154 148 141
-6.90 15.97 -4.15 151 145 138
-6.90 15.88 -4.15 153 147 140
-6.89 15.80 -4.16 154 148 141
-6.89 15.71 -4.17 154 148 141
-6.89 15.62 -4.17 154 148 141
-6.89 15.53 -4.17 154 148 141
-6.89 15.44 -4.17 154 148 141
-6.88 15.35 -4.18 155 149 142
-6.87 15.26 -4.19 155 149 142
-6.88 15.17 -4.18 155 149 142
-6.87 15.08 -4.19 155 149 142
-6.87 14.99 -4.19 155 149 142
-6.87 14.90 -4.20 155 149 142
-6.87 14.81 -4.20 155 149 142
-6.87 14.72 -4.19 155 149 142
-6.86 14.64 -4.21 157 151 144
-6.85 14.55 -4.21 155 154 143
-6.85 14.46 -4.22 155 154 143
-6.84 14.37 -4.22 157 156 145
-6.84 14.28 -4.23 157 156 145
-6.84 14.19 -4.23 158 157 146
-6.83 14.10 -4.23 158 157 146
-6.83 14.01 -4.24 158 157 146
-6.83 13.92 -4.24 158 157 146
-6.82 13.83 -4.25 158 157 146
-6.83 13.74 -4.24 158 157 146
-6.82 13.66 -4.26 158 157 148
-6.82 13.56 -4.25 158 157 148
-6.81 13.48 -4.26 158 157 150
-6.82 13.38 -4.26 159 158 151
-6.81 13.29 -4.26 159 158 151
-6.81 13.20 -4.26 159 158 151
-6.81 13.11 -4.27 161 157 149
-6.82 13.02 -4.26 161 157 149
-6.82 12.92 -4.26 161 157 149
-6.83 12.83 -4.24 161 157 149
-6.83 12.73 -4.24 162 158 150
-6.83 12.64 -4.24 163 159 151
-6.83 12.55 -4.24 164 160 152
-6.83 12.46 -4.24 164 160 152
-6.84 12.36 -4.23 166 162 154
-6.84 12.27 -4.22 166 162 154
-6.84 12.18 -4.23 166 162 154
-6.84 12.09 -4.23 166 162 154
-6.85 11.99 -4.22 166 162 154
-6.84 11.90 -4.23 167 163 155
-6.84 11.81 -4.23 167 163 153
-6.83 11.72 -4.23 167 163 153
-6.83 11.63 -4.23 167 163 155
-6.83 11.55 -4.24 167 163 155
-6.82 11.46 -4.25 167 163 155
-6.82 11.37 -4.26 167 163 155
-6.82 11.28 -4.26 167 163 155
-6.81 11.19 -4.26 167 163 155
-6.80 11.10 -4.27 167 163 155
-6.80 11.01 -4.27 168 164 156
-6.80 10.92 -4.28 168 164 156
-6.80 10.83 -4.28 168 164 156
-6.79 10.74 -4.29 168 164 156
-6.79 10.65 -4.29 168 164 156
-6.78 10.57 -4.30 168 164 156
-6.78 10.48 -4.31 168 164 156
-6.78 10.38 -4.30 167 166 157
-6.78 10.29 -4.31 167 166 157
-6.77 10.21 -4.32 168 164 156
-6.77 10.11 -4.32 169 165 157
-6.76 10.02 -4.32 167 166 157
-6.76 9.93 -4.32 168 167 158
-6.76 9.84 -4.32 168 167 158
-6.75 9.75 -4.33 168 167 158
-6.76 9.66 -4.33 168 167 158
-6.75 9.57 -4.33 169 168 159
-6.75 9.48 -4.33 171 170 161
-6.76 9.39 -4.33 171 170 161
-6.75 9.30 -4.33 171 170 161
-6.76 9.20 -4.33 171 170 161
-6.75 9.12 -4.34 171 170 161
-6.75 9.02 -4.34 171 170 161
-6.75 8.93 -4.34 171 170 161
-6.74 8.84 -4.35 171 170 161
-6.74 8.75 -4.35 170 171 161
-6.73 8.67 -4.36 170 171 161
-6.73 8.57 -4.36 170 171 161
-6.74 8.48 -4.35 170 171 161
-6.74 8.38 -4.35 170 171 161
-6.74 8.29 -4.35 171 172 162
-6.74 8.20 -4.35 171 172 162
-6.74 8.11 -4.35 171 172 162
-6.75 8.02 -4.34 171 172 162
-6.74 7.93 -4.35 171 172 162
-6.74 7.84 -4.36 171 172 162
-6.74 7.75 -4.36 171 172 162
-6.73 7.66 -4.36 171 172 162
-6.73 7.56 -4.36 172 173 163
-6.73 7.47 -4.36 172 173 163
-6.73 7.38 -4.36 172 173 163
-6.73 7.29 -4.37 172 173 165
-6.74 7.19 -4.35 172 173 165
-6.73 7.11 -4.36 172 173 165
-6.75 7.01 -4.34 172 173 165
-6.75 6.92 -4.34 172 173 165
-6.74 6.83 -4.36 172 173 165
-6.75 6.73 -4.34 172 173 165
-6.74 6.65 -4.36 172 173 165
-6.74 6.55 -4.35 172 173 165
-6.74 6.46 -4.35 172 173 165
-6.74 6.37 -4.35 172 173 165
-6.75 6.27 -4.34 172 173 165
-6.74 6.18 -4.35 172 173 165
-6.75 6.09 -4.34 172 173 165
-6.74 6.00 -4.35 172 173 165
-6.74 5.91 -4.35 172 173 165
-6.74 5.82 -4.35 173 174 164
-6.73 5.73 -4.36 173 174 164
-6.73 5.64 -4.37 173 174 164
-6.72 5.55 -4.38 173 174 164
-6.71 5.46 -4.38 173 174 164
-6.71 5.37 -4.39 173 174 164
-6.71 5.28 -4.39 173 174 164
-6.71 5.19 -4.39 173 174 164
-6.70 5.10 -4.40 173 174 164
-6.69 5.01 -4.41 173 174 164
-6.69 4.92 -4.42 173 174 164
-6.70 4.82 -4.40 173 174 164
-6.69 4.74 -4.42 173 174 164
-6.70 4.64 -4.40 173 174 164
-6.69 4.55 -4.41 173 174 164
-6.69 4.46 -4.41 173 174 164
-6.71 4.36 -4.39 173 174 164
-6.71 4.27 -4.38 173 174 164
-6.72 4.17 -4.37 172 172 167
-6.72 4.08 -4.38 172 172 167
-6.73 3.99 -4.37 172 172 167
-6.73 3.90 -4.37 172 172 167
-6.74 3.80 -4.35 172 172 167
-6.74 3.71 -4.36 172 172 167
-6.74 3.62 -4.35 172 172 167
-6.73 3.53 -4.36 172 172 167
-6.73 3.44 -4.36 172 172 167
-6.75 3.34 -4.34 172 172 167
-6.74 3.25 -4.35 172 172 167
-6.74 3.16 -4.35 172 172 167
-6.74 3.07 -4.36 172 172 167
-6.73 2.98 -4.36 172 172 167
-6.74 2.88 -4.35 172 173 165
-6.73 2.80 -4.36 172 173 165
-6.73 2.70 -4.36 172 173 165
-6.73 2.61 -4.36 172 173 165
-6.73 2.52 -4.37 172 173 165
-6.73 2.43 -4.37 172 173 165
-6.73 2.34 -4.37 172 173 165
-6.73 2.25 -4.37 172 173 165
-6.73 2.15 -4.36 172 173 165
-6.73 2.06 -4.36 172 173 165
-6.74 1.97 -4.36 172 173 165
-6.74 1.88 -4.35 172 173 165
-6.73 1.79 -4.36 172 173 165
-6.74 1.69 -4.35 172 173 165
-6.73 1.60 -4.36 172 173 165
-6.74 1.51 -4.35 172 173 165
-6.74 1.42 -4.35 172 173 165
-6.74 1.33 -4.35 172 173 165
-6.74 1.23 -4.35 172 173 165
-6.74 1.14 -4.36 172 173 165
-6.74 1.05 -4.35 172 173 165
-6.73 0.96 -4.36 172 173 165
-6.74 0.87 -4.35 172 173 165
-6.73 0.78 -4.36 172 173 165
-6.73 0.69 -4.36 172 173 165
-6.73 0.59 -4.36 172 173 165
-6.73 0.50 -4.37 172 173 165
-6.73 0.41 -4.36 172 173 165
-6.73 0.32 -4.36 172 173 165
-6.73 0.23 -4.36 172 173 165
-6.73 0.14 -4.36 172 173 165
-6.73 0.04 -4.36 172 173 165
-6.73 -0.05 -4.36 169 174 168
-6.73 -0.14 -4.36 169 174 168
-6.73 -0.23 -4.36 169 174 168
-6.73 -0.32 -4.36 169 174 168
-6.74 -0.42 -4.35 169 174 168
-6.73 -0.51 -4.36 169 174 168
-6.75 -0.60 -4.34 169 174 168
-6.74 -0.69 -4.35 169 174 168
-6.75 -0.78 -4.34 170 175 169
-6.75 -0.88 -4.34 170 175 169
-6.74 -0.97 -4.35 170 175 169
-6.75 -1.06 -4.34 170 175 169
-6.75 -1.15 -4.34 170 175 169
-6.74 -1.24 -4.35 170 175 169
-6.74 -1.33 -4.36 170 175 169
-6.74 -1.42 -4.35 170 175 169
-6.74 -1.52 -4.35 172 174 169
-6.74 -1.61 -4.36 172 174 169
-6.74 -1.70 -4.35 170 177 170
-6.74 -1.79 -4.35 170 177 170
-6.74 -1.88 -4.35 170 177 170
-6.74 -1.97 -4.35 170 177 170
-6.75 -2.07 -4.34 170 177 170
-6.75 -2.16 -4.34 170 177 170
-6.75 -2.25 -4.34 170 177 170
-6.75 -2.34 -4.34 171 178 171
-6.74 -2.43 -4.35 173 180 173
-6.74 -2.52 -4.36 173 180 173
-6.75 -2.62 -4.34 173 180 173
-6.73 -2.71 -4.36 173 180 173
-6.75 -2.80 -4.34 173 180 173
-6.74 -2.89 -4.35 173 180 173
-6.74 -2.98 -4.35 171 178 171
-6.74 -3.08 -4.35 171 178 171
-6.74 -3.17 -4.35 171 178 171
-6.74 -3.26 -4.35 171 178 171
-6.74 -3.35 -4.36 171 181 175
-6.73 -3.44 -4.36 171 181 175
-6.74 -3.53 -4.36 173 180 175
-6.73 -3.62 -4.36 173 180 175
-6.73 -3.72 -4.37 174 179 178
-6.73 -3.81 -4.37 174 179 178
-6.73 -3.90 -4.37 174 179 178
-6.72 -3.99 -4.37 174 179 178
-6.72 -4.08 -4.37 174 179 178
-6.72 -4.17 -4.37 174 179 178
-6.71 -4.26 -4.39 174 179 178
-6.71 -4.36 -4.39 175 180 179
-6.70 -4.45 -4.40 175 180 176
-6.69 -4.54 -4.41 177 182 178
-6.69 -4.63 -4.41 176 183 178
-6.68 -4.72 -4.43 176 183 178
-6.67 -4.81 -4.43 176 183 178
-6.68 -4.90 -4.43 176 183 178
-6.67 -5.00 -4.43 176 183 178
-6.67 -5.09 -4.44 176 183 178
-6.67 -5.18 -4.44 175 182 177
-6.68 -5.27 -4.42 175 182 177
-6.68 -5.36 -4.43 175 182 177
-6.68 -5.46 -4.42 175 182 177
-6.68 -5.55 -4.43 175 182 180
-6.68 -5.64 -4.43 175 182 180
-6.68 -5.73 -4.43 176 183 181
-6.67 -5.82 -4.44 176 183 181
-6.66 -5.91 -4.45 176 183 181
-6.66 -6.01 -4.45 176 183 181
-6.65 -6.10 -4.46 176 183 181
-6.65 -6.19 -4.47 176 183 181
-6.65 -6.28 -4.47 176 183 181
-6.65 -6.37 -4.47 176 183 181
-6.63 -6.47 -4.48 177 184 182
-6.63 -6.56 -4.49 178 185 183
-6.63 -6.65 -4.48 178 185 183
-6.62 -6.74 -4.50 178 185 183
-6.62 -6.83 -4.50 178 185 183
-6.60 -6.92 -4.53 178 185 183
-6.61 -7.02 -4.52 178 185 183
-6.59 -7.11 -4.54 178 185 183
-6.59 -7.20 -4.54 178 185 183
-6.59 -7.29 -4.54 178 185 183
-6.57 -7.39 -4.56 179 184 183
-6.56 -7.48 -4.58 179 184 183
-6.54 -7.57 -4.60 178 185 183
-6.53 -7.66 -4.61 178 185 183
-6.51 -7.75 -4.63 178 185 183
-6.51 -7.85 -4.64 178 185 183
-6.51 -7.94 -4.63 178 185 183
-6.50 -8.03 -4.65 180 187 185
-6.50 -8.12 -4.65 181 188 186
-6.50 -8.22 -4.65 181 188 186
-6.49 -8.31 -4.66 181 188 186
-6.48 -8.40 -4.67 181 188 186
-6.49 -8.49 -4.66 181 188 186
-6.49 -8.59 -4.66 181 188 186
-6.50 -8.68 -4.65 182 187 186
-6.51 -8.77 -4.64 181 186 185
-6.53 -8.86 -4.62 182 189 187
-6.53 -8.95 -4.61 181 188 186
-6.48 -9.05 -4.67 181 188 186
-6.49 -9.14 -4.67 182 189 187
-6.57 -9.23 -4.57 180 187 185
-6.86 -9.30 -4.20 178 185 183
-7.00 -9.39 -4.03 183 190 188
-6.93 -9.48 -4.12 189 196 194
-6.87 -9.58 -4.19 191 198 196
-6.68 -9.68 -4.42 187 194 192
-6.58 -9.78 -4.55 180 187 185
-6.50 -9.88 -4.65 177 184 182
-6.49 -9.97 -4.67 180 187 185
-6.52 -10.06 -4.63 184 191 189
-6.52 -10.15 -4.62 187 194 192
-6.53 -10.25 -4.61 188 195 193
-6.55 -10.34 -4.58 187 194 192
-6.56 -10.43 -4.57 187 194 192
-6.57 -10.52 -4.56 187 194 192
-6.59 -10.61 -4.54 187 194 192
-6.60 -10.70 -4.52 187 194 192
-6.61 -10.79 -4.51 187 194 192
-6.61 -10.88 -4.51 187 194 192
-6.62 -10.97 -4.50 187 194 192
-6.61 -11.07 -4.51 188 195 193
-6.62 -11.16 -4.50 188 195 193
-6.63 -11.25 -4.49 188 195 193
-6.62 -11.34 -4.50 188 195 193
-6.62 -11.43 -4.50 188 195 193
-6.62 -11.53 -4.50 188 195 193
-6.63 -11.62 -4.49 188 195 193
-6.62 -11.71 -4.50 188 195 193
-6.62 -11.80 -4.50 188 195 193
-6.62 -11.89 -4.50 188 195 193
-6.62 -11.99 -4.50 189 196 194
-6.61 -12.08 -4.52 189 196 194
-6.60 -12.17 -4.52 190 197 195
-6.60 -12.27 -4.52 190 197 195
-6.59 -12.36 -4.53 191 198 196
-6.60 -12.45 -4.53 192 199 197
-6.59 -12.54 -4.54 192 199 197
-6.59 -12.64 -4.54 192 199 197
-6.58 -12.73 -4.55 192 199 197
-6.58 -12.82 -4.55 192 199 197
-6.57 -12.91 -4.56 192 199 197
-6.57 -13.01 -4.56 192 199 197
-6.57 -13.10 -4.57 190 200 197
-6.56 -13.19 -4.58 189 199 196
-6.54 -13.29 -4.60 189 199 196
-6.54 -13.38 -4.60 189 199 196
-6.53 -13.48 -4.61 189 199 196
-6.52 -13.57 -4.62 189 199 196
-6.51 -13.66 -4.64 192 197 193
-6.50 -13.76 -4.65 192 197 193
-6.49 -13.85 -4.66 192 196 198
-6.49 -13.95 -4.66 192 196 198
-6.48 -14.04 -4.68 190 194 198
-6.49 -14.13 -4.66 184 188 192
-6.50 -14.22 -4.65 175 180 174
-6.52 -14.31 -4.63 177 182 176
-6.57 -14.39 -4.56 195 203 208
-6.68 -14.46 -4.43 81 89 94
-6.92 -14.50 -4.12 3 6 44
-7.05 -14.56 -3.97 43 46 84
-7.05 -14.65 -3.97 42 55 126
-7.05 -14.74 -3.97 51 64 135
-7.09 -14.83 -3.92 37 50 135
-7.11 -14.91 -3.90 47 60 145
-7.12 -15.00 -3.88 41 56 142
-7.13 -15.09 -3.87 33 48 134
-7.14 -15.17 -3.85 34 53 131
-7.16 -15.26 -3.83 35 54 132
-7.16 -15.35 -3.83 33 49 119
-7.17 -15.44 -3.82 45 61 131
-7.20 -15.52 -3.79 43 56 100
-7.23 -15.61 -3.75 47 60 104
-7.25 -15.69 -3.72 87 98 111
-7.28 -15.77 -3.69 120 131 144
-7.31 -15.86 -3.65 137 146 148
-7.33 -15.94 -3.62 146 155 157
-7.38 -16.02 -3.56 158 161 149
-7.42 -16.10 -3.51 157 160 148
-7.47 -16.17 -3.45 152 153 134
-7.52 -16.25 -3.39 160 161 142
-7.56 -16.33 -3.33 177 173 152
-7.64 -16.40 -3.24 183 179 158
-7.70 -16.47 -3.17 169 168 143
-7.76 -16.54 -3.09 186 185 160
-7.83 -16.61 -3.01 171 176 154
-7.88 -16.68 -2.94 171 176 154
-7.93 -16.76 -2.88 169 176 158
-7.96 -16.84 -2.85 169 176 158
-7.99 -16.91 -2.81 173 175 158
-8.01 -17.00 -2.78 173 175 158
-8.04 -17.08 -2.74 176 173 158
-8.07 -17.15 -2.71 176 173 158
-8.10 -17.23 -2.67 172 172 156
-8.13 -17.31 -2.63 173 173 157
-8.16 -17.39 -2.60 174 174 158
-8.19 -17.47 -2.56 174 174 158
-8.21 -17.55 -2.53 171 171 157
-8.24 -17.63 -2.50 169 169 155
-8.26 -17.71 -2.47 169 169 155
-8.27 -17.79 -2.46 169 169 155
-8.29 -17.87 -2.43 165 164 153
-8.31 -17.95 -2.41 158 157 146
-8.33 -18.04 -2.39 160 159 150
-8.35 -18.12 -2.36 158 157 148
-8.37 -18.20 -2.34 160 159 150
-8.39 -18.28 -2.31 155 154 145
-8.42 -18.35 -2.28 153 152 143
-8.43 -18.44 -2.26 152 151 142
-8.44 -18.52 -2.24 163 163 160
-8.46 -18.60 -2.23 158 158 155
-8.47 -18.68 -2.21 158 158 153
-8.50 -18.76 -2.18 149 149 144
-8.51 -18.84 -2.16 133 134 124
-8.52 -18.92 -2.15 98 99 89
-8.54 -19.00 -2.12 80 81 69
-8.56 -19.08 -2.11 67 68 56
-8.58 -19.16 -2.08 52 54 39
-8.61 -19.24 -2.04 58 60 45
-8.63 -19.32 -2.02 82 84 69
-8.66 -19.39 -1.98 110 112 97
-8.70 -19.46 -1.93 93 94 84
-8.73 -19.54 -1.89 66 67 57
-8.76 -19.61 -1.85 64 65 55
-8.81 -19.68 -1.79 65 66 56
-8.85 -19.75 -1.74 43 45 42
-8.91 -19.81 -1.67 41 43 40
-8.96 -19.87 -1.61 31 33 30
-9.01 -19.94 -1.54 29 31 28
-9.06 -20.01 -1.49 20 22 19
-9.10 -20.08 -1.44 23 25 22
-9.13 -20.14 -1.39 21 23 20
-9.18 -20.21 -1.34 23 25 22
-9.22 -20.28 -1.28 18 20 17
-9.26 -20.35 -1.23 22 24 21
-9.30 -20.41 -1.18 25 27 24
-9.34 -20.48 -1.14 34 36 33
-9.38 -20.55 -1.09 43 45 42
-9.41 -20.62 -1.05 50 52 49
-9.47 -20.68 -0.98 58 60 57
-9.52 -20.74 -0.91 60 62 59
-9.56 -20.80 -0.86 62 59 65
-9.61 -20.87 -0.81 76 73 79
-9.60 -20.95 -0.81 32 25 9
-9.58 -21.05 -0.84 157 150 134
-9.04 -21.38 -1.51 248 240 206
-7.88 -21.99 -2.94 225 217 183
-7.29 -22.35 -3.67 213 204 175
-7.39 -22.40 -3.54 227 218 189
-7.45 -22.46 -3.48 222 217 203
-7.46 -22.54 -3.46 222 217 203
-7.43 -22.65 -3.50 219 218 209
-7.43 -22.74 -3.50 219 218 209
-7.43 -22.83 -3.50 219 218 211
-7.42 -22.92 -3.51 219 218 211
-7.41 -23.02 -3.52 221 217 211
-7.42 -23.10 -3.52 221 217 211
-7.42 -23.19 -3.51 216 218 215
-7.42 -23.28 -3.51 216 218 215
-7.42 -23.37 -3.51 216 218 215
-7.42 -23.46 -3.52 216 218 215
-7.42 -23.55 -3.50 216 218 215
-7.44 -23.63 -3.49 216 218 215
-7.45 -23.72 -3.48 216 218 215
-7.46 -23.80 -3.46 218 220 217
-7.47 -23.89 -3.45 219 221 218
-7.46 -23.98 -3.46 219 221 218
-7.46 -24.07 -3.46 219 221 218
-7.46 -24.16 -3.46 219 221 218
-7.45 -24.26 -3.48 219 221 218
-7.45 -24.34 -3.47 219 221 218
-7.45 -24.43 -3.47 219 221 218
-7.46 -24.52 -3.47 220 222 219
-7.46 -24.61 -3.46 220 222 219
-7.46 -24.70 -3.46 220 222 219
-7.47 -24.78 -3.45 220 222 219
-7.47 -24.87 -3.45 220 222 219
-7.47 -24.96 -3.45 220 222 219
-7.48 -25.05 -3.44 219 221 218
-7.48 -25.14 -3.44 219 221 218
-7.48 -25.22 -3.43 219 221 218
-7.49 -25.31 -3.43 219 221 218
-7.49 -25.40 -3.42 219 221 218
-7.49 -25.49 -3.42 219 221 218
-7.50 -25.57 -3.42 219 221 218
-7.51 -25.66 -3.40 220 222 219
-7.51 -25.75 -3.40 220 222 219
-7.51 -25.83 -3.39 220 222 219
-7.51 -25.92 -3.40 220 222 219
-7.52 -26.01 -3.38 220 222 219
-7.52 -26.10 -3.38 220 222 219
-7.53 -26.18 -3.38 220 222 219
-7.53 -26.27 -3.37 220 222 219
-7.53 -26.36 -3.37 220 222 219
-7.54 -26.44 -3.36 220 222 219
-7.54 -26.53 -3.36 220 222 219
-7.55 -26.62 -3.35 220 222 219
-7.55 -26.71 -3.35 223 225 222
-7.55 -26.80 -3.35 223 225 222
-7.55 -26.88 -3.34 223 225 222
-7.55 -26.97 -3.35 223 225 222
-7.55 -27.06 -3.34 223 225 222
-7.54 -27.16 -3.36 223 225 222
-7.55 -27.24 -3.35 223 225 222
-7.55 -27.33 -3.35 223 225 222
-7.55 -27.42 -3.35 224 222 223
-7.56 -27.51 -3.34 224 222 223
-7.56 -27.60 -3.34 224 222 223
-7.56 -27.68 -3.34 224 222 223
-7.57 -27.77 -3.33 224 222 223
-7.57 -27.85 -3.32 224 222 223
-7.58 -27.94 -3.32 224 222 223
-7.57 -28.03 -3.32 224 222 223
-7.58 -28.12 -3.31 224 222 223
-7.59 -28.20 -3.30 224 222 223
-7.59 -28.29 -3.31 224 222 223
-7.59 -28.38 -3.30 224 222 223
-7.59 -28.47 -3.30 224 222 223
-7.60 -28.55 -3.28 224 222 223
-7.60 -28.64 -3.28 224 222 223
-7.60 -28.73 -3.28 225 223 224
-7.61 -28.82 -3.28 225 223 224
-7.61 -28.90 -3.27 225 223 224
-7.61 -28.99 -3.28 225 223 224
-7.61 -29.08 -3.27 225 223 224
-7.62 -29.17 -3.27 225 223 224
-7.62 -29.25 -3.27 225 223 224
-7.62 -29.34 -3.26 225 223 224
-7.62 -29.43 -3.27 225 223 224
-7.62 -29.52 -3.27 228 226 227
-7.62 -29.61 -3.27 228 226 227
-7.62 -29.70 -3.27 228 226 227
-7.62 -29.79 -3.27 228 226 227
-7.62 -29.88 -3.26 228 226 227
-7.62 -29.97 -3.26 228 226 227
-7.62 -30.06 -3.26 228 226 227
-7.63 -30.14 -3.25 228 226 227
-7.62 -30.23 -3.26 231 229 230
-7.62 -30.32 -3.26 231 229 230
-7.62 -30.41 -3.26 231 229 230
-7.63 -30.50 -3.26 231 229 230
-7.62 -30.59 -3.27 231 229 230
-7.62 -30.68 -3.27 231 229 230
-7.62 -30.77 -3.26 230 228 229
-7.62 -30.86 -3.26 230 228 229
-7.62 -30.95 -3.26 230 228 229
-7.62 -31.04 -3.27 230 228 229
-7.61 -31.14 -3.28 230 228 229
-7.62 -31.22 -3.26 230 228 229
-7.62 -31.31 -3.26 230 228 229
-7.62 -31.40 -3.27 230 228 229
-7.62 -31.49 -3.27 232 230 231
-7.62 -31.57 -3.26 233 231 232
-7.63 -31.66 -3.25 234 229 231
-7.63 -31.74 -3.25 234 229 231
-7.63 -31.83 -3.25 234 229 231
-7.64 -31.92 -3.24 234 229 231
-7.64 -32.00 -3.23 234 229 231
-7.65 -32.09 -3.23 234 229 231
-7.66 -32.17 -3.22 234 229 231
-7.65 -32.26 -3.22 234 229 231
-7.66 -32.34 -3.21 235 230 232
-7.67 -32.43 -3.20 235 230 232
-7.67 -32.52 -3.21 237 232 234
-7.67 -32.61 -3.20 237 232 234
-7.67 -32.69 -3.20 238 233 235
-7.67 -32.78 -3.20 238 233 235
-7.68 -32.87 -3.19 239 234 236
-7.68 -32.96 -3.19 239 234 236
-7.68 -33.04 -3.19 239 234 236
-7.69 -33.13 -3.18 239 234 236
-7.68 -33.22 -3.18 237 235 236
-7.69 -33.30 -3.18 237 235 236
-7.70 -33.38 -3.17 237 235 236
-7.70 -33.47 -3.16 237 235 236
-7.71 -33.56 -3.15 237 235 236
-7.71 -33.64 -3.15 237 235 236
-7.70 -33.74 -3.16 237 235 236
-7.71 -33.82 -3.16 237 235 236
-7.71 -33.91 -3.15 237 235 236
-7.72 -33.99 -3.14 237 235 236
-7.72 -34.08 -3.14 237 235 236
-7.72 -34.17 -3.14 237 235 236
-7.73 -34.25 -3.13 237 235 236
-7.74 -34.33 -3.11 237 235 236
-7.76 -34.40 -3.09 236 238 233
-7.78 -34.47 -3.06 233 235 230
-7.79 -34.56 -3.06 235 235 230
-7.80 -34.63 -3.04 238 238 233
-7.82 -34.71 -3.02 238 236 232
-7.77 -34.84 -3.08 237 235 231
-7.75 -34.95 -3.11 239 234 231
-7.78 -35.01 -3.06 241 236 233
-7.80 -35.08 -3.05 243 233 232
-7.47 -35.46 -3.45 231 221 220
-7.43 21.39 -3.63 141 132 124
-7.40 21.32 -3.67 141 132 124
-7.40 21.23 -3.66 141 132 124
-7.38 21.16 -3.69 141 132 124
-7.39 21.06 -3.67 141 132 124
-7.41 20.96 -3.66 141 132 124
-7.38 20.89 -3.70 141 132 124
-7.37 20.80 -3.70 141 132 124
-7.37 20.71 -3.70 142 133 125
-7.36 20.63 -3.71 142 133 125
-7.37 20.54 -3.71 142 133 125
-7.36 20.45 -3.71 142 133 125
-7.36 20.37 -3.72 143 134 126
-7.36 20.28 -3.72 143 134 126
-7.35 20.19 -3.73 143 134 126
-7.35 20.11 -3.74 143 134 126
-7.34 20.02 -3.75 143 134 126
-7.33 19.94 -3.75 143 134 126
-7.32 19.86 -3.77 143 134 126
-7.32 19.77 -3.77 143 134 126
-7.31 19.69 -3.78 144 135 127
-7.30 19.61 -3.80 144 135 127
-7.30 19.51 -3.79 144 135 127
-7.29 19.44 -3.81 145 136 128
-7.28 19.35 -3.82 145 136 128
-7.27 19.26 -3.82 146 137 129
-7.26 19.19 -3.84 146 137 129
-7.26 19.10 -3.85 146 137 129
-7.24 19.02 -3.87 146 137 129
-7.23 18.94 -3.87 148 139 131
-7.22 18.85 -3.89 148 139 131
-7.21 18.77 -3.90 148 139 131
-7.20 18.69 -3.91 146 137 129
-7.20 18.60 -3.92 146 137 129
-7.19 18.52 -3.93 146 137 129
-7.18 18.43 -3.94 146 137 129
-7.17 18.35 -3.96 146 137 129
-7.16 18.27 -3.96 148 139 131
-7.15 18.18 -3.97 150 141 133
-7.15 18.10 -3.98 150 141 133
-7.14 18.01 -3.98 148 142 133
-7.13 17.93 -4.00 148 142 133
-7.13 17.84 -4.00 148 142 133
-7.13 17.75 -4.00 148 142 133
-7.13 17.66 -4.00 148 142 133
-7.13 17.57 -4.01 149 143 134
-7.13 17.48 -4.01 149 143 136
-7.12 17.39 -4.01 149 143 136
-7.11 17.31 -4.03 149 143 136
-7.11 17.22 -4.03 149 143 136
-7.10 17.13 -4.04 150 144 137
-7.10 17.05 -4.04 150 144 137
-7.09 16.96 -4.05 150 144 137
-7.09 16.87 -4.05 151 145 138
-7.09 16.78 -4.05 151 145 138
-7.08 16.70 -4.06 151 145 138
-7.08 16.61 -4.07 151 145 138
-7.07 16.52 -4.08 151 145 138
-7.06 16.44 -4.09 151 145 138
-7.06 16.35 -4.09 151 145 138
-7.06 16.26 -4.09 153 147 140
-7.05 16.17 -4.10 154 148 141
-7.04 16.09 -4.11 154 148 141
-7.04 16.00 -4.11 154 148 141
-7.04 15.91 -4.12 151 145 138
-7.03 15.82 -4.13 153 147 140
-7.03 15.73 -4.13 154 148 141
-7.02 15.65 -4.13 154 148 141
-7.02 15.55 -4.13 154 148 141
-7.02 15.47 -4.14 154 148 141
-7.01 15.38 -4.15 154 148 141
-7.01 15.29 -4.15 154 148 141
-7.01 15.20 -4.16 154 148 141
-7.01 15.11 -4.16 154 148 141
-7.00 15.03 -4.17 154 148 141
-7.00 14.94 -4.17 155 149 142
-7.00 14.85 -4.17 155 149 142
-7.00 14.75 -4.17 155 149 142
-7.00 14.66 -4.17 155 149 140
-6.99 14.58 -4.18 157 151 142
-6.99 14.49 -4.18 155 154 143
-6.98 14.40 -4.19 155 154 143
-6.98 14.31 -4.19 157 156 145
-6.97 14.22 -4.20 157 156 145
-6.97 14.13 -4.20 158 157 146
-6.97 14.04 -4.20 158 157 146
-6.96 13.96 -4.21 158 157 146
-6.96 13.86 -4.21 158 157 146
-6.96 13.78 -4.22 158 157 146
-6.96 13.69 -4.22 158 157 146
-6.95 13.60 -4.23 158 157 148
-6.95 13.51 -4.22 158 157 148
-6.95 13.42 -4.23 158 157 150
-6.95 13.33 -4.23 159 158 151
-6.95 13.23 -4.23 159 158 151
-6.95 13.14 -4.22 159 158 151
-6.95 13.05 -4.23 161 157 149
-6.95 12.96 -4.22 161 157 149
-6.95 12.87 -4.22 161 157 149
-6.96 12.77 -4.21 161 157 149
-6.96 12.68 -4.21 162 158 150
-6.97 12.59 -4.21 163 159 151
-6.97 12.49 -4.20 164 160 152
-6.97 12.40 -4.20 166 162 154
-6.97 12.31 -4.20 164 160 152
-6.97 12.22 -4.20 164 160 152
-6.97 12.13 -4.20 164 160 152
-6.97 12.04 -4.20 164 160 152
-6.97 11.95 -4.20 164 160 152
-6.97 11.86 -4.20 166 162 154
-6.96 11.77 -4.21 166 162 152
-6.96 11.68 -4.21 166 162 152
-6.96 11.59 -4.22 167 163 155
-6.96 11.50 -4.22 167 163 155
-6.96 11.41 -4.22 167 163 155
-6.95 11.32 -4.23 167 163 155
-6.95 11.23 -4.23 167 163 155
-6.94 11.14 -4.23 167 163 155
-6.94 11.05 -4.25 167 163 155
-6.94 10.96 -4.24 168 164 156
-6.93 10.87 -4.25 168 164 156
-6.93 10.78 -4.25 168 164 156
-6.93 10.69 -4.25 168 164 156
-6.92 10.61 -4.26 168 164 156
-6.92 10.52 -4.27 168 164 156
-6.92 10.43 -4.27 168 164 156
-6.91 10.34 -4.28 167 166 157
-6.91 10.25 -4.28 167 166 157
-6.91 10.15 -4.28 168 164 156
-6.90 10.07 -4.29 169 165 157
-6.90 9.98 -4.29 167 166 157
-6.90 9.89 -4.29 168 167 158
-6.90 9.80 -4.29 168 167 158
-6.90 9.70 -4.29 168 167 158
-6.90 9.61 -4.29 168 167 158
-6.89 9.52 -4.30 169 168 159
-6.89 9.43 -4.30 172 171 162
-6.89 9.34 -4.30 172 171 162
-6.88 9.25 -4.31 172 171 162
-6.89 9.16 -4.30 172 171 162
-6.88 9.07 -4.31 172 171 162
-6.89 8.98 -4.31 172 171 162
-6.88 8.89 -4.31 172 171 162
-6.87 8.80 -4.32 172 171 162
-6.87 8.71 -4.32 170 171 161
-6.86 8.63 -4.34 170 171 161
-6.86 8.53 -4.34 170 171 161
-6.86 8.44 -4.34 170 171 161
-6.87 8.35 -4.33 170 171 161
-6.86 8.26 -4.34 171 172 162
-6.87 8.16 -4.33 171 172 162
-6.87 8.07 -4.32 171 172 162
-6.87 7.98 -4.32 171 172 162
-6.87 7.89 -4.33 171 172 162
-6.86 7.80 -4.34 171 172 162
-6.86 7.71 -4.34 171 172 162
-6.86 7.62 -4.34 171 172 162
-6.87 7.52 -4.33 172 173 163
-6.86 7.44 -4.34 172 173 163
-6.86 7.34 -4.34 172 173 163
-6.86 7.25 -4.34 172 173 165
-6.87 7.16 -4.33 172 173 165
-6.87 7.07 -4.33 172 173 165
-6.87 6.97 -4.32 172 173 165
-6.87 6.88 -4.33 172 173 165
-6.87 6.79 -4.32 172 173 165
-6.88 6.70 -4.32 172 173 165
-6.87 6.61 -4.33 172 173 165
-6.87 6.52 -4.33 173 174 166
-6.88 6.42 -4.32 173 174 166
-6.87 6.33 -4.32 173 174 166
-6.88 6.24 -4.32 173 174 166
-6.87 6.15 -4.32 173 174 166
-6.88 6.06 -4.32 173 174 166
-6.87 5.97 -4.32 173 174 166
-6.87 5.88 -4.33 173 174 166
-6.87 5.79 -4.33 174 175 165
-6.86 5.70 -4.34 174 175 165
-6.86 5.61 -4.34 174 175 165
-6.85 5.52 -4.35 174 175 165
-6.86 5.42 -4.34 174 175 165
-6.85 5.34 -4.35 174 175 165
-6.84 5.25 -4.36 174 175 165
-6.84 5.15 -4.36 174 175 165
-6.84 5.06 -4.36 173 174 164
-6.84 4.97 -4.37 173 174 164
-6.83 4.89 -4.38 173 174 164
-6.84 4.79 -4.37 173 174 164
-6.83 4.70 -4.38 173 174 164
-6.84 4.61 -4.37 173 174 164
-6.84 4.51 -4.36 173 174 164
-6.84 4.42 -4.36 173 174 164
-6.85 4.33 -4.35 173 174 164
-6.85 4.24 -4.35 173 174 164
-6.86 4.14 -4.34 172 172 167
-6.86 4.05 -4.34 172 172 167
-6.86 3.96 -4.34 172 172 167
-6.86 3.87 -4.34 172 172 167
-6.87 3.77 -4.33 172 172 167
-6.87 3.68 -4.33 172 172 167
-6.87 3.59 -4.32 172 172 167
-6.87 3.50 -4.33 172 172 167
-6.87 3.41 -4.32 173 173 168
-6.87 3.31 -4.32 173 173 168
-6.88 3.22 -4.32 173 173 168
-6.88 3.13 -4.32 173 173 168
-6.88 3.04 -4.32 173 173 168
-6.86 2.95 -4.33 173 173 168
-6.86 2.86 -4.33 172 173 165
-6.86 2.77 -4.34 172 173 165
-6.86 2.68 -4.33 172 173 165
-6.86 2.59 -4.34 172 173 165
-6.86 2.49 -4.34 172 173 165
-6.86 2.40 -4.34 172 173 165
-6.86 2.31 -4.34 172 173 165
-6.86 2.22 -4.34 172 173 165
-6.86 2.13 -4.33 172 173 165
-6.87 2.04 -4.33 172 173 165
-6.87 1.94 -4.32 172 173 165
-6.87 1.85 -4.32 172 173 165
-6.86 1.76 -4.33 172 173 165
-6.87 1.67 -4.32 172 173 165
-6.88 1.58 -4.32 172 173 165
-6.87 1.49 -4.33 172 173 165
-6.87 1.39 -4.32 172 173 165
-6.87 1.30 -4.32 172 173 165
-6.88 1.21 -4.31 172 173 165
-6.88 1.12 -4.32 172 173 165
-6.88 1.03 -4.31 172 173 165
-6.88 0.94 -4.32 172 173 165
-6.88 0.84 -4.32 172 173 165
-6.88 0.75 -4.32 172 173 165
-6.87 0.66 -4.33 172 173 165
-6.87 0.57 -4.33 172 173 165
-6.87 0.48 -4.33 172 173 165
-6.87 0.39 -4.33 172 173 165
-6.87 0.30 -4.32 172 173 165
-6.87 0.21 -4.33 172 173 165
-6.86 0.12 -4.33 172 173 165
-6.87 0.02 -4.33 172 173 165
-6.86 -0.07 -4.33 168 173 167
-6.86 -0.16 -4.33 168 173 167
-6.87 -0.25 -4.32 168 173 167
-6.87 -0.34 -4.33 168 173 167
-6.88 -0.44 -4.32 168 173 167
-6.87 -0.53 -4.33 168 173 167
-6.88 -0.62 -4.32 168 173 167
-6.88 -0.71 -4.32 168 173 167
-6.88 -0.80 -4.32 169 174 168
-6.88 -0.89 -4.31 169 174 168
-6.88 -0.98 -4.32 169 174 168
-6.88 -1.08 -4.31 169 174 168
-6.87 -1.17 -4.32 169 174 168
-6.88 -1.26 -4.32 169 174 168
-6.88 -1.35 -4.32 169 174 168
-6.88 -1.44 -4.32 169 174 168
-6.87 -1.53 -4.32 172 174 169
-6.87 -1.62 -4.33 172 174 169
-6.88 -1.72 -4.32 170 177 170
-6.87 -1.81 -4.32 170 177 170
-6.87 -1.90 -4.32 170 177 170
-6.87 -1.99 -4.32 170 177 170
-6.88 -2.08 -4.32 170 177 170
-6.88 -2.17 -4.32 170 177 170
-6.88 -2.27 -4.31 170 177 170
-6.88 -2.36 -4.31 171 178 171
-6.88 -2.45 -4.31 173 180 173
-6.88 -2.54 -4.31 173 180 173
-6.88 -2.63 -4.31 173 180 173
-6.88 -2.72 -4.32 173 180 173
-6.88 -2.81 -4.32 173 180 173
-6.88 -2.90 -4.32 173 180 173
-6.88 -3.00 -4.32 172 177 171
-6.88 -3.09 -4.32 172 177 171
-6.87 -3.18 -4.32 172 177 171
-6.87 -3.27 -4.33 172 177 171
-6.88 -3.36 -4.32 171 181 175
-6.87 -3.45 -4.33 171 181 175
-6.87 -3.54 -4.32 173 180 175
-6.86 -3.63 -4.33 173 180 175
-6.86 -3.73 -4.33 174 179 175
-6.86 -3.82 -4.34 174 179 175
-6.86 -3.91 -4.34 174 179 175
-6.85 -4.00 -4.35 174 179 175
-6.85 -4.09 -4.35 174 179 175
-6.85 -4.18 -4.35 174 179 175
-6.84 -4.27 -4.36 174 179 175
-6.84 -4.36 -4.36 175 180 176
-6.83 -4.45 -4.38 175 180 179
-6.82 -4.55 -4.38 177 182 181
-6.82 -4.64 -4.39 176 183 178
-6.82 -4.73 -4.39 176 183 178
-6.81 -4.82 -4.40 176 183 178
-6.82 -4.91 -4.39 176 183 178
-6.82 -5.00 -4.39 176 183 178
-6.81 -5.09 -4.40 176 183 178
-6.81 -5.19 -4.40 175 182 177
-6.82 -5.28 -4.39 175 182 177
-6.81 -5.37 -4.40 175 182 177
-6.82 -5.46 -4.39 175 182 177
-6.82 -5.55 -4.39 175 182 180
-6.82 -5.64 -4.39 175 182 180
-6.81 -5.74 -4.40 176 183 181
-6.80 -5.83 -4.41 176 183 181
-6.80 -5.92 -4.41 176 183 181
-6.80 -6.01 -4.41 176 183 181
-6.80 -6.10 -4.42 176 183 181
-6.80 -6.19 -4.42 176 183 181
-6.80 -6.29 -4.42 176 183 181
-6.78 -6.38 -4.43 176 183 181
-6.78 -6.47 -4.44 177 184 182
-6.77 -6.56 -4.45 178 185 183
-6.77 -6.65 -4.45 178 185 183
-6.76 -6.74 -4.46 178 185 183
-6.75 -6.83 -4.47 178 185 183
-6.74 -6.93 -4.48 178 185 183
-6.74 -7.02 -4.48 178 185 183
-6.73 -7.11 -4.49 178 185 183
-6.73 -7.20 -4.50 178 185 183
-6.73 -7.29 -4.50 178 185 183
-6.71 -7.39 -4.53 181 186 185
-6.69 -7.48 -4.54 181 186 185
-6.67 -7.57 -4.58 180 187 185
-6.66 -7.66 -4.59 180 187 185
-6.65 -7.75 -4.59 180 187 185
-6.64 -7.85 -4.61 180 187 185
-6.65 -7.94 -4.60 180 187 185
-6.64 -8.03 -4.61 180 187 185
-6.64 -8.12 -4.61 183 190 188
-6.63 -8.21 -4.62 181 188 186
-6.63 -8.31 -4.62 178 185 183
-6.64 -8.40 -4.61 180 187 185
-6.64 -8.49 -4.61 182 189 187
-6.64 -8.58 -4.61 183 190 188
-6.65 -8.67 -4.60 182 187 186
-6.65 -8.77 -4.60 181 186 185
-6.66 -8.86 -4.58 181 188 186
-6.64 -8.95 -4.61 170 177 175
-6.61 -9.04 -4.64 178 185 183
-6.67 -9.13 -4.58 167 174 172
-6.98 -9.21 -4.19 178 185 183
-7.49 -9.27 -3.56 175 182 180
-7.66 -9.35 -3.35 212 219 217
-7.62 -9.44 -3.39 240 247 245
-7.50 -9.54 -3.54 236 243 241
-7.26 -9.65 -3.85 218 225 223
-7.02 -9.75 -4.14 194 201 199
-6.76 -9.86 -4.46 178 185 183
-6.68 -9.96 -4.56 177 184 182
-6.66 -10.05 -4.59 183 190 188
-6.68 -10.14 -4.56 183 190 188
-6.68 -10.24 -4.56 178 185 183
-6.68 -10.33 -4.56 189 196 194
-6.68 -10.42 -4.56 188 195 193
-6.70 -10.51 -4.53 184 191 189
-6.72 -10.60 -4.51 184 191 189
-6.74 -10.69 -4.49 184 191 189
-6.75 -10.78 -4.48 185 192 190
-6.75 -10.87 -4.47 188 195 193
-6.76 -10.96 -4.46 188 195 193
-6.76 -11.06 -4.46 183 190 188
-6.77 -11.15 -4.45 184 191 189
-6.76 -11.24 -4.46 187 194 192
-6.77 -11.33 -4.45 188 195 193
-6.77 -11.42 -4.45 189 196 194
-6.78 -11.51 -4.44 188 195 193
-6.77 -11.60 -4.45 188 195 193
-6.77 -11.70 -4.45 187 194 192
-6.77 -11.79 -4.45 187 194 192
-6.78 -11.88 -4.44 187 194 192
