ply
format ascii 1.0
element vertex 1556
property float x
property float y
property float z
property uchar red
property uchar green
property uchar blue
end_header
-13.03 8.22 -2.33 173 172 177
-13.03 8.14 -2.33 173 172 177
-13.03 8.06 -2.33 175 172 178
-13.03 7.98 -2.33 175 172 178
-13.03 7.90 -2.33 171 165 170
-13.03 7.82 -2.33 173 167 172
-13.03 7.74 -2.32 173 167 172
-13.03 7.66 -2.32 174 168 173
-13.03 7.58 -2.32 172 169 173
-13.03 7.51 -2.33 173 170 174
-13.03 7.42 -2.32 173 170 174
-13.03 7.34 -2.32 174 171 175
-13.03 7.26 -2.32 174 171 175
-13.04 7.18 -2.31 175 172 176
-13.04 7.10 -2.31 175 172 176
-13.04 7.02 -2.31 175 172 176
-13.04 6.94 -2.31 174 172 173
-13.05 6.86 -2.30 175 173 174
-13.05 6.78 -2.30 175 173 174
-13.04 6.70 -2.31 176 174 175
-13.05 6.62 -2.30 180 177 181
-13.04 6.54 -2.31 181 178 182
-13.04 6.46 -2.31 181 178 182
-13.04 6.38 -2.31 181 178 182
-13.05 6.30 -2.30 181 178 182
-13.04 6.23 -2.31 182 179 183
-13.04 6.14 -2.31 182 179 183
-13.04 6.06 -2.31 182 179 183
-13.04 5.98 -2.31 183 180 184
-13.04 5.91 -2.31 183 180 184
-13.04 5.83 -2.31 183 180 184
-13.04 5.75 -2.31 183 180 184
-13.04 5.67 -2.32 182 179 183
-13.04 5.59 -2.32 181 178 182
-13.04 5.51 -2.32 180 179 182
-13.04 5.43 -2.31 179 178 181
-13.04 5.35 -2.32 178 177 180
-13.04 5.27 -2.32 176 175 178
-13.04 5.19 -2.32 175 174 177
-13.04 5.11 -2.32 174 173 176
-13.03 5.03 -2.32 173 172 175
-13.03 4.95 -2.32 172 171 174
-13.03 4.87 -2.32 172 171 174
-13.03 4.80 -2.32 171 170 173
-13.03 4.72 -2.32 170 169 172
-13.03 4.64 -2.32 170 169 172
-13.03 4.56 -2.32 170 169 172
-13.03 4.48 -2.32 171 170 173
-13.03 4.40 -2.32 172 171 174
-13.03 4.32 -2.32 173 172 175
-13.03 4.24 -2.32 174 173 176
-13.03 4.16 -2.32 174 173 176
-13.03 4.08 -2.32 174 173 176
-13.03 4.00 -2.33 174 173 176
-13.03 3.92 -2.32 175 174 177
-13.03 3.84 -2.32 175 174 177
-13.03 3.76 -2.33 176 175 178
-13.03 3.68 -2.33 176 175 178
-13.03 3.60 -2.32 178 177 180
-13.03 3.52 -2.32 178 177 180
-13.03 3.44 -2.32 175 174 177
-13.03 3.36 -2.32 175 174 177
-13.03 3.28 -2.32 175 174 177
-13.03 3.20 -2.32 175 174 177
-13.03 3.13 -2.33 175 174 177
-13.03 3.05 -2.33 175 174 177
-13.02 2.97 -2.33 175 174 177
-13.02 2.89 -2.34 175 174 177
-13.01 2.81 -2.35 174 173 176
-13.02 2.73 -2.34 173 172 175
-13.02 2.65 -2.34 173 172 175
-13.02 2.57 -2.34 173 172 175
-13.01 2.49 -2.35 173 172 175
-13.02 2.41 -2.34 173 172 175
-13.02 2.33 -2.34 173 172 175
-13.03 2.25 -2.33 173 172 175
-13.03 2.17 -2.32 172 171 174
-13.03 2.09 -2.32 171 170 173
-13.03 2.01 -2.33 171 170 173
-13.04 1.93 -2.32 171 170 173
-13.04 1.85 -2.31 171 170 173
-13.04 1.77 -2.31 171 170 173
-13.05 1.69 -2.30 171 170 173
-13.05 1.61 -2.30 171 170 173
-13.05 1.52 -2.29 171 170 173
-13.05 1.44 -2.29 171 170 173
-13.05 1.36 -2.29 171 170 173
-13.05 1.29 -2.29 171 170 173
-13.06 1.20 -2.28 171 170 173
-13.06 1.12 -2.28 171 170 173
-13.06 1.04 -2.27 171 170 173
-13.07 0.96 -2.27 171 170 173
-13.07 0.88 -2.27 170 169 172
-13.07 0.80 -2.27 170 169 172
-13.07 0.72 -2.26 170 169 172
-13.07 0.64 -2.26 170 169 172
-13.08 0.56 -2.26 170 169 172
-13.08 0.48 -2.25 170 169 172
-13.08 0.40 -2.25 170 169 172
-13.09 0.32 -2.24 170 169 172
-13.10 0.24 -2.23 170 170 170
-13.09 0.16 -2.23 170 170 170
-13.10 0.08 -2.22 170 170 170
-13.10 -0.00 -2.22 170 170 170
-13.10 -0.08 -2.22 170 170 170
-13.10 -0.16 -2.22 170 170 170
-13.11 -0.24 -2.21 170 170 170
-13.11 -0.32 -2.21 170 170 170
-13.11 -0.40 -2.21 170 170 170
-13.12 -0.48 -2.20 170 170 170
-13.12 -0.56 -2.20 170 170 170
-13.12 -0.64 -2.20 170 170 170
-13.13 -0.72 -2.18 170 170 170
-13.13 -0.80 -2.18 170 170 170
-13.14 -0.88 -2.16 170 170 170
-13.15 -0.96 -2.15 170 170 170
-13.15 -1.05 -2.14 168 169 172
-13.16 -1.13 -2.14 168 169 172
-13.16 -1.21 -2.13 168 169 172
-13.16 -1.29 -2.13 168 169 172
-13.17 -1.37 -2.12 168 169 172
-13.17 -1.45 -2.12 168 169 172
-13.17 -1.53 -2.12 168 169 172
-13.18 -1.61 -2.11 168 169 172
-13.18 -1.69 -2.10 168 169 172
-13.19 -1.77 -2.10 168 169 172
-13.19 -1.85 -2.09 168 169 172
-13.19 -1.93 -2.09 168 169 172
-13.19 -2.00 -2.09 168 169 172
-13.20 -2.08 -2.08 168 169 172
-13.20 -2.16 -2.08 168 169 172
-13.20 -2.24 -2.08 168 169 172
-13.20 -2.32 -2.08 169 170 173
-13.19 -2.40 -2.09 169 170 173
-13.19 -2.48 -2.09 169 170 173
-13.18 -2.56 -2.10 169 170 173
-13.18 -2.63 -2.11 169 170 173
-13.17 -2.71 -2.13 169 170 173
-13.16 -2.79 -2.13 169 170 173
-13.16 -2.87 -2.14 169 170 173
-13.16 -2.95 -2.13 170 171 174
-13.15 -3.03 -2.15 170 171 174
-13.15 -3.11 -2.14 170 171 174
-13.16 -3.19 -2.14 170 171 174
-13.16 -3.27 -2.13 170 171 174
-13.17 -3.35 -2.13 170 171 174
-13.17 -3.43 -2.12 170 171 174
-13.17 -3.51 -2.12 170 171 174
-13.17 -3.58 -2.12 169 174 173
-13.18 -3.66 -2.11 169 174 173
-13.17 -3.74 -2.12 169 173 175
-13.17 -3.82 -2.12 169 173 175
-13.18 -3.90 -2.11 171 172 175
-13.18 -3.98 -2.11 171 172 175
-13.18 -4.06 -2.10 171 172 177
-13.19 -4.14 -2.09 171 172 177
-13.19 -4.22 -2.09 171 172 177
-13.19 -4.30 -2.09 171 172 177
-13.19 -4.38 -2.09 171 172 177
-13.19 -4.46 -2.09 171 172 177
-13.20 -4.54 -2.08 171 172 177
-13.19 -4.62 -2.09 171 172 177
-13.19 -4.70 -2.09 171 172 177
-13.19 -4.77 -2.09 171 172 177
-13.19 -4.85 -2.09 171 172 177
-13.19 -4.93 -2.09 171 172 177
-13.19 -5.01 -2.09 171 172 177
-13.19 -5.09 -2.09 171 172 177
-13.19 -5.17 -2.10 171 172 177
-13.19 -5.25 -2.09 171 172 177
-13.19 -5.33 -2.09 171 172 177
-13.19 -5.41 -2.09 171 172 177
-13.19 -5.49 -2.09 173 174 179
-13.20 -5.57 -2.07 166 167 172
-13.21 -5.65 -2.07 170 171 176
-13.19 -5.72 -2.10 170 171 176
-13.19 -5.80 -2.09 169 170 175
-13.19 -5.88 -2.09 158 159 164
-13.20 -5.96 -2.08 166 167 172
-13.49 -6.06 -1.66 208 209 214
-13.75 -6.15 -1.27 250 250 250
-13.86 -6.23 -1.12 250 250 250
-13.89 -6.31 -1.07 248 250 250
-13.91 -6.39 -1.05 248 250 250
-13.92 -6.46 -1.03 248 250 250
-13.92 -6.54 -1.03 248 250 250
-13.93 -6.62 -1.02 246 251 250
-13.92 -6.69 -1.03 246 251 250
-13.92 -6.77 -1.03 247 252 251
-13.91 -6.85 -1.04 247 252 251
-13.90 -6.92 -1.06 246 253 251
-13.89 -7.00 -1.07 246 253 251
-13.89 -7.08 -1.08 246 253 251
-13.87 -7.16 -1.10 246 253 251
-13.87 -7.23 -1.11 244 254 251
-13.85 -7.31 -1.13 244 254 251
-13.85 -7.39 -1.13 246 253 251
-13.84 -7.46 -1.15 246 253 251
-13.84 -7.54 -1.15 246 253 251
-13.83 -7.62 -1.17 246 253 251
-13.82 -7.70 -1.17 246 253 251
-13.82 -7.77 -1.18 246 253 251
-13.82 -7.85 -1.18 246 253 251
-13.82 -7.93 -1.18 246 253 251
-13.82 -8.00 -1.18 246 253 251
-13.81 -8.08 -1.19 246 253 251
-13.81 -8.16 -1.20 246 253 251
-13.81 -8.24 -1.19 246 253 251
-13.82 -8.31 -1.18 246 253 251
-13.81 -8.39 -1.19 246 253 251
-13.81 -8.47 -1.19 246 253 251
-13.81 -8.55 -1.20 246 253 251
-13.81 -8.62 -1.20 245 252 250
-13.80 -8.70 -1.21 245 252 250
-13.80 -8.78 -1.20 245 252 250
-13.80 -8.86 -1.21 245 252 250
-13.79 -8.93 -1.22 245 252 250
-13.78 -9.01 -1.23 245 252 250
-13.79 -9.09 -1.23 245 252 250
-13.79 -9.17 -1.22 245 252 250
-13.78 -9.24 -1.23 245 252 250
-13.79 -9.32 -1.22 245 252 250
-13.79 -9.40 -1.22 245 252 250
-13.80 -9.48 -1.21 245 252 250
-13.80 -9.55 -1.21 245 252 250
-13.80 -9.63 -1.21 245 252 250
-13.80 -9.71 -1.20 245 252 250
-13.81 -9.78 -1.19 245 252 250
-13.82 -9.86 -1.18 247 252 251
-13.83 -9.94 -1.16 247 252 251
-13.83 -10.01 -1.16 247 252 251
-13.85 -10.09 -1.14 247 252 251
-13.85 -10.17 -1.14 247 252 251
-13.86 -10.24 -1.12 247 252 251
-13.86 -10.32 -1.12 247 252 251
-13.87 -10.39 -1.10 247 252 251
-13.88 -10.47 -1.09 251 255 255
-13.89 -10.55 -1.08 245 250 249
-13.89 -10.62 -1.07 253 255 255
-13.90 -10.70 -1.06 248 253 252
-13.91 -10.78 -1.05 244 249 248
-13.92 -10.85 -1.04 246 251 250
-13.93 -10.93 -1.02 245 250 249
-13.93 -11.00 -1.02 247 252 251
-13.94 -11.08 -1.01 248 250 250
-13.94 -11.16 -1.00 248 250 250
-13.95 -11.23 -0.99 247 249 249
-13.96 -11.31 -0.98 246 248 248
-13.96 -11.38 -0.98 249 251 251
-13.98 -11.46 -0.95 250 252 252
-13.99 -11.53 -0.93 250 252 252
-13.99 -11.61 -0.93 250 252 252
-14.00 -11.68 -0.91 253 255 255
-14.00 -11.76 -0.92 244 246 246
-14.03 -11.83 -0.88 249 251 251
-14.13 -11.89 -0.73 249 251 251
-14.28 -11.94 -0.52 246 248 248
-14.48 -11.98 -0.23 218 220 220
-14.73 -12.01 0.14 168 170 170
-14.92 -12.05 0.42 112 114 114
-15.00 -12.11 0.54 54 57 66
-15.05 -12.17 0.60 20 23 32
-15.03 -12.25 0.58 13 16 25
-15.00 -12.33 0.54 26 29 38
-15.00 -12.40 0.53 39 42 51
-14.99 -12.48 0.53 30 33 42
-15.00 -12.55 0.53 36 39 48
-15.02 -12.62 0.56 40 43 52
-15.04 -12.69 0.60 39 42 51
-15.07 -12.76 0.64 41 44 53
-15.09 -12.83 0.67 41 44 53
-15.10 -12.90 0.68 37 40 49
-15.11 -12.97 0.69 34 37 46
-15.09 -13.05 0.67 36 39 48
-15.08 -13.12 0.65 41 44 53
-15.06 -13.20 0.62 42 45 54
-15.03 -13.28 0.58 44 48 52
-15.00 -13.36 0.54 39 43 47
-14.97 -13.44 0.49 35 39 41
-14.91 -13.53 0.41 6 10 12
-14.81 -13.63 0.26 5 9 11
-14.52 -13.78 -0.17 153 157 159
-14.24 -13.93 -0.57 247 252 251
-14.16 -14.02 -0.68 240 245 244
-14.15 -14.10 -0.70 246 251 250
-14.14 -14.18 -0.72 246 251 250
-14.12 -14.26 -0.74 246 251 247
-14.11 -14.34 -0.76 246 251 247
-14.10 -14.42 -0.77 246 251 247
-14.09 -14.50 -0.78 246 251 247
-14.08 -14.58 -0.80 246 251 245
-14.07 -14.66 -0.81 246 251 245
-14.06 -14.74 -0.83 248 250 247
-14.05 -14.82 -0.85 248 250 247
-14.04 -14.90 -0.86 248 250 247
-14.05 -14.97 -0.85 248 250 247
-14.05 -15.05 -0.84 248 250 247
-14.05 -15.12 -0.84 248 250 247
-14.07 -15.19 -0.82 248 250 247
-14.08 -15.27 -0.80 248 250 247
-14.09 -15.34 -0.78 248 250 247
-14.11 -15.41 -0.76 248 250 247
-14.11 -15.49 -0.76 248 250 247
-14.11 -15.56 -0.76 248 250 247
-14.10 -15.64 -0.77 248 250 247
-14.06 -15.73 -0.83 248 250 247
-14.00 -15.83 -0.92 248 250 247
-13.89 -15.94 -1.07 248 250 247
-13.77 -16.06 -1.24 235 234 237
-13.66 -16.17 -1.41 215 214 217
-13.57 -16.28 -1.54 193 192 195
-13.53 -16.37 -1.60 186 185 188
-13.51 -16.46 -1.62 189 188 191
-13.51 -16.54 -1.62 194 193 196
-13.53 -16.61 -1.60 194 193 196
-13.54 -16.68 -1.59 193 192 195
-13.54 -16.76 -1.58 196 195 198
-13.55 -16.84 -1.57 194 193 196
-13.54 -16.91 -1.58 194 193 196
-13.54 -16.99 -1.58 195 194 197
-13.54 -17.07 -1.58 196 195 198
-13.54 -17.15 -1.59 196 195 198
-13.54 -17.23 -1.59 193 192 195
-13.53 -17.31 -1.60 192 191 194
-13.53 -17.39 -1.60 194 193 198
-13.52 -17.47 -1.61 194 193 198
-13.52 -17.55 -1.61 194 193 198
-13.51 -17.63 -1.62 194 193 198
-13.51 -17.71 -1.62 194 193 198
-13.50 -17.79 -1.64 194 193 198
-13.50 -17.87 -1.64 194 193 198
-13.50 -17.95 -1.64 194 193 198
-13.50 -18.03 -1.65 194 193 198
-13.49 -18.11 -1.66 194 193 198
-13.49 -18.19 -1.66 194 193 198
-13.48 -18.27 -1.66 194 193 198
-13.48 -18.35 -1.67 194 193 198
-13.48 -18.42 -1.67 194 193 198
-13.48 -18.50 -1.67 194 193 198
-13.48 -18.58 -1.67 194 193 198
-13.47 -18.67 -1.69 195 194 199
-13.46 -18.75 -1.70 195 194 199
-13.46 -18.82 -1.70 195 194 199
-13.46 -18.90 -1.70 195 194 199
-13.47 -18.98 -1.68 195 194 199
-13.48 -19.05 -1.68 195 194 199
-13.48 -19.13 -1.68 195 194 199
-13.48 -19.21 -1.67 195 194 199
-13.49 -19.28 -1.66 195 194 199
-13.50 -19.36 -1.65 193 192 197
-13.51 -19.43 -1.62 190 189 194
-13.52 -19.50 -1.61 189 188 193
-13.53 -19.58 -1.60 187 186 191
-13.54 -19.65 -1.58 183 182 187
-13.56 -19.72 -1.55 179 178 183
-13.58 -19.79 -1.52 174 173 178
-13.60 -19.86 -1.50 175 174 179
-13.61 -19.93 -1.48 166 165 170
-13.63 -20.00 -1.46 159 158 163
-13.65 -20.07 -1.42 159 158 163
-13.66 -20.14 -1.40 156 155 160
-13.68 -20.21 -1.38 156 155 160
-13.69 -20.28 -1.36 103 102 107
-13.67 -20.36 -1.39 51 50 55
-13.61 -20.47 -1.48 44 43 48
-13.55 -20.58 -1.56 45 44 49
-13.54 -20.66 -1.58 47 46 51
-13.57 -20.73 -1.54 51 50 55
-13.70 -20.74 -1.36 52 51 56
-14.00 -20.66 -0.91 53 52 57
-14.64 -20.41 0.02 53 52 57
-15.02 -20.28 0.57 52 51 56
-15.01 -20.37 0.55 51 50 53
-14.97 -20.46 0.49 43 42 45
-14.99 -20.52 0.52 14 15 34
-14.96 -20.61 0.47 0 0 19
-14.97 -20.68 0.49 18 22 62
-14.96 -20.76 0.47 51 55 95
-14.94 -20.85 0.45 36 42 100
-14.94 -20.92 0.44 36 42 100
-14.92 -21.00 0.42 27 34 98
-14.88 -21.10 0.37 24 31 95
-14.85 -21.19 0.32 21 29 88
-14.86 -21.26 0.33 19 27 86
-14.88 -21.32 0.36 8 15 66
-14.90 -21.38 0.40 19 26 77
-14.92 -21.45 0.41 44 50 94
-14.93 -21.51 0.44 38 44 88
-14.93 -21.59 0.43 43 45 90
-14.92 -21.67 0.41 43 45 90
-14.90 -21.75 0.40 36 38 81
-14.88 -21.84 0.36 33 35 78
-14.87 -21.92 0.34 40 42 83
-14.86 -22.00 0.33 37 39 80
-14.85 -22.08 0.32 34 32 70
-14.83 -22.17 0.29 40 38 76
-14.81 -22.25 0.26 49 45 79
-14.63 -22.43 0.00 51 47 81
-13.93 -22.93 -1.01 143 137 160
-13.55 -23.24 -1.57 168 162 185
-13.53 -23.33 -1.60 168 164 175
-13.50 -23.43 -1.65 158 154 165
-13.50 -23.50 -1.64 164 162 160
-13.51 -23.58 -1.63 153 151 149
-13.51 -23.65 -1.63 145 139 144
-13.51 -23.73 -1.62 142 136 141
-13.52 -23.80 -1.62 141 135 140
-13.52 -23.88 -1.62 142 136 141
-13.52 -23.96 -1.61 143 137 142
-13.52 -24.04 -1.62 139 133 138
-13.51 -24.12 -1.62 128 122 127
-13.51 -24.20 -1.62 119 113 118
-13.52 -24.27 -1.61 90 84 89
-13.52 -24.35 -1.62 77 71 76
-13.52 -24.43 -1.61 60 54 59
-13.57 -24.48 -1.55 49 43 48
-13.62 -24.52 -1.47 51 45 50
-13.71 -24.54 -1.34 60 54 59
-13.80 -24.56 -1.21 67 61 66
-13.88 -24.58 -1.09 72 66 71
-13.92 -24.63 -1.03 75 64 73
-13.94 -24.70 -1.01 72 61 70
-13.98 -24.74 -0.95 71 60 69
-14.01 -24.80 -0.90 63 52 61
-14.05 -24.85 -0.85 66 55 64
-14.06 -24.92 -0.83 52 41 50
-14.07 -24.99 -0.82 58 47 56
-14.08 -25.06 -0.80 68 57 66
-14.08 -25.13 -0.79 92 81 90
-14.09 -25.20 -0.78 125 114 123
-14.10 -25.27 -0.77 158 147 156
-14.11 -25.34 -0.76 181 170 179
-14.12 -25.42 -0.75 203 192 201
-14.11 -25.50 -0.75 221 210 219
-14.12 -25.57 -0.74 226 215 224
-14.13 -25.64 -0.73 229 218 227
-14.13 -25.71 -0.73 214 212 213
-14.13 -25.79 -0.72 211 209 210
-14.14 -25.86 -0.72 205 203 204
-14.14 -25.94 -0.72 207 205 206
-14.14 -26.01 -0.72 203 201 202
-14.14 -26.09 -0.71 208 206 207
-14.15 -26.16 -0.70 205 203 204
-14.15 -26.23 -0.70 207 205 206
-14.15 -26.31 -0.70 209 207 208
-14.15 -26.38 -0.69 209 207 208
-14.15 -26.46 -0.70 211 209 210
-14.15 -26.54 -0.69 212 210 211
-14.16 -26.61 -0.69 209 207 208
-14.16 -26.68 -0.69 205 203 204
-14.16 -26.76 -0.69 209 207 208
-14.16 -26.83 -0.68 217 215 216
-14.17 -26.91 -0.67 217 210 213
-14.16 -26.99 -0.68 212 205 208
-14.16 -27.07 -0.69 211 204 207
-14.16 -27.14 -0.69 214 207 210
-14.16 -27.22 -0.69 215 208 211
-14.15 -27.30 -0.69 213 206 209
-14.15 -27.38 -0.70 213 206 209
-14.15 -27.45 -0.69 217 210 213
-14.15 -27.53 -0.70 215 208 211
-14.15 -27.61 -0.70 215 208 211
-14.15 -27.68 -0.70 215 208 211
-14.15 -27.76 -0.70 215 208 211
-14.14 -27.84 -0.71 215 208 211
-14.14 -27.92 -0.72 215 208 211
-14.13 -28.00 -0.72 215 208 211
-14.13 -28.08 -0.72 215 208 211
-14.13 -28.16 -0.73 214 206 212
-14.13 -28.23 -0.73 214 206 212
-14.12 -28.32 -0.74 214 206 212
-14.13 -28.39 -0.73 214 206 212
-14.12 -28.47 -0.74 214 206 212
-14.12 -28.54 -0.74 214 206 212
-14.12 -28.62 -0.74 214 206 212
-14.12 -28.70 -0.74 215 207 213
-14.12 -28.77 -0.74 215 207 213
-14.12 -28.85 -0.74 215 207 213
-14.12 -28.93 -0.74 215 207 213
-14.12 -29.01 -0.74 215 207 213
-14.12 -29.08 -0.74 215 207 213
-14.13 -29.15 -0.73 215 207 213
-14.13 -29.23 -0.73 215 208 211
-14.13 -29.30 -0.73 215 208 211
-14.13 -29.38 -0.72 218 205 213
-14.14 -29.45 -0.72 220 207 215
-14.14 -29.53 -0.72 220 210 214
-14.14 -29.60 -0.72 220 210 214
-14.14 -29.67 -0.71 220 210 214
-14.15 -29.74 -0.70 220 210 214
-14.15 -29.82 -0.69 220 210 214
-14.16 -29.89 -0.69 220 210 214
-14.16 -29.96 -0.68 220 210 214
-14.16 -30.03 -0.68 220 210 214
-14.17 -30.10 -0.67 220 210 214
-14.17 -30.18 -0.67 220 210 214
-14.18 -30.25 -0.65 220 210 214
-14.20 -30.31 -0.63 220 210 214
-14.20 -30.38 -0.62 220 210 214
-14.20 -30.46 -0.62 220 210 214
-14.21 -30.53 -0.61 217 207 208
-14.23 -30.59 -0.59 220 210 211
-14.25 -30.65 -0.56 219 212 212
-14.28 -30.70 -0.52 222 215 215
-14.30 -30.75 -0.48 217 212 211
-14.34 -30.79 -0.42 212 207 206
-14.38 -30.82 -0.36 249 244 243
-14.44 -30.85 -0.28 251 246 245
-14.52 -30.85 -0.17 194 194 191
-14.69 -30.76 0.09 174 174 171
-14.87 -30.67 0.35 201 201 198
-14.97 -30.65 0.49 249 249 246
-14.99 -30.71 0.51 247 249 246
-15.02 -30.75 0.57 247 249 246
-15.04 -30.80 0.60 216 221 217
-15.00 -30.92 0.54 182 187 183
-13.73 17.47 -1.44 128 128 128
-13.73 17.38 -1.43 128 128 128
-13.71 17.33 -1.46 126 124 125
-13.70 17.26 -1.47 126 124 125
-13.70 17.18 -1.47 125 123 124
-13.69 17.11 -1.49 125 123 124
-13.66 17.06 -1.53 127 122 124
-13.65 17.00 -1.55 128 123 125
-13.63 16.94 -1.57 131 126 128
-13.60 16.89 -1.62 132 127 129
-13.59 16.82 -1.64 133 126 129
-13.55 16.77 -1.69 132 125 128
-13.54 16.70 -1.70 134 127 130
-13.52 16.65 -1.74 137 130 133
-13.48 16.60 -1.79 137 130 130
-13.46 16.55 -1.83 133 126 126
-13.42 16.51 -1.89 131 129 130
-13.41 16.43 -1.89 130 128 129
-13.38 16.38 -1.93 132 126 133
-13.37 16.32 -1.96 132 126 133
-13.37 16.23 -1.96 133 127 134
-13.36 16.16 -1.97 135 129 136
-13.36 16.09 -1.97 140 133 131
-13.39 15.98 -1.93 141 134 132
-13.39 15.90 -1.92 130 124 115
-13.37 15.84 -1.95 139 133 124
-13.38 15.75 -1.94 139 133 124
-13.45 15.61 -1.84 134 128 119
-13.64 15.37 -1.56 135 128 131
-14.00 14.98 -1.04 139 132 135
-14.25 14.69 -0.68 136 127 142
-14.30 14.57 -0.60 133 124 139
-13.97 14.77 -1.08 133 132 149
-13.55 15.06 -1.69 131 130 147
-13.37 15.13 -1.95 135 135 130
-13.40 15.03 -1.91 138 138 133
-13.36 14.98 -1.97 138 137 130
-13.34 14.92 -2.00 139 138 131
-13.32 14.86 -2.02 141 135 142
-13.34 14.76 -2.00 142 136 143
-13.34 14.68 -2.00 144 134 138
-13.34 14.61 -2.00 145 135 139
-13.33 14.53 -2.01 146 135 130
-13.33 14.46 -2.01 147 136 131
-13.32 14.38 -2.02 147 135 135
-13.31 14.31 -2.04 149 137 137
-13.30 14.24 -2.05 151 137 139
-13.30 14.17 -2.06 152 138 140
-13.29 14.10 -2.08 149 139 138
-13.28 14.03 -2.09 149 139 138
-13.27 13.95 -2.10 149 139 138
-13.26 13.88 -2.11 149 139 138
-13.26 13.80 -2.11 149 139 138
-13.25 13.73 -2.13 149 139 138
-13.24 13.66 -2.14 149 139 138
-13.24 13.58 -2.15 149 139 138
-13.23 13.51 -2.16 149 139 138
-13.22 13.44 -2.17 150 140 139
-13.21 13.36 -2.18 150 140 139
-13.21 13.29 -2.18 151 141 140
-13.20 13.21 -2.20 149 142 140
-13.20 13.13 -2.20 150 143 141
-13.19 13.06 -2.21 151 144 144
-13.20 12.98 -2.21 154 147 147
-13.19 12.91 -2.22 154 147 150
-13.19 12.83 -2.22 154 147 150
-13.19 12.75 -2.22 154 147 150
-13.18 12.67 -2.23 154 147 150
-13.18 12.59 -2.23 154 147 150
-13.18 12.51 -2.23 154 147 150
-13.18 12.44 -2.23 154 147 150
-13.18 12.36 -2.23 154 147 150
-13.18 12.28 -2.24 155 148 151
-13.18 12.20 -2.24 155 148 151
-13.17 12.13 -2.24 155 148 151
-13.17 12.05 -2.24 155 148 151
-13.17 11.97 -2.25 155 148 151
-13.17 11.89 -2.25 155 148 151
-13.17 11.81 -2.24 154 149 148
-13.17 11.73 -2.24 156 151 150
-13.17 11.65 -2.24 156 151 153
-13.17 11.57 -2.25 159 154 156
-13.17 11.49 -2.25 159 153 158
-13.17 11.42 -2.25 160 154 159
-13.17 11.34 -2.25 160 154 159
-13.17 11.26 -2.25 161 155 160
-13.17 11.18 -2.24 161 155 160
-13.18 11.09 -2.24 162 156 161
-13.17 11.02 -2.24 161 155 160
-13.17 10.94 -2.24 161 155 160
-13.17 10.86 -2.25 161 155 160
-13.16 10.78 -2.26 161 155 160
-13.16 10.71 -2.26 161 155 160
-13.16 10.63 -2.26 161 155 160
-13.16 10.55 -2.26 162 156 161
-13.16 10.47 -2.26 162 156 161
-13.16 10.39 -2.26 163 157 162
-13.16 10.31 -2.26 163 157 162
-13.16 10.23 -2.26 164 158 163
-13.17 10.15 -2.25 164 158 163
-13.17 10.07 -2.25 166 160 165
-13.16 9.99 -2.26 166 160 165
-13.17 9.91 -2.24 167 161 166
-13.18 9.82 -2.24 167 161 166
-13.18 9.75 -2.24 167 161 166
-13.17 9.67 -2.24 167 161 166
-13.17 9.59 -2.25 167 161 166
-13.17 9.51 -2.25 167 161 166
-13.17 9.43 -2.25 167 161 166
-13.17 9.35 -2.25 167 161 166
-13.16 9.28 -2.27 168 160 166
-13.16 9.20 -2.26 168 160 166
-13.15 9.12 -2.27 168 160 166
-13.15 9.05 -2.27 169 161 167
-13.15 8.97 -2.28 169 161 167
-13.14 8.89 -2.29 170 162 168
-13.14 8.82 -2.29 170 164 169
-13.13 8.74 -2.31 171 165 170
-13.13 8.66 -2.30 173 167 172
-13.13 8.58 -2.31 173 167 172
-13.12 8.51 -2.32 172 169 173
-13.12 8.43 -2.32 172 169 173
-13.12 8.35 -2.32 173 170 174
-13.13 8.27 -2.31 173 170 174
-13.13 8.18 -2.30 173 172 177
-13.13 8.10 -2.30 173 172 177
-13.13 8.02 -2.30 175 172 178
-13.13 7.94 -2.30 175 172 178
-13.14 7.86 -2.29 173 167 172
-13.14 7.78 -2.29 173 167 172
-13.14 7.70 -2.28 174 168 173
-13.14 7.62 -2.28 174 168 173
-13.14 7.54 -2.28 173 170 174
-13.14 7.47 -2.29 173 170 174
-13.14 7.38 -2.28 174 171 175
-13.14 7.31 -2.29 174 171 175
-13.14 7.23 -2.29 175 172 176
-13.14 7.15 -2.29 175 172 176
-13.14 7.07 -2.29 176 173 177
-13.15 6.98 -2.27 175 172 176
-13.15 6.90 -2.27 174 172 173
-13.15 6.83 -2.28 175 173 174
-13.15 6.74 -2.27 175 173 174
-13.15 6.67 -2.27 176 174 175
-13.15 6.59 -2.28 181 178 182
-13.15 6.51 -2.28 182 179 183
-13.15 6.43 -2.27 182 179 183
-13.15 6.35 -2.28 182 179 183
-13.15 6.27 -2.27 182 179 183
-13.15 6.19 -2.27 182 179 183
-13.15 6.11 -2.27 183 180 184
-13.15 6.03 -2.27 183 180 184
-13.15 5.95 -2.27 184 181 185
-13.14 5.87 -2.28 184 181 185
-13.14 5.80 -2.29 184 181 185
-13.14 5.72 -2.29 183 180 184
-13.14 5.64 -2.29 182 179 183
-13.14 5.56 -2.28 181 178 182
-13.14 5.48 -2.28 180 179 182
-13.14 5.40 -2.29 179 178 181
-13.14 5.32 -2.29 178 177 180
-13.14 5.24 -2.29 178 177 180
-13.15 5.16 -2.28 176 175 178
-13.14 5.08 -2.29 175 174 177
-13.14 5.00 -2.29 174 173 176
-13.14 4.92 -2.29 173 172 175
-13.14 4.84 -2.29 173 172 175
-13.14 4.76 -2.29 172 171 174
-13.14 4.69 -2.29 171 170 173
-13.14 4.61 -2.29 170 169 172
-13.14 4.53 -2.29 170 169 172
-13.13 4.45 -2.30 171 170 173
-13.13 4.37 -2.30 172 171 174
-13.13 4.29 -2.30 172 171 174
-13.14 4.21 -2.29 173 172 175
-13.14 4.13 -2.29 174 173 176
-13.14 4.05 -2.29 174 173 176
-13.14 3.97 -2.29 174 173 176
-13.13 3.89 -2.30 174 173 176
-13.14 3.81 -2.29 175 174 177
-13.14 3.73 -2.29 176 175 178
-13.14 3.65 -2.28 176 175 178
-13.14 3.57 -2.28 178 177 180
-13.15 3.49 -2.28 178 177 180
-13.15 3.41 -2.28 175 174 177
-13.14 3.33 -2.28 175 174 177
-13.14 3.25 -2.28 175 174 177
-13.15 3.17 -2.28 175 174 177
-13.15 3.09 -2.28 175 174 177
-13.14 3.02 -2.29 175 174 177
-13.13 2.94 -2.30 175 174 177
-13.13 2.86 -2.30 175 174 177
-13.14 2.78 -2.29 174 173 176
-13.13 2.70 -2.30 173 172 175
-13.13 2.62 -2.30 173 172 175
-13.13 2.55 -2.31 173 172 175
-13.12 2.47 -2.32 173 172 175
-13.13 2.39 -2.31 173 172 175
-13.13 2.31 -2.31 173 172 175
-13.13 2.23 -2.30 173 172 175
-13.13 2.15 -2.30 172 171 174
-13.14 2.06 -2.29 171 170 173
-13.15 1.98 -2.28 171 170 173
-13.15 1.90 -2.27 171 170 173
-13.15 1.82 -2.27 171 170 173
-13.15 1.74 -2.27 171 170 173
-13.16 1.66 -2.27 171 170 173
-13.16 1.58 -2.27 171 170 173
-13.16 1.50 -2.26 171 170 173
-13.16 1.42 -2.26 171 170 173
-13.16 1.34 -2.26 171 170 173
-13.16 1.26 -2.26 171 170 173
-13.17 1.18 -2.25 171 170 173
-13.16 1.10 -2.26 171 170 173
-13.16 1.02 -2.26 171 170 173
-13.17 0.94 -2.25 171 170 173
-13.17 0.86 -2.24 170 169 172
-13.18 0.78 -2.24 170 169 172
-13.17 0.70 -2.24 170 169 172
-13.17 0.63 -2.24 170 169 172
-13.18 0.54 -2.23 170 169 172
-13.18 0.46 -2.23 170 169 172
-13.19 0.38 -2.22 170 169 172
-13.19 0.30 -2.21 170 169 172
-13.20 0.22 -2.21 170 170 170
-13.20 0.14 -2.21 170 170 170
-13.20 0.06 -2.20 170 170 170
-13.21 -0.02 -2.19 170 170 170
-13.20 -0.10 -2.20 170 170 170
-13.20 -0.18 -2.20 170 170 170
-13.21 -0.26 -2.18 170 170 170
-13.21 -0.34 -2.18 170 170 170
-13.21 -0.42 -2.18 170 170 170
-13.22 -0.50 -2.17 170 170 170
-13.22 -0.58 -2.17 170 170 170
-13.23 -0.66 -2.15 170 170 170
-13.24 -0.74 -2.14 170 170 170
-13.25 -0.82 -2.14 170 170 170
-13.25 -0.90 -2.13 170 170 170
-13.26 -0.98 -2.11 170 170 170
-13.26 -1.06 -2.11 168 169 172
-13.27 -1.14 -2.10 168 169 172
-13.27 -1.22 -2.10 168 169 172
-13.28 -1.30 -2.09 168 169 172
-13.28 -1.38 -2.09 168 169 172
-13.28 -1.46 -2.08 168 169 172
-13.28 -1.54 -2.08 168 169 172
-13.29 -1.62 -2.08 168 169 172
-13.29 -1.70 -2.08 168 169 172
-13.29 -1.78 -2.07 168 169 172
-13.30 -1.86 -2.06 168 169 172
-13.30 -1.94 -2.05 168 169 172
-13.31 -2.02 -2.05 168 169 172
-13.31 -2.10 -2.04 168 169 172
-13.31 -2.18 -2.04 168 169 172
-13.32 -2.26 -2.03 168 169 172
-13.31 -2.34 -2.04 169 170 173
-13.31 -2.41 -2.05 169 170 173
-13.30 -2.49 -2.05 169 170 173
-13.29 -2.57 -2.07 169 170 173
-13.29 -2.65 -2.08 169 170 173
-13.28 -2.72 -2.09 169 170 173
-13.27 -2.80 -2.10 169 170 173
-13.26 -2.88 -2.11 169 170 173
-13.27 -2.96 -2.10 170 171 174
-13.26 -3.04 -2.11 170 171 174
-13.26 -3.12 -2.11 170 171 174
-13.27 -3.20 -2.10 170 171 174
-13.27 -3.28 -2.10 170 171 174
-13.28 -3.36 -2.09 170 171 174
-13.28 -3.44 -2.09 170 171 174
-13.29 -3.52 -2.07 170 171 174
-13.29 -3.60 -2.07 169 174 173
-13.29 -3.67 -2.07 169 174 173
-13.29 -3.75 -2.07 169 173 175
-13.30 -3.83 -2.06 169 173 175
-13.29 -3.91 -2.07 171 172 175
-13.30 -3.99 -2.06 171 172 175
-13.30 -4.07 -2.05 171 172 177
-13.31 -4.15 -2.05 171 172 177
-13.30 -4.23 -2.05 171 172 177
-13.30 -4.31 -2.05 171 172 177
-13.31 -4.39 -2.04 171 172 177
-13.31 -4.47 -2.04 171 172 177
-13.30 -4.55 -2.05 171 172 177
-13.30 -4.62 -2.05 171 172 177
-13.30 -4.70 -2.06 171 172 177
-13.30 -4.78 -2.06 171 172 177
-13.30 -4.86 -2.06 171 172 177
-13.30 -4.94 -2.06 171 172 177
-13.30 -5.02 -2.05 171 172 177
-13.30 -5.10 -2.06 171 172 177
-13.30 -5.18 -2.05 171 172 177
-13.31 -5.26 -2.05 171 172 177
-13.32 -5.34 -2.03 171 172 177
-13.32 -5.41 -2.02 171 172 177
-13.32 -5.49 -2.02 172 173 178
-13.33 -5.57 -2.01 172 173 178
-13.31 -5.65 -2.04 171 172 177
-13.28 -5.73 -2.08 168 169 174
-13.29 -5.81 -2.07 159 160 165
-13.40 -5.89 -1.92 164 165 170
-13.63 -5.98 -1.57 194 195 200
-13.89 -6.07 -1.20 240 241 246
-13.97 -6.16 -1.08 250 250 250
-13.99 -6.23 -1.05 250 250 250
-13.99 -6.31 -1.05 248 250 250
-14.00 -6.39 -1.04 248 250 250
-14.01 -6.46 -1.03 248 250 250
-14.00 -6.54 -1.03 248 250 250
-14.01 -6.62 -1.02 246 251 250
-14.01 -6.70 -1.02 246 251 250
-14.01 -6.77 -1.02 247 252 251
-14.00 -6.85 -1.04 247 252 251
-13.99 -6.93 -1.05 246 253 251
-13.98 -7.00 -1.07 246 253 251
-13.98 -7.08 -1.07 246 253 251
-13.98 -7.16 -1.07 246 253 251
-13.97 -7.23 -1.08 244 254 251
-13.97 -7.31 -1.08 244 254 251
-13.97 -7.39 -1.08 246 253 251
-13.95 -7.46 -1.11 246 253 251
-13.94 -7.54 -1.12 246 253 251
-13.94 -7.62 -1.12 246 253 251
-13.93 -7.69 -1.14 246 253 251
-13.93 -7.77 -1.14 246 253 251
-13.93 -7.85 -1.14 246 253 251
-13.92 -7.93 -1.15 246 253 251
-13.92 -8.00 -1.15 246 253 251
-13.92 -8.08 -1.15 246 253 251
-13.92 -8.16 -1.16 246 253 251
-13.92 -8.23 -1.16 246 253 251
-13.92 -8.31 -1.15 246 253 251
-13.92 -8.39 -1.16 246 253 251
-13.91 -8.47 -1.17 246 253 251
-13.91 -8.54 -1.17 246 253 251
-13.91 -8.62 -1.17 245 252 250
-13.90 -8.70 -1.18 245 252 250
-13.90 -8.78 -1.18 245 252 250
-13.90 -8.85 -1.18 245 252 250
-13.90 -8.93 -1.19 245 252 250
-13.90 -9.01 -1.18 245 252 250
-13.90 -9.08 -1.19 245 252 250
-13.90 -9.16 -1.18 245 252 250
-13.89 -9.24 -1.19 245 252 250
-13.90 -9.32 -1.19 245 252 250
-13.90 -9.39 -1.19 245 252 250
-13.89 -9.47 -1.20 245 252 250
-13.90 -9.55 -1.18 245 252 250
-13.90 -9.62 -1.18 245 252 250
-13.90 -9.70 -1.18 245 252 250
-13.91 -9.78 -1.16 245 252 250
-13.92 -9.85 -1.15 247 252 251
-13.93 -9.93 -1.14 247 252 251
-13.94 -10.01 -1.12 247 252 251
-13.95 -10.08 -1.11 247 252 251
-13.96 -10.16 -1.10 247 252 251
-13.97 -10.23 -1.08 247 252 251
-13.97 -10.31 -1.08 247 252 251
-13.98 -10.39 -1.07 247 252 251
-13.99 -10.46 -1.06 249 254 253
-14.00 -10.54 -1.04 242 247 246
-14.01 -10.61 -1.02 248 253 252
-14.02 -10.69 -1.01 246 251 250
-14.03 -10.76 -1.00 247 252 251
-14.04 -10.84 -0.98 247 252 251
-14.05 -10.91 -0.96 247 252 251
-14.06 -10.99 -0.95 242 247 246
-14.08 -11.07 -0.93 244 246 246
-14.08 -11.14 -0.92 247 249 249
-14.07 -11.22 -0.93 248 250 250
-14.09 -11.29 -0.91 246 248 248
-14.09 -11.37 -0.91 247 249 249
-14.09 -11.45 -0.91 244 246 246
-14.12 -11.52 -0.86 246 248 248
-14.19 -11.58 -0.76 243 245 245
-14.26 -11.65 -0.65 249 251 251
-14.40 -11.70 -0.45 237 239 239
-14.57 -11.75 -0.21 219 221 221
-14.73 -11.79 0.03 192 194 194
-14.95 -11.83 0.34 161 163 163
-15.05 -11.88 0.49 96 98 98
-15.10 -11.95 0.56 41 43 43
-15.12 -12.02 0.59 13 15 15
-15.09 -12.10 0.55 13 16 25
-15.07 -12.18 0.51 19 22 31
-15.03 -12.26 0.47 40 43 52
-15.04 -12.33 0.47 44 47 56
-15.04 -12.40 0.48 41 44 53
-15.07 -12.47 0.52 32 35 44
-15.08 -12.54 0.53 37 40 49
-15.10 -12.61 0.56 36 39 48
-15.12 -12.68 0.59 40 43 52
-15.13 -12.75 0.61 36 39 48
-15.14 -12.82 0.62 35 38 47
-15.14 -12.90 0.62 36 39 48
-15.14 -12.97 0.63 34 37 46
-15.13 -13.04 0.61 30 33 42
-15.13 -13.12 0.60 34 37 46
-15.12 -13.20 0.59 40 43 52
-15.08 -13.28 0.54 42 46 50
-15.05 -13.36 0.49 30 34 38
-15.01 -13.44 0.43 20 24 26
-14.95 -13.53 0.34 15 19 21
-14.90 -13.62 0.27 21 25 27
-14.70 -13.74 -0.02 100 104 106
-14.44 -13.88 -0.40 247 252 251
-14.32 -13.99 -0.57 240 245 244
-14.28 -14.08 -0.62 246 251 250
-14.27 -14.15 -0.64 246 251 250
-14.25 -14.24 -0.67 246 251 247
-14.23 -14.32 -0.71 246 251 247
-14.21 -14.40 -0.74 246 251 247
-14.20 -14.48 -0.75 246 251 247
-14.18 -14.56 -0.77 246 251 245
-14.18 -14.64 -0.78 246 251 245
-14.17 -14.72 -0.79 248 250 247
-14.16 -14.80 -0.81 248 250 247
-14.15 -14.88 -0.82 248 250 247
-14.14 -14.95 -0.83 248 250 247
-14.15 -15.03 -0.82 248 250 247
-14.16 -15.10 -0.81 248 250 247
-14.17 -15.17 -0.79 248 250 247
-14.18 -15.25 -0.77 248 250 247
-14.19 -15.32 -0.76 248 250 247
-14.20 -15.39 -0.74 248 250 247
-14.20 -15.47 -0.74 248 250 247
-14.21 -15.54 -0.73 248 250 247
-14.22 -15.62 -0.72 248 250 247
-14.22 -15.69 -0.72 248 250 247
-14.22 -15.77 -0.72 248 250 247
-14.19 -15.85 -0.76 248 250 247
-14.14 -15.95 -0.83 243 242 245
-14.04 -16.06 -0.98 241 240 243
-13.92 -16.18 -1.16 229 228 231
-13.79 -16.30 -1.34 208 207 210
-13.70 -16.41 -1.48 192 191 194
-13.66 -16.50 -1.54 188 187 190
-13.64 -16.58 -1.56 190 189 192
-13.65 -16.66 -1.55 193 192 195
-13.65 -16.73 -1.54 190 189 192
-13.66 -16.81 -1.54 193 192 195
-13.66 -16.89 -1.54 197 196 199
-13.66 -16.97 -1.54 197 196 199
-13.66 -17.04 -1.53 196 195 198
-13.67 -17.12 -1.51 194 193 196
-13.67 -17.20 -1.52 193 192 195
-13.67 -17.27 -1.52 192 191 194
-13.66 -17.35 -1.53 194 193 198
-13.66 -17.43 -1.54 194 193 198
-13.65 -17.51 -1.55 194 193 198
-13.65 -17.59 -1.55 194 193 198
-13.65 -17.67 -1.55 194 193 198
-13.64 -17.75 -1.56 194 193 198
-13.64 -17.83 -1.57 194 193 198
-13.63 -17.91 -1.57 194 193 198
-13.63 -17.99 -1.57 194 193 198
-13.62 -18.07 -1.59 194 193 198
-13.62 -18.15 -1.59 194 193 198
-13.62 -18.23 -1.59 194 193 198
-13.62 -18.31 -1.60 194 193 198
-13.62 -18.38 -1.60 194 193 198
-13.61 -18.46 -1.60 194 193 198
-13.61 -18.54 -1.60 194 193 198
-13.60 -18.63 -1.62 195 194 199
-13.60 -18.70 -1.62 195 194 199
-13.59 -18.78 -1.63 195 194 199
-13.59 -18.86 -1.63 195 194 199
-13.59 -18.94 -1.63 195 194 199
-13.60 -19.02 -1.62 195 194 199
-13.60 -19.09 -1.62 195 194 199
-13.61 -19.17 -1.61 195 194 199
-13.62 -19.24 -1.60 195 194 199
-13.62 -19.32 -1.60 193 192 197
-13.63 -19.39 -1.57 190 189 194
-13.64 -19.46 -1.56 188 187 192
-13.65 -19.54 -1.54 187 186 191
-13.67 -19.61 -1.52 183 182 187
-13.69 -19.68 -1.49 178 177 182
-13.70 -19.75 -1.47 174 173 178
-13.71 -19.82 -1.46 178 177 182
-13.72 -19.89 -1.44 170 169 174
-13.73 -19.97 -1.43 161 160 165
-13.74 -20.04 -1.41 160 159 164
-13.76 -20.11 -1.39 150 149 154
-13.78 -20.18 -1.36 145 144 149
-13.78 -20.25 -1.35 67 66 71
-13.74 -20.35 -1.41 29 28 33
-13.66 -20.47 -1.53 44 43 48
-13.57 -20.59 -1.66 45 44 49
-13.58 -20.66 -1.65 48 47 52
-13.64 -20.71 -1.56 51 50 55
-13.73 -20.74 -1.43 52 51 56
-14.01 -20.68 -1.03 53 52 57
-14.59 -20.45 -0.17 52 51 56
-15.03 -20.30 0.47 52 51 56
-15.05 -20.37 0.49 46 45 48
-15.00 -20.47 0.41 43 42 45
-15.03 -20.52 0.47 18 19 38
-15.07 -20.58 0.52 0 1 20
-15.07 -20.65 0.52 15 19 59
-15.07 -20.72 0.52 53 57 97
-15.06 -20.80 0.51 43 49 107
-15.05 -20.88 0.49 39 45 103
-15.03 -20.97 0.46 32 39 103
-15.00 -21.06 0.42 28 35 99
-14.96 -21.15 0.36 26 34 93
-14.95 -21.23 0.35 21 29 88
-14.96 -21.30 0.36 8 15 66
-14.96 -21.37 0.36 20 27 78
-14.95 -21.45 0.35 44 50 94
-14.95 -21.53 0.35 33 39 83
-14.93 -21.61 0.32 36 38 83
-14.90 -21.70 0.27 36 38 83
-14.87 -21.79 0.23 32 34 77
-14.85 -21.88 0.19 34 36 79
-14.82 -21.97 0.16 37 39 80
-14.82 -22.05 0.16 37 39 80
-14.81 -22.13 0.14 37 35 73
-14.78 -22.22 0.10 37 35 73
-14.65 -22.37 -0.10 49 45 79
-14.24 -22.69 -0.69 76 72 106
-13.78 -23.04 -1.35 151 145 168
-13.69 -23.18 -1.50 164 158 181
-13.67 -23.26 -1.51 165 161 172
-13.63 -23.37 -1.58 165 161 172
-13.62 -23.45 -1.60 174 172 170
-13.62 -23.53 -1.59 176 174 172
-13.63 -23.60 -1.58 171 165 170
-13.63 -23.68 -1.57 163 157 162
-13.64 -23.75 -1.56 152 146 151
-13.65 -23.82 -1.55 146 140 145
-13.66 -23.90 -1.54 145 139 144
-13.65 -23.98 -1.55 146 140 145
-13.63 -24.07 -1.57 148 142 147
-13.63 -24.15 -1.57 147 141 146
-13.63 -24.23 -1.58 143 137 142
-13.60 -24.32 -1.61 131 125 130
-13.60 -24.40 -1.62 110 104 109
-13.60 -24.48 -1.62 90 84 89
-13.63 -24.54 -1.57 76 70 75
-13.68 -24.59 -1.51 67 61 66
-13.73 -24.63 -1.43 63 57 62
-13.82 -24.65 -1.31 62 56 61
-13.87 -24.69 -1.23 64 53 62
-13.89 -24.75 -1.19 71 60 69
-13.92 -24.81 -1.16 74 63 72
-13.96 -24.86 -1.09 68 57 66
-14.02 -24.89 -1.00 78 67 76
-14.09 -24.93 -0.91 77 66 75
-14.12 -24.98 -0.86 71 60 69
-14.15 -25.04 -0.82 58 47 56
-14.16 -25.11 -0.81 49 38 47
-14.17 -25.17 -0.79 59 48 57
-14.18 -25.24 -0.77 68 57 66
-14.20 -25.31 -0.75 85 74 83
-14.21 -25.38 -0.73 111 100 109
-14.22 -25.45 -0.72 145 134 143
-14.23 -25.52 -0.71 181 170 179
-14.24 -25.58 -0.69 214 203 212
-14.25 -25.65 -0.67 209 207 208
-14.26 -25.72 -0.65 209 207 208
-14.26 -25.80 -0.66 209 207 208
-14.27 -25.87 -0.64 215 213 214
-14.27 -25.94 -0.64 210 208 209
-14.27 -26.02 -0.64 209 207 208
-14.28 -26.09 -0.62 203 201 202
-14.28 -26.16 -0.62 205 203 204
-14.28 -26.24 -0.63 207 205 206
-14.28 -26.32 -0.63 205 203 204
-14.28 -26.39 -0.62 204 202 203
-14.28 -26.47 -0.62 205 203 204
-14.29 -26.54 -0.62 205 203 204
-14.29 -26.62 -0.62 205 203 204
-14.28 -26.69 -0.62 208 206 207
-14.29 -26.77 -0.62 211 209 210
-14.28 -26.85 -0.63 212 205 208
-14.28 -26.93 -0.63 211 204 207
-14.28 -27.00 -0.63 208 201 204
-14.28 -27.08 -0.63 208 201 204
-14.28 -27.15 -0.62 211 204 207
-14.28 -27.23 -0.63 213 206 209
-14.28 -27.30 -0.62 214 207 210
-14.28 -27.38 -0.62 212 205 208
-14.28 -27.46 -0.64 214 207 210
-14.28 -27.54 -0.64 214 207 210
-14.27 -27.62 -0.64 214 207 210
-14.26 -27.70 -0.65 214 207 210
-14.26 -27.78 -0.66 214 207 210
-14.26 -27.86 -0.66 214 207 210
-14.25 -27.93 -0.67 214 207 210
-14.25 -28.01 -0.67 214 207 210
-14.25 -28.09 -0.68 214 206 212
-14.24 -28.17 -0.69 214 206 212
-14.24 -28.25 -0.69 214 206 212
-14.24 -28.33 -0.69 214 206 212
-14.24 -28.40 -0.69 214 206 212
-14.24 -28.48 -0.69 214 206 212
-14.24 -28.55 -0.69 214 206 212
-14.24 -28.63 -0.69 214 206 212
-14.24 -28.71 -0.69 215 207 213
-14.23 -28.79 -0.71 215 207 213
-14.24 -28.86 -0.69 215 207 213
-14.23 -28.94 -0.70 215 207 213
-14.24 -29.01 -0.69 215 207 213
-14.24 -29.09 -0.69 215 207 213
-14.24 -29.16 -0.69 215 208 211
-14.24 -29.24 -0.69 215 208 211
-14.24 -29.32 -0.69 220 207 215
-14.24 -29.39 -0.69 220 207 215
-14.25 -29.46 -0.68 219 209 213
-14.25 -29.54 -0.68 219 209 213
-14.25 -29.61 -0.67 219 209 213
-14.26 -29.68 -0.66 219 209 213
-14.26 -29.76 -0.66 219 209 213
-14.26 -29.83 -0.66 219 209 213
-14.27 -29.90 -0.64 219 209 213
-14.27 -29.97 -0.64 219 209 213
-14.28 -30.04 -0.63 219 209 213
-14.28 -30.11 -0.62 219 209 213
-14.30 -30.18 -0.61 219 209 213
-14.30 -30.25 -0.60 219 209 213
-14.31 -30.32 -0.58 219 209 213
-14.32 -30.38 -0.57 219 209 213
-14.34 -30.44 -0.54 220 210 211
-14.34 -30.52 -0.54 221 211 212
-14.36 -30.57 -0.51 219 212 212
-14.38 -30.63 -0.48 220 213 213
-14.41 -30.68 -0.44 214 209 208
-14.45 -30.72 -0.38 209 204 203
-14.48 -30.77 -0.34 240 235 234
-14.53 -30.80 -0.27 245 240 239
-14.61 -30.80 -0.15 204 204 201
-14.75 -30.74 0.06 189 189 186
-14.93 -30.65 0.32 186 186 183
-15.02 -30.64 0.45 249 249 246
-15.06 -30.68 0.50 249 251 248
-15.08 -30.73 0.53 246 248 245
-15.10 -30.79 0.56 216 221 217
-15.04 -30.92 0.47 189 194 190
-13.84 17.40 -1.40 122 123 128
-13.87 17.29 -1.34 122 123 128
-13.88 17.20 -1.33 123 124 127
-13.85 17.16 -1.38 124 125 128
-13.85 17.07 -1.37 126 127 130
-13.87 16.99 -1.36 127 128 131
-13.83 16.94 -1.41 129 129 129
-13.83 16.87 -1.41 129 129 129
-13.80 16.81 -1.45 125 125 122
-13.77 16.76 -1.49 129 129 126
-13.76 16.70 -1.52 129 127 123
-13.73 16.65 -1.56 125 123 119
-13.70 16.59 -1.59 124 123 116
-13.66 16.56 -1.66 127 126 119
-13.64 16.49 -1.68 133 129 121
-13.59 16.46 -1.76 133 129 121
-13.56 16.41 -1.80 129 126 130
-13.53 16.36 -1.85 129 126 130
-13.51 16.30 -1.88 131 124 134
-13.50 16.23 -1.90 131 124 134
-13.49 16.16 -1.90 132 125 135
-13.50 16.07 -1.89 134 127 137
-13.50 16.00 -1.90 136 130 135
-13.50 15.92 -1.89 139 133 138
-13.54 15.80 -1.83 133 131 132
-13.51 15.75 -1.87 134 132 133
-13.63 15.56 -1.69 131 131 141
-14.17 15.01 -0.91 133 133 143
-14.97 14.24 0.26 126 128 153
-15.52 13.70 1.06 109 111 136
-15.64 13.51 1.24 95 97 138
-15.60 13.48 1.18 100 102 143
-15.17 13.77 0.55 124 126 171
-14.18 14.55 -0.90 126 128 173
-13.50 15.05 -1.89 129 132 139
-13.50 14.97 -1.89 129 132 139
-13.49 14.91 -1.90 136 137 129
-13.46 14.85 -1.95 137 138 130
-13.44 14.79 -1.97 140 134 139
-13.45 14.70 -1.96 141 135 140
-13.44 14.63 -1.97 144 133 142
-13.44 14.56 -1.98 145 134 143
-13.43 14.48 -1.99 146 134 134
-13.43 14.41 -1.99 147 135 135
-13.42 14.34 -2.01 149 135 135
-13.41 14.26 -2.02 151 137 137
-13.40 14.19 -2.03 151 137 142
-13.39 14.12 -2.05 152 138 143
-13.39 14.05 -2.06 149 139 138
-13.37 13.98 -2.07 149 139 138
-13.37 13.90 -2.08 149 139 138
-13.36 13.83 -2.10 149 139 138
-13.35 13.76 -2.10 149 139 138
-13.34 13.69 -2.12 149 139 138
-13.33 13.62 -2.13 149 139 138
-13.33 13.54 -2.15 149 139 138
-13.32 13.47 -2.15 149 139 138
-13.31 13.40 -2.17 150 140 139
-13.30 13.33 -2.18 150 140 139
-13.30 13.25 -2.19 151 141 140
-13.29 13.17 -2.19 149 142 142
-13.29 13.10 -2.20 150 143 143
-13.28 13.02 -2.21 151 144 147
-13.29 12.94 -2.20 154 147 150
-13.29 12.86 -2.20 154 147 150
-13.28 12.79 -2.21 154 147 150
-13.28 12.71 -2.21 154 147 150
-13.28 12.63 -2.21 154 147 150
-13.28 12.55 -2.21 154 147 150
-13.28 12.48 -2.22 154 147 150
-13.27 12.40 -2.22 154 147 150
-13.27 12.32 -2.22 154 147 150
-13.27 12.24 -2.23 155 148 151
-13.27 12.16 -2.23 155 148 151
-13.27 12.08 -2.23 155 148 151
-13.26 12.01 -2.23 155 148 151
-13.27 11.93 -2.23 155 148 151
-13.27 11.85 -2.23 155 148 151
-13.27 11.77 -2.23 154 149 151
-13.27 11.69 -2.23 156 151 153
-13.27 11.61 -2.23 156 150 155
-13.27 11.53 -2.23 159 153 158
-13.27 11.45 -2.23 159 153 160
-13.27 11.37 -2.23 160 154 161
-13.27 11.29 -2.23 161 155 162
-13.27 11.21 -2.23 161 155 162
-13.27 11.13 -2.22 161 155 162
-13.28 11.05 -2.22 162 156 163
-13.27 10.98 -2.23 161 155 162
-13.27 10.90 -2.23 161 155 162
-13.26 10.82 -2.23 161 155 162
-13.26 10.74 -2.23 161 155 162
-13.26 10.67 -2.24 161 155 162
-13.26 10.58 -2.23 161 155 162
-13.26 10.51 -2.24 162 156 163
-13.26 10.43 -2.24 162 156 163
-13.26 10.35 -2.24 162 156 161
-13.27 10.27 -2.23 162 156 161
-13.27 10.19 -2.23 163 157 162
-13.27 10.11 -2.23 163 157 162
-13.27 10.02 -2.22 164 158 163
-13.27 9.95 -2.22 164 158 163
-13.27 9.87 -2.23 166 160 165
-13.27 9.79 -2.23 167 161 166
-13.27 9.71 -2.22 167 161 166
-13.27 9.63 -2.23 167 161 166
-13.27 9.55 -2.23 167 161 166
-13.27 9.47 -2.23 167 161 166
-13.26 9.40 -2.23 167 161 166
-13.26 9.32 -2.23 167 161 166
-13.26 9.24 -2.24 168 160 166
-13.26 9.16 -2.24 168 160 166
-13.25 9.09 -2.25 168 160 166
-13.25 9.01 -2.25 169 161 167
-13.25 8.93 -2.26 169 161 167
-13.24 8.86 -2.28 170 162 168
-13.23 8.78 -2.28 170 164 169
-13.23 8.71 -2.29 171 165 170
-13.23 8.63 -2.29 173 167 172
-13.22 8.55 -2.30 173 167 172
-13.23 8.47 -2.29 172 169 173
-13.22 8.39 -2.30 172 169 173
-13.23 8.31 -2.29 173 170 174
-13.23 8.23 -2.28 173 170 174
-13.23 8.15 -2.28 173 172 177
-13.24 8.07 -2.27 173 172 177
-13.24 7.98 -2.27 175 171 180
-13.24 7.91 -2.27 175 171 180
-13.25 7.82 -2.25 174 168 173
-13.25 7.74 -2.26 175 169 174
-13.25 7.66 -2.26 175 169 174
-13.25 7.58 -2.26 176 170 175
-13.25 7.51 -2.26 174 171 175
-13.25 7.43 -2.26 175 172 176
-13.25 7.35 -2.26 175 172 176
-13.25 7.27 -2.26 176 173 177
-13.25 7.19 -2.26 176 173 179
-13.25 7.11 -2.26 177 174 180
-13.25 7.03 -2.25 177 174 178
-13.25 6.95 -2.26 176 173 177
-13.25 6.87 -2.25 175 172 176
-13.25 6.79 -2.25 176 173 177
-13.25 6.71 -2.26 176 173 177
-13.25 6.63 -2.25 177 174 178
-13.26 6.55 -2.24 181 178 182
-13.25 6.47 -2.25 182 179 183
-13.26 6.39 -2.24 182 179 183
-13.25 6.31 -2.25 183 180 184
-13.25 6.23 -2.25 183 180 184
-13.25 6.16 -2.25 183 180 184
-13.25 6.08 -2.25 183 180 184
-13.25 6.00 -2.25 183 180 184
-13.25 5.92 -2.25 184 181 185
-13.25 5.84 -2.26 184 181 185
-13.25 5.76 -2.26 184 181 185
-13.25 5.69 -2.26 183 180 184
-13.25 5.60 -2.25 183 180 184
-13.25 5.52 -2.25 182 179 183
-13.25 5.44 -2.25 181 180 183
-13.25 5.37 -2.25 180 179 182
-13.25 5.29 -2.26 179 178 181
-13.24 5.21 -2.27 178 177 180
-13.25 5.13 -2.26 178 177 180
-13.25 5.05 -2.26 176 175 178
-13.25 4.97 -2.26 175 174 177
-13.25 4.89 -2.26 174 173 176
-13.25 4.81 -2.26 173 172 175
-13.25 4.73 -2.26 173 172 175
-13.25 4.66 -2.26 171 170 173
-13.25 4.58 -2.26 170 169 172
-13.25 4.50 -2.26 171 170 173
-13.25 4.41 -2.25 171 170 173
-13.25 4.34 -2.26 172 171 174
-13.25 4.26 -2.26 172 171 174
-13.24 4.18 -2.27 173 172 175
-13.24 4.10 -2.27 173 172 175
-13.25 4.02 -2.26 173 172 177
-13.25 3.94 -2.26 174 173 178
-13.25 3.86 -2.26 174 173 178
-13.25 3.78 -2.26 175 174 179
-13.25 3.70 -2.26 175 174 179
-13.25 3.62 -2.26 176 175 180
-13.26 3.54 -2.24 176 175 180
-13.25 3.46 -2.25 176 175 180
-13.25 3.38 -2.25 175 174 179
-13.25 3.30 -2.25 175 174 179
-13.25 3.23 -2.25 175 174 179
-13.25 3.15 -2.25 175 174 179
-13.25 3.07 -2.25 175 174 179
-13.25 2.99 -2.26 175 174 179
-13.25 2.91 -2.25 175 174 179
-13.24 2.83 -2.27 175 174 179
-13.25 2.75 -2.26 174 173 178
-13.24 2.68 -2.27 173 172 177
-13.24 2.60 -2.27 173 172 177
-13.23 2.52 -2.28 173 172 177
-13.23 2.44 -2.28 173 172 177
-13.24 2.36 -2.27 173 172 177
-13.24 2.28 -2.27 173 172 177
-13.25 2.20 -2.26 173 172 177
-13.24 2.12 -2.27 172 171 176
-13.25 2.04 -2.25 171 170 175
-13.25 1.96 -2.25 171 170 175
-13.25 1.88 -2.25 171 170 175
-13.26 1.80 -2.24 171 170 175
-13.25 1.72 -2.25 171 170 175
-13.26 1.64 -2.24 171 170 175
-13.26 1.56 -2.24 171 170 175
-13.26 1.48 -2.23 171 170 173
-13.26 1.40 -2.24 171 170 173
-13.26 1.32 -2.24 171 170 173
-13.26 1.24 -2.23 171 170 173
-13.27 1.16 -2.23 171 170 173
-13.26 1.08 -2.23 171 170 173
-13.27 1.00 -2.23 171 170 173
-13.27 0.93 -2.23 171 170 173
-13.27 0.85 -2.23 170 169 172
-13.27 0.77 -2.23 170 169 172
-13.27 0.69 -2.23 170 169 172
-13.27 0.61 -2.22 170 169 172
-13.28 0.53 -2.21 170 169 172
-13.29 0.44 -2.20 170 169 172
-13.29 0.37 -2.20 170 169 172
-13.30 0.28 -2.19 170 169 172
-13.29 0.20 -2.19 170 169 172
-13.30 0.12 -2.19 170 169 172
-13.30 0.04 -2.18 170 169 172
-13.31 -0.04 -2.17 170 169 172
-13.31 -0.12 -2.16 170 169 172
-13.32 -0.20 -2.16 170 169 172
-13.32 -0.28 -2.16 170 169 172
-13.32 -0.36 -2.15 170 169 172
-13.33 -0.44 -2.15 170 169 172
-13.33 -0.52 -2.14 170 169 172
-13.34 -0.60 -2.13 170 169 172
-13.34 -0.68 -2.12 170 169 172
-13.35 -0.76 -2.11 170 169 172
-13.35 -0.84 -2.10 170 169 172
-13.36 -0.92 -2.10 170 169 172
-13.37 -1.00 -2.09 170 169 172
-13.37 -1.08 -2.08 168 169 174
-13.38 -1.16 -2.06 168 169 174
-13.38 -1.24 -2.07 168 169 174
-13.38 -1.32 -2.06 168 169 174
-13.39 -1.40 -2.06 168 169 174
-13.39 -1.48 -2.06 168 169 174
-13.39 -1.56 -2.06 168 169 174
-13.39 -1.63 -2.05 168 169 174
-13.39 -1.71 -2.05 168 169 174
-13.40 -1.79 -2.04 168 169 174
-13.40 -1.87 -2.03 168 169 174
-13.40 -1.95 -2.03 168 169 174
-13.42 -2.03 -2.01 168 169 174
-13.42 -2.11 -2.01 168 169 174
-13.42 -2.19 -2.01 168 169 174
-13.43 -2.27 -1.99 168 169 174
-13.42 -2.35 -2.01 169 170 175
-13.42 -2.43 -2.01 169 170 175
-13.41 -2.51 -2.02 169 170 175
-13.40 -2.58 -2.03 169 170 175
-13.39 -2.66 -2.05 169 170 175
-13.39 -2.74 -2.05 169 170 175
-13.38 -2.81 -2.06 169 170 175
-13.37 -2.89 -2.07 169 170 175
-13.37 -2.97 -2.08 170 171 176
-13.37 -3.05 -2.07 170 171 176
-13.38 -3.13 -2.07 170 171 176
-13.38 -3.21 -2.07 170 171 176
-13.39 -3.29 -2.06 170 171 176
-13.39 -3.37 -2.05 170 171 176
-13.40 -3.45 -2.04 170 171 176
-13.40 -3.53 -2.04 170 171 176
-13.40 -3.61 -2.03 170 171 176
-13.40 -3.68 -2.04 170 171 176
-13.40 -3.76 -2.04 170 171 176
-13.40 -3.84 -2.03 170 171 176
-13.41 -3.92 -2.02 170 171 176
-13.42 -4.00 -2.01 170 171 176
-13.42 -4.08 -2.01 170 170 178
-13.42 -4.16 -2.01 170 170 178
-13.42 -4.24 -2.01 171 171 179
-13.42 -4.32 -2.01 171 171 179
-13.41 -4.40 -2.02 171 171 179
-13.41 -4.47 -2.02 171 171 179
-13.40 -4.55 -2.03 171 171 179
-13.41 -4.63 -2.02 171 171 179
-13.40 -4.71 -2.03 172 172 180
-13.40 -4.79 -2.04 172 172 180
-13.40 -4.87 -2.04 171 172 177
-13.40 -4.94 -2.04 171 172 177
-13.40 -5.02 -2.03 171 172 177
-13.40 -5.10 -2.03 171 172 177
-13.41 -5.18 -2.02 171 172 177
-13.43 -5.26 -2.00 171 172 177
-13.43 -5.34 -2.00 171 172 177
-13.44 -5.42 -1.98 171 172 177
-13.45 -5.50 -1.97 170 171 176
-13.43 -5.58 -1.99 172 173 178
-13.42 -5.66 -2.01 177 178 183
-13.43 -5.73 -2.00 166 167 172
-13.48 -5.82 -1.91 158 159 164
-13.80 -5.91 -1.46 181 182 187
-14.04 -6.00 -1.10 241 242 247
-14.07 -6.08 -1.06 249 250 255
-14.08 -6.16 -1.04 250 250 250
-14.08 -6.24 -1.04 250 250 250
-14.08 -6.31 -1.04 248 250 250
-14.08 -6.39 -1.04 248 250 250
-14.09 -6.47 -1.03 248 250 250
-14.10 -6.54 -1.02 248 250 250
-14.10 -6.62 -1.02 246 251 250
-14.10 -6.70 -1.01 246 251 250
-14.10 -6.77 -1.01 247 252 251
-14.10 -6.85 -1.02 247 252 251
-14.09 -6.93 -1.03 246 253 251
-14.08 -7.00 -1.04 246 253 251
-14.08 -7.08 -1.04 246 253 251
-14.08 -7.16 -1.04 246 253 251
-14.08 -7.23 -1.04 244 254 251
-14.08 -7.31 -1.04 244 254 251
-14.07 -7.39 -1.05 246 253 251
-14.07 -7.46 -1.06 246 253 251
-14.06 -7.54 -1.08 246 253 251
-14.05 -7.62 -1.09 246 253 251
-14.05 -7.69 -1.09 246 253 251
-14.04 -7.77 -1.10 246 253 251
-14.03 -7.85 -1.11 246 253 251
-14.03 -7.92 -1.12 246 253 251
-14.02 -8.00 -1.12 246 253 251
-14.02 -8.08 -1.13 246 253 251
-14.02 -8.16 -1.14 246 253 251
-14.02 -8.23 -1.14 246 253 251
-14.02 -8.31 -1.14 246 253 251
-14.01 -8.39 -1.15 246 253 251
-14.00 -8.46 -1.15 246 253 251
-14.01 -8.54 -1.15 246 253 251
-14.01 -8.62 -1.15 245 252 250
-14.01 -8.69 -1.15 245 252 250
-14.00 -8.77 -1.15 245 252 250
-14.00 -8.85 -1.16 245 252 250
-14.00 -8.93 -1.16 245 252 250
-14.00 -9.00 -1.15 245 252 250
-14.00 -9.08 -1.15 245 252 250
-14.01 -9.16 -1.15 245 252 250
-14.00 -9.23 -1.16 245 252 250
-13.99 -9.31 -1.17 245 252 250
-13.99 -9.39 -1.17 245 252 250
-13.99 -9.47 -1.17 245 252 250
-13.99 -9.54 -1.17 245 252 250
-14.00 -9.62 -1.16 245 252 250
-14.00 -9.70 -1.15 245 252 250
-14.01 -9.77 -1.15 245 252 250
-14.02 -9.85 -1.13 247 252 251
-14.03 -9.92 -1.12 247 252 251
-14.04 -10.00 -1.10 247 252 251
-14.04 -10.08 -1.10 247 252 251
-14.06 -10.15 -1.07 247 252 251
-14.07 -10.23 -1.06 247 252 251
-14.07 -10.30 -1.05 247 252 251
-14.09 -10.38 -1.03 247 252 251
-14.10 -10.45 -1.02 246 251 250
-14.11 -10.53 -1.00 244 249 248
-14.12 -10.60 -0.98 249 254 253
-14.13 -10.68 -0.97 248 253 252
-14.15 -10.75 -0.94 247 252 251
-14.16 -10.83 -0.93 245 250 249
-14.17 -10.90 -0.91 248 253 252
-14.18 -10.98 -0.90 244 249 248
-14.20 -11.05 -0.87 255 255 255
-14.20 -11.13 -0.87 246 245 248
-14.21 -11.20 -0.86 248 247 250
-14.20 -11.28 -0.87 245 244 247
-14.24 -11.35 -0.81 251 250 253
-14.27 -11.42 -0.77 246 245 248
-14.39 -11.48 -0.59 251 250 253
-14.63 -11.52 -0.25 251 250 253
-14.88 -11.55 0.12 206 205 208
-15.10 -11.59 0.44 170 169 172
-15.19 -11.64 0.59 115 114 117
-15.20 -11.72 0.60 61 60 63
-15.20 -11.79 0.59 34 33 36
-15.17 -11.87 0.55 11 10 13
-15.17 -11.94 0.55 12 11 14
-15.13 -12.02 0.50 24 23 26
-15.12 -12.10 0.47 32 35 44
-15.10 -12.18 0.45 34 37 46
-15.09 -12.25 0.43 43 46 55
-15.10 -12.32 0.45 39 42 51
-15.13 -12.39 0.48 33 36 45
-15.14 -12.46 0.51 27 30 39
-15.17 -12.53 0.55 32 35 44
-15.18 -12.60 0.56 30 33 42
-15.18 -12.67 0.57 33 36 45
-15.19 -12.75 0.58 35 38 47
-15.20 -12.82 0.59 35 38 47
-15.19 -12.89 0.58 35 38 47
-15.19 -12.97 0.57 35 38 47
-15.19 -13.04 0.57 35 38 47
-15.18 -13.12 0.56 33 36 45
-15.16 -13.19 0.54 32 35 44
