ply
format ascii 1.0
element vertex 1592
property float x
property float y
property float z
property uchar red
property uchar green
property uchar blue
end_header
-7.98 14.36 -3.74 154 150 142
-7.98 14.27 -3.74 154 150 142
-7.97 14.19 -3.75 154 150 142
-7.97 14.10 -3.75 154 150 142
-7.96 14.01 -3.76 159 155 147
-7.96 13.92 -3.76 159 155 147
-7.96 13.84 -3.77 159 155 147
-7.95 13.75 -3.77 159 155 147
-7.95 13.67 -3.78 159 155 147
-7.94 13.58 -3.78 159 155 147
-7.94 13.49 -3.79 159 155 147
-7.93 13.41 -3.80 159 155 147
-7.93 13.32 -3.80 160 156 148
-7.94 13.23 -3.79 160 156 148
-7.93 13.14 -3.80 160 156 148
-7.93 13.05 -3.80 160 156 148
-7.93 12.96 -3.80 160 156 148
-7.93 12.88 -3.80 160 156 148
-7.93 12.79 -3.80 160 156 148
-7.93 12.70 -3.80 160 156 148
-7.93 12.61 -3.80 162 158 150
-7.92 12.52 -3.81 162 158 150
-7.93 12.43 -3.80 162 158 150
-7.93 12.34 -3.81 162 158 150
-7.93 12.25 -3.81 162 158 150
-7.93 12.16 -3.80 162 158 150
-7.93 12.07 -3.80 162 158 150
-7.93 11.98 -3.80 162 158 150
-7.93 11.90 -3.80 160 156 148
-7.92 11.81 -3.81 159 155 147
-7.92 11.72 -3.81 159 155 147
-7.93 11.63 -3.81 157 153 145
-7.93 11.54 -3.80 157 153 145
-7.93 11.45 -3.80 156 152 144
-7.92 11.36 -3.81 155 151 143
-7.92 11.27 -3.81 155 151 143
-7.92 11.18 -3.81 153 149 141
-7.93 11.09 -3.80 152 148 140
-7.92 11.01 -3.81 152 148 140
-7.92 10.92 -3.81 150 146 138
-7.92 10.83 -3.81 149 145 137
-7.92 10.74 -3.82 148 144 136
-7.92 10.65 -3.81 147 143 135
-7.92 10.56 -3.82 147 143 135
-7.92 10.47 -3.82 145 141 133
-7.90 10.39 -3.83 143 139 131
-7.90 10.30 -3.83 143 139 131
-7.90 10.21 -3.84 142 138 130
-7.90 10.13 -3.84 142 138 130
-7.89 10.04 -3.85 141 137 129
-7.89 9.95 -3.85 141 137 129
-7.89 9.86 -3.85 141 137 129
-7.89 9.78 -3.86 143 142 131
-7.89 9.68 -3.85 143 142 131
-7.88 9.60 -3.86 144 143 132
-7.88 9.51 -3.87 145 144 133
-7.88 9.42 -3.87 146 145 134
-7.87 9.34 -3.87 147 146 135
-7.87 9.25 -3.87 148 147 136
-7.87 9.16 -3.88 148 147 136
-7.86 9.07 -3.89 155 154 143
-7.85 8.99 -3.90 157 156 145
-7.86 8.89 -3.89 159 158 147
-7.86 8.81 -3.89 161 160 149
-7.86 8.72 -3.89 164 163 152
-7.86 8.63 -3.89 166 165 154
-7.85 8.54 -3.90 167 166 155
-7.86 8.45 -3.89 168 167 156
-7.86 8.36 -3.89 171 172 162
-7.85 8.27 -3.90 171 172 162
-7.86 8.18 -3.89 171 172 162
-7.86 8.09 -3.89 171 172 162
-7.85 8.00 -3.90 171 172 162
-7.85 7.91 -3.90 171 172 162
-7.85 7.83 -3.90 171 172 162
-7.85 7.74 -3.90 171 172 162
-7.85 7.65 -3.90 172 173 163
-7.85 7.56 -3.90 172 173 163
-7.85 7.47 -3.90 172 173 163
-7.85 7.38 -3.90 172 173 163
-7.85 7.29 -3.91 172 173 163
-7.85 7.20 -3.90 172 173 163
-7.84 7.11 -3.91 172 173 163
-7.84 7.03 -3.92 172 173 163
-7.84 6.94 -3.92 173 174 164
-7.83 6.85 -3.93 173 174 164
-7.83 6.76 -3.93 173 174 164
-7.82 6.68 -3.94 173 174 164
-7.83 6.58 -3.93 173 174 164
-7.82 6.50 -3.94 173 174 164
-7.82 6.41 -3.94 173 174 164
-7.81 6.32 -3.95 173 174 164
-7.81 6.23 -3.95 173 174 164
-7.82 6.14 -3.94 173 174 164
-7.81 6.05 -3.95 173 174 164
-7.81 5.96 -3.95 173 174 164
-7.81 5.87 -3.95 173 174 164
-7.81 5.79 -3.96 173 174 164
-7.81 5.70 -3.96 173 174 164
-7.80 5.61 -3.96 173 174 164
-7.81 5.52 -3.96 174 175 167
-7.81 5.43 -3.95 174 175 167
-7.81 5.34 -3.95 174 175 167
-7.81 5.25 -3.95 174 175 167
-7.81 5.16 -3.95 174 175 167
-7.81 5.07 -3.95 174 175 167
-7.81 4.98 -3.95 174 175 167
-7.81 4.89 -3.95 174 175 167
-7.81 4.80 -3.95 173 174 166
-7.81 4.71 -3.95 173 174 166
-7.81 4.62 -3.96 173 174 166
-7.81 4.53 -3.95 173 174 166
-7.81 4.44 -3.95 173 174 166
-7.80 4.35 -3.96 173 174 166
-7.81 4.26 -3.95 173 174 166
-7.80 4.17 -3.96 173 174 166
-7.81 4.08 -3.95 172 172 167
-7.80 4.00 -3.96 172 172 167
-7.80 3.91 -3.96 172 172 167
-7.80 3.82 -3.96 172 172 167
-7.80 3.73 -3.97 172 172 167
-7.80 3.64 -3.97 172 172 167
-7.80 3.55 -3.96 172 172 167
-7.80 3.46 -3.97 172 172 167
-7.80 3.37 -3.97 173 173 168
-7.80 3.28 -3.96 173 173 168
-7.80 3.19 -3.96 173 173 168
-7.81 3.10 -3.96 173 173 168
-7.81 3.01 -3.95 173 173 168
-7.81 2.92 -3.95 173 173 168
-7.81 2.83 -3.95 173 173 168
-7.81 2.74 -3.95 173 173 168
-7.82 2.65 -3.94 172 172 167
-7.81 2.56 -3.95 172 172 167
-7.82 2.47 -3.94 172 172 167
-7.82 2.38 -3.94 172 172 167
-7.82 2.29 -3.94 172 172 167
-7.82 2.20 -3.94 172 172 167
-7.82 2.11 -3.94 172 172 167
-7.83 2.02 -3.93 172 172 167
-7.83 1.93 -3.93 172 172 167
-7.83 1.84 -3.93 172 172 167
-7.83 1.75 -3.93 172 172 167
-7.83 1.66 -3.93 172 172 167
-7.83 1.57 -3.93 172 172 167
-7.83 1.48 -3.93 172 172 167
-7.83 1.39 -3.93 172 172 167
-7.83 1.30 -3.93 172 172 167
-7.82 1.21 -3.94 172 173 165
-7.82 1.12 -3.94 172 173 165
-7.83 1.03 -3.93 172 173 165
-7.83 0.94 -3.92 172 173 165
-7.83 0.85 -3.92 172 173 165
-7.83 0.76 -3.93 172 173 165
-7.83 0.67 -3.92 172 173 165
-7.83 0.58 -3.92 172 173 165
-7.84 0.49 -3.92 173 174 166
-7.84 0.40 -3.91 173 174 166
-7.85 0.31 -3.91 173 174 166
-7.85 0.22 -3.90 173 174 166
-7.85 0.13 -3.90 173 174 166
-7.85 0.04 -3.90 173 174 166
-7.85 -0.05 -3.90 173 174 166
-7.85 -0.14 -3.90 173 174 166
-7.85 -0.23 -3.90 170 172 167
-7.85 -0.32 -3.90 170 172 167
-7.85 -0.41 -3.90 170 172 167
-7.85 -0.50 -3.90 170 172 167
-7.85 -0.59 -3.90 170 172 167
-7.85 -0.67 -3.90 170 172 167
-7.85 -0.76 -3.90 170 172 167
-7.85 -0.85 -3.90 170 172 167
-7.84 -0.94 -3.91 171 173 168
-7.84 -1.03 -3.91 171 173 168
-7.84 -1.12 -3.91 171 173 168
-7.84 -1.21 -3.91 171 173 168
-7.84 -1.30 -3.92 171 173 168
-7.83 -1.39 -3.93 171 173 168
-7.83 -1.48 -3.93 171 173 168
-7.83 -1.57 -3.93 171 173 168
-7.83 -1.65 -3.93 170 175 169
-7.83 -1.74 -3.93 170 175 169
-7.83 -1.83 -3.92 170 175 169
-7.83 -1.92 -3.93 170 175 169
-7.83 -2.01 -3.92 170 175 169
-7.83 -2.10 -3.93 170 175 169
-7.83 -2.19 -3.92 170 175 169
-7.83 -2.28 -3.92 170 175 169
-7.83 -2.37 -3.92 172 177 171
-7.84 -2.46 -3.92 172 177 171
-7.84 -2.55 -3.92 172 177 171
-7.84 -2.64 -3.91 172 177 171
-7.84 -2.73 -3.92 172 177 171
-7.84 -2.82 -3.92 172 177 171
-7.84 -2.91 -3.91 172 177 171
-7.84 -3.00 -3.92 172 177 171
-7.84 -3.09 -3.91 171 178 173
-7.85 -3.18 -3.90 171 178 173
-7.84 -3.27 -3.91 171 178 173
-7.85 -3.36 -3.90 171 178 173
-7.84 -3.45 -3.91 171 178 173
-7.85 -3.54 -3.90 171 178 173
-7.85 -3.63 -3.90 171 178 173
-7.85 -3.72 -3.90 171 178 173
-7.85 -3.81 -3.90 174 181 176
-7.85 -3.90 -3.90 174 181 176
-7.85 -3.99 -3.90 174 181 176
-7.85 -4.07 -3.90 174 181 176
-7.85 -4.16 -3.90 174 181 176
-7.85 -4.25 -3.91 174 181 176
-7.85 -4.34 -3.90 174 181 176
-7.85 -4.43 -3.90 174 181 176
-7.85 -4.52 -3.90 174 181 176
-7.85 -4.61 -3.90 174 181 176
-7.85 -4.70 -3.91 174 181 176
-7.85 -4.79 -3.91 174 181 176
-7.84 -4.88 -3.92 174 181 176
-7.84 -4.97 -3.91 174 181 176
-7.84 -5.06 -3.91 174 181 176
-7.84 -5.15 -3.92 174 181 176
-7.83 -5.24 -3.92 175 182 177
-7.83 -5.33 -3.92 175 182 177
-7.83 -5.42 -3.93 175 182 177
-7.83 -5.51 -3.93 175 182 177
-7.83 -5.59 -3.93 175 182 177
-7.83 -5.68 -3.93 175 182 177
-7.83 -5.77 -3.93 175 182 177
-7.82 -5.86 -3.94 175 182 177
-7.82 -5.95 -3.94 176 183 181
-7.82 -6.04 -3.94 176 183 181
-7.82 -6.13 -3.94 176 183 181
-7.82 -6.22 -3.94 176 183 181
-7.81 -6.31 -3.95 176 183 181
-7.81 -6.40 -3.95 176 183 181
-7.81 -6.49 -3.95 176 183 181
-7.81 -6.58 -3.95 176 183 181
-7.80 -6.67 -3.97 177 184 182
-7.79 -6.76 -3.97 177 184 182
-7.79 -6.85 -3.98 177 184 182
-7.78 -6.94 -3.99 177 184 182
-7.77 -7.03 -4.00 177 184 182
-7.76 -7.12 -4.02 177 184 182
-7.75 -7.21 -4.02 177 184 182
-7.75 -7.30 -4.03 177 184 182
-7.74 -7.39 -4.05 180 187 180
-7.73 -7.48 -4.06 180 187 180
-7.72 -7.57 -4.07 180 187 180
-7.70 -7.66 -4.09 180 187 180
-7.69 -7.75 -4.10 180 187 180
-7.69 -7.84 -4.11 180 187 180
-7.66 -7.93 -4.14 180 187 180
-7.66 -8.02 -4.14 180 187 180
-7.64 -8.11 -4.17 180 187 180
-7.64 -8.20 -4.17 178 185 178
-7.64 -8.29 -4.17 189 196 189
-7.64 -8.38 -4.17 178 185 178
-7.65 -8.47 -4.16 183 190 183
-7.63 -8.56 -4.18 181 188 181
-7.60 -8.65 -4.22 168 175 168
-7.71 -8.73 -4.07 211 218 211
-8.28 -8.80 -3.35 239 246 244
-8.58 -8.87 -2.97 244 251 249
-8.61 -8.96 -2.94 240 247 245
-8.61 -9.05 -2.94 245 252 250
-8.61 -9.13 -2.94 245 252 250
-8.63 -9.22 -2.92 248 255 253
-8.64 -9.31 -2.90 244 251 249
-8.66 -9.39 -2.88 245 252 250
-8.68 -9.48 -2.86 251 255 255
-8.70 -9.56 -2.83 243 250 248
-8.69 -9.65 -2.84 239 246 244
-8.69 -9.74 -2.84 245 252 250
-8.70 -9.82 -2.83 248 255 253
-8.69 -9.91 -2.84 245 252 250
-8.68 -10.00 -2.85 244 251 249
-8.68 -10.09 -2.85 245 252 250
-8.67 -10.18 -2.86 247 254 252
-8.65 -10.26 -2.89 241 248 246
-8.69 -10.35 -2.84 243 250 248
-8.55 -10.45 -3.01 244 251 249
-8.25 -10.57 -3.39 223 230 228
-7.93 -10.69 -3.80 190 197 195
-7.73 -10.80 -4.06 174 181 179
-7.69 -10.89 -4.10 177 184 182
-7.69 -10.98 -4.11 177 184 182
-7.71 -11.07 -4.08 180 187 185
-7.72 -11.16 -4.07 184 191 189
-7.70 -11.25 -4.09 188 195 193
-7.72 -11.34 -4.07 189 196 194
-7.72 -11.43 -4.06 189 196 194
-7.72 -11.52 -4.07 187 194 192
-7.72 -11.61 -4.07 185 192 190
-7.73 -11.70 -4.06 185 192 190
-7.73 -11.79 -4.05 187 194 192
-7.73 -11.88 -4.05 187 194 192
-7.73 -11.97 -4.05 188 195 193
-7.73 -12.06 -4.05 188 195 193
-7.73 -12.15 -4.06 189 196 194
-7.72 -12.24 -4.06 189 196 194
-7.72 -12.33 -4.07 190 197 195
-7.71 -12.42 -4.07 189 196 194
-7.72 -12.51 -4.07 189 196 194
-7.71 -12.60 -4.08 189 196 194
-7.71 -12.69 -4.09 189 196 194
-7.70 -12.78 -4.09 189 196 194
-7.69 -12.87 -4.10 189 196 194
-7.69 -12.96 -4.11 189 196 194
-7.68 -13.05 -4.11 189 196 194
-7.67 -13.14 -4.13 190 195 189
-7.66 -13.24 -4.14 190 195 189
-7.66 -13.33 -4.15 191 195 197
-7.65 -13.42 -4.15 191 195 197
-7.64 -13.51 -4.16 190 195 191
-7.64 -13.60 -4.17 188 193 189
-7.64 -13.69 -4.17 185 190 184
-7.64 -13.78 -4.17 184 189 183
-7.63 -13.87 -4.18 183 187 189
-7.62 -13.96 -4.19 171 175 177
-7.63 -14.05 -4.18 167 171 173
-7.63 -14.14 -4.18 167 171 173
-7.64 -14.23 -4.16 156 161 157
-7.65 -14.32 -4.15 154 159 155
-7.65 -14.41 -4.15 79 84 83
-7.67 -14.49 -4.13 26 31 30
-7.66 -14.59 -4.14 26 28 55
-7.66 -14.68 -4.14 29 31 58
-7.65 -14.77 -4.16 27 28 58
-7.65 -14.86 -4.16 28 29 59
-7.63 -14.95 -4.18 32 36 65
-7.61 -15.05 -4.20 36 40 69
-7.60 -15.14 -4.22 37 40 76
-7.57 -15.24 -4.25 41 44 80
-7.56 -15.33 -4.27 43 46 82
-7.55 -15.42 -4.28 41 44 80
-7.55 -15.51 -4.28 34 41 55
-7.56 -15.60 -4.27 29 36 50
-7.57 -15.69 -4.25 22 32 26
-7.60 -15.77 -4.22 20 30 24
-7.64 -15.85 -4.17 30 39 39
-7.68 -15.93 -4.12 36 45 45
-7.72 -16.01 -4.06 40 46 47
-7.79 -16.08 -3.98 46 52 53
-7.84 -16.16 -3.91 50 58 48
-7.90 -16.23 -3.84 50 58 48
-7.94 -16.31 -3.79 41 49 37
-7.97 -16.39 -3.75 22 30 18
-8.01 -16.47 -3.70 11 16 15
-8.05 -16.54 -3.65 13 18 17
-8.09 -16.62 -3.60 44 45 50
-8.12 -16.70 -3.56 89 90 95
-8.16 -16.78 -3.51 150 150 147
-8.20 -16.86 -3.46 195 195 192
-8.23 -16.94 -3.43 227 229 214
-8.27 -17.01 -3.38 242 244 229
-8.30 -17.09 -3.33 237 240 220
-8.34 -17.17 -3.28 227 230 210
-8.38 -17.24 -3.24 197 200 190
-8.41 -17.32 -3.19 195 198 188
-8.44 -17.40 -3.15 192 195 185
-8.48 -17.47 -3.10 185 188 178
-8.52 -17.55 -3.06 177 180 172
-8.57 -17.62 -2.99 171 174 166
-8.61 -17.69 -2.94 171 174 166
-8.65 -17.77 -2.89 172 175 167
-8.69 -17.84 -2.84 172 174 169
-8.74 -17.91 -2.78 173 175 170
-8.77 -17.99 -2.74 173 175 170
-8.81 -18.06 -2.69 174 176 171
-8.85 -18.14 -2.64 174 176 173
-8.87 -18.21 -2.62 176 178 175
-8.91 -18.29 -2.56 177 179 176
-8.95 -18.36 -2.52 177 179 176
-8.98 -18.43 -2.47 175 176 168
-9.01 -18.51 -2.43 173 174 166
-9.04 -18.59 -2.40 172 173 163
-9.07 -18.66 -2.36 172 173 163
-9.10 -18.74 -2.32 174 175 163
-9.13 -18.81 -2.28 174 175 163
-9.16 -18.89 -2.25 173 175 160
-9.19 -18.96 -2.21 171 173 158
-9.22 -19.03 -2.17 172 174 159
-9.25 -19.11 -2.14 163 165 150
-9.28 -19.18 -2.09 166 167 155
-9.30 -19.26 -2.07 163 164 152
-9.33 -19.33 -2.03 156 157 147
-9.36 -19.41 -1.99 154 155 145
-9.38 -19.48 -1.96 152 153 145
-9.41 -19.56 -1.92 154 155 147
-9.43 -19.63 -1.90 144 146 146
-9.46 -19.71 -1.86 144 146 146
-9.48 -19.78 -1.83 143 145 145
-9.52 -19.85 -1.79 144 146 146
-9.53 -19.93 -1.77 147 149 149
-9.57 -20.00 -1.73 145 147 147
-9.60 -20.07 -1.69 141 143 143
-9.63 -20.15 -1.66 136 138 138
-9.67 -20.21 -1.61 141 143 143
-9.70 -20.28 -1.56 116 118 118
-9.74 -20.35 -1.51 92 94 94
-9.78 -20.42 -1.45 64 66 66
-9.83 -20.48 -1.39 36 38 38
-9.88 -20.54 -1.33 29 31 31
-9.94 -20.60 -1.26 34 36 36
-10.01 -20.65 -1.17 29 31 31
-10.06 -20.71 -1.11 64 55 40
-10.08 -20.79 -1.09 86 77 62
-10.03 -20.90 -1.15 240 232 196
-9.74 -21.11 -1.51 245 237 201
-9.28 -21.41 -2.10 218 212 164
-9.02 -21.61 -2.42 233 227 179
-9.09 -21.67 -2.34 253 247 213
-9.20 -21.70 -2.19 129 123 89
-8.56 -22.08 -3.00 118 111 95
-8.04 -22.42 -3.66 219 212 196
-8.23 -22.42 -3.42 242 238 232
-8.46 -22.40 -3.13 212 208 202
-8.46 -22.48 -3.13 215 217 212
-8.48 -22.56 -3.10 215 217 212
-8.50 -22.64 -3.08 205 210 204
-8.52 -22.71 -3.05 210 215 209
-8.54 -22.79 -3.02 214 216 213
-8.54 -22.88 -3.03 214 216 213
-8.55 -22.97 -3.02 214 216 213
-8.56 -23.05 -3.01 214 216 213
-8.57 -23.13 -3.00 214 216 213
-8.57 -23.22 -2.99 214 216 213
-8.57 -23.30 -2.99 214 216 213
-8.57 -23.39 -2.99 214 216 213
-8.59 -23.47 -2.97 215 217 214
-8.60 -23.55 -2.96 215 217 214
-8.60 -23.64 -2.95 215 217 214
-8.60 -23.73 -2.95 215 217 214
-8.60 -23.81 -2.95 215 217 214
-8.61 -23.90 -2.95 215 217 214
-8.61 -23.99 -2.95 215 217 214
-8.61 -24.07 -2.94 215 217 214
-8.60 -24.16 -2.95 216 218 215
-8.61 -24.25 -2.94 216 218 215
-8.61 -24.33 -2.94 216 218 215
-8.61 -24.42 -2.94 216 218 215
-8.62 -24.50 -2.93 216 218 215
-8.62 -24.59 -2.93 216 218 215
-8.62 -24.68 -2.93 216 218 215
-8.62 -24.76 -2.93 216 218 215
-8.62 -24.85 -2.92 219 221 218
-8.63 -24.93 -2.92 219 221 218
-8.62 -25.02 -2.92 219 221 218
-8.63 -25.11 -2.92 219 221 218
-8.63 -25.19 -2.91 219 221 218
-8.64 -25.28 -2.91 219 221 218
-8.64 -25.36 -2.90 219 221 218
-8.64 -25.45 -2.90 219 221 218
-8.65 -25.53 -2.90 218 220 217
-8.65 -25.62 -2.89 218 220 217
-8.66 -25.70 -2.88 218 220 217
-8.66 -25.79 -2.88 218 220 217
-8.66 -25.88 -2.88 218 220 217
-8.66 -25.96 -2.87 218 220 217
-8.67 -26.04 -2.86 218 220 217
-8.67 -26.13 -2.86 218 220 217
-8.67 -26.22 -2.86 218 220 217
-8.67 -26.30 -2.86 218 220 217
-8.68 -26.38 -2.85 218 220 217
-8.69 -26.47 -2.84 218 220 217
-8.69 -26.55 -2.84 218 220 217
-8.69 -26.64 -2.84 218 220 217
-8.69 -26.73 -2.85 218 220 217
-8.69 -26.82 -2.85 218 220 217
-8.69 -26.90 -2.84 222 220 221
-8.69 -26.99 -2.84 222 220 221
-8.70 -27.07 -2.83 222 220 221
-8.70 -27.16 -2.83 222 220 221
-8.70 -27.25 -2.83 222 220 221
-8.69 -27.34 -2.84 222 220 221
-8.69 -27.42 -2.84 222 220 221
-8.70 -27.51 -2.83 222 220 221
-8.70 -27.59 -2.83 223 221 222
-8.71 -27.68 -2.82 223 221 222
-8.71 -27.76 -2.82 223 221 222
-8.71 -27.85 -2.81 223 221 222
-8.71 -27.93 -2.81 223 221 222
-8.71 -28.02 -2.82 223 221 222
-8.72 -28.10 -2.80 223 221 222
-8.72 -28.19 -2.80 223 221 222
-8.72 -28.28 -2.80 224 222 223
-8.72 -28.36 -2.80 224 222 223
-8.72 -28.45 -2.80 224 222 223
-8.73 -28.53 -2.79 224 222 223
-8.73 -28.62 -2.79 224 222 223
-8.74 -28.70 -2.78 224 222 223
-8.74 -28.79 -2.78 224 222 223
-8.74 -28.87 -2.78 224 222 223
-8.74 -28.96 -2.77 224 222 223
-8.74 -29.05 -2.78 224 222 223
-8.74 -29.13 -2.78 224 222 223
-8.74 -29.22 -2.77 224 222 223
-8.75 -29.30 -2.77 224 222 223
-8.74 -29.39 -2.77 224 222 223
-8.74 -29.48 -2.77 224 222 223
-8.74 -29.56 -2.77 224 222 223
-8.75 -29.65 -2.76 230 225 227
-8.75 -29.73 -2.76 230 225 227
-8.75 -29.82 -2.76 230 225 227
-8.76 -29.90 -2.75 230 225 227
-8.76 -29.99 -2.75 230 225 227
-8.76 -30.07 -2.75 230 225 227
-8.76 -30.16 -2.75 230 225 227
-8.75 -30.25 -2.76 230 225 227
-8.76 -30.33 -2.75 232 227 229
-8.77 -30.42 -2.74 232 227 229
-8.76 -30.51 -2.75 232 227 229
-8.77 -30.59 -2.74 232 227 229
-8.78 -30.67 -2.73 232 227 229
-8.78 -30.76 -2.73 232 227 229
-8.78 -30.85 -2.73 232 227 229
-8.78 -30.93 -2.73 232 227 229
-8.78 -31.02 -2.73 231 226 228
-8.78 -31.10 -2.72 231 226 228
-8.78 -31.19 -2.72 231 226 228
-8.78 -31.27 -2.72 231 226 228
-8.79 -31.36 -2.72 231 226 228
-8.78 -31.45 -2.72 231 226 228
-8.78 -31.54 -2.73 231 226 228
-8.78 -31.62 -2.72 231 226 228
-8.79 -31.70 -2.71 230 225 227
-8.79 -31.79 -2.71 230 225 227
-8.79 -31.88 -2.71 231 226 228
-8.81 -31.95 -2.69 231 226 228
-8.81 -32.03 -2.69 232 227 229
-8.81 -32.12 -2.69 233 228 230
-8.82 -32.20 -2.68 233 228 230
-8.82 -32.28 -2.67 233 228 230
-8.83 -32.36 -2.66 233 231 232
-8.83 -32.45 -2.66 233 231 232
-8.84 -32.54 -2.66 233 231 232
-8.84 -32.62 -2.65 233 231 232
-8.84 -32.71 -2.65 233 231 232
-8.84 -32.80 -2.66 233 231 232
-8.84 -32.88 -2.65 233 231 232
-8.84 -32.97 -2.65 233 231 232
-8.84 -33.05 -2.65 233 231 232
-8.84 -33.14 -2.66 233 231 232
-8.83 -33.23 -2.66 233 231 232
-8.82 -33.33 -2.67 233 231 232
-8.82 -33.41 -2.67 233 231 232
-8.82 -33.50 -2.67 233 231 232
-8.83 -33.58 -2.67 233 231 232
-8.84 -33.66 -2.65 233 231 232
-8.84 -33.75 -2.65 230 232 227
-8.84 -33.83 -2.65 230 232 227
-8.85 -33.91 -2.64 232 232 227
-8.86 -33.99 -2.62 232 232 227
-8.88 -34.06 -2.60 233 231 227
-8.88 -34.15 -2.60 233 231 227
-8.84 -34.27 -2.65 235 230 227
-8.80 -34.39 -2.70 235 230 227
-8.78 -34.49 -2.73 235 225 224
-8.78 -34.58 -2.72 243 233 232
-8.83 -34.63 -2.67 249 237 237
-8.50 20.71 -3.21 141 133 120
-8.49 20.63 -3.22 141 133 120
-8.48 20.54 -3.23 141 133 120
-8.45 20.48 -3.27 141 133 120
-8.46 20.39 -3.26 141 133 120
-8.46 20.30 -3.26 141 133 120
-8.43 20.24 -3.29 141 133 120
-8.42 20.16 -3.31 141 133 120
-8.42 20.07 -3.31 142 134 121
-8.42 19.99 -3.31 142 134 121
-8.41 19.91 -3.33 142 134 121
-8.41 19.82 -3.33 142 134 121
-8.40 19.74 -3.34 142 134 121
-8.39 19.66 -3.35 142 134 121
-8.38 19.58 -3.36 142 134 121
-8.37 19.50 -3.37 142 134 121
-8.36 19.42 -3.38 144 135 127
-8.36 19.33 -3.39 144 135 127
-8.36 19.24 -3.38 144 135 127
-8.36 19.16 -3.39 144 135 127
-8.36 19.07 -3.39 144 135 127
-8.36 18.98 -3.39 144 135 127
-8.35 18.90 -3.40 144 135 127
-8.35 18.81 -3.40 144 135 127
-8.34 18.73 -3.42 146 137 129
-8.33 18.65 -3.42 146 137 129
-8.33 18.56 -3.43 146 137 129
-8.32 18.49 -3.44 146 137 129
-8.32 18.40 -3.44 146 137 129
-8.31 18.32 -3.46 146 137 129
-8.30 18.23 -3.46 146 137 129
-8.29 18.15 -3.47 146 137 129
-8.29 18.07 -3.48 146 140 133
-8.28 17.98 -3.49 146 140 133
-8.28 17.90 -3.49 146 140 133
-8.27 17.82 -3.50 146 140 133
-8.26 17.74 -3.51 146 140 133
-8.26 17.65 -3.52 146 140 133
-8.25 17.57 -3.53 146 140 133
-8.24 17.49 -3.54 146 140 133
-8.24 17.40 -3.54 148 142 135
-8.24 17.31 -3.54 148 142 135
-8.23 17.23 -3.55 148 142 135
-8.23 17.14 -3.55 148 142 135
-8.22 17.06 -3.56 148 142 135
-8.23 16.96 -3.55 148 142 135
-8.22 16.88 -3.57 148 142 135
-8.22 16.80 -3.57 148 142 135
-8.21 16.71 -3.58 149 145 137
-8.21 16.62 -3.58 149 145 137
-8.21 16.54 -3.58 149 145 137
-8.20 16.45 -3.59 149 145 137
-8.20 16.36 -3.59 149 145 137
-8.20 16.27 -3.59 149 145 137
-8.20 16.19 -3.59 149 145 137
-8.20 16.10 -3.59 149 145 137
-8.19 16.02 -3.60 152 148 140
-8.19 15.93 -3.60 152 148 140
-8.19 15.84 -3.61 152 148 140
-8.18 15.76 -3.62 152 148 140
-8.18 15.67 -3.62 152 148 140
-8.17 15.59 -3.63 152 148 140
-8.16 15.51 -3.64 152 148 140
-8.16 15.42 -3.64 152 148 140
-8.15 15.34 -3.65 153 149 141
-8.14 15.25 -3.66 153 149 141
-8.14 15.17 -3.67 153 149 141
-8.13 15.08 -3.68 153 149 141
-8.13 15.00 -3.68 153 149 141
-8.12 14.91 -3.69 153 149 141
-8.12 14.83 -3.70 153 149 141
-8.11 14.75 -3.71 153 149 141
-8.11 14.66 -3.71 154 150 142
-8.10 14.57 -3.71 154 150 142
-8.10 14.48 -3.71 154 150 142
-8.11 14.39 -3.71 154 150 142
-8.10 14.31 -3.72 154 150 142
-8.10 14.22 -3.72 154 150 142
-8.09 14.14 -3.73 154 150 142
-8.09 14.05 -3.73 154 150 142
-8.09 13.96 -3.73 159 155 147
-8.08 13.87 -3.74 159 155 147
-8.07 13.79 -3.75 159 155 147
-8.07 13.70 -3.75 159 155 147
-8.07 13.62 -3.76 159 155 147
-8.06 13.53 -3.77 159 155 147
-8.06 13.44 -3.77 159 155 147
-8.06 13.35 -3.77 159 155 147
-8.05 13.27 -3.78 160 156 148
-8.05 13.18 -3.78 160 156 148
-8.05 13.09 -3.78 160 156 148
-8.06 13.00 -3.77 160 156 148
-8.06 12.91 -3.77 160 156 148
-8.05 12.83 -3.78 160 156 148
-8.05 12.74 -3.78 160 156 148
-8.05 12.65 -3.78 160 156 148
-8.06 12.56 -3.78 162 158 150
-8.05 12.47 -3.78 162 158 150
-8.05 12.38 -3.78 162 158 150
-8.05 12.29 -3.78 162 158 150
-8.05 12.20 -3.78 162 158 150
-8.05 12.11 -3.78 162 158 150
-8.05 12.03 -3.78 162 158 150
-8.05 11.94 -3.78 162 158 150
-8.05 11.85 -3.78 160 156 148
-8.05 11.76 -3.78 159 155 147
-8.04 11.67 -3.79 159 155 147
-8.05 11.58 -3.78 157 153 145
-8.04 11.50 -3.79 156 152 144
-8.05 11.40 -3.78 155 151 143
-8.05 11.32 -3.79 155 151 143
-8.04 11.23 -3.79 154 150 142
-8.04 11.14 -3.79 152 148 140
-8.04 11.05 -3.79 150 146 138
-8.04 10.96 -3.79 150 146 138
-8.04 10.87 -3.79 149 145 137
-8.04 10.78 -3.79 148 144 136
-8.04 10.70 -3.80 147 143 135
-8.03 10.61 -3.80 146 142 134
-8.04 10.52 -3.80 146 142 134
-8.03 10.43 -3.80 143 139 131
-8.03 10.35 -3.81 143 139 131
-8.02 10.26 -3.81 142 138 130
-8.02 10.17 -3.82 142 138 130
-8.02 10.08 -3.82 141 137 129
-8.01 10.00 -3.83 141 137 129
-8.01 9.91 -3.83 140 136 128
-8.01 9.82 -3.83 140 136 128
-8.01 9.73 -3.83 143 142 131
-8.01 9.65 -3.84 143 142 131
-8.01 9.56 -3.84 143 142 131
-8.01 9.47 -3.84 144 143 132
-8.01 9.38 -3.84 144 143 132
-8.00 9.29 -3.84 145 144 133
-8.00 9.20 -3.85 146 145 134
-8.00 9.12 -3.85 146 145 134
-7.98 9.03 -3.86 155 154 143
-7.99 8.94 -3.86 155 154 143
-7.98 8.85 -3.86 158 157 146
-7.98 8.77 -3.87 160 159 148
-7.98 8.68 -3.86 164 163 152
-7.98 8.59 -3.87 166 165 154
-7.98 8.50 -3.86 167 166 155
-7.98 8.41 -3.87 168 167 156
-7.98 8.32 -3.87 171 172 162
-7.99 8.23 -3.86 171 172 162
-7.98 8.14 -3.86 171 172 162
-7.98 8.05 -3.86 171 172 162
-7.98 7.96 -3.87 171 172 162
-7.98 7.88 -3.88 171 172 162
-7.98 7.79 -3.88 171 172 162
-7.97 7.70 -3.88 171 172 162
-7.98 7.61 -3.88 172 173 163
-7.98 7.52 -3.88 172 173 163
-7.97 7.43 -3.88 172 173 163
-7.98 7.34 -3.87 172 173 163
-7.97 7.25 -3.88 172 173 163
-7.97 7.16 -3.88 172 173 163
-7.97 7.08 -3.89 172 173 163
-7.96 6.99 -3.89 172 173 163
-7.96 6.90 -3.89 173 174 164
-7.95 6.82 -3.91 173 174 164
-7.95 6.73 -3.90 173 174 164
-7.95 6.64 -3.91 173 174 164
-7.95 6.55 -3.91 173 174 164
-7.95 6.46 -3.91 173 174 164
-7.95 6.37 -3.91 173 174 164
-7.93 6.29 -3.93 173 174 164
-7.93 6.20 -3.93 173 174 164
-7.93 6.11 -3.93 173 174 164
-7.93 6.02 -3.93 173 174 164
-7.93 5.93 -3.93 173 174 164
-7.94 5.84 -3.93 173 174 164
-7.93 5.75 -3.94 173 174 164
-7.94 5.66 -3.93 173 174 164
-7.92 5.58 -3.94 173 174 164
-7.93 5.48 -3.93 174 175 167
-7.92 5.40 -3.94 174 175 167
-7.93 5.31 -3.93 174 175 167
-7.92 5.22 -3.94 174 175 167
-7.93 5.13 -3.93 174 175 167
-7.93 5.04 -3.94 174 175 167
-7.93 4.95 -3.93 174 175 167
-7.93 4.86 -3.94 174 175 167
-7.93 4.77 -3.93 173 174 166
-7.93 4.68 -3.93 173 174 166
-7.93 4.59 -3.93 173 174 166
-7.93 4.50 -3.94 173 174 166
-7.93 4.41 -3.94 173 174 166
-7.94 4.32 -3.93 173 174 166
-7.93 4.23 -3.94 173 174 166
-7.93 4.15 -3.94 173 174 166
-7.94 4.05 -3.93 172 172 167
-7.93 3.97 -3.94 172 172 167
-7.93 3.88 -3.93 172 172 167
-7.93 3.79 -3.94 172 172 167
-7.93 3.70 -3.93 172 172 167
-7.93 3.61 -3.93 172 172 167
-7.93 3.52 -3.93 172 172 167
-7.93 3.43 -3.94 172 172 167
-7.92 3.34 -3.94 173 173 168
-7.93 3.25 -3.94 173 173 168
-7.93 3.16 -3.94 173 173 168
-7.93 3.07 -3.93 173 173 168
-7.93 2.98 -3.93 173 173 168
-7.93 2.89 -3.93 173 173 168
-7.94 2.80 -3.92 173 173 168
-7.93 2.71 -3.93 173 173 168
-7.94 2.62 -3.92 172 172 167
-7.94 2.53 -3.92 172 172 167
-7.95 2.44 -3.91 172 172 167
-7.95 2.35 -3.91 172 172 167
-7.94 2.26 -3.92 172 172 167
-7.95 2.17 -3.91 172 172 167
-7.95 2.08 -3.91 172 172 167
-7.95 1.99 -3.91 172 172 167
-7.95 1.90 -3.91 172 172 167
-7.95 1.82 -3.91 172 172 167
-7.95 1.73 -3.91 172 172 167
-7.95 1.64 -3.91 172 172 167
-7.95 1.55 -3.91 172 172 167
-7.95 1.46 -3.91 172 172 167
-7.95 1.37 -3.90 172 172 167
-7.96 1.28 -3.90 172 172 167
-7.95 1.19 -3.91 172 173 165
-7.95 1.10 -3.90 172 173 165
-7.95 1.01 -3.90 172 173 165
-7.95 0.92 -3.91 172 173 165
-7.96 0.83 -3.90 172 173 165
-7.95 0.74 -3.90 172 173 165
-7.96 0.65 -3.89 172 173 165
-7.96 0.56 -3.89 172 173 165
-7.96 0.47 -3.89 173 174 166
-7.97 0.38 -3.88 173 174 166
-7.97 0.29 -3.88 173 174 166
-7.98 0.20 -3.88 173 174 166
-7.98 0.11 -3.88 173 174 166
-7.98 0.02 -3.88 173 174 166
-7.98 -0.07 -3.88 173 174 166
-7.98 -0.16 -3.88 173 174 166
-7.98 -0.25 -3.88 170 172 167
-7.98 -0.33 -3.88 170 172 167
-7.98 -0.42 -3.87 170 172 167
-7.98 -0.51 -3.88 170 172 167
-7.98 -0.60 -3.88 170 172 167
-7.98 -0.69 -3.87 170 172 167
-7.97 -0.78 -3.88 170 172 167
-7.97 -0.87 -3.88 170 172 167
-7.97 -0.96 -3.88 171 173 168
-7.97 -1.05 -3.89 171 173 168
-7.97 -1.14 -3.89 171 173 168
-7.97 -1.23 -3.89 171 173 168
-7.96 -1.31 -3.89 171 173 168
-7.96 -1.40 -3.89 171 173 168
-7.96 -1.49 -3.89 171 173 168
-7.96 -1.58 -3.90 171 173 168
-7.95 -1.67 -3.91 170 175 169
-7.96 -1.76 -3.90 170 175 169
-7.95 -1.85 -3.91 170 175 169
-7.96 -1.94 -3.90 170 175 169
-7.96 -2.03 -3.90 170 175 169
-7.96 -2.12 -3.89 170 175 169
-7.96 -2.21 -3.89 170 175 169
-7.96 -2.30 -3.89 170 175 169
-7.96 -2.39 -3.89 172 177 171
-7.96 -2.47 -3.89 172 177 171
-7.96 -2.56 -3.89 172 177 171
-7.96 -2.65 -3.89 172 177 171
-7.96 -2.74 -3.89 172 177 171
-7.97 -2.83 -3.88 172 177 171
-7.97 -2.92 -3.89 172 177 171
-7.97 -3.01 -3.88 172 177 171
-7.97 -3.10 -3.88 171 178 173
-7.98 -3.19 -3.88 171 178 173
-7.97 -3.28 -3.88 171 178 173
-7.98 -3.37 -3.88 171 178 173
-7.97 -3.46 -3.88 171 178 173
-7.98 -3.55 -3.88 171 178 173
-7.98 -3.64 -3.87 171 178 173
-7.97 -3.73 -3.88 171 178 173
-7.98 -3.82 -3.87 174 181 176
-7.98 -3.91 -3.87 174 181 176
-7.98 -3.99 -3.87 174 181 176
-7.98 -4.08 -3.86 174 181 176
-7.98 -4.17 -3.86 174 181 176
-7.98 -4.26 -3.87 174 181 176
-7.98 -4.35 -3.87 174 181 176
-7.98 -4.44 -3.88 174 181 176
-7.97 -4.53 -3.88 174 181 176
-7.97 -4.62 -3.88 174 181 176
-7.97 -4.71 -3.88 174 181 176
-7.97 -4.80 -3.88 174 181 176
-7.97 -4.89 -3.88 174 181 176
-7.97 -4.97 -3.89 174 181 176
-7.96 -5.06 -3.89 174 181 176
-7.96 -5.15 -3.89 174 181 176
-7.96 -5.24 -3.90 175 182 177
-7.96 -5.33 -3.89 175 182 177
-7.96 -5.42 -3.89 175 182 177
-7.96 -5.51 -3.90 175 182 177
-7.96 -5.60 -3.90 175 182 177
-7.96 -5.69 -3.90 175 182 177
-7.95 -5.78 -3.90 175 182 177
-7.95 -5.87 -3.91 175 182 177
-7.95 -5.96 -3.91 176 183 181
-7.95 -6.05 -3.91 176 183 181
-7.95 -6.13 -3.91 176 183 181
-7.95 -6.22 -3.91 176 183 181
-7.95 -6.31 -3.91 176 183 181
-7.95 -6.40 -3.91 176 183 181
-7.94 -6.49 -3.92 176 183 181
-7.94 -6.58 -3.93 176 183 181
-7.93 -6.67 -3.93 177 184 182
-7.93 -6.76 -3.93 177 184 182
-7.92 -6.85 -3.95 177 184 182
-7.91 -6.94 -3.96 177 184 182
-7.90 -7.03 -3.97 177 184 182
-7.89 -7.12 -3.98 177 184 182
-7.89 -7.21 -3.98 177 184 182
-7.88 -7.30 -3.99 177 184 182
-7.87 -7.39 -4.02 180 187 180
-7.86 -7.47 -4.02 180 187 180
-7.85 -7.56 -4.04 180 187 180
-7.83 -7.65 -4.06 180 187 180
-7.82 -7.74 -4.08 180 187 180
-7.80 -7.83 -4.10 180 187 180
-7.79 -7.92 -4.11 180 187 180
-7.78 -8.01 -4.12 180 187 180
-7.77 -8.10 -4.14 178 185 178
-7.78 -8.19 -4.13 177 184 177
-7.77 -8.28 -4.14 182 189 182
-7.76 -8.37 -4.15 182 189 182
-7.75 -8.46 -4.17 178 185 178
-7.74 -8.55 -4.18 168 175 168
-7.77 -8.64 -4.14 187 194 187
-8.16 -8.72 -3.64 244 251 244
-8.65 -8.78 -3.02 248 255 253
-8.73 -8.87 -2.92 250 255 255
-8.72 -8.95 -2.93 247 254 252
-8.76 -9.04 -2.87 245 252 250
-8.77 -9.13 -2.86 239 246 244
-8.78 -9.21 -2.85 251 255 255
-8.80 -9.30 -2.83 246 253 251
-8.80 -9.39 -2.83 247 254 252
-8.81 -9.47 -2.82 243 250 248
-8.83 -9.56 -2.80 245 252 250
-8.83 -9.64 -2.79 244 251 249
-8.83 -9.73 -2.79 241 248 246
-8.83 -9.82 -2.79 245 252 250
-8.83 -9.90 -2.80 248 255 253
-8.83 -9.99 -2.79 246 253 251
-8.82 -10.08 -2.80 240 247 245
-8.81 -10.17 -2.81 243 250 248
-8.78 -10.26 -2.86 248 255 253
-8.78 -10.34 -2.85 246 253 251
-8.81 -10.43 -2.81 240 247 245
-8.75 -10.52 -2.90 244 251 249
-8.52 -10.63 -3.18 244 251 249
-8.24 -10.75 -3.54 217 224 222
-7.95 -10.87 -3.90 182 189 187
-7.83 -10.97 -4.06 173 180 178
-7.80 -11.07 -4.10 176 183 181
-7.82 -11.15 -4.07 181 188 186
-7.83 -11.24 -4.06 184 191 189
-7.83 -11.33 -4.06 187 194 192
-7.85 -11.42 -4.03 185 192 190
-7.85 -11.51 -4.04 183 190 188
-7.86 -11.60 -4.02 182 189 187
-7.86 -11.69 -4.02 185 192 190
-7.86 -11.77 -4.02 187 194 192
-7.86 -11.86 -4.03 187 194 192
-7.86 -11.95 -4.03 188 195 193
-7.86 -12.04 -4.03 188 195 193
-7.86 -12.13 -4.03 189 196 194
-7.85 -12.22 -4.03 189 196 194
-7.85 -12.31 -4.03 190 197 195
-7.84 -12.40 -4.04 188 195 193
-7.85 -12.49 -4.04 188 195 193
-7.85 -12.58 -4.04 188 195 193
-7.84 -12.67 -4.04 188 195 193
-7.83 -12.76 -4.06 188 195 193
-7.83 -12.85 -4.06 188 195 193
-7.83 -12.94 -4.06 188 195 193
-7.82 -13.04 -4.08 188 195 193
-7.81 -13.13 -4.09 190 195 189
-7.80 -13.22 -4.10 190 195 189
-7.79 -13.31 -4.11 191 195 197
-7.79 -13.40 -4.12 190 194 196
-7.78 -13.49 -4.13 189 194 190
-7.77 -13.58 -4.13 188 193 189
-7.77 -13.67 -4.14 185 190 184
-7.76 -13.76 -4.15 183 188 182
-7.77 -13.85 -4.13 171 175 177
-7.77 -13.94 -4.14 175 179 181
-7.77 -14.03 -4.14 170 174 176
-7.76 -14.12 -4.14 163 167 169
-7.77 -14.21 -4.14 161 166 162
-7.77 -14.30 -4.14 148 153 149
-7.78 -14.39 -4.13 114 119 118
-7.78 -14.48 -4.13 30 35 34
-7.77 -14.57 -4.13 22 24 51
-7.76 -14.66 -4.15 26 28 55
-7.75 -14.76 -4.16 26 27 57
-7.75 -14.85 -4.17 29 30 60
-7.74 -14.94 -4.18 36 40 69
-7.73 -15.03 -4.19 41 45 74
-7.71 -15.13 -4.21 46 49 85
-7.68 -15.22 -4.25 52 55 91
-7.67 -15.32 -4.27 58 61 97
-7.66 -15.41 -4.28 73 76 112
-7.65 -15.50 -4.29 79 86 100
-7.65 -15.59 -4.29 76 83 97
-7.64 -15.68 -4.30 52 62 56
-7.67 -15.77 -4.27 25 35 29
-7.68 -15.85 -4.25 20 29 29
-7.71 -15.93 -4.21 19 28 28
-7.74 -16.02 -4.17 19 25 26
-7.79 -16.09 -4.12 33 39 40
-7.84 -16.17 -4.05 38 46 36
-7.91 -16.24 -3.97 39 47 37
-7.96 -16.32 -3.90 49 57 45
-7.99 -16.40 -3.86 57 65 53
-8.03 -16.47 -3.80 50 55 54
-8.08 -16.55 -3.75 41 46 45
-8.13 -16.62 -3.68 18 19 24
-8.16 -16.70 -3.64 11 12 17
-8.19 -16.78 -3.60 2 2 0
-8.23 -16.86 -3.55 20 20 17
-8.27 -16.94 -3.51 80 82 67
-8.30 -17.02 -3.46 143 145 130
-8.33 -17.09 -3.42 200 203 183
-8.37 -17.17 -3.38 245 248 228
-8.41 -17.25 -3.33 236 239 229
-8.44 -17.32 -3.29 229 232 222
-8.47 -17.40 -3.25 218 221 211
-8.51 -17.48 -3.20 207 210 200
-8.54 -17.55 -3.16 197 200 192
-8.59 -17.63 -3.10 188 191 183
-8.62 -17.70 -3.05 181 184 176
-8.66 -17.78 -3.00 177 180 172
-8.70 -17.85 -2.96 172 174 169
-8.74 -17.92 -2.90 172 174 169
-8.79 -18.00 -2.85 173 175 170
-8.83 -18.07 -2.79 174 176 171
-8.87 -18.14 -2.74 176 178 175
-8.89 -18.22 -2.71 177 179 176
-8.94 -18.29 -2.65 177 179 176
-8.97 -18.37 -2.61 178 180 177
-9.02 -18.44 -2.55 180 181 173
-9.05 -18.51 -2.51 176 177 169
-9.08 -18.59 -2.47 173 174 164
-9.11 -18.66 -2.43 172 173 163
-9.15 -18.73 -2.39 172 173 161
-9.18 -18.81 -2.34 172 173 161
-9.21 -18.88 -2.30 171 173 158
-9.24 -18.96 -2.27 170 172 157
-9.27 -19.03 -2.23 171 173 158
-9.30 -19.10 -2.19 166 168 153
-9.34 -19.18 -2.14 173 174 162
-9.36 -19.25 -2.12 167 168 156
-9.39 -19.33 -2.08 160 161 151
-9.42 -19.40 -2.04 161 162 152
-9.45 -19.47 -2.00 156 157 149
-9.48 -19.55 -1.97 152 153 145
-9.50 -19.62 -1.94 150 152 152
-9.52 -19.70 -1.91 144 146 146
-9.55 -19.77 -1.88 141 143 143
-9.57 -19.85 -1.85 143 145 145
-9.59 -19.92 -1.82 143 145 145
-9.62 -20.00 -1.79 138 140 140
-9.65 -20.07 -1.75 134 136 136
-9.69 -20.14 -1.70 134 136 136
-9.73 -20.21 -1.65 130 132 132
-9.77 -20.27 -1.60 124 126 126
-9.80 -20.34 -1.56 131 133 133
-9.84 -20.41 -1.51 135 137 137
-9.89 -20.47 -1.45 121 123 123
-9.94 -20.53 -1.38 107 109 109
-9.98 -20.60 -1.33 89 91 91
-10.05 -20.65 -1.24 67 69 69
-10.09 -20.72 -1.19 45 36 21
-10.11 -20.79 -1.17 107 98 83
-10.06 -20.90 -1.23 252 244 208
-9.76 -21.12 -1.61 238 230 194
-9.35 -21.39 -2.14 229 223 175
-9.18 -21.56 -2.35 231 225 177
-9.25 -21.61 -2.26 253 247 213
-9.46 -21.60 -2.00 90 84 50
-9.03 -21.88 -2.53 60 53 37
-8.28 -22.33 -3.49 143 136 120
-8.32 -22.39 -3.44 239 235 229
-8.61 -22.34 -3.07 228 224 218
-8.63 -22.42 -3.05 201 203 198
-8.64 -22.51 -3.04 211 213 208
-8.64 -22.59 -3.03 212 217 211
-8.65 -22.67 -3.02 210 215 209
-8.68 -22.74 -2.98 213 215 212
-8.68 -22.83 -2.98 213 215 212
-8.68 -22.92 -2.98 213 215 212
-8.68 -23.01 -2.98 213 215 212
-8.68 -23.09 -2.98 213 215 212
-8.70 -23.17 -2.96 213 215 212
-8.70 -23.26 -2.96 213 215 212
-8.71 -23.34 -2.94 213 215 212
-8.72 -23.43 -2.93 214 216 213
-8.72 -23.51 -2.93 214 216 213
-8.73 -23.60 -2.92 214 216 213
-8.72 -23.68 -2.93 214 216 213
-8.72 -23.77 -2.93 214 216 213
-8.73 -23.85 -2.92 214 216 213
-8.73 -23.94 -2.91 214 216 213
-8.74 -24.02 -2.91 214 216 213
-8.74 -24.11 -2.90 215 217 214
-8.74 -24.20 -2.90 215 217 214
-8.74 -24.28 -2.91 215 217 214
-8.75 -24.37 -2.90 215 217 214
-8.75 -24.45 -2.90 215 217 214
-8.75 -24.54 -2.89 215 217 214
-8.75 -24.63 -2.89 215 217 214
-8.75 -24.71 -2.89 215 217 214
-8.76 -24.80 -2.88 219 221 218
-8.76 -24.88 -2.87 219 221 218
-8.76 -24.97 -2.88 219 221 218
-8.76 -25.06 -2.87 219 221 218
-8.77 -25.14 -2.87 219 221 218
-8.77 -25.23 -2.87 219 221 218
-8.77 -25.31 -2.86 219 221 218
-8.78 -25.40 -2.86 219 221 218
-8.78 -25.48 -2.86 216 218 215
-8.78 -25.57 -2.85 216 218 215
-8.79 -25.65 -2.84 216 218 215
-8.79 -25.74 -2.84 216 218 215
-8.79 -25.82 -2.84 216 218 215
-8.80 -25.91 -2.83 216 218 215
-8.80 -25.99 -2.83 216 218 215
-8.80 -26.08 -2.83 216 218 215
-8.80 -26.17 -2.83 216 218 215
-8.80 -26.25 -2.82 216 218 215
-8.80 -26.34 -2.82 216 218 215
-8.81 -26.42 -2.81 216 218 215
-8.82 -26.50 -2.81 216 218 215
-8.82 -26.59 -2.80 216 218 215
-8.82 -26.68 -2.81 216 218 215
-8.82 -26.76 -2.80 216 218 215
-8.82 -26.85 -2.80 221 219 220
-8.82 -26.93 -2.80 221 219 220
-8.82 -27.02 -2.80 221 219 220
-8.83 -27.10 -2.79 221 219 220
-8.83 -27.19 -2.79 221 219 220
-8.83 -27.28 -2.79 221 219 220
-8.83 -27.36 -2.79 221 219 220
-8.84 -27.45 -2.78 221 219 220
-8.84 -27.53 -2.78 223 221 222
-8.84 -27.62 -2.78 223 221 222
-8.84 -27.70 -2.78 223 221 222
-8.84 -27.79 -2.78 223 221 222
-8.85 -27.87 -2.77 223 221 222
-8.85 -27.96 -2.77 223 221 222
-8.85 -28.05 -2.77 223 221 222
-8.85 -28.13 -2.77 223 221 222
-8.86 -28.21 -2.76 224 222 223
-8.86 -28.30 -2.76 224 222 223
-8.86 -28.39 -2.76 224 222 223
-8.86 -28.47 -2.75 224 222 223
-8.86 -28.56 -2.75 224 222 223
-8.87 -28.64 -2.74 224 222 223
-8.87 -28.73 -2.74 224 222 223
-8.87 -28.81 -2.73 224 222 223
-8.87 -28.90 -2.74 223 221 222
-8.87 -28.98 -2.74 223 221 222
-8.87 -29.07 -2.74 223 221 222
-8.87 -29.16 -2.74 223 221 222
-8.87 -29.25 -2.74 223 221 222
-8.87 -29.33 -2.73 223 221 222
-8.88 -29.41 -2.73 223 221 222
-8.88 -29.50 -2.72 223 221 222
-8.87 -29.59 -2.73 230 225 227
-8.89 -29.67 -2.72 230 225 227
-8.89 -29.75 -2.72 230 225 227
-8.89 -29.84 -2.71 230 225 227
-8.89 -29.92 -2.71 230 225 227
-8.88 -30.02 -2.72 230 225 227
-8.89 -30.10 -2.72 230 225 227
-8.88 -30.19 -2.72 230 225 227
-8.89 -30.27 -2.72 232 227 229
-8.89 -30.36 -2.72 232 227 229
-8.89 -30.44 -2.71 232 227 229
-8.90 -30.53 -2.70 232 227 229
-8.90 -30.61 -2.70 232 227 229
-8.90 -30.70 -2.70 232 227 229
-8.91 -30.78 -2.69 232 227 229
-8.91 -30.87 -2.69 232 227 229
-8.91 -30.95 -2.69 230 225 227
-8.91 -31.04 -2.69 230 225 227
-8.91 -31.12 -2.69 230 225 227
-8.91 -31.21 -2.69 230 225 227
-8.91 -31.30 -2.69 230 225 227
-8.92 -31.38 -2.68 230 225 227
-8.92 -31.47 -2.68 230 225 227
-8.92 -31.55 -2.68 230 225 227
-8.92 -31.64 -2.68 230 225 227
-8.92 -31.72 -2.67 230 225 227
-8.92 -31.81 -2.67 230 225 227
-8.93 -31.88 -2.66 231 226 228
-8.94 -31.97 -2.65 232 227 229
-8.94 -32.05 -2.65 232 227 229
-8.95 -32.13 -2.64 233 228 230
-8.95 -32.22 -2.64 233 228 230
-8.96 -32.30 -2.63 232 230 231
-8.96 -32.38 -2.63 232 230 231
-8.96 -32.47 -2.62 232 230 231
-8.96 -32.56 -2.63 232 230 231
-8.96 -32.64 -2.62 232 230 231
-8.96 -32.73 -2.62 232 230 231
-8.96 -32.81 -2.63 232 230 231
-8.97 -32.89 -2.62 232 230 231
-8.97 -32.98 -2.62 232 230 231
-8.97 -33.07 -2.62 232 230 231
-8.97 -33.16 -2.62 232 230 231
-8.96 -33.24 -2.62 232 230 231
-8.96 -33.34 -2.63 232 230 231
-8.96 -33.42 -2.63 232 230 231
-8.97 -33.50 -2.62 232 230 231
-8.97 -33.58 -2.61 232 230 231
-8.99 -33.66 -2.59 229 231 226
-8.99 -33.74 -2.59 229 231 226
-8.98 -33.83 -2.60 231 231 226
-9.00 -33.90 -2.58 231 231 226
-9.02 -33.98 -2.56 232 230 226
-9.01 -34.07 -2.56 232 230 226
-8.99 -34.18 -2.59 234 229 226
-8.93 -34.31 -2.66 234 229 226
-8.93 -34.40 -2.66 235 225 224
-8.87 -34.53 -2.73 236 226 225
-9.24 -34.30 -2.27 252 240 240
-8.65 20.61 -3.15 141 132 124
-8.64 20.53 -3.16 141 132 124
-8.65 20.44 -3.15 141 132 124
-8.63 20.36 -3.17 141 132 124
-8.62 20.28 -3.18 141 132 124
-8.63 20.19 -3.17 141 132 124
-8.60 20.13 -3.22 141 132 124
-8.58 20.06 -3.24 141 132 124
-8.58 19.97 -3.24 142 133 125
-8.57 19.89 -3.25 142 133 125
-8.57 19.81 -3.25 142 133 125
-8.56 19.72 -3.26 142 133 125
-8.55 19.64 -3.27 142 133 125
-8.55 19.56 -3.28 142 133 125
-8.53 19.48 -3.30 142 133 125
-8.53 19.40 -3.31 142 133 125
-8.53 19.31 -3.30 144 133 126
-8.53 19.23 -3.31 144 133 126
-8.53 19.14 -3.31 144 133 126
-8.52 19.06 -3.31 144 133 126
-8.52 18.97 -3.31 144 133 126
-8.52 18.88 -3.32 144 133 126
-8.52 18.80 -3.32 144 133 126
-8.52 18.71 -3.32 144 133 126
-8.50 18.63 -3.34 144 133 126
-8.50 18.55 -3.35 145 134 127
-8.50 18.46 -3.35 145 134 127
-8.49 18.38 -3.35 146 135 128
-8.48 18.30 -3.36 146 135 128
-8.47 18.22 -3.39 147 136 129
-8.46 18.14 -3.39 147 136 129
-8.46 18.06 -3.40 149 138 131
-8.45 17.97 -3.40 146 140 133
-8.44 17.89 -3.41 146 140 133
-8.43 17.81 -3.43 146 140 133
-8.43 17.73 -3.43 146 140 133
-8.42 17.64 -3.44 146 140 133
-8.42 17.56 -3.45 146 140 133
-8.41 17.47 -3.45 146 140 133
-8.40 17.39 -3.47 146 140 133
-8.39 17.31 -3.48 148 142 135
-8.39 17.22 -3.48 148 142 135
-8.39 17.14 -3.48 148 142 135
-8.39 17.05 -3.48 148 142 135
-8.38 16.97 -3.49 148 142 135
-8.38 16.88 -3.49 148 142 135
-8.38 16.79 -3.50 148 142 135
-8.38 16.71 -3.50 148 142 135
-8.37 16.63 -3.51 152 143 135
-8.36 16.54 -3.52 152 143 135
-8.36 16.45 -3.52 152 143 135
-8.36 16.37 -3.52 152 143 135
-8.36 16.28 -3.52 152 143 135
-8.36 16.19 -3.52 152 143 135
-8.35 16.11 -3.53 152 143 135
-8.35 16.02 -3.54 152 143 135
-8.35 15.94 -3.54 152 143 135
-8.34 15.85 -3.55 153 144 136
-8.34 15.76 -3.55 153 144 136
-8.34 15.68 -3.55 155 146 138
-8.33 15.59 -3.56 155 146 138
-8.32 15.51 -3.57 156 147 139
-8.32 15.42 -3.57 156 147 139
-8.32 15.34 -3.57 157 148 140
-8.32 15.25 -3.58 154 148 141
-8.30 15.17 -3.60 154 148 141
-8.30 15.09 -3.60 154 148 141
-8.29 15.00 -3.61 154 148 141
-8.29 14.92 -3.61 154 148 141
-8.28 14.83 -3.62 154 148 141
-8.28 14.75 -3.63 154 148 141
-8.27 14.66 -3.63 154 148 141
-8.26 14.58 -3.64 154 148 141
-8.27 14.49 -3.63 155 149 142
-8.27 14.40 -3.64 155 149 142
-8.26 14.31 -3.64 156 150 143
-8.26 14.23 -3.64 156 150 143
-8.26 14.14 -3.65 157 151 144
-8.26 14.05 -3.65 157 151 144
-8.26 13.96 -3.65 158 152 145
-8.25 13.88 -3.66 157 153 145
-8.25 13.79 -3.66 157 153 145
-8.24 13.71 -3.67 157 153 145
-8.24 13.62 -3.68 157 153 145
-8.23 13.54 -3.68 157 153 145
-8.23 13.45 -3.68 157 153 145
-8.22 13.37 -3.70 157 153 145
-8.22 13.28 -3.70 157 153 145
-8.21 13.19 -3.70 161 157 149
-8.21 13.11 -3.71 161 157 149
-8.21 13.02 -3.71 161 157 149
-8.21 12.93 -3.72 161 157 149
-8.21 12.84 -3.70 161 157 149
-8.21 12.75 -3.70 161 157 149
-8.21 12.66 -3.70 161 157 149
-8.20 12.58 -3.72 161 157 149
-8.20 12.49 -3.72 162 159 146
-8.21 12.40 -3.72 162 159 146
-8.21 12.31 -3.72 162 159 146
-8.20 12.22 -3.72 162 159 146
-8.21 12.13 -3.71 162 159 146
-8.21 12.04 -3.71 162 159 146
-8.21 11.96 -3.72 162 159 146
-8.20 11.87 -3.72 162 159 146
-8.20 11.78 -3.72 160 157 144
-8.21 11.69 -3.71 160 157 144
-8.20 11.61 -3.72 159 156 143
-8.21 11.51 -3.72 156 153 140
-8.20 11.43 -3.72 155 152 139
-8.20 11.34 -3.72 154 151 138
-8.20 11.25 -3.72 153 150 137
-8.20 11.16 -3.72 152 149 136
-8.20 11.08 -3.73 141 140 133
-8.20 10.99 -3.72 141 140 133
-8.20 10.90 -3.72 140 139 132
-8.20 10.81 -3.73 140 139 132
-8.19 10.72 -3.73 139 138 131
-8.19 10.64 -3.74 139 138 131
-8.19 10.55 -3.74 138 137 130
-8.19 10.46 -3.74 138 137 130
-8.19 10.37 -3.74 138 137 130
-8.19 10.28 -3.74 138 137 130
-8.18 10.20 -3.75 138 137 130
-8.17 10.11 -3.76 138 137 130
-8.17 10.02 -3.76 138 137 130
-8.17 9.94 -3.76 138 137 130
-8.16 9.85 -3.77 138 137 130
-8.17 9.76 -3.77 138 137 130
-8.17 9.67 -3.77 139 138 129
-8.17 9.58 -3.77 139 138 129
-8.17 9.49 -3.76 139 138 129
-8.16 9.41 -3.77 139 138 129
-8.16 9.32 -3.77 139 138 129
-8.16 9.23 -3.77 139 138 129
-8.16 9.14 -3.78 139 138 129
-8.15 9.06 -3.78 139 138 129
-8.15 8.97 -3.79 147 146 137
-8.15 8.88 -3.79 148 147 138
-8.15 8.79 -3.79 152 151 142
-8.15 8.70 -3.79 157 156 147
-8.15 8.61 -3.79 161 160 151
-8.15 8.52 -3.79 165 164 155
-8.15 8.44 -3.79 168 167 158
-8.15 8.35 -3.79 171 170 161
-8.15 8.26 -3.79 171 172 162
-8.15 8.17 -3.79 171 172 162
-8.15 8.08 -3.79 171 172 162
-8.15 7.99 -3.79 171 172 162
-8.15 7.90 -3.79 171 172 162
-8.14 7.82 -3.80 171 172 162
-8.14 7.73 -3.79 171 172 162
-8.14 7.64 -3.80 171 172 162
-8.14 7.55 -3.80 172 173 163
-8.14 7.47 -3.80 172 173 163
-8.13 7.38 -3.81 172 173 163
-8.14 7.29 -3.80 172 173 163
-8.13 7.20 -3.81 172 173 163
-8.12 7.12 -3.82 172 173 163
-8.12 7.03 -3.82 172 173 163
-8.11 6.94 -3.83 172 173 163
-8.11 6.85 -3.83 173 174 166
-8.11 6.76 -3.84 173 174 166
-8.11 6.68 -3.84 173 174 166
-8.11 6.59 -3.84 173 174 166
-8.11 6.50 -3.84 173 174 166
-8.11 6.41 -3.84 173 174 166
-8.10 6.32 -3.85 173 174 166
-8.10 6.24 -3.85 173 174 166
-8.10 6.15 -3.85 173 174 166
-8.10 6.06 -3.86 173 174 166
-8.10 5.97 -3.86 173 174 166
-8.10 5.88 -3.85 173 174 166
-8.10 5.79 -3.86 173 174 166
-8.10 5.70 -3.86 173 174 166
-8.10 5.61 -3.86 173 174 166
-8.09 5.53 -3.86 173 174 166
-8.09 5.44 -3.86 173 174 166
-8.09 5.35 -3.87 173 174 166
-8.09 5.26 -3.86 173 174 166
-8.09 5.17 -3.87 173 174 166
-8.09 5.08 -3.87 173 174 166
-8.09 4.99 -3.87 173 174 166
-8.08 4.91 -3.87 173 174 166
-8.10 4.81 -3.86 173 174 166
-8.10 4.72 -3.86 174 175 167
-8.10 4.64 -3.86 174 175 167
-8.10 4.55 -3.86 174 175 167
-8.10 4.46 -3.86 174 175 167
-8.10 4.37 -3.86 174 175 167
-8.10 4.28 -3.85 174 175 167
-8.10 4.19 -3.85 174 175 167
-8.10 4.10 -3.86 174 175 167
-8.10 4.01 -3.85 171 172 164
-8.09 3.92 -3.86 171 172 164
-8.10 3.83 -3.85 171 172 164
-8.10 3.74 -3.85 171 172 164
-8.10 3.65 -3.85 171 172 164
-8.10 3.57 -3.85 171 172 164
-8.10 3.48 -3.85 171 172 164
-8.10 3.39 -3.85 171 172 164
-8.10 3.30 -3.85 172 173 165
-8.10 3.21 -3.85 172 173 165
-8.10 3.12 -3.85 172 173 165
-8.11 3.03 -3.84 172 173 165
-8.10 2.94 -3.85 172 173 165
-8.11 2.85 -3.84 172 173 165
-8.11 2.76 -3.84 172 173 165
-8.10 2.67 -3.85 172 173 165
-8.10 2.58 -3.85 171 173 168
-8.10 2.50 -3.85 171 173 168
-8.10 2.41 -3.85 171 173 168
-8.10 2.32 -3.85 171 173 168
-8.11 2.23 -3.84 171 173 168
-8.11 2.14 -3.84 171 173 168
-8.11 2.05 -3.84 171 173 168
-8.11 1.96 -3.84 171 173 168
-8.11 1.87 -3.84 170 172 167
-8.11 1.78 -3.84 170 172 167
-8.11 1.69 -3.84 170 172 167
-8.11 1.60 -3.84 170 172 167
-8.11 1.51 -3.84 170 172 167
-8.11 1.43 -3.84 170 172 167
-8.11 1.34 -3.84 170 172 167
-8.11 1.25 -3.83 170 172 167
-8.11 1.16 -3.83 170 173 163
-8.11 1.07 -3.83 170 173 163
-8.12 0.98 -3.83 170 173 163
-8.12 0.89 -3.83 170 173 163
-8.12 0.80 -3.83 170 173 163
-8.12 0.71 -3.82 170 173 163
-8.13 0.62 -3.81 170 173 163
-8.13 0.53 -3.81 170 173 163
-8.13 0.44 -3.81 170 173 163
-8.13 0.35 -3.81 170 173 163
-8.14 0.26 -3.80 170 173 163
-8.14 0.17 -3.80 170 173 163
-8.14 0.08 -3.80 170 173 163
-8.14 -0.01 -3.80 170 173 163
-8.15 -0.10 -3.79 170 173 163
-8.14 -0.18 -3.80 170 173 163
-8.14 -0.27 -3.79 170 172 167
-8.14 -0.36 -3.80 170 172 167
-8.14 -0.45 -3.80 170 172 167
-8.14 -0.54 -3.80 170 172 167
-8.14 -0.63 -3.80 170 172 167
-8.14 -0.72 -3.80 170 172 167
-8.13 -0.80 -3.81 170 172 167
-8.14 -0.89 -3.80 170 172 167
-8.13 -0.98 -3.81 171 173 168
-8.13 -1.07 -3.81 171 173 168
-8.13 -1.16 -3.81 171 173 168
-8.12 -1.25 -3.82 171 173 168
-8.13 -1.34 -3.82 171 173 168
-8.13 -1.43 -3.81 171 173 168
-8.13 -1.51 -3.82 171 173 168
-8.13 -1.60 -3.82 171 173 168
-8.12 -1.69 -3.83 171 173 168
-8.12 -1.78 -3.82 171 173 168
-8.12 -1.87 -3.83 171 173 168
-8.12 -1.96 -3.82 171 173 168
-8.12 -2.05 -3.82 171 173 168
-8.12 -2.14 -3.82 171 173 168
-8.13 -2.23 -3.82 171 173 168
-8.12 -2.31 -3.82 171 173 168
-8.12 -2.40 -3.82 172 174 169
-8.13 -2.49 -3.82 172 174 169
-8.12 -2.58 -3.82 172 174 169
-8.12 -2.67 -3.82 172 174 169
-8.13 -2.76 -3.81 172 174 169
-8.13 -2.85 -3.81 172 174 169
-8.14 -2.94 -3.80 172 174 169
-8.14 -3.03 -3.80 172 174 169
-8.14 -3.12 -3.80 174 176 171
-8.14 -3.21 -3.80 174 176 171
-8.14 -3.30 -3.80 174 176 171
-8.14 -3.38 -3.80 174 176 171
-8.15 -3.47 -3.79 174 176 171
-8.15 -3.56 -3.79 174 176 171
-8.15 -3.65 -3.78 174 176 171
-8.15 -3.74 -3.79 174 176 171
-8.15 -3.83 -3.79 174 176 171
-8.15 -3.92 -3.79 174 176 171
-8.15 -4.01 -3.79 174 176 171
-8.15 -4.10 -3.79 174 176 171
-8.15 -4.19 -3.79 174 176 171
-8.15 -4.27 -3.79 174 176 171
-8.15 -4.36 -3.79 174 176 171
-8.15 -4.45 -3.79 174 176 171
-8.14 -4.54 -3.80 175 180 176
-8.14 -4.63 -3.80 175 180 176
-8.14 -4.72 -3.80 175 180 176
-8.14 -4.81 -3.80 175 180 176
-8.14 -4.90 -3.80 175 180 176
-8.14 -4.98 -3.80 175 180 176
-8.13 -5.07 -3.81 175 180 176
-8.13 -5.16 -3.82 175 180 176
-8.13 -5.25 -3.82 176 181 177
-8.12 -5.34 -3.82 176 181 177
-8.13 -5.43 -3.81 176 181 177
-8.13 -5.52 -3.81 176 181 177
-8.13 -5.61 -3.81 176 181 177
-8.13 -5.70 -3.82 176 181 177
-8.12 -5.78 -3.82 176 181 177
-8.12 -5.87 -3.83 176 181 177
-8.11 -5.96 -3.84 176 181 177
-8.11 -6.05 -3.84 176 181 177
-8.12 -6.14 -3.83 176 181 177
-8.11 -6.23 -3.83 176 181 177
-8.11 -6.32 -3.84 176 181 177
-8.12 -6.41 -3.83 176 181 177
-8.11 -6.50 -3.84 176 181 177
-8.11 -6.58 -3.84 176 181 177
-8.10 -6.67 -3.85 177 182 178
-8.10 -6.76 -3.85 177 182 178
-8.08 -6.85 -3.87 177 182 178
-8.08 -6.94 -3.88 177 182 178
-8.06 -7.03 -3.90 177 182 178
-8.06 -7.12 -3.90 177 182 178
-8.05 -7.21 -3.92 177 182 178
-8.04 -7.30 -3.92 177 182 178
-8.03 -7.39 -3.94 176 181 180
-8.01 -7.47 -3.96 176 181 180
-8.00 -7.56 -3.98 177 182 181
-8.00 -7.65 -3.98 179 184 183
-7.97 -7.74 -4.02 181 186 185
-7.96 -7.83 -4.03 183 188 187
-7.94 -7.92 -4.06 184 189 188
-7.94 -8.01 -4.06 184 189 188
-7.93 -8.10 -4.07 182 187 186
-7.93 -8.19 -4.06 183 188 187
-7.93 -8.28 -4.06 179 184 183
-7.89 -8.37 -4.11 184 189 188
-7.87 -8.46 -4.14 167 172 171
-8.01 -8.55 -3.96 171 176 175
-8.50 -8.62 -3.34 235 240 239
-8.84 -8.69 -2.90 251 255 255
-8.87 -8.78 -2.87 246 253 251
-8.88 -8.86 -2.85 246 253 251
-8.90 -8.95 -2.83 246 253 251
-8.94 -9.03 -2.79 246 253 251
-8.97 -9.12 -2.74 246 253 251
-8.99 -9.20 -2.72 246 253 251
-8.98 -9.29 -2.73 246 253 251
-8.99 -9.38 -2.72 246 253 251
-9.00 -9.46 -2.71 245 252 250
-9.01 -9.55 -2.70 245 252 250
-9.01 -9.63 -2.70 245 252 250
-9.00 -9.72 -2.70 245 252 250
-9.01 -9.81 -2.69 245 252 250
-8.99 -9.89 -2.71 245 252 250
-9.00 -9.98 -2.71 245 252 250
-8.98 -10.07 -2.73 245 252 250
-8.99 -10.15 -2.72 245 252 250
-8.97 -10.24 -2.74 245 252 250
-8.96 -10.33 -2.75 245 252 250
-8.94 -10.42 -2.78 245 252 250
-8.94 -10.51 -2.79 245 252 250
-8.93 -10.59 -2.79 245 252 250
-8.91 -10.68 -2.82 245 252 250
-8.80 -10.78 -2.96 245 252 250
-8.52 -10.90 -3.31 217 224 222
-8.19 -11.03 -3.73 189 196 194
-8.01 -11.13 -3.96 170 177 175
-7.95 -11.23 -4.04 175 182 180
-7.94 -11.32 -4.06 187 194 192
-7.98 -11.41 -4.00 194 201 199
-7.99 -11.49 -3.99 191 198 196
-7.98 -11.59 -4.00 182 189 187
-8.00 -11.67 -3.98 191 196 195
-8.00 -11.76 -3.98 189 194 193
-8.01 -11.85 -3.97 186 191 190
-8.01 -11.94 -3.97 186 191 190
-8.01 -12.03 -3.96 186 191 190
-8.01 -12.12 -3.97 188 193 192
-8.01 -12.21 -3.97 189 194 193
-8.01 -12.30 -3.97 189 194 193
-8.00 -12.39 -3.98 189 194 193
-8.00 -12.48 -3.97 189 194 193
-8.01 -12.56 -3.97 189 194 193
-8.00 -12.65 -3.98 189 194 193
-8.00 -12.74 -3.98 189 194 193
-8.00 -12.83 -3.98 189 194 193
-8.00 -12.92 -3.98 189 194 193
-7.99 -13.01 -3.99 189 194 193
-7.99 -13.10 -3.99 191 193 190
-7.98 -13.19 -4.00 192 194 191
-7.97 -13.29 -4.02 192 194 191
-7.97 -13.38 -4.02 192 194 191
-7.96 -13.47 -4.03 191 193 190
-7.96 -13.56 -4.03 188 190 187
-7.96 -13.65 -4.03 186 188 185
-7.94 -13.74 -4.05 185 187 184
-7.93 -13.83 -4.07 186 188 185
-7.93 -13.92 -4.07 192 194 191
-7.93 -14.01 -4.06 179 181 178
-7.93 -14.10 -4.06 176 178 175
-7.92 -14.19 -4.07 163 165 162
-7.92 -14.28 -4.08 155 157 154
