ply
format ascii 1.0
element vertex 1584
property float x
property float y
property float z
property uchar red
property uchar green
property uchar blue
end_header
-3.20 19.76 -4.98 148 142 135
-3.20 19.66 -4.97 148 142 135
-3.19 19.57 -4.99 148 142 135
-3.18 19.48 -4.99 147 143 135
-3.18 19.38 -5.00 147 143 135
-3.18 19.29 -5.00 147 143 135
-3.17 19.19 -5.00 147 143 135
-3.17 19.10 -5.01 148 144 136
-3.16 19.01 -5.02 148 144 136
-3.15 18.91 -5.03 149 145 137
-3.15 18.82 -5.03 149 145 137
-3.15 18.72 -5.03 150 146 138
-3.14 18.63 -5.04 150 146 138
-3.13 18.54 -5.05 152 148 140
-3.13 18.44 -5.06 152 148 140
-3.12 18.35 -5.07 152 148 140
-3.12 18.25 -5.07 152 148 140
-3.11 18.16 -5.07 152 148 140
-3.11 18.06 -5.08 152 148 140
-3.10 17.97 -5.09 152 148 140
-3.10 17.87 -5.09 152 148 140
-3.09 17.78 -5.10 153 149 141
-3.07 17.69 -5.12 153 149 141
-3.07 17.59 -5.12 153 149 141
-3.06 17.50 -5.13 153 149 141
-3.06 17.41 -5.13 153 149 141
-3.05 17.32 -5.15 153 149 141
-3.04 17.22 -5.15 153 149 141
-3.04 17.13 -5.16 154 150 142
-3.04 17.03 -5.16 154 150 142
-3.04 16.93 -5.16 154 150 142
-3.02 16.84 -5.18 154 150 142
-3.02 16.74 -5.18 154 150 142
-3.02 16.65 -5.18 154 150 142
-3.01 16.55 -5.19 154 150 142
-3.01 16.45 -5.19 155 151 143
-3.01 16.36 -5.19 156 152 144
-3.01 16.26 -5.18 155 151 143
-3.02 16.16 -5.18 156 152 144
-3.01 16.06 -5.18 156 152 144
-3.01 15.96 -5.19 156 152 144
-3.01 15.86 -5.18 156 152 144
-3.01 15.76 -5.19 156 152 144
-3.01 15.67 -5.19 156 152 144
-3.01 15.57 -5.19 156 152 144
-3.00 15.47 -5.20 157 153 145
-3.00 15.38 -5.20 159 155 147
-3.01 15.27 -5.19 159 155 147
-3.00 15.18 -5.20 159 155 147
-3.00 15.08 -5.20 159 155 147
-2.99 14.99 -5.21 159 155 147
-2.99 14.89 -5.21 159 155 147
-2.99 14.79 -5.21 159 155 147
-2.99 14.70 -5.21 160 156 148
-2.98 14.60 -5.22 160 156 148
-2.97 14.51 -5.23 160 156 148
-2.97 14.41 -5.23 160 156 148
-2.96 14.32 -5.24 160 156 148
-2.96 14.22 -5.25 160 156 148
-2.95 14.13 -5.26 160 156 148
-2.94 14.03 -5.26 160 156 148
-2.94 13.93 -5.26 160 156 148
-2.95 13.83 -5.26 161 157 149
-2.95 13.73 -5.26 161 157 149
-2.95 13.63 -5.26 162 158 150
-2.95 13.53 -5.25 162 158 150
-2.95 13.44 -5.26 163 159 151
-2.96 13.33 -5.25 163 159 151
-2.96 13.23 -5.25 164 160 152
-2.95 13.14 -5.26 164 160 154
-2.95 13.04 -5.26 164 160 154
-2.95 12.94 -5.26 164 160 154
-2.94 12.85 -5.26 164 160 154
-2.93 12.75 -5.28 164 160 154
-2.93 12.66 -5.28 164 160 154
-2.93 12.56 -5.28 166 162 156
-2.92 12.46 -5.29 166 162 156
-2.92 12.37 -5.30 166 162 156
-2.91 12.27 -5.30 166 162 156
-2.91 12.18 -5.31 166 162 156
-2.90 12.08 -5.31 166 162 156
-2.90 11.98 -5.31 164 163 154
-2.90 11.88 -5.32 164 163 154
-2.89 11.79 -5.33 164 165 155
-2.89 11.69 -5.33 164 165 155
-2.88 11.60 -5.34 164 165 155
-2.89 11.49 -5.33 164 165 155
-2.88 11.40 -5.33 164 165 155
-2.88 11.30 -5.34 164 165 155
-2.88 11.20 -5.34 164 165 155
-2.86 11.11 -5.35 164 165 155
-2.88 11.01 -5.34 164 165 155
-2.87 10.91 -5.35 164 165 155
-2.88 10.81 -5.34 165 166 156
-2.86 10.71 -5.35 165 166 156
-2.87 10.61 -5.35 165 166 156
-2.86 10.52 -5.35 165 166 156
-2.86 10.42 -5.36 165 166 156
-2.87 10.31 -5.35 165 166 156
-2.87 10.22 -5.35 165 166 156
-2.87 10.12 -5.35 165 166 156
-2.88 10.02 -5.34 165 166 156
-2.87 9.92 -5.35 165 166 156
-2.88 9.82 -5.34 166 167 157
-2.87 9.72 -5.35 166 167 157
-2.88 9.62 -5.34 166 167 157
-2.88 9.52 -5.34 166 167 157
-2.87 9.43 -5.35 166 167 157
-2.87 9.33 -5.35 166 167 157
-2.87 9.23 -5.35 166 167 157
-2.87 9.13 -5.35 167 168 158
-2.87 9.03 -5.35 168 169 159
-2.87 8.93 -5.35 168 169 159
-2.87 8.83 -5.35 168 169 159
-2.86 8.74 -5.36 168 169 159
-2.85 8.64 -5.37 168 169 159
-2.85 8.55 -5.38 168 169 159
-2.84 8.45 -5.38 170 171 163
-2.84 8.35 -5.38 170 171 163
-2.83 8.26 -5.39 170 171 163
-2.82 8.16 -5.41 170 171 163
-2.81 8.07 -5.42 170 171 163
-2.80 7.97 -5.43 170 171 163
-2.80 7.87 -5.43 170 171 163
-2.80 7.77 -5.42 170 171 163
-2.81 7.67 -5.42 171 172 164
-2.81 7.57 -5.42 171 172 164
-2.81 7.47 -5.42 171 172 164
-2.81 7.38 -5.42 171 172 164
-2.81 7.28 -5.42 171 172 164
-2.80 7.18 -5.42 171 172 164
-2.80 7.08 -5.43 171 172 164
-2.80 6.98 -5.43 171 172 164
-2.81 6.88 -5.42 172 172 167
-2.81 6.78 -5.42 172 172 167
-2.80 6.68 -5.42 172 172 167
-2.81 6.58 -5.42 172 172 167
-2.80 6.48 -5.42 172 172 167
-2.82 6.38 -5.41 172 172 167
-2.81 6.28 -5.42 172 172 167
-2.81 6.19 -5.42 172 172 167
-2.79 6.09 -5.43 173 173 168
-2.80 5.99 -5.42 173 173 168
-2.80 5.89 -5.42 173 173 168
-2.80 5.79 -5.43 173 173 168
-2.80 5.69 -5.43 173 173 168
-2.79 5.60 -5.44 173 173 168
-2.79 5.50 -5.44 173 173 168
-2.78 5.40 -5.45 173 173 168
-4.12 -16.84 -3.93 148 149 152
-4.67 -16.79 -3.31 20 22 22
-4.34 -16.97 -3.68 84 86 86
-4.00 -17.16 -4.07 141 143 138
-3.41 -17.42 -4.74 201 203 198
-2.83 -17.88 -5.39 209 212 200
-4.65 -17.46 -3.33 198 201 189
-5.85 -17.20 -1.97 183 187 172
-6.14 -17.21 -1.64 188 192 177
-6.13 -17.30 -1.66 191 195 178
-6.20 -17.37 -1.57 161 165 148
-6.23 -17.45 -1.53 228 228 228
-6.29 -17.53 -1.47 243 243 243
-6.31 -17.61 -1.44 246 246 246
-6.32 -17.70 -1.43 222 222 222
-6.33 -17.78 -1.42 187 187 187
-6.42 -17.84 -1.33 172 172 172
-6.45 -17.92 -1.28 179 179 179
-6.18 -18.10 -1.60 189 189 189
-5.50 -18.41 -2.37 195 195 195
-4.18 -18.93 -3.86 207 207 207
-3.22 -19.33 -4.95 220 220 220
-2.79 -20.96 -5.44 227 229 226
-2.81 -21.05 -5.42 227 229 226
-2.84 -21.14 -5.38 227 229 226
-2.86 -21.23 -5.36 227 229 226
-2.89 -21.32 -5.32 227 229 226
-2.89 -21.42 -5.32 227 229 226
-2.92 -21.51 -5.29 227 229 226
-2.94 -21.60 -5.26 228 230 227
-2.97 -21.68 -5.23 228 230 227
-2.99 -21.78 -5.21 228 230 227
-3.00 -21.87 -5.20 228 230 227
-3.01 -21.96 -5.19 228 230 227
-3.02 -22.06 -5.18 228 230 227
-3.03 -22.15 -5.17 228 230 227
-3.05 -22.25 -5.15 228 230 227
-3.06 -22.34 -5.14 229 231 228
-3.07 -22.43 -5.12 229 231 228
-3.08 -22.53 -5.11 229 231 228
-3.08 -22.63 -5.11 229 231 228
-3.09 -22.72 -5.10 229 231 228
-3.09 -22.82 -5.10 229 231 228
-3.10 -22.91 -5.09 229 231 228
-3.09 -23.01 -5.09 229 231 228
-3.09 -23.11 -5.10 232 234 231
-3.08 -23.21 -5.11 232 234 231
-3.08 -23.31 -5.11 232 234 231
-3.08 -23.41 -5.11 232 234 231
-3.08 -23.51 -5.11 232 234 231
-3.09 -23.61 -5.10 232 234 231
-3.09 -23.70 -5.09 232 234 231
-3.10 -23.80 -5.09 232 234 231
-3.10 -23.89 -5.08 234 236 233
-3.11 -23.99 -5.07 234 236 233
-3.11 -24.08 -5.07 234 236 233
-3.11 -24.18 -5.07 234 236 233
-3.12 -24.28 -5.06 234 236 233
-3.11 -24.38 -5.07 234 236 233
-3.12 -24.48 -5.07 234 236 233
-3.13 -24.57 -5.06 234 236 233
-3.12 -24.67 -5.06 234 236 233
-3.13 -24.77 -5.06 234 236 233
-3.13 -24.86 -5.06 234 236 233
-3.13 -24.96 -5.05 234 236 233
-3.13 -25.06 -5.05 234 236 233
-3.15 -25.15 -5.03 234 236 233
-3.15 -25.25 -5.03 234 236 233
-3.16 -25.34 -5.02 234 236 233
-3.17 -25.43 -5.01 234 236 233
-3.17 -25.53 -5.00 234 236 233
-3.19 -25.62 -4.99 234 236 233
-3.19 -25.71 -4.98 234 236 233
-3.20 -25.81 -4.97 234 236 233
-3.20 -25.90 -4.97 234 236 233
-3.21 -26.00 -4.96 234 236 233
-3.21 -26.10 -4.96 234 236 233
-3.22 -26.19 -4.95 235 237 234
-3.23 -26.28 -4.94 235 237 234
-3.23 -26.38 -4.95 235 237 234
-3.23 -26.48 -4.94 235 237 234
-3.23 -26.58 -4.94 235 237 234
-3.24 -26.67 -4.93 235 237 234
-3.24 -26.77 -4.93 235 237 234
-3.24 -26.86 -4.92 235 237 234
-3.24 -26.96 -4.92 235 237 234
-3.25 -27.05 -4.91 235 237 234
-3.26 -27.15 -4.91 235 237 234
-3.27 -27.24 -4.90 235 237 234
-3.27 -27.34 -4.89 235 237 234
-3.26 -27.44 -4.90 235 237 234
-3.28 -27.53 -4.88 235 237 234
-3.28 -27.63 -4.89 235 237 234
-3.29 -27.72 -4.88 234 236 233
-3.29 -27.82 -4.87 234 236 233
-3.29 -27.91 -4.87 234 236 233
-3.29 -28.01 -4.87 234 236 233
-3.29 -28.11 -4.87 234 236 233
-3.30 -28.20 -4.86 234 236 233
-3.31 -28.30 -4.85 234 236 233
-3.32 -28.39 -4.84 234 236 233
-3.32 -28.48 -4.84 235 237 234
-3.32 -28.58 -4.84 235 237 234
-3.34 -28.67 -4.82 235 237 234
-3.33 -28.77 -4.82 235 237 234
-3.34 -28.87 -4.82 235 237 234
-3.34 -28.96 -4.82 235 237 234
-3.34 -29.06 -4.81 235 237 234
-3.34 -29.16 -4.81 235 237 234
-3.35 -29.25 -4.81 237 239 236
-3.35 -29.34 -4.80 236 238 235
-3.35 -29.44 -4.80 236 238 235
-3.35 -29.54 -4.81 235 237 234
-3.36 -29.63 -4.79 235 237 234
-3.35 -29.73 -4.80 234 236 233
-3.36 -29.83 -4.79 234 236 233
-3.37 -29.92 -4.79 233 235 232
-3.38 -30.01 -4.77 234 236 233
-3.39 -30.10 -4.76 234 236 233
-3.39 -30.20 -4.76 234 236 233
-3.40 -30.29 -4.75 234 236 233
-3.40 -30.39 -4.75 234 236 233
-3.40 -30.48 -4.74 234 236 233
-3.41 -30.58 -4.74 234 236 233
-3.41 -30.67 -4.73 234 236 233
-3.42 -30.76 -4.72 235 237 234
-3.42 -30.86 -4.72 235 237 234
-3.42 -30.96 -4.72 235 237 234
-3.43 -31.05 -4.72 235 237 234
-3.43 -31.15 -4.71 235 237 234
-3.44 -31.24 -4.71 235 237 234
-3.44 -31.34 -4.71 235 237 234
-3.44 -31.43 -4.71 235 237 234
-3.43 -31.54 -4.71 236 238 235
-3.43 -31.63 -4.71 236 238 235
-3.43 -31.73 -4.71 236 238 235
-3.44 -31.82 -4.70 236 238 235
-3.44 -31.92 -4.70 236 238 235
-3.44 -32.02 -4.70 236 238 235
-3.44 -32.11 -4.70 236 238 235
-3.45 -32.21 -4.69 236 238 235
-3.45 -32.30 -4.69 241 243 240
-3.46 -32.39 -4.68 241 243 240
-3.46 -32.49 -4.68 241 243 240
-3.46 -32.59 -4.68 241 243 240
-3.46 -32.69 -4.68 241 243 240
-3.46 -32.78 -4.68 241 243 240
-3.47 -32.88 -4.67 241 243 240
-3.47 -32.97 -4.66 241 243 240
-3.48 -33.06 -4.66 242 244 241
-3.49 -33.15 -4.65 242 244 241
-3.49 -33.25 -4.65 242 244 241
-3.49 -33.35 -4.65 242 244 241
-3.48 -33.45 -4.65 242 244 241
-3.49 -33.54 -4.65 242 244 241
-3.49 -33.64 -4.65 242 244 241
-3.49 -33.73 -4.65 242 244 241
-3.49 -33.83 -4.64 244 246 243
-3.48 -33.93 -4.65 244 246 243
-3.49 -34.03 -4.65 244 246 243
-3.49 -34.12 -4.64 244 246 243
-3.49 -34.22 -4.64 244 246 243
-3.50 -34.31 -4.63 244 246 243
-3.50 -34.41 -4.63 244 246 243
-3.50 -34.50 -4.63 244 246 243
-3.50 -34.60 -4.63 244 246 243
-3.50 -34.69 -4.63 244 246 243
-3.52 -34.78 -4.61 244 246 243
-3.52 -34.88 -4.61 244 246 243
-3.53 -34.97 -4.60 244 246 243
-3.52 -35.07 -4.61 244 246 243
-3.53 -35.16 -4.59 244 246 243
-3.54 -35.25 -4.59 244 246 243
-3.54 -35.35 -4.59 247 249 246
-3.54 -35.44 -4.59 247 249 246
-3.53 -35.55 -4.59 247 249 246
-3.53 -35.65 -4.60 247 249 246
-3.52 -35.75 -4.61 247 249 246
-3.53 -35.84 -4.60 247 249 246
-3.53 -35.94 -4.60 247 249 246
-3.54 -36.03 -4.59 247 249 246
-3.53 -36.13 -4.60 247 249 246
-3.52 -36.24 -4.61 247 249 246
-3.51 -36.34 -4.63 247 249 246
-3.51 -36.44 -4.62 247 249 246
-3.52 -36.52 -4.61 247 249 246
-3.53 -36.62 -4.60 247 249 246
-3.52 -36.72 -4.61 247 249 246
-3.53 -36.81 -4.60 247 249 246
-3.49 -36.94 -4.65 255 255 248
-3.49 -37.04 -4.65 248 249 241
-3.45 -37.17 -4.69 246 244 240
-3.40 -37.31 -4.75 254 252 248
-3.58 -37.26 -4.54 232 225 223
-3.57 23.70 -4.69 142 133 127
-3.52 23.65 -4.75 142 133 127
-3.53 23.54 -4.74 142 133 127
-3.53 23.44 -4.74 142 133 127
-3.56 23.32 -4.70 142 133 127
-3.57 23.21 -4.69 142 133 127
-3.55 23.14 -4.72 142 133 127
-3.54 23.04 -4.72 142 133 127
-3.55 22.94 -4.71 142 133 127
-3.55 22.84 -4.72 142 133 127
-3.56 22.74 -4.71 143 134 128
-3.56 22.64 -4.70 143 134 128
-3.55 22.55 -4.72 143 134 128
-3.56 22.45 -4.70 143 134 128
-3.57 22.34 -4.70 143 134 128
-3.56 22.25 -4.70 143 134 128
-3.56 22.16 -4.71 144 135 129
-3.56 22.06 -4.70 145 136 130
-3.56 21.96 -4.71 145 136 130
-3.56 21.86 -4.70 146 137 131
-3.56 21.77 -4.71 146 137 131
-3.54 21.68 -4.72 148 139 133
-3.54 21.59 -4.73 148 139 133
-3.53 21.50 -4.74 149 140 134
-3.52 21.41 -4.75 148 139 133
-3.50 21.33 -4.77 148 139 133
-3.49 21.24 -4.78 148 139 133
-3.49 21.14 -4.79 148 139 133
-3.47 21.06 -4.81 148 139 133
-3.46 20.97 -4.82 148 139 133
-3.44 20.88 -4.84 148 139 133
-3.43 20.80 -4.85 148 139 133
-3.41 20.71 -4.87 147 141 134
-3.41 20.62 -4.88 147 141 134
-3.40 20.53 -4.89 147 141 134
-3.39 20.44 -4.90 147 141 134
-3.39 20.34 -4.90 147 141 134
-3.38 20.25 -4.91 147 141 134
-3.38 20.16 -4.91 147 141 134
-3.37 20.06 -4.92 148 142 135
-3.37 19.97 -4.92 148 142 135
-3.37 19.87 -4.92 148 142 135
-3.37 19.77 -4.93 148 142 135
-3.36 19.68 -4.93 148 142 135
-3.36 19.58 -4.93 148 142 135
-3.35 19.49 -4.95 148 142 135
-3.35 19.40 -4.95 147 143 135
-3.34 19.30 -4.96 147 143 135
-3.33 19.21 -4.96 148 142 135
-3.33 19.11 -4.96 148 142 135
-3.33 19.02 -4.97 148 144 136
-3.33 18.92 -4.97 148 144 136
-3.32 18.83 -4.98 149 145 137
-3.31 18.74 -4.99 149 145 137
-3.30 18.65 -5.00 150 146 138
-3.30 18.55 -5.00 150 146 138
-3.29 18.46 -5.01 152 148 140
-3.28 18.37 -5.02 152 148 140
-3.28 18.27 -5.03 152 148 140
-3.27 18.18 -5.04 152 148 140
-3.26 18.09 -5.05 152 148 140
-3.26 17.99 -5.04 152 148 140
-3.24 17.90 -5.06 152 148 140
-3.24 17.81 -5.07 152 148 140
-3.24 17.71 -5.07 153 149 141
-3.23 17.62 -5.08 153 149 141
-3.23 17.52 -5.08 153 149 141
-3.21 17.43 -5.10 153 149 141
-3.22 17.33 -5.10 153 149 141
-3.20 17.25 -5.11 153 149 141
-3.19 17.15 -5.12 153 149 141
-3.18 17.06 -5.13 154 150 142
-3.18 16.97 -5.14 154 150 142
-3.18 16.87 -5.13 154 150 142
-3.17 16.77 -5.14 154 150 142
-3.17 16.68 -5.15 154 150 142
-3.17 16.58 -5.14 154 150 142
-3.16 16.49 -5.16 154 150 142
-3.17 16.38 -5.15 155 151 143
-3.17 16.29 -5.15 156 152 144
-3.17 16.19 -5.15 155 151 143
-3.17 16.09 -5.15 156 152 144
-3.17 15.99 -5.15 156 152 144
-3.17 15.89 -5.15 156 152 144
-3.16 15.80 -5.16 156 152 144
-3.17 15.70 -5.15 156 152 144
-3.17 15.60 -5.15 156 152 144
-3.17 15.50 -5.15 156 152 144
-3.16 15.41 -5.16 157 153 145
-3.15 15.31 -5.17 159 155 147
-3.16 15.21 -5.16 159 155 147
-3.16 15.12 -5.16 159 155 147
-3.16 15.02 -5.16 159 155 147
-3.15 14.92 -5.17 159 155 147
-3.15 14.83 -5.17 159 155 147
-3.14 14.73 -5.18 159 155 147
-3.14 14.63 -5.18 160 156 148
-3.14 14.54 -5.18 160 156 148
-3.13 14.44 -5.19 160 156 148
-3.13 14.34 -5.19 160 156 148
-3.12 14.25 -5.20 160 156 148
-3.12 14.15 -5.20 160 156 148
-3.11 14.06 -5.22 160 156 148
-3.11 13.96 -5.22 160 156 148
-3.10 13.87 -5.23 160 156 148
-3.10 13.77 -5.22 161 157 149
-3.11 13.67 -5.22 161 157 149
-3.11 13.57 -5.22 162 158 150
-3.11 13.47 -5.22 162 158 150
-3.11 13.38 -5.22 163 159 151
-3.11 13.27 -5.22 163 159 151
-3.11 13.18 -5.22 164 160 152
-3.11 13.08 -5.22 164 163 154
-3.10 12.99 -5.23 164 163 154
-3.09 12.89 -5.24 164 163 154
-3.08 12.80 -5.25 164 163 154
-3.08 12.70 -5.25 164 163 154
-3.08 12.60 -5.25 164 163 154
-3.07 12.51 -5.26 165 164 155
-3.07 12.41 -5.27 165 164 155
-3.07 12.31 -5.27 165 164 155
-3.06 12.22 -5.28 165 164 155
-3.05 12.12 -5.28 165 164 155
-3.05 12.02 -5.28 165 164 155
-3.05 11.93 -5.28 164 165 155
-3.05 11.83 -5.29 164 165 155
-3.04 11.73 -5.29 165 166 156
-3.04 11.64 -5.30 165 166 156
-3.03 11.54 -5.30 164 165 155
-3.04 11.44 -5.30 164 165 155
-3.04 11.34 -5.30 164 165 155
-3.03 11.25 -5.30 164 165 155
-3.03 11.15 -5.30 164 165 155
-3.03 11.05 -5.31 164 165 155
-3.03 10.95 -5.31 164 165 155
-3.02 10.86 -5.31 164 165 155
-3.03 10.75 -5.30 165 166 156
-3.03 10.66 -5.31 165 166 156
-3.03 10.56 -5.31 165 166 156
-3.03 10.46 -5.31 165 166 156
-3.02 10.37 -5.32 165 166 156
-3.03 10.26 -5.31 165 166 156
-3.03 10.17 -5.31 165 166 156
-3.03 10.07 -5.31 165 166 156
-3.03 9.97 -5.30 165 166 156
-3.03 9.87 -5.31 165 166 156
-3.03 9.77 -5.30 166 167 157
-3.04 9.67 -5.30 166 167 157
-3.04 9.57 -5.30 166 167 157
-3.04 9.47 -5.30 166 167 157
-3.03 9.37 -5.30 166 167 157
-3.03 9.28 -5.31 166 167 157
-3.03 9.18 -5.31 166 167 157
-3.03 9.08 -5.31 167 168 158
-3.02 8.98 -5.31 168 169 159
-3.02 8.89 -5.32 168 169 159
-3.02 8.79 -5.32 168 169 159
-3.01 8.69 -5.33 168 169 159
-3.01 8.60 -5.33 168 169 159
-3.00 8.50 -5.34 168 169 159
-2.99 8.41 -5.35 170 171 163
-2.99 8.31 -5.35 170 171 163
-2.98 8.21 -5.36 170 171 163
-2.98 8.12 -5.37 170 171 163
-2.97 8.02 -5.38 170 171 163
-2.97 7.92 -5.38 170 171 163
-2.96 7.83 -5.39 170 171 163
-2.96 7.73 -5.39 170 171 163
-2.96 7.63 -5.38 171 172 164
-2.97 7.53 -5.38 171 172 164
-2.97 7.43 -5.38 171 172 164
-2.97 7.33 -5.38 171 172 164
-2.97 7.23 -5.38 171 172 164
-2.97 7.13 -5.38 171 172 164
-2.98 7.03 -5.37 171 172 164
-2.97 6.93 -5.38 171 172 164
-2.97 6.83 -5.37 172 173 165
-2.97 6.74 -5.37 172 173 165
-2.97 6.64 -5.37 172 173 165
-2.98 6.54 -5.37 172 173 165
-2.97 6.44 -5.38 172 173 165
-2.98 6.34 -5.37 172 173 165
-2.97 6.24 -5.38 172 173 165
-2.97 6.15 -5.38 172 173 165
-2.96 6.05 -5.39 173 174 166
-2.96 5.95 -5.39 173 174 166
-2.96 5.85 -5.39 173 174 166
-2.95 5.76 -5.39 173 174 166
-2.96 5.65 -5.39 173 174 166
-2.94 5.56 -5.41 173 174 166
-2.94 5.46 -5.41 173 174 166
-2.94 5.36 -5.41 173 174 166
-2.93 5.27 -5.42 173 173 168
-2.93 5.17 -5.42 173 173 168
-2.93 5.07 -5.42 173 173 168
-2.92 4.97 -5.43 173 173 168
-2.92 4.88 -5.43 173 173 168
-2.92 4.78 -5.43 173 173 168
-2.92 4.68 -5.43 173 173 168
-2.93 4.58 -5.42 173 173 168
-2.92 4.48 -5.43 173 173 168
-2.92 4.38 -5.43 173 173 168
-2.92 4.28 -5.43 173 173 168
-2.92 4.18 -5.43 173 173 168
-2.93 4.08 -5.42 173 173 168
-2.92 3.99 -5.43 173 173 168
-2.93 3.89 -5.42 173 173 168
-2.93 3.79 -5.42 173 173 168
-2.93 3.69 -5.42 169 174 170
-2.92 3.59 -5.43 169 174 170
-2.93 3.49 -5.42 169 174 170
-2.93 3.39 -5.42 169 174 170
-2.92 3.29 -5.43 169 174 170
-2.92 3.19 -5.43 169 174 170
-2.92 3.10 -5.43 169 174 170
-2.92 3.00 -5.43 169 174 170
-2.91 2.90 -5.44 169 174 170
-2.91 2.80 -5.45 170 175 171
-2.91 2.70 -5.44 170 175 171
-2.91 2.61 -5.45 171 176 172
-2.91 2.51 -5.45 171 176 172
-3.01 -17.05 -5.33 241 241 241
-4.52 -16.75 -3.61 109 109 109
-4.95 -16.73 -3.13 52 52 47
-4.73 -16.88 -3.37 109 109 104
-4.53 -17.03 -3.60 89 90 80
-3.94 -17.29 -4.28 140 141 131
-3.16 -17.60 -5.16 213 215 198
-3.13 -17.71 -5.20 209 211 194
-4.36 -17.46 -3.80 207 210 188
-5.82 -17.14 -2.14 197 200 178
-6.25 -17.10 -1.64 190 193 169
-6.28 -17.18 -1.60 185 188 164
-6.27 -17.28 -1.62 176 180 153
-6.30 -17.36 -1.59 179 183 156
-6.39 -17.42 -1.49 186 184 185
-6.41 -17.50 -1.46 216 214 215
-6.46 -17.58 -1.41 249 247 248
-6.51 -17.65 -1.35 253 251 252
-6.51 -17.74 -1.35 242 240 241
-6.53 -17.82 -1.33 244 242 243
-6.56 -17.90 -1.29 243 241 242
-6.57 -17.99 -1.28 229 227 228
-6.58 -18.08 -1.27 194 192 193
-6.25 -18.27 -1.65 189 187 188
-5.69 -18.54 -2.28 189 187 188
-4.67 -18.97 -3.45 201 199 200
-3.88 -19.33 -4.34 217 215 216
-3.10 -19.69 -5.23 226 224 225
-2.94 -20.03 -5.41 226 228 225
-2.94 -20.13 -5.41 226 228 225
-2.92 -20.24 -5.43 225 227 224
-2.91 -20.34 -5.45 225 227 224
-2.92 -20.44 -5.44 223 225 222
-2.93 -20.83 -5.42 227 229 226
-2.95 -20.92 -5.40 227 229 226
-3.00 -21.00 -5.35 227 229 226
-3.02 -21.09 -5.31 227 229 226
-3.03 -21.19 -5.30 227 229 226
-3.06 -21.27 -5.27 227 229 226
-3.09 -21.36 -5.24 227 229 226
-3.12 -21.45 -5.21 227 229 226
-3.14 -21.54 -5.18 228 230 227
-3.16 -21.63 -5.16 228 230 227
-3.18 -21.72 -5.14 228 230 227
-3.18 -21.82 -5.13 228 230 227
-3.19 -21.91 -5.12 228 230 227
-3.22 -22.00 -5.10 228 230 227
-3.21 -22.10 -5.10 228 230 227
-3.22 -22.19 -5.09 228 230 227
-3.23 -22.29 -5.07 229 231 228
-3.24 -22.38 -5.06 229 231 228
-3.25 -22.48 -5.05 229 231 228
-3.26 -22.57 -5.05 229 231 228
-3.26 -22.67 -5.05 229 231 228
-3.26 -22.76 -5.04 229 231 228
-3.27 -22.86 -5.04 229 231 228
-3.27 -22.96 -5.04 229 231 228
-3.26 -23.06 -5.05 232 234 231
-3.26 -23.16 -5.04 232 234 231
-3.26 -23.26 -5.05 232 234 231
-3.26 -23.35 -5.04 232 234 231
-3.26 -23.45 -5.04 232 234 231
-3.26 -23.55 -5.04 232 234 231
-3.27 -23.65 -5.04 232 234 231
-3.27 -23.74 -5.04 232 234 231
-3.26 -23.84 -5.04 234 236 233
-3.27 -23.94 -5.03 234 236 233
-3.28 -24.03 -5.03 234 236 233
-3.28 -24.13 -5.03 234 236 233
-3.28 -24.23 -5.03 234 236 233
-3.28 -24.33 -5.03 234 236 233
-3.28 -24.42 -5.02 234 236 233
-3.29 -24.52 -5.01 234 236 233
-3.29 -24.61 -5.01 234 236 233
-3.29 -24.71 -5.01 234 236 233
-3.29 -24.81 -5.01 234 236 233
-3.30 -24.90 -5.00 234 236 233
-3.31 -25.00 -4.99 234 236 233
-3.32 -25.09 -4.98 234 236 233
-3.32 -25.19 -4.98 234 236 233
-3.32 -25.28 -4.98 234 236 233
-3.33 -25.38 -4.96 233 235 232
-3.34 -25.47 -4.96 233 235 232
-3.35 -25.56 -4.94 233 235 232
-3.36 -25.66 -4.93 233 235 232
-3.37 -25.75 -4.92 233 235 232
-3.37 -25.85 -4.92 233 235 232
-3.37 -25.94 -4.92 233 235 232
-3.38 -26.03 -4.90 233 235 232
-3.39 -26.13 -4.90 234 236 233
-3.39 -26.23 -4.90 234 236 233
-3.39 -26.32 -4.90 234 236 233
-3.40 -26.42 -4.88 234 236 233
-3.40 -26.51 -4.89 234 236 233
-3.41 -26.61 -4.88 234 236 233
-3.41 -26.71 -4.88 234 236 233
-3.41 -26.80 -4.87 234 236 233
-3.41 -26.90 -4.87 234 236 233
-3.42 -26.99 -4.86 234 236 233
-3.43 -27.08 -4.85 234 236 233
-3.43 -27.18 -4.85 234 236 233
-3.44 -27.27 -4.84 234 236 233
-3.43 -27.37 -4.85 234 236 233
-3.45 -27.46 -4.83 234 236 233
-3.45 -27.56 -4.83 234 236 233
-3.46 -27.65 -4.82 234 236 233
-3.46 -27.75 -4.82 234 236 233
-3.47 -27.84 -4.81 234 236 233
-3.47 -27.94 -4.81 234 236 233
-3.47 -28.04 -4.81 234 236 233
-3.48 -28.13 -4.79 234 236 233
-3.48 -28.22 -4.79 234 236 233
-3.49 -28.32 -4.79 234 236 233
-3.49 -28.41 -4.78 235 237 234
-3.49 -28.51 -4.78 235 237 234
-3.50 -28.60 -4.77 235 237 234
-3.50 -28.70 -4.77 235 237 234
-3.51 -28.79 -4.76 235 237 234
-3.51 -28.89 -4.76 235 237 234
-3.51 -28.98 -4.76 235 237 234
-3.51 -29.08 -4.76 235 237 234
-3.51 -29.18 -4.76 237 239 236
-3.52 -29.27 -4.75 236 238 235
-3.52 -29.37 -4.75 236 238 235
-3.52 -29.47 -4.75 235 237 234
-3.52 -29.56 -4.75 235 237 234
-3.52 -29.66 -4.75 234 236 233
-3.53 -29.75 -4.74 234 236 233
-3.53 -29.85 -4.74 233 235 232
-3.53 -29.94 -4.73 234 236 233
-3.54 -30.04 -4.72 234 236 233
-3.55 -30.13 -4.72 234 236 233
-3.55 -30.22 -4.71 234 236 233
-3.56 -30.32 -4.71 234 236 233
-3.57 -30.41 -4.70 234 236 233
-3.57 -30.51 -4.70 234 236 233
-3.57 -30.60 -4.69 234 236 233
-3.58 -30.69 -4.68 235 237 234
-3.59 -30.78 -4.67 235 237 234
-3.60 -30.88 -4.66 235 237 234
-3.60 -30.97 -4.65 235 237 234
-3.60 -31.07 -4.65 235 237 234
-3.61 -31.16 -4.65 235 237 234
-3.61 -31.26 -4.65 235 237 234
-3.61 -31.35 -4.65 235 237 234
-3.60 -31.46 -4.66 236 238 235
-3.60 -31.55 -4.65 236 238 235
-3.60 -31.65 -4.66 236 238 235
-3.60 -31.75 -4.66 236 238 235
-3.60 -31.84 -4.65 236 238 235
-3.60 -31.94 -4.65 236 238 235
-3.60 -32.04 -4.66 236 238 235
-3.61 -32.13 -4.65 236 238 235
-3.61 -32.22 -4.64 241 243 240
-3.62 -32.32 -4.64 241 243 240
-3.62 -32.41 -4.63 241 243 240
-3.63 -32.50 -4.62 241 243 240
-3.64 -32.59 -4.61 241 243 240
-3.64 -32.69 -4.62 241 243 240
-3.65 -32.78 -4.60 241 243 240
-3.64 -32.88 -4.61 241 243 240
-3.66 -32.97 -4.60 242 244 241
-3.66 -33.06 -4.59 242 244 241
-3.65 -33.17 -4.60 242 244 241
-3.67 -33.25 -4.58 242 244 241
-3.66 -33.35 -4.59 242 244 241
-3.66 -33.45 -4.59 242 244 241
-3.66 -33.55 -4.60 242 244 241
-3.65 -33.65 -4.60 242 244 241
-3.66 -33.75 -4.60 244 246 243
-3.66 -33.84 -4.59 244 246 243
-3.66 -33.94 -4.59 244 246 243
-3.66 -34.03 -4.59 244 246 243
-3.66 -34.13 -4.59 244 246 243
-3.67 -34.22 -4.58 244 246 243
-3.66 -34.32 -4.59 244 246 243
-3.67 -34.41 -4.58 244 246 243
-3.67 -34.51 -4.58 243 245 242
-3.67 -34.61 -4.58 243 245 242
-3.68 -34.70 -4.57 243 245 242
-3.69 -34.79 -4.56 243 245 242
-3.70 -34.87 -4.55 243 245 242
-3.69 -34.98 -4.56 243 245 242
-3.70 -35.07 -4.55 243 245 242
-3.70 -35.16 -4.54 243 245 242
-3.71 -35.26 -4.54 247 249 246
-3.71 -35.35 -4.53 247 249 246
-3.71 -35.45 -4.53 247 249 246
-3.71 -35.54 -4.53 247 249 246
-3.72 -35.63 -4.52 247 249 246
-3.72 -35.73 -4.52 247 249 246
-3.72 -35.82 -4.52 247 249 246
-3.71 -35.93 -4.53 247 249 246
-3.71 -36.03 -4.53 247 249 246
-3.71 -36.12 -4.53 247 249 246
-3.71 -36.22 -4.53 247 249 246
-3.71 -36.32 -4.54 247 249 246
-3.71 -36.42 -4.54 247 249 246
-3.70 -36.52 -4.54 247 249 246
-3.71 -36.61 -4.53 247 249 246
-3.72 -36.69 -4.52 247 249 246
-3.69 -36.81 -4.55 253 254 246
-3.64 -36.96 -4.62 246 247 239
-3.60 -37.08 -4.66 249 247 243
-3.53 -37.24 -4.74 253 251 247
-3.78 -37.13 -4.45 249 242 240
-3.73 23.60 -4.65 142 133 127
-3.68 23.55 -4.71 142 133 127
-3.69 23.45 -4.70 142 133 127
-3.67 23.37 -4.72 142 133 127
-3.70 23.24 -4.68 142 133 127
-3.71 23.13 -4.67 142 133 127
-3.70 23.05 -4.69 142 133 127
-3.69 22.96 -4.70 142 133 127
-3.69 22.86 -4.69 142 133 127
-3.69 22.77 -4.70 142 133 127
-3.69 22.67 -4.70 143 134 128
-3.70 22.57 -4.69 143 134 128
-3.69 22.48 -4.69 143 134 128
-3.70 22.37 -4.69 143 134 128
-3.71 22.27 -4.68 143 134 128
-3.70 22.18 -4.68 143 134 128
-3.70 22.08 -4.68 144 135 129
-3.70 21.98 -4.68 145 136 130
-3.69 21.89 -4.69 145 136 130
-3.69 21.79 -4.69 146 137 131
-3.70 21.70 -4.69 146 137 131
-3.68 21.61 -4.70 148 139 133
-3.68 21.51 -4.71 148 139 133
-3.67 21.43 -4.72 149 140 134
-3.65 21.34 -4.73 148 139 133
-3.65 21.25 -4.74 148 139 133
-3.63 21.16 -4.76 148 139 133
-3.63 21.07 -4.76 148 139 133
-3.62 20.98 -4.78 148 139 133
-3.61 20.89 -4.79 148 139 133
-3.60 20.80 -4.80 148 139 133
-3.58 20.72 -4.82 148 139 133
-3.57 20.63 -4.83 147 141 134
-3.56 20.54 -4.85 147 141 134
-3.55 20.45 -4.85 147 141 134
-3.54 20.36 -4.87 147 141 134
-3.54 20.27 -4.87 147 141 134
-3.53 20.17 -4.87 147 141 134
-3.53 20.08 -4.88 147 141 134
-3.53 19.98 -4.88 148 142 135
-3.53 19.88 -4.88 148 142 135
-3.52 19.79 -4.89 148 142 135
-3.51 19.70 -4.90 148 142 135
-3.51 19.60 -4.90 148 142 135
-3.50 19.51 -4.91 148 142 135
-3.49 19.42 -4.92 148 142 135
-3.49 19.33 -4.92 147 143 135
-3.48 19.23 -4.93 147 143 135
-3.48 19.14 -4.94 149 143 136
-3.48 19.04 -4.94 150 144 137
-3.47 18.95 -4.94 149 145 137
-3.47 18.85 -4.94 149 145 137
-3.46 18.76 -4.95 149 145 137
-3.46 18.67 -4.96 150 146 138
-3.45 18.57 -4.96 150 146 138
-3.44 18.48 -4.98 150 146 138
-3.43 18.39 -4.99 152 148 140
-3.43 18.30 -4.99 152 148 140
-3.42 18.20 -5.00 152 148 140
-3.42 18.11 -5.00 152 148 140
-3.41 18.02 -5.02 152 148 140
-3.41 17.92 -5.01 152 148 140
-3.40 17.83 -5.02 152 148 140
-3.40 17.73 -5.03 152 148 140
-3.39 17.64 -5.03 153 149 141
-3.37 17.56 -5.06 153 149 141
-3.37 17.46 -5.06 153 149 141
-3.35 17.37 -5.08 153 149 141
-3.35 17.28 -5.08 153 149 141
-3.35 17.18 -5.08 153 149 141
-3.34 17.09 -5.09 153 149 141
-3.34 16.99 -5.10 154 150 142
-3.33 16.90 -5.11 154 150 142
-3.33 16.80 -5.11 154 150 142
-3.32 16.71 -5.12 154 150 142
-3.31 16.61 -5.12 154 150 142
-3.32 16.52 -5.12 154 150 142
-3.31 16.42 -5.13 154 150 142
-3.31 16.32 -5.13 154 150 142
-3.31 16.23 -5.13 155 151 143
-3.31 16.13 -5.13 155 151 143
-3.32 16.02 -5.11 156 152 144
-3.32 15.93 -5.12 156 152 144
-3.32 15.83 -5.11 156 152 144
-3.32 15.73 -5.12 156 152 144
-3.31 15.64 -5.13 156 152 144
-3.31 15.54 -5.13 156 152 144
-3.31 15.44 -5.13 156 152 144
-3.31 15.34 -5.13 157 153 145
-3.30 15.25 -5.13 159 155 147
-3.30 15.15 -5.14 159 155 147
-3.30 15.06 -5.14 159 155 147
-3.30 14.96 -5.14 159 155 147
-3.30 14.86 -5.14 159 155 147
-3.30 14.76 -5.14 159 155 147
-3.29 14.67 -5.15 159 155 147
-3.29 14.57 -5.15 160 156 148
-3.29 14.48 -5.15 160 156 148
-3.28 14.38 -5.16 160 156 148
-3.28 14.28 -5.16 160 156 148
-3.28 14.19 -5.16 160 156 148
-3.27 14.09 -5.17 160 156 148
-3.26 14.00 -5.18 160 156 148
-3.26 13.91 -5.19 160 156 148
-3.25 13.81 -5.20 160 156 148
-3.25 13.71 -5.20 161 157 149
-3.25 13.61 -5.19 161 157 149
-3.26 13.51 -5.19 162 158 150
-3.26 13.42 -5.19 162 158 150
-3.26 13.32 -5.19 163 159 151
-3.26 13.22 -5.19 163 159 151
-3.25 13.12 -5.19 164 160 152
-3.25 13.02 -5.19 164 163 154
-3.25 12.93 -5.19 164 163 154
-3.25 12.83 -5.20 164 163 154
-3.23 12.74 -5.22 164 163 154
-3.23 12.65 -5.22 164 163 154
-3.22 12.55 -5.23 164 163 154
-3.22 12.46 -5.23 165 164 155
-3.21 12.36 -5.24 165 164 155
-3.21 12.26 -5.24 165 164 155
-3.21 12.16 -5.24 165 164 155
-3.20 12.07 -5.25 165 164 155
-3.20 11.97 -5.25 165 164 155
-3.20 11.87 -5.25 164 165 155
-3.19 11.78 -5.26 164 165 155
-3.19 11.68 -5.26 165 166 156
-3.19 11.58 -5.26 165 166 156
-3.19 11.49 -5.27 164 165 155
-3.18 11.39 -5.27 164 165 155
-3.18 11.30 -5.28 164 165 155
-3.18 11.20 -5.28 164 165 155
-3.19 11.10 -5.27 164 165 155
-3.17 11.01 -5.29 164 165 155
-3.18 10.90 -5.28 164 165 155
-3.18 10.81 -5.28 164 165 155
-3.18 10.71 -5.28 165 166 156
-3.18 10.61 -5.28 165 166 156
-3.18 10.51 -5.28 165 166 156
-3.18 10.41 -5.28 165 166 156
-3.17 10.32 -5.28 165 166 156
-3.18 10.22 -5.28 165 166 156
-3.17 10.12 -5.29 165 166 156
-3.17 10.02 -5.28 165 166 156
-3.18 9.92 -5.28 165 166 156
-3.18 9.82 -5.28 165 166 156
-3.18 9.72 -5.27 166 167 157
-3.18 9.62 -5.27 166 167 157
-3.18 9.53 -5.28 166 167 157
-3.19 9.43 -5.27 166 167 157
-3.19 9.33 -5.27 166 167 157
-3.18 9.23 -5.28 166 167 157
-3.18 9.13 -5.28 166 167 157
-3.18 9.04 -5.28 167 168 158
-3.17 8.94 -5.29 168 169 159
-3.17 8.84 -5.28 168 169 159
-3.16 8.75 -5.29 168 169 159
-3.16 8.65 -5.29 168 169 159
-3.16 8.55 -5.30 168 169 159
-3.15 8.46 -5.31 168 169 159
-3.15 8.36 -5.31 170 171 163
-3.15 8.26 -5.31 170 171 163
-3.13 8.17 -5.33 170 171 163
-3.13 8.07 -5.33 170 171 163
-3.13 7.97 -5.33 170 171 163
-3.12 7.88 -5.34 170 171 163
-3.12 7.78 -5.35 170 171 163
-3.11 7.69 -5.35 170 171 163
-3.12 7.59 -5.35 171 172 164
-3.12 7.49 -5.35 171 172 164
-3.12 7.39 -5.34 171 172 164
-3.12 7.29 -5.35 171 172 164
-3.12 7.19 -5.34 171 172 164
-3.11 7.10 -5.35 171 172 164
-3.12 6.99 -5.34 171 172 164
-3.12 6.90 -5.35 171 172 164
-3.12 6.80 -5.35 172 173 165
-3.12 6.70 -5.35 172 173 165
-3.12 6.60 -5.35 172 173 165
-3.12 6.50 -5.34 172 173 165
-3.12 6.40 -5.35 172 173 165
-3.12 6.30 -5.34 172 173 165
-3.12 6.21 -5.35 172 173 165
-3.11 6.11 -5.35 172 173 165
-3.12 6.01 -5.35 172 173 165
-3.11 5.92 -5.36 172 173 165
-3.11 5.82 -5.36 172 173 165
-3.10 5.72 -5.37 172 173 165
-3.10 5.62 -5.36 172 173 165
-3.10 5.52 -5.37 172 173 165
-3.10 5.43 -5.37 172 173 165
-3.09 5.33 -5.38 172 173 165
-3.08 5.23 -5.39 173 173 168
-3.09 5.13 -5.38 173 173 168
-3.08 5.04 -5.39 173 173 168
-3.07 4.94 -5.40 173 173 168
-3.08 4.84 -5.39 173 173 168
-3.07 4.74 -5.40 173 173 168
-3.08 4.64 -5.39 173 173 168
-3.08 4.55 -5.39 173 173 168
-3.07 4.45 -5.40 173 173 168
-3.08 4.35 -5.39 173 173 168
-3.08 4.25 -5.39 173 173 168
-3.08 4.15 -5.39 173 173 168
-3.08 4.05 -5.39 173 173 168
-3.07 3.95 -5.40 173 173 168
-3.08 3.86 -5.39 173 173 168
-3.07 3.76 -5.40 173 173 168
-3.08 3.66 -5.39 169 174 170
-3.08 3.56 -5.39 169 174 170
-3.08 3.46 -5.39 169 174 170
-3.08 3.36 -5.39 169 174 170
-3.08 3.26 -5.39 169 174 170
-3.08 3.16 -5.39 169 174 170
-3.07 3.07 -5.40 169 174 170
-3.07 2.97 -5.40 169 174 170
-3.07 2.87 -5.40 169 174 170
-3.06 2.78 -5.41 170 175 171
-3.06 2.68 -5.41 170 175 171
-3.05 2.58 -5.42 171 176 172
-3.05 2.48 -5.42 171 176 172
-3.05 2.38 -5.43 172 177 173
-3.05 2.28 -5.42 172 177 173
-3.05 2.19 -5.43 174 179 175
-3.05 2.09 -5.43 170 175 171
-3.05 1.99 -5.42 170 175 171
-3.05 1.89 -5.43 170 175 171
-3.06 1.79 -5.42 170 175 171
-3.05 1.69 -5.42 170 175 171
-3.05 1.59 -5.42 170 175 171
-3.05 1.50 -5.42 170 175 171
-3.05 1.40 -5.42 171 176 172
-3.05 1.30 -5.42 171 176 172
-3.05 1.20 -5.43 171 176 172
-3.05 1.10 -5.42 171 176 172
-3.04 1.00 -5.43 171 176 172
-3.05 0.90 -5.42 171 176 172
-3.05 0.81 -5.43 171 176 172
-3.05 0.71 -5.42 170 177 172
-3.06 0.61 -5.42 169 176 171
-3.05 0.51 -5.42 171 178 171
-3.05 0.41 -5.42 171 178 171
-3.04 0.31 -5.43 171 178 171
-3.05 0.21 -5.43 171 178 171
-3.04 0.12 -5.43 171 178 171
-3.03 0.02 -5.44 171 178 171
-3.30 -16.99 -5.14 214 214 214
-4.75 -16.70 -3.49 71 71 71
-4.99 -16.73 -3.21 74 74 69
-4.90 -16.85 -3.31 129 129 124
-4.87 -16.95 -3.34 112 113 103
-4.33 -17.19 -3.96 158 159 149
-3.81 -17.44 -4.56 167 169 152
-4.38 -17.37 -3.90 179 181 164
-5.73 -17.08 -2.37 187 190 168
-6.30 -17.01 -1.71 182 185 163
-6.34 -17.09 -1.67 195 198 174
-6.38 -17.17 -1.62 194 197 173
-6.39 -17.25 -1.61 180 184 157
-6.45 -17.33 -1.55 202 206 179
-6.50 -17.40 -1.49 219 217 218
-6.53 -17.48 -1.45 201 199 200
-6.58 -17.55 -1.40 218 216 217
-6.63 -17.63 -1.33 252 250 251
-6.67 -17.70 -1.30 253 251 252
-6.70 -17.78 -1.26 243 241 242
-6.75 -17.86 -1.20 249 247 248
-6.72 -17.95 -1.23 255 255 255
-6.70 -18.05 -1.26 255 255 255
-6.79 -18.11 -1.16 231 229 230
-6.85 -18.18 -1.09 189 187 188
-6.65 -18.33 -1.31 160 158 159
-6.22 -18.57 -1.81 159 157 158
-5.27 -18.97 -2.89 180 178 179
-4.30 -19.40 -4.00 207 205 206
-3.47 -19.77 -4.95 224 222 223
-3.19 -19.97 -5.27 228 230 227
-3.05 -20.21 -5.43 227 229 226
-3.07 -20.30 -5.41 225 227 224
-3.17 -20.37 -5.28 223 225 222
-3.19 -20.46 -5.26 221 223 220
-3.17 -20.56 -5.29 220 222 219
-3.20 -20.65 -5.25 219 221 218
-3.19 -20.75 -5.26 226 228 225
-3.20 -20.85 -5.26 226 228 225
-3.20 -20.95 -5.25 226 228 225
-3.22 -21.04 -5.23 226 228 225
-3.24 -21.13 -5.20 226 228 225
-3.26 -21.22 -5.19 226 228 225
-3.29 -21.30 -5.15 226 228 225
-3.32 -21.39 -5.12 226 228 225
-3.33 -21.48 -5.10 227 229 226
-3.34 -21.58 -5.09 227 229 226
-3.34 -21.68 -5.10 227 229 226
-3.35 -21.77 -5.08 227 229 226
-3.36 -21.86 -5.07 227 229 226
-3.38 -21.95 -5.05 227 229 226
-3.39 -22.05 -5.04 227 229 226
-3.39 -22.15 -5.04 227 229 226
-3.40 -22.24 -5.03 228 230 227
-3.41 -22.33 -5.01 228 230 227
-3.42 -22.43 -5.01 228 230 227
-3.42 -22.52 -5.00 228 230 227
-3.42 -22.62 -5.00 228 230 227
-3.43 -22.72 -4.99 228 230 227
-3.43 -22.81 -4.99 228 230 227
-3.42 -22.91 -5.00 228 230 227
-3.42 -23.01 -5.00 230 232 229
-3.42 -23.11 -5.00 230 232 229
-3.42 -23.21 -5.00 230 232 229
-3.42 -23.30 -5.00 230 232 229
-3.41 -23.41 -5.01 230 232 229
-3.42 -23.50 -5.00 230 232 229
-3.43 -23.59 -4.99 230 232 229
-3.43 -23.69 -4.99 230 232 229
-3.43 -23.79 -4.99 234 236 233
-3.43 -23.88 -4.99 234 236 233
-3.44 -23.98 -4.98 234 236 233
-3.44 -24.08 -4.98 234 236 233
-3.44 -24.18 -4.98 234 236 233
-3.44 -24.27 -4.98 234 236 233
-3.44 -24.37 -4.98 234 236 233
-3.45 -24.46 -4.97 234 236 233
-3.45 -24.56 -4.97 233 235 232
-3.46 -24.65 -4.96 233 235 232
-3.45 -24.75 -4.96 233 235 232
-3.46 -24.85 -4.95 233 235 232
-3.46 -24.94 -4.95 233 235 232
-3.48 -25.04 -4.94 233 235 232
-3.48 -25.13 -4.93 233 235 232
-3.49 -25.23 -4.93 233 235 232
-3.50 -25.32 -4.91 232 234 231
-3.50 -25.41 -4.91 232 234 231
-3.51 -25.51 -4.90 232 234 231
-3.52 -25.60 -4.89 232 234 231
-3.53 -25.69 -4.88 232 234 231
-3.54 -25.79 -4.87 232 234 231
-3.55 -25.88 -4.86 232 234 231
-3.55 -25.97 -4.85 232 234 231
-3.55 -26.07 -4.85 233 235 232
-3.56 -26.16 -4.85 233 235 232
-3.56 -26.26 -4.84 233 235 232
-3.57 -26.35 -4.83 233 235 232
-3.57 -26.45 -4.83 233 235 232
-3.58 -26.54 -4.82 233 235 232
-3.58 -26.64 -4.82 233 235 232
-3.58 -26.73 -4.82 233 235 232
-3.58 -26.83 -4.81 233 235 232
-3.60 -26.92 -4.80 233 235 232
-3.60 -27.02 -4.80 233 235 232
-3.60 -27.11 -4.80 233 235 232
-3.61 -27.21 -4.79 233 235 232
-3.61 -27.31 -4.79 233 235 232
-3.62 -27.40 -4.78 233 235 232
-3.61 -27.50 -4.78 233 235 232
-3.62 -27.59 -4.78 233 235 232
-3.63 -27.68 -4.77 233 235 232
-3.63 -27.78 -4.77 233 235 232
-3.64 -27.87 -4.76 233 235 232
-3.63 -27.97 -4.76 233 235 232
-3.64 -28.06 -4.75 233 235 232
-3.64 -28.16 -4.75 233 235 232
-3.65 -28.25 -4.74 233 235 232
-3.65 -28.35 -4.74 234 236 233
-3.65 -28.45 -4.74 234 236 233
-3.66 -28.54 -4.73 234 236 233
-3.66 -28.64 -4.73 234 236 233
-3.66 -28.73 -4.73 234 236 233
-3.67 -28.82 -4.72 234 236 233
-3.68 -28.92 -4.71 234 236 233
-3.67 -29.01 -4.71 234 236 233
-3.68 -29.11 -4.71 237 239 236
-3.68 -29.20 -4.70 236 238 235
-3.68 -29.30 -4.71 236 238 235
-3.69 -29.39 -4.70 235 237 234
-3.69 -29.49 -4.70 235 237 234
-3.68 -29.59 -4.70 234 236 233
-3.69 -29.68 -4.69 234 236 233
-3.69 -29.78 -4.69 233 235 232
-3.69 -29.87 -4.69 234 236 233
-3.71 -29.96 -4.67 234 236 233
-3.71 -30.06 -4.67 234 236 233
-3.72 -30.15 -4.66 234 236 233
-3.72 -30.24 -4.66 234 236 233
-3.73 -30.34 -4.65 234 236 233
-3.73 -30.43 -4.64 234 236 233
-3.73 -30.53 -4.64 234 236 233
-3.75 -30.62 -4.63 235 237 234
-3.75 -30.71 -4.62 235 237 234
-3.75 -30.80 -4.62 235 237 234
-3.76 -30.90 -4.62 235 237 234
-3.77 -30.99 -4.61 235 237 234
-3.77 -31.09 -4.61 235 237 234
-3.77 -31.18 -4.60 235 237 234
-3.76 -31.28 -4.61 235 237 234
-3.76 -31.38 -4.61 235 237 234
-3.77 -31.47 -4.61 235 237 234
-3.76 -31.57 -4.61 235 237 234
-3.76 -31.67 -4.61 235 237 234
-3.76 -31.77 -4.61 235 237 234
-3.77 -31.86 -4.61 235 237 234
-3.77 -31.96 -4.61 235 237 234
-3.77 -32.05 -4.60 235 237 234
-3.78 -32.14 -4.59 241 243 240
-3.78 -32.24 -4.59 241 243 240
-3.78 -32.33 -4.59 241 243 240
-3.79 -32.42 -4.58 241 243 240
-3.79 -32.52 -4.58 241 243 240
-3.80 -32.61 -4.57 241 243 240
-3.81 -32.70 -4.56 241 243 240
-3.81 -32.80 -4.56 241 243 240
-3.82 -32.89 -4.55 242 244 241
-3.82 -32.98 -4.54 242 244 241
-3.82 -33.08 -4.54 242 244 241
-3.83 -33.17 -4.54 242 244 241
-3.82 -33.27 -4.54 242 244 241
-3.82 -33.37 -4.55 242 244 241
-3.82 -33.47 -4.55 242 244 241
-3.81 -33.57 -4.56 242 244 241
-3.81 -33.66 -4.55 244 246 243
-3.81 -33.76 -4.55 244 246 243
-3.82 -33.85 -4.55 244 246 243
-3.82 -33.95 -4.54 244 246 243
-3.82 -34.05 -4.54 244 246 243
-3.83 -34.14 -4.54 244 246 243
-3.83 -34.23 -4.54 244 246 243
-3.84 -34.32 -4.52 244 246 243
-3.83 -34.42 -4.53 242 244 241
-3.83 -34.52 -4.53 242 244 241
-3.84 -34.61 -4.52 242 244 241
-3.85 -34.70 -4.52 242 244 241
-3.86 -34.79 -4.50 242 244 241
-3.85 -34.89 -4.51 242 244 241
-3.86 -34.98 -4.50 242 244 241
-3.87 -35.07 -4.49 242 244 241
-3.87 -35.17 -4.49 246 248 245
-3.87 -35.26 -4.49 246 248 245
-3.87 -35.36 -4.49 246 248 245
-3.87 -35.46 -4.49 246 248 245
-3.88 -35.55 -4.48 246 248 245
-3.88 -35.64 -4.47 246 248 245
-3.88 -35.74 -4.47 246 248 245
-3.89 -35.82 -4.46 246 248 245
-3.89 -35.92 -4.46 247 249 246
-3.88 -36.03 -4.47 247 249 246
-3.87 -36.13 -4.49 247 249 246
-3.87 -36.22 -4.48 247 249 246
-3.87 -36.33 -4.49 247 249 246
-3.88 -36.41 -4.47 247 249 246
-3.89 -36.50 -4.46 247 249 246
-3.90 -36.59 -4.45 247 249 246
-3.88 -36.70 -4.47 249 250 242
-3.83 -36.84 -4.53 248 249 241
-3.78 -36.98 -4.59 253 251 247
-3.64 -37.19 -4.75 251 249 245
-4.15 -36.87 -4.17 255 250 248
-3.90 23.50 -4.59 142 133 127
-3.85 23.45 -4.65 142 133 127
-3.87 23.34 -4.63 142 133 127
-3.87 23.24 -4.63 142 133 127
-3.89 23.12 -4.60 142 133 127
-3.91 23.00 -4.58 142 133 127
-3.88 22.94 -4.61 142 133 127
-3.87 22.85 -4.62 142 133 127
-3.87 22.75 -4.62 142 133 127
-3.87 22.66 -4.62 144 135 129
-3.87 22.56 -4.62 144 135 129
-3.87 22.46 -4.62 144 135 129
-3.86 22.37 -4.63 144 135 129
-3.87 22.27 -4.62 144 135 129
-3.88 22.17 -4.62 144 135 129
-3.87 22.07 -4.62 144 135 129
-3.88 21.97 -4.62 144 135 129
-3.88 21.88 -4.62 144 135 129
-3.88 21.78 -4.62 144 135 129
-3.88 21.69 -4.62 144 135 129
-3.88 21.59 -4.62 144 135 129
-3.86 21.50 -4.63 144 135 129
-3.87 21.40 -4.63 144 135 129
-3.86 21.31 -4.64 144 135 129
-3.85 21.23 -4.65 145 136 130
-3.84 21.14 -4.67 146 137 131
-3.82 21.05 -4.68 146 137 131
-3.81 20.96 -4.69 148 139 133
-3.80 20.87 -4.70 148 139 133
-3.79 20.78 -4.71 149 140 134
-3.78 20.69 -4.72 149 140 134
-3.77 20.61 -4.74 150 141 135
-3.76 20.52 -4.75 148 142 135
-3.75 20.43 -4.76 147 141 134
-3.75 20.34 -4.77 147 141 134
-3.74 20.25 -4.78 147 141 134
-3.73 20.15 -4.78 147 141 134
-3.72 20.06 -4.79 147 141 134
-3.72 19.97 -4.80 147 141 134
-3.72 19.87 -4.80 147 141 134
-3.71 19.78 -4.81 147 141 134
-3.71 19.68 -4.81 149 143 136
-3.71 19.59 -4.81 149 143 136
-3.71 19.49 -4.82 149 143 136
-3.71 19.40 -4.81 149 143 136
-3.71 19.30 -4.81 149 143 136
-3.70 19.21 -4.82 149 143 136
-3.69 19.12 -4.83 149 143 136
-3.68 19.02 -4.84 151 145 138
-3.68 18.93 -4.84 151 145 138
-3.67 18.84 -4.85 151 145 138
-3.67 18.74 -4.85 151 145 138
-3.67 18.65 -4.86 151 145 138
-3.65 18.56 -4.87 151 145 138
-3.64 18.47 -4.89 151 145 138
-3.63 18.38 -4.90 151 145 138
-3.63 18.29 -4.90 153 147 140
-3.62 18.20 -4.91 153 147 140
-3.62 18.10 -4.92 153 147 140
-3.61 18.01 -4.92 153 147 140
-3.60 17.92 -4.94 153 147 140
-3.60 17.82 -4.94 153 147 140
-3.59 17.73 -4.94 153 147 140
-3.58 17.64 -4.95 153 147 140
-3.58 17.54 -4.96 153 147 142
-3.56 17.46 -4.98 153 147 142
-3.56 17.36 -4.98 152 148 140
-3.55 17.27 -4.99 153 149 141
-3.55 17.18 -5.00 153 149 141
-3.54 17.08 -5.00 153 149 141
-3.52 17.00 -5.02 153 149 141
-3.52 16.90 -5.02 153 149 141
-3.51 16.81 -5.04 153 149 141
-3.51 16.71 -5.04 153 149 141
-3.51 16.62 -5.04 153 149 141
-3.50 16.52 -5.05 154 150 142
-3.51 16.42 -5.04 154 150 142
-3.50 16.33 -5.05 154 150 142
-3.51 16.23 -5.04 154 150 142
-3.50 16.13 -5.05 154 150 142
-3.50 16.04 -5.05 155 151 143
-3.51 15.93 -5.04 155 151 143
-3.50 15.84 -5.05 156 152 144
-3.51 15.74 -5.04 156 152 144
-3.51 15.64 -5.04 156 152 144
-3.51 15.54 -5.04 156 152 144
-3.51 15.45 -5.04 157 153 145
-3.50 15.35 -5.05 157 153 145
-3.51 15.25 -5.04 159 155 147
-3.50 15.16 -5.05 159 155 147
-3.49 15.06 -5.06 159 155 147
-3.50 14.97 -5.05 159 155 147
-3.49 14.87 -5.06 159 155 147
-3.50 14.77 -5.05 159 155 147
-3.49 14.68 -5.06 159 155 147
-3.49 14.58 -5.06 159 155 147
-3.48 14.49 -5.07 160 156 148
-3.48 14.39 -5.08 160 156 148
-3.48 14.29 -5.07 160 156 148
-3.48 14.20 -5.08 160 156 148
-3.47 14.10 -5.08 160 156 148
-3.47 14.00 -5.08 160 156 148
-3.46 13.91 -5.09 160 156 148
-3.45 13.82 -5.10 160 156 148
-3.45 13.73 -5.11 161 157 149
-3.45 13.63 -5.11 161 157 149
-3.44 13.53 -5.12 162 158 150
-3.46 13.43 -5.10 162 158 150
-3.46 13.33 -5.10 163 159 151
-3.46 13.23 -5.10 163 159 151
-3.45 13.14 -5.11 162 161 152
-3.45 13.04 -5.11 164 163 154
-3.45 12.94 -5.11 164 163 154
-3.44 12.85 -5.12 164 163 154
-3.44 12.75 -5.12 164 163 154
-3.43 12.66 -5.13 164 163 154
-3.42 12.57 -5.14 164 163 154
-3.42 12.47 -5.14 164 163 154
-3.41 12.38 -5.15 164 163 154
-3.41 12.28 -5.16 165 164 155
-3.41 12.18 -5.16 165 164 155
-3.40 12.09 -5.16 165 164 155
-3.39 11.99 -5.17 165 164 155
-3.39 11.90 -5.17 165 164 155
-3.39 11.80 -5.17 165 164 155
-3.39 11.70 -5.17 165 164 155
-3.39 11.61 -5.18 164 165 155
-3.39 11.51 -5.17 165 166 156
-3.38 11.42 -5.19 164 165 155
-3.38 11.32 -5.19 164 165 155
-3.38 11.22 -5.19 164 165 155
-3.37 11.12 -5.19 164 165 155
-3.38 11.02 -5.19 164 165 155
-3.37 10.93 -5.20 164 165 155
-3.38 10.83 -5.19 164 165 155
-3.37 10.73 -5.19 165 166 156
-3.37 10.64 -5.20 165 166 156
-3.37 10.54 -5.19 165 166 156
-3.37 10.44 -5.19 165 166 156
-3.38 10.34 -5.19 165 166 156
-3.37 10.25 -5.20 165 166 156
-3.37 10.14 -5.19 165 166 156
-3.38 10.05 -5.19 165 166 156
-3.37 9.95 -5.19 166 167 157
-3.38 9.85 -5.19 165 166 156
-3.38 9.75 -5.19 165 166 156
-3.38 9.65 -5.18 165 166 156
-3.38 9.55 -5.19 165 166 156
-3.38 9.46 -5.19 165 166 156
-3.38 9.36 -5.18 165 166 156
-3.38 9.26 -5.18 165 166 156
-3.38 9.16 -5.18 165 166 156
-3.38 9.06 -5.19 166 167 157
-3.38 8.97 -5.19 167 168 158
-3.37 8.87 -5.20 167 168 158
-3.37 8.77 -5.20 168 169 159
-3.37 8.68 -5.20 168 169 159
-3.37 8.58 -5.20 170 171 161
-3.36 8.49 -5.21 170 171 161
-3.36 8.39 -5.21 171 172 162
-3.35 8.30 -5.22 171 172 162
-3.35 8.20 -5.22 171 172 162
-3.34 8.10 -5.23 171 172 162
-3.34 8.00 -5.23 171 172 162
-3.33 7.91 -5.24 171 172 162
-3.33 7.81 -5.25 171 172 162
-3.33 7.71 -5.25 171 172 162
-3.32 7.62 -5.26 171 172 162
-3.32 7.52 -5.26 172 173 163
-3.32 7.42 -5.25 172 173 163
-3.32 7.33 -5.25 172 173 163
-3.32 7.23 -5.25 172 173 163
-3.33 7.13 -5.25 172 173 163
-3.32 7.03 -5.26 172 173 163
-3.32 6.94 -5.26 172 173 163
-3.32 6.84 -5.26 172 173 163
-3.31 6.74 -5.26 172 173 165
-3.32 6.64 -5.26 172 173 165
-3.31 6.55 -5.27 172 173 165
-3.32 6.44 -5.25 172 173 165
-3.31 6.35 -5.27 172 173 165
-3.32 6.25 -5.25 172 173 165
-3.32 6.15 -5.26 172 173 165
-3.31 6.05 -5.26 172 173 165
-3.31 5.96 -5.26 172 173 165
-3.31 5.86 -5.27 172 173 165
-3.31 5.76 -5.27 172 173 165
-3.30 5.67 -5.28 172 173 165
-3.31 5.57 -5.27 172 173 165
-3.30 5.47 -5.28 172 173 165
-3.30 5.37 -5.28 172 173 165
-3.30 5.28 -5.28 172 173 165
-3.29 5.18 -5.29 173 173 168
-3.28 5.08 -5.30 173 173 168
-3.28 4.99 -5.30 173 173 168
-3.28 4.89 -5.30 173 173 168
-3.28 4.79 -5.30 173 173 168
-3.28 4.69 -5.30 173 173 168
-3.28 4.59 -5.30 173 173 168
-3.27 4.50 -5.31 173 173 168
-3.27 4.40 -5.31 173 173 168
-3.28 4.30 -5.30 173 173 168
-3.28 4.20 -5.30 173 173 168
-3.28 4.10 -5.30 173 173 168
-3.29 4.00 -5.29 171 173 168
-3.28 3.91 -5.30 171 173 168
-3.28 3.81 -5.30 171 173 168
-3.28 3.71 -5.30 171 173 168
-3.28 3.61 -5.30 171 173 168
-3.28 3.51 -5.31 171 173 168
-3.28 3.42 -5.31 171 173 168
-3.28 3.32 -5.31 171 173 168
-3.28 3.22 -5.31 171 173 168
-3.28 3.12 -5.30 171 173 168
-3.28 3.02 -5.30 171 173 168
-3.27 2.93 -5.32 171 173 168
-3.27 2.83 -5.31 171 173 168
-3.26 2.73 -5.32 171 173 168
-3.26 2.64 -5.33 171 173 168
-3.25 2.54 -5.33 171 173 168
-3.26 2.44 -5.33 171 173 168
-3.25 2.34 -5.34 171 173 168
-3.25 2.25 -5.34 171 173 168
-3.25 2.15 -5.34 172 174 169
-3.24 2.05 -5.35 170 175 171
-3.25 1.95 -5.34 170 175 171
-3.25 1.85 -5.34 170 175 171
-3.25 1.75 -5.33 170 175 171
-3.25 1.65 -5.33 170 175 171
-3.25 1.56 -5.34 170 175 171
-3.26 1.46 -5.33 170 175 171
-3.25 1.36 -5.33 170 175 171
-3.26 1.26 -5.33 174 179 175
-3.25 1.17 -5.34 174 179 175
-3.26 1.06 -5.33 174 179 175
-3.25 0.97 -5.34 174 179 175
-3.25 0.87 -5.33 174 179 175
-3.25 0.77 -5.34 174 179 175
-3.25 0.67 -5.34 174 179 175
-3.25 0.57 -5.34 174 179 175
-3.25 0.48 -5.34 171 178 171
-3.25 0.38 -5.34 171 178 171
-3.24 0.28 -5.35 171 178 171
-3.24 0.18 -5.35 171 178 171
-3.23 0.09 -5.35 171 178 171
-3.23 -0.01 -5.35 171 178 171
-3.23 -0.11 -5.36 171 178 171
-3.23 -0.21 -5.36 171 178 171
-3.22 -0.30 -5.38 173 180 173
-3.22 -0.40 -5.37 173 180 173
-3.22 -0.50 -5.37 173 180 173
-3.22 -0.60 -5.38 173 180 173
-3.21 -0.70 -5.38 173 180 173
-3.21 -0.79 -5.38 173 180 173
-3.21 -0.89 -5.38 173 180 173
-3.21 -0.99 -5.39 173 180 173
-3.20 -1.09 -5.39 173 180 173
-3.20 -1.19 -5.39 173 180 173
-3.19 -1.28 -5.40 173 180 173
-3.19 -1.38 -5.40 173 180 173
-3.20 -1.48 -5.40 173 180 173
-3.19 -1.58 -5.40 173 180 173
-3.20 -1.68 -5.40 173 180 173
-3.20 -1.78 -5.39 173 180 173
-3.20 -1.87 -5.40 173 180 173
-3.19 -1.97 -5.40 173 180 173
-3.19 -2.07 -5.40 173 180 173
-3.19 -2.17 -5.40 173 180 173
-3.18 -2.27 -5.41 173 180 173
-3.19 -2.36 -5.41 173 180 173
-3.18 -2.46 -5.42 173 180 173
-3.18 -2.56 -5.42 173 180 173
-3.18 -2.66 -5.42 171 181 173
-3.17 -2.76 -5.42 172 182 174
-3.18 -2.86 -5.42 172 182 174
-3.19 -2.96 -5.41 172 182 174
-3.20 -3.05 -5.40 172 182 174
-3.19 -3.15 -5.40 172 182 174
-3.19 -3.25 -5.40 172 182 174
-3.19 -3.35 -5.41 172 182 174
-3.19 -3.45 -5.40 173 183 175
-3.19 -3.55 -5.41 174 184 176
-3.19 -3.64 -5.41 174 184 178
-3.19 -3.74 -5.41 174 184 178
-3.18 -3.84 -5.41 174 184 178
-3.19 -3.94 -5.41 174 184 178
-3.18 -4.04 -5.41 174 184 178
-3.18 -4.14 -5.42 174 184 178
-3.18 -4.23 -5.42 175 182 177
-3.17 -4.33 -5.43 175 182 177
-3.16 -4.43 -5.44 175 182 177
-3.16 -4.53 -5.45 175 182 177
-3.16 -4.63 -5.45 175 182 177
-3.16 -4.72 -5.45 175 182 177
-3.74 -16.89 -4.78 141 134 134
-5.13 -16.61 -3.19 16 9 9
-5.23 -16.68 -3.06 10 6 0
-5.03 -16.83 -3.29 37 33 16
-4.96 -16.94 -3.38 86 84 64
-4.91 -17.05 -3.44 177 175 155
-5.41 -17.00 -2.87 186 175 142
-6.10 -16.90 -2.07 183 172 139
-6.34 -16.92 -1.79 195 169 130
-6.42 -16.99 -1.71 204 178 139
-6.45 -17.07 -1.68 216 185 162
-6.47 -17.15 -1.65 218 187 164
-6.49 -17.24 -1.63 201 184 147
-6.54 -17.31 -1.57 228 211 174
-6.59 -17.39 -1.52 237 228 222
-6.63 -17.46 -1.47 230 221 215
-6.69 -17.53 -1.40 228 222 213
-6.73 -17.61 -1.35 234 228 219
-6.78 -17.68 -1.29 207 208 198
-6.82 -17.76 -1.25 213 214 204
-6.85 -17.84 -1.21 216 221 215
-6.91 -17.91 -1.14 242 247 241
-6.95 -17.98 -1.09 247 253 254
-6.97 -18.07 -1.08 244 250 251
-6.96 -18.16 -1.09 235 239 241
-6.96 -18.24 -1.08 245 249 251
-6.95 -18.34 -1.10 248 251 243
-6.91 -18.44 -1.14 205 208 200
-6.90 -18.53 -1.16 164 164 150
-6.75 -18.67 -1.32 148 148 134
-6.40 -18.88 -1.72 170 164 128
-5.58 -19.25 -2.67 190 184 148
-4.77 -19.63 -3.60 234 227 198
-4.12 -19.95 -4.34 246 239 210
-3.79 -20.16 -4.71 237 230 212
-3.43 -20.39 -5.13 241 234 216
-3.24 -20.56 -5.35 231 225 220
-3.30 -20.63 -5.28 228 222 217
-3.42 -20.69 -5.15 230 226 220
-3.45 -20.77 -5.10 231 227 221
-3.53 -20.84 -5.02 227 230 218
-3.57 -20.92 -4.97 225 228 216
-3.53 -21.04 -5.02 220 227 220
-3.53 -21.13 -5.01 219 226 219
-3.56 -21.22 -4.98 227 235 242
-3.56 -21.32 -4.98 215 223 230
-3.57 -21.41 -4.97 223 225 222
-3.57 -21.51 -4.97 226 228 225
-3.57 -21.61 -4.97 226 228 225
-3.57 -21.70 -4.97 226 228 225
-3.59 -21.79 -4.95 227 229 226
-3.60 -21.89 -4.94 229 231 228
-3.60 -21.98 -4.93 228 230 227
-3.60 -22.08 -4.94 226 228 225
-3.60 -22.18 -4.93 230 232 229
-3.62 -22.27 -4.92 230 232 229
-3.63 -22.36 -4.91 229 231 228
-3.63 -22.46 -4.90 228 230 227
-3.63 -22.55 -4.90 227 229 226
-3.64 -22.65 -4.89 227 229 226
-3.64 -22.74 -4.89 226 228 225
-3.64 -22.84 -4.89 226 228 225
-3.64 -22.94 -4.89 223 225 222
-3.64 -23.04 -4.89 225 227 224
