ply
format ascii 1.0
element vertex 1538
property float x
property float y
property float z
property uchar red
property uchar green
property uchar blue
end_header
-11.46 3.85 -2.78 176 176 171
-11.46 3.76 -2.77 175 175 170
-11.46 3.68 -2.77 175 175 170
-11.46 3.60 -2.78 174 174 169
-11.46 3.52 -2.77 174 174 169
-11.46 3.43 -2.77 173 173 168
-11.46 3.35 -2.77 173 173 168
-11.46 3.27 -2.77 173 173 168
-11.47 3.18 -2.76 173 173 168
-11.46 3.10 -2.77 174 174 169
-11.47 3.02 -2.76 174 174 169
-11.47 2.93 -2.76 174 174 169
-11.47 2.85 -2.76 174 174 169
-11.47 2.77 -2.76 174 174 169
-11.47 2.69 -2.76 174 174 169
-11.47 2.60 -2.76 174 174 169
-11.47 2.52 -2.76 174 174 169
-11.47 2.44 -2.76 173 173 168
-11.47 2.35 -2.76 173 173 168
-11.47 2.27 -2.76 173 173 168
-11.47 2.19 -2.76 173 173 168
-11.47 2.11 -2.76 173 173 168
-11.48 2.02 -2.75 173 173 168
-11.47 1.94 -2.76 173 173 168
-11.48 1.86 -2.75 172 173 165
-11.47 1.78 -2.76 172 173 165
-11.47 1.69 -2.76 172 173 165
-11.47 1.61 -2.76 172 173 165
-11.48 1.53 -2.75 172 173 165
-11.48 1.44 -2.75 172 173 165
-11.48 1.36 -2.75 172 173 165
-11.48 1.28 -2.74 172 173 165
-11.48 1.20 -2.74 172 173 165
-11.49 1.11 -2.74 172 173 165
-11.50 1.03 -2.72 172 173 165
-11.50 0.94 -2.72 172 173 165
-11.51 0.86 -2.71 170 173 165
-11.51 0.78 -2.71 170 173 165
-11.51 0.69 -2.71 170 173 165
-11.52 0.61 -2.70 170 173 165
-11.52 0.53 -2.70 169 171 166
-11.53 0.44 -2.68 169 171 166
-11.53 0.36 -2.68 169 171 166
-11.53 0.28 -2.68 169 171 166
-11.53 0.19 -2.68 169 171 166
-11.54 0.11 -2.67 169 171 166
-11.54 0.03 -2.67 169 171 166
-11.54 -0.06 -2.67 169 171 166
-11.54 -0.14 -2.67 169 171 166
-11.53 -0.22 -2.67 169 171 166
-11.54 -0.30 -2.67 169 171 166
-11.54 -0.39 -2.67 169 171 166
-11.54 -0.47 -2.67 169 171 166
-11.54 -0.55 -2.66 169 171 166
-11.55 -0.64 -2.65 169 171 166
-11.55 -0.72 -2.65 169 171 166
-11.55 -0.80 -2.65 169 171 168
-11.55 -0.88 -2.65 169 171 168
-11.55 -0.97 -2.65 169 171 168
-11.56 -1.05 -2.64 169 171 168
-11.56 -1.13 -2.63 169 171 168
-11.57 -1.22 -2.63 169 171 168
-11.57 -1.30 -2.62 169 171 168
-11.58 -1.38 -2.61 170 172 169
-11.58 -1.46 -2.61 170 172 169
-11.57 -1.55 -2.62 170 172 169
-11.58 -1.63 -2.61 170 172 169
-11.58 -1.71 -2.61 170 172 169
-11.58 -1.79 -2.60 170 172 169
-11.58 -1.88 -2.61 170 172 169
-11.59 -1.96 -2.60 168 173 169
-11.58 -2.04 -2.60 169 174 170
-11.58 -2.12 -2.60 169 174 170
-11.58 -2.21 -2.60 169 174 170
-11.58 -2.29 -2.60 169 174 170
-11.58 -2.37 -2.60 169 174 170
-11.58 -2.45 -2.60 169 174 170
-11.59 -2.54 -2.59 169 174 170
-11.59 -2.62 -2.59 169 174 170
-11.59 -2.70 -2.60 170 175 171
-11.58 -2.78 -2.60 170 175 171
-11.58 -2.86 -2.60 170 175 171
-11.58 -2.95 -2.61 170 175 171
-11.58 -3.03 -2.61 170 175 171
-11.58 -3.11 -2.60 170 175 171
-11.58 -3.19 -2.60 170 175 171
-11.59 -3.28 -2.60 170 175 171
-11.59 -3.36 -2.60 171 176 172
-11.59 -3.44 -2.59 171 176 172
-11.60 -3.52 -2.58 171 176 172
-11.60 -3.61 -2.58 171 176 172
-11.61 -3.69 -2.57 171 176 172
-11.61 -3.77 -2.57 171 176 172
-11.61 -3.85 -2.57 171 176 172
-11.61 -3.94 -2.57 171 176 172
-11.61 -4.02 -2.57 171 176 172
-11.61 -4.10 -2.57 171 176 172
-11.61 -4.18 -2.56 171 176 172
-11.61 -4.26 -2.57 171 176 172
-11.61 -4.35 -2.57 171 176 172
-11.61 -4.43 -2.57 171 176 172
-11.62 -4.51 -2.56 171 176 172
-11.61 -4.59 -2.57 171 176 172
-11.61 -4.68 -2.57 171 176 172
-11.60 -4.76 -2.58 174 179 178
-11.60 -4.84 -2.58 174 179 178
-11.59 -4.92 -2.59 174 179 178
-11.59 -5.00 -2.59 174 179 178
-11.59 -5.08 -2.59 174 179 178
-11.59 -5.17 -2.60 174 179 178
-11.59 -5.25 -2.60 174 179 178
-11.58 -5.33 -2.60 174 179 178
-11.57 -5.41 -2.62 172 177 176
-11.57 -5.49 -2.62 172 177 176
-11.57 -5.58 -2.62 172 177 176
-11.56 -5.66 -2.63 172 177 176
-11.56 -5.74 -2.63 172 177 176
-11.56 -5.82 -2.64 172 177 176
-11.56 -5.90 -2.63 172 177 176
-11.56 -5.99 -2.64 172 177 176
-11.56 -6.07 -2.64 176 182 173
-11.56 -6.15 -2.64 171 177 168
-11.55 -6.23 -2.65 174 179 173
-11.57 -6.32 -2.63 178 183 177
-11.57 -6.40 -2.63 175 180 174
-11.57 -6.48 -2.62 178 183 177
-11.56 -6.56 -2.64 178 183 179
-11.53 -6.64 -2.67 160 165 161
-11.51 -6.73 -2.71 157 162 158
-11.58 -6.81 -2.60 156 161 157
-11.98 -6.90 -2.05 181 186 185
-12.31 -6.99 -1.60 230 235 234
-12.35 -7.07 -1.53 251 255 255
-12.35 -7.15 -1.53 252 255 255
-12.35 -7.23 -1.53 239 243 245
-12.37 -7.31 -1.52 248 252 254
-12.38 -7.39 -1.49 246 253 248
-12.38 -7.47 -1.50 246 253 248
-12.38 -7.55 -1.49 246 253 248
-12.38 -7.63 -1.50 246 253 248
-12.37 -7.71 -1.51 246 253 248
-12.36 -7.79 -1.53 246 253 248
-12.35 -7.87 -1.54 246 253 248
-12.34 -7.95 -1.56 246 253 248
-12.33 -8.03 -1.57 246 253 248
-12.31 -8.11 -1.59 246 253 248
-12.30 -8.19 -1.62 246 253 248
-12.29 -8.27 -1.63 246 253 248
-12.28 -8.35 -1.64 246 253 248
-12.27 -8.43 -1.65 246 253 248
-12.26 -8.51 -1.66 246 253 248
-12.26 -8.59 -1.66 246 253 248
-12.26 -8.67 -1.67 246 253 251
-12.25 -8.75 -1.68 246 253 251
-12.24 -8.83 -1.69 246 253 251
-12.25 -8.91 -1.68 246 253 251
-12.24 -8.99 -1.69 246 253 251
-12.24 -9.07 -1.69 246 253 251
-12.24 -9.15 -1.70 246 253 251
-12.23 -9.23 -1.70 246 253 251
-12.23 -9.31 -1.70 246 253 251
-12.23 -9.40 -1.71 246 253 251
-12.23 -9.48 -1.71 246 253 251
-12.23 -9.56 -1.71 246 253 251
-12.23 -9.64 -1.71 246 253 251
-12.24 -9.72 -1.70 246 253 251
-12.24 -9.80 -1.70 246 253 251
-12.24 -9.88 -1.70 246 253 251
-12.24 -9.96 -1.70 246 253 251
-12.23 -10.04 -1.70 246 253 251
-12.23 -10.12 -1.70 246 253 251
-12.24 -10.20 -1.70 246 253 251
-12.24 -10.28 -1.70 246 253 251
-12.24 -10.36 -1.70 246 253 251
-12.24 -10.44 -1.70 246 253 251
-12.23 -10.52 -1.70 246 253 251
-12.24 -10.60 -1.70 246 253 251
-12.24 -10.68 -1.70 246 253 251
-12.24 -10.76 -1.69 246 253 251
-12.24 -10.84 -1.69 246 253 251
-12.25 -10.92 -1.68 246 253 251
-12.25 -11.00 -1.68 246 253 251
-12.25 -11.08 -1.68 246 253 251
-12.25 -11.16 -1.67 246 253 251
-12.25 -11.24 -1.67 246 253 251
-12.26 -11.32 -1.67 246 253 251
-12.25 -11.40 -1.68 246 253 251
-12.25 -11.48 -1.68 246 253 251
-12.24 -11.56 -1.69 246 253 251
-12.25 -11.64 -1.68 246 253 251
-12.25 -11.72 -1.68 246 253 251
-12.25 -11.80 -1.68 246 253 251
-12.24 -11.88 -1.69 246 253 251
-12.24 -11.96 -1.69 246 253 251
-12.24 -12.04 -1.70 246 253 251
-12.24 -12.12 -1.69 246 253 251
-12.24 -12.21 -1.69 246 253 251
-12.24 -12.29 -1.69 246 253 251
-12.24 -12.37 -1.69 246 253 251
-12.24 -12.45 -1.69 246 253 251
-12.24 -12.53 -1.69 246 253 251
-12.24 -12.61 -1.69 246 253 251
-12.24 -12.69 -1.70 246 253 251
-12.24 -12.77 -1.70 246 253 251
-12.24 -12.85 -1.69 246 253 251
-12.24 -12.93 -1.70 246 253 251
-12.24 -13.01 -1.69 246 253 251
-12.24 -13.09 -1.70 246 253 251
-12.23 -13.17 -1.70 245 252 250
-12.23 -13.25 -1.70 245 252 250
-12.24 -13.33 -1.70 245 252 250
-12.24 -13.41 -1.70 245 252 250
-12.24 -13.49 -1.69 245 252 250
-12.24 -13.57 -1.69 245 252 250
-12.25 -13.65 -1.67 245 252 250
-12.26 -13.73 -1.67 245 252 250
-12.26 -13.81 -1.66 244 251 249
-12.26 -13.89 -1.67 246 253 251
-12.27 -13.96 -1.65 248 253 252
-12.25 -14.05 -1.67 247 252 251
-12.18 -14.15 -1.78 247 252 251
-12.06 -14.26 -1.94 242 247 246
-11.91 -14.38 -2.16 230 232 232
-11.80 -14.48 -2.30 215 217 217
-11.72 -14.59 -2.41 195 197 197
-11.70 -14.68 -2.45 193 195 195
-11.69 -14.76 -2.46 194 194 194
-11.68 -14.84 -2.47 194 194 194
-11.70 -14.92 -2.44 195 195 195
-11.70 -15.00 -2.45 195 195 195
-11.70 -15.09 -2.45 196 194 195
-11.69 -15.17 -2.46 195 193 194
-11.69 -15.25 -2.45 192 194 191
-11.69 -15.33 -2.46 193 195 192
-11.69 -15.41 -2.45 193 195 192
-11.70 -15.49 -2.45 194 196 193
-11.70 -15.57 -2.44 194 196 193
-11.70 -15.66 -2.44 195 197 194
-11.70 -15.74 -2.44 195 197 194
-11.70 -15.82 -2.44 197 199 196
-11.70 -15.90 -2.45 195 197 194
-11.71 -15.98 -2.43 195 197 194
-11.69 -16.07 -2.45 195 197 194
-11.69 -16.15 -2.45 195 197 194
-11.69 -16.23 -2.46 195 197 194
-11.69 -16.32 -2.46 195 197 194
-11.69 -16.40 -2.46 195 197 194
-11.68 -16.48 -2.47 195 197 194
-11.68 -16.56 -2.47 195 197 194
-11.68 -16.65 -2.47 195 197 194
-11.68 -16.73 -2.47 195 197 194
-11.68 -16.81 -2.48 195 197 194
-11.68 -16.89 -2.47 195 197 194
-11.69 -16.97 -2.46 195 197 194
-11.69 -17.05 -2.46 195 197 194
-11.69 -17.13 -2.46 195 197 194
-11.69 -17.22 -2.46 197 199 196
-11.69 -17.30 -2.46 197 199 196
-11.69 -17.38 -2.46 197 199 196
-11.68 -17.47 -2.47 197 199 196
-11.68 -17.55 -2.47 197 199 196
-11.69 -17.63 -2.46 197 199 196
-11.68 -17.71 -2.47 197 199 196
-11.68 -17.79 -2.47 197 199 196
-11.68 -17.88 -2.48 203 203 198
-11.67 -17.96 -2.49 202 202 197
-11.67 -18.04 -2.48 201 201 196
-11.67 -18.13 -2.49 199 199 194
-11.67 -18.21 -2.49 197 197 192
-11.67 -18.29 -2.49 195 195 190
-11.66 -18.37 -2.50 194 194 189
-11.65 -18.46 -2.51 194 194 189
-11.64 -18.55 -2.52 190 190 185
-11.64 -18.63 -2.52 188 188 183
-11.64 -18.71 -2.52 186 186 181
-11.64 -18.79 -2.52 181 181 176
-11.65 -18.87 -2.51 178 178 173
-11.66 -18.95 -2.50 173 173 168
-11.67 -19.03 -2.49 171 171 166
-11.66 -19.11 -2.50 168 168 163
-11.66 -19.20 -2.50 168 167 170
-11.66 -19.28 -2.50 170 169 172
-11.67 -19.35 -2.48 172 171 174
-11.67 -19.44 -2.49 172 171 174
-11.68 -19.52 -2.47 170 169 172
-11.68 -19.60 -2.47 165 164 167
-11.69 -19.68 -2.46 160 159 162
-11.69 -19.75 -2.45 157 156 159
-11.71 -19.83 -2.43 160 159 162
-11.72 -19.91 -2.41 159 158 161
-11.74 -19.98 -2.39 156 155 158
-11.76 -20.05 -2.36 157 156 159
-11.78 -20.12 -2.33 160 159 162
-11.81 -20.19 -2.29 159 158 161
-11.84 -20.26 -2.25 154 153 156
-11.91 -20.31 -2.15 152 151 154
-11.98 -20.36 -2.05 155 151 162
-12.05 -20.41 -1.95 154 150 161
-12.11 -20.46 -1.88 122 121 124
-12.18 -20.51 -1.77 58 57 60
-12.29 -20.54 -1.63 46 46 43
-12.37 -20.57 -1.51 37 37 34
-12.53 -20.58 -1.29 27 28 33
-12.86 -20.50 -0.84 15 16 21
-13.25 -20.38 -0.29 7 6 23
-13.65 -20.27 0.26 20 19 36
-13.83 -20.25 0.52 29 30 53
-13.96 -20.27 0.69 39 40 63
-14.07 -20.29 0.84 53 55 71
-14.11 -20.34 0.90 35 37 53
-14.15 -20.39 0.96 14 20 23
-14.18 -20.46 0.99 3 9 12
-14.19 -20.52 1.01 38 30 36
-14.21 -20.59 1.03 122 114 120
-14.21 -20.66 1.04 200 193 175
-14.22 -20.73 1.05 199 192 174
-14.22 -20.80 1.06 181 172 127
-14.21 -20.88 1.04 158 149 104
-14.21 -20.96 1.04 148 135 74
-14.20 -21.04 1.02 180 167 106
-14.18 -21.12 1.00 186 170 98
-14.17 -21.21 0.98 192 176 104
-14.15 -21.29 0.96 214 193 121
-14.14 -21.37 0.95 207 186 114
-14.14 -21.45 0.94 191 165 97
-14.14 -21.52 0.94 171 145 77
-14.14 -21.60 0.94 167 140 77
-14.14 -21.67 0.94 164 137 74
-14.15 -21.74 0.96 175 148 87
-14.15 -21.81 0.96 153 126 65
-14.18 -21.87 1.00 187 165 120
-14.21 -21.93 1.04 209 187 142
-14.25 -21.98 1.09 67 49 30
-14.27 -22.05 1.12 26 8 0
-14.30 -22.10 1.16 57 45 47
-14.29 -22.18 1.15 47 35 37
-14.35 -22.22 1.23 55 48 58
-14.26 -22.35 1.11 192 185 195
-13.18 -23.06 -0.40 236 232 241
-12.48 -23.55 -1.36 205 201 210
-12.57 -23.58 -1.24 202 200 201
-12.54 -23.67 -1.28 208 206 207
-12.50 -23.77 -1.33 208 207 200
-12.51 -23.85 -1.32 207 206 199
-12.51 -23.93 -1.31 211 206 208
-12.51 -24.01 -1.31 211 206 208
-12.51 -24.09 -1.32 211 206 208
-12.51 -24.17 -1.32 212 207 209
-12.51 -24.25 -1.32 212 207 209
-12.51 -24.33 -1.33 212 207 209
-12.50 -24.41 -1.34 212 207 209
-12.50 -24.49 -1.33 213 208 210
-12.49 -24.58 -1.35 212 207 209
-12.49 -24.66 -1.35 212 207 209
-12.49 -24.74 -1.35 212 207 209
-12.49 -24.82 -1.35 212 207 209
-12.49 -24.90 -1.35 212 207 209
-12.48 -24.98 -1.36 212 207 209
-12.48 -25.06 -1.36 212 207 209
-12.48 -25.14 -1.37 212 207 209
-12.47 -25.23 -1.37 213 208 210
-12.47 -25.31 -1.37 213 208 210
-12.46 -25.39 -1.38 213 208 210
-12.47 -25.47 -1.37 213 208 210
-12.47 -25.55 -1.38 213 208 210
-12.47 -25.63 -1.38 213 208 210
-12.47 -25.71 -1.38 213 208 210
-12.47 -25.79 -1.38 213 208 210
-12.47 -25.87 -1.38 213 208 210
-12.47 -25.95 -1.38 214 209 211
-12.47 -26.03 -1.38 214 209 211
-12.47 -26.11 -1.38 216 211 213
-12.47 -26.19 -1.38 216 211 213
-12.46 -26.27 -1.38 217 212 214
-12.47 -26.34 -1.38 217 212 211
-12.46 -26.43 -1.38 217 212 211
-12.46 -26.51 -1.38 217 212 209
-12.46 -26.59 -1.39 217 212 209
-12.47 -26.66 -1.38 217 212 209
-12.47 -26.74 -1.38 217 212 209
-12.47 -26.82 -1.37 217 212 209
-12.47 -26.90 -1.37 217 212 209
-12.47 -26.98 -1.37 217 212 209
-12.47 -27.06 -1.37 217 212 209
-12.47 -27.14 -1.38 217 212 209
-12.47 -27.22 -1.37 217 212 209
-12.47 -27.30 -1.38 217 212 209
-12.47 -27.38 -1.37 217 212 209
-12.47 -27.46 -1.38 217 212 209
-12.47 -27.54 -1.37 217 212 209
-12.47 -27.62 -1.38 217 212 209
-12.47 -27.70 -1.37 217 212 209
-12.47 -27.78 -1.37 217 212 209
-12.47 -27.85 -1.37 217 212 209
-12.47 -27.94 -1.37 217 212 209
-12.48 -28.01 -1.36 217 212 209
-12.48 -28.09 -1.36 217 212 209
-12.47 -28.17 -1.37 217 212 209
-12.48 -28.25 -1.36 217 212 209
-12.48 -28.33 -1.36 217 212 209
-12.48 -28.41 -1.36 217 212 209
-12.48 -28.49 -1.37 217 212 209
-12.48 -28.57 -1.36 217 212 209
-12.48 -28.64 -1.36 217 212 209
-12.48 -28.72 -1.36 217 212 209
-12.48 -28.80 -1.36 217 212 209
-12.48 -28.89 -1.37 217 212 209
-12.48 -28.96 -1.36 217 212 209
-12.48 -29.04 -1.36 219 212 215
-12.48 -29.12 -1.36 219 212 215
-12.48 -29.20 -1.37 219 212 215
-12.48 -29.28 -1.36 219 212 215
-12.48 -29.36 -1.36 219 212 215
-12.47 -29.45 -1.37 220 213 216
-12.47 -29.53 -1.37 220 213 216
-12.47 -29.61 -1.37 220 213 216
-12.47 -29.69 -1.37 220 213 216
-12.47 -29.77 -1.37 220 213 216
-12.47 -29.85 -1.37 220 213 216
-12.47 -29.93 -1.37 220 213 216
-12.47 -30.01 -1.37 220 213 216
-12.48 -30.08 -1.36 220 213 216
-12.48 -30.16 -1.36 219 214 213
-12.48 -30.23 -1.36 219 214 213
-12.49 -30.31 -1.35 219 214 213
-12.49 -30.39 -1.35 219 214 213
-12.49 -30.47 -1.35 219 214 213
-12.49 -30.54 -1.34 219 214 213
-12.49 -30.62 -1.34 219 214 213
-12.49 -30.70 -1.34 219 214 213
-12.50 -30.78 -1.33 219 214 213
-12.51 -30.85 -1.33 219 214 213
-12.51 -30.93 -1.32 221 216 215
-12.52 -31.00 -1.31 221 216 215
-12.52 -31.08 -1.30 221 216 215
-12.52 -31.15 -1.30 221 216 215
-12.52 -31.24 -1.30 221 216 215
-12.54 -31.30 -1.28 221 216 215
-12.56 -31.36 -1.26 221 216 215
-12.58 -31.43 -1.23 221 216 215
-12.60 -31.49 -1.20 219 214 213
-12.62 -31.55 -1.17 224 219 218
-12.65 -31.60 -1.13 215 213 211
-12.67 -31.66 -1.09 236 234 232
-12.69 -31.72 -1.06 254 252 250
-12.74 -31.76 -1.00 252 250 248
-12.96 -31.64 -0.70 216 216 213
-13.30 -31.40 -0.22 223 223 220
-13.56 -31.25 0.14 250 250 247
-13.64 -31.25 0.25 248 248 245
-13.68 -31.29 0.31 250 252 249
-13.67 -31.38 0.29 254 255 253
-13.29 -31.80 -0.24 199 201 198
-12.71 -32.41 -1.04 204 206 203
-12.58 -32.61 -1.22 247 252 248
-12.43 -32.83 -1.42 227 232 228
-12.11 18.48 -2.01 136 130 121
-12.09 18.41 -2.02 136 130 121
-12.10 18.32 -2.01 136 130 121
-12.06 18.28 -2.07 136 130 121
-12.06 18.20 -2.07 136 130 121
-12.06 18.11 -2.06 136 130 121
-12.03 18.06 -2.11 136 130 121
-12.02 17.99 -2.12 136 130 121
-12.01 17.92 -2.14 137 131 122
-12.00 17.85 -2.15 137 131 122
-11.99 17.77 -2.17 137 131 122
-11.98 17.70 -2.18 137 131 122
-11.97 17.63 -2.19 137 131 122
-11.95 17.57 -2.22 137 131 122
-11.95 17.49 -2.23 137 131 122
-11.94 17.42 -2.24 137 131 122
-11.93 17.34 -2.25 142 133 127
-11.93 17.26 -2.25 142 133 127
-11.91 17.19 -2.27 142 133 127
-11.91 17.11 -2.28 142 133 127
-11.91 17.04 -2.28 142 133 127
-11.90 16.96 -2.29 142 133 127
-11.89 16.88 -2.30 142 133 127
-11.89 16.81 -2.31 143 134 128
-11.87 16.74 -2.33 143 134 128
-11.86 16.67 -2.35 143 134 128
-11.85 16.60 -2.36 144 135 129
-11.84 16.53 -2.38 144 135 129
-11.83 16.45 -2.38 145 136 130
-11.83 16.37 -2.39 145 136 130
-11.82 16.30 -2.41 146 137 131
-11.82 16.22 -2.41 146 137 131
-11.81 16.14 -2.42 146 137 129
-11.80 16.07 -2.43 146 137 129
-11.79 15.99 -2.44 146 137 131
-11.79 15.91 -2.44 146 137 131
-11.79 15.83 -2.45 146 137 131
-11.79 15.75 -2.45 146 137 131
-11.79 15.67 -2.45 148 139 135
-11.78 15.59 -2.46 149 140 136
-11.78 15.51 -2.45 149 140 136
-11.78 15.43 -2.46 149 140 136
-11.77 15.35 -2.47 149 139 138
-11.77 15.27 -2.47 149 139 138
-11.77 15.19 -2.48 149 139 138
-11.77 15.11 -2.48 149 139 138
-11.76 15.04 -2.49 147 141 136
-11.76 14.95 -2.49 147 141 136
-11.76 14.88 -2.49 147 141 134
-11.76 14.79 -2.49 148 142 135
-11.75 14.72 -2.50 148 142 135
-11.74 14.64 -2.51 149 143 136
-11.74 14.56 -2.52 149 143 136
-11.74 14.48 -2.52 150 144 137
-11.74 14.40 -2.52 150 144 137
-11.73 14.32 -2.53 151 145 138
-11.73 14.24 -2.53 153 147 140
-11.73 14.16 -2.53 153 147 140
-11.73 14.08 -2.53 153 147 140
-11.73 14.00 -2.53 153 147 140
-11.73 13.92 -2.53 153 147 140
-11.72 13.84 -2.54 153 147 140
-11.72 13.76 -2.55 153 147 140
-11.71 13.68 -2.56 153 147 140
-11.70 13.61 -2.57 156 147 143
-11.70 13.53 -2.57 156 147 143
-11.70 13.44 -2.57 156 147 143
-11.69 13.37 -2.58 156 147 143
-11.69 13.29 -2.58 156 147 143
-11.69 13.21 -2.58 156 147 143
-11.68 13.13 -2.60 156 147 143
-11.68 13.05 -2.60 156 147 143
-11.67 12.97 -2.61 156 147 143
-11.67 12.89 -2.61 157 148 144
-11.67 12.81 -2.61 157 148 144
-11.67 12.73 -2.62 158 149 145
-11.66 12.65 -2.62 158 149 145
-11.66 12.57 -2.62 159 150 146
-11.67 12.48 -2.62 159 150 146
-11.66 12.40 -2.62 160 151 147
-11.66 12.32 -2.62 157 153 147
-11.66 12.24 -2.62 157 153 147
-11.66 12.16 -2.62 157 153 147
-11.66 12.08 -2.63 157 153 147
-11.66 12.00 -2.63 157 153 147
-11.66 11.91 -2.62 157 153 147
-11.65 11.84 -2.64 157 153 147
-11.66 11.75 -2.63 157 153 147
-11.65 11.67 -2.64 155 151 145
-11.66 11.59 -2.63 155 151 145
-11.64 11.51 -2.65 154 150 144
-11.65 11.43 -2.64 154 150 144
-11.66 11.34 -2.63 153 149 143
-11.65 11.26 -2.64 153 149 143
-11.65 11.18 -2.64 152 148 142
-11.65 11.10 -2.64 152 148 142
-11.65 11.02 -2.64 151 150 143
-11.65 10.93 -2.64 152 151 144
-11.65 10.85 -2.64 151 150 143
-11.65 10.77 -2.64 150 149 142
-11.64 10.69 -2.65 152 151 144
-11.65 10.61 -2.64 154 153 146
-11.64 10.53 -2.65 155 154 147
-11.64 10.44 -2.65 158 157 150
-11.64 10.37 -2.66 157 156 149
-11.64 10.28 -2.66 159 158 151
-11.63 10.21 -2.66 159 155 149
-11.63 10.13 -2.67 157 153 147
-11.63 10.04 -2.67 161 157 151
-11.62 9.97 -2.68 163 159 153
-11.62 9.88 -2.68 162 161 154
-11.61 9.81 -2.69 164 163 156
-11.61 9.72 -2.69 165 163 159
-11.60 9.65 -2.70 167 165 161
-11.60 9.57 -2.70 170 166 158
-11.60 9.48 -2.71 169 165 157
-11.59 9.41 -2.72 172 166 159
-11.59 9.32 -2.72 172 166 159
-11.59 9.24 -2.72 171 167 159
-11.59 9.16 -2.73 171 167 159
-11.58 9.09 -2.74 174 170 162
-11.58 9.00 -2.73 174 170 162
-11.58 8.92 -2.74 174 170 162
-11.58 8.84 -2.73 175 171 163
-11.58 8.75 -2.73 175 171 163
-11.58 8.68 -2.74 176 172 164
-11.58 8.59 -2.74 176 172 164
-11.58 8.51 -2.74 176 172 164
-11.58 8.43 -2.74 176 170 165
-11.58 8.35 -2.74 176 170 165
-11.58 8.26 -2.74 176 170 165
-11.57 8.18 -2.75 176 170 165
-11.57 8.10 -2.75 175 171 165
-11.58 8.02 -2.74 175 171 165
-11.58 7.93 -2.74 174 173 166
-11.58 7.85 -2.74 175 174 167
-11.59 7.76 -2.73 176 175 168
-11.59 7.68 -2.73 177 176 169
-11.59 7.60 -2.73 177 176 169
-11.59 7.52 -2.72 177 176 169
-11.59 7.43 -2.72 177 176 169
-11.59 7.35 -2.73 177 176 169
-11.59 7.27 -2.73 177 176 169
-11.58 7.19 -2.73 177 176 169
-11.59 7.11 -2.73 177 175 171
-11.58 7.02 -2.73 180 178 174
-11.58 6.94 -2.73 181 179 175
-11.58 6.86 -2.74 181 179 175
-11.58 6.78 -2.73 181 179 175
-11.58 6.70 -2.73 181 179 175
-11.58 6.62 -2.74 181 179 175
-11.58 6.53 -2.74 181 179 175
-11.58 6.45 -2.74 180 180 177
-11.57 6.37 -2.75 181 181 178
-11.57 6.29 -2.75 182 182 179
-11.57 6.21 -2.75 182 182 179
-11.57 6.13 -2.75 182 182 179
-11.57 6.04 -2.75 182 182 179
-11.57 5.96 -2.75 182 182 179
-11.57 5.88 -2.75 182 182 179
-11.56 5.80 -2.76 180 180 177
-11.57 5.72 -2.75 182 182 179
-11.57 5.63 -2.75 182 182 179
-11.57 5.55 -2.75 182 182 179
-11.57 5.47 -2.75 182 182 179
-11.57 5.39 -2.75 182 182 179
-11.57 5.30 -2.75 182 182 179
-11.56 5.22 -2.76 182 182 179
-11.56 5.14 -2.76 182 182 179
-11.56 5.06 -2.76 181 181 178
-11.56 4.98 -2.76 181 181 178
-11.56 4.89 -2.76 181 181 178
-11.56 4.81 -2.76 181 181 178
-11.57 4.73 -2.75 181 181 178
-11.57 4.64 -2.75 181 181 178
-11.57 4.56 -2.75 181 181 178
-11.56 4.48 -2.76 181 181 178
-11.56 4.40 -2.76 180 180 177
-11.57 4.31 -2.75 180 180 175
-11.57 4.23 -2.75 179 179 174
-11.57 4.15 -2.75 179 179 174
-11.57 4.07 -2.75 178 178 173
-11.57 3.98 -2.75 178 178 173
-11.57 3.90 -2.75 176 176 171
-11.57 3.82 -2.75 176 176 171
-11.57 3.73 -2.75 175 175 170
-11.57 3.65 -2.75 175 175 170
-11.57 3.57 -2.75 174 174 169
-11.57 3.49 -2.75 174 174 169
-11.57 3.41 -2.75 173 173 168
-11.58 3.32 -2.74 173 173 168
-11.58 3.24 -2.74 173 173 168
-11.57 3.16 -2.75 173 173 168
-11.57 3.08 -2.75 174 174 169
-11.58 2.99 -2.74 174 174 169
-11.58 2.91 -2.74 174 174 169
-11.58 2.83 -2.74 174 174 169
-11.58 2.75 -2.74 174 174 169
-11.58 2.66 -2.74 174 174 169
-11.58 2.58 -2.73 174 174 169
-11.58 2.50 -2.73 174 174 169
-11.58 2.41 -2.73 173 173 168
-11.59 2.33 -2.73 173 173 168
-11.58 2.25 -2.73 173 173 168
-11.59 2.17 -2.73 173 173 168
-11.58 2.08 -2.73 173 173 168
-11.58 2.00 -2.73 173 173 168
-11.58 1.92 -2.74 173 173 168
-11.58 1.84 -2.73 172 173 165
-11.58 1.76 -2.74 172 173 165
-11.58 1.67 -2.73 172 173 165
-11.58 1.59 -2.73 172 173 165
-11.58 1.51 -2.73 172 173 165
-11.59 1.42 -2.72 172 173 165
-11.59 1.34 -2.72 172 173 165
-11.59 1.26 -2.72 172 173 165
-11.59 1.17 -2.72 172 173 165
-11.60 1.09 -2.71 172 173 165
-11.61 1.01 -2.70 172 173 165
-11.61 0.92 -2.69 172 173 165
-11.62 0.84 -2.68 170 173 165
-11.62 0.76 -2.68 170 173 165
-11.62 0.67 -2.68 170 173 165
-11.62 0.59 -2.67 170 173 165
-11.62 0.51 -2.67 169 171 166
-11.63 0.42 -2.66 169 171 166
-11.63 0.34 -2.66 169 171 166
-11.63 0.26 -2.66 169 171 166
-11.64 0.17 -2.65 169 171 166
-11.64 0.09 -2.65 169 171 166
-11.64 0.01 -2.65 169 171 166
-11.64 -0.07 -2.65 169 171 166
-11.65 -0.16 -2.64 169 171 166
-11.64 -0.24 -2.65 169 171 166
-11.65 -0.32 -2.64 169 171 166
-11.64 -0.40 -2.65 169 171 166
-11.65 -0.48 -2.64 169 171 166
-11.65 -0.57 -2.64 169 171 166
-11.66 -0.65 -2.63 169 171 166
-11.66 -0.73 -2.63 169 171 166
-11.66 -0.82 -2.63 169 171 168
-11.66 -0.90 -2.63 169 171 168
-11.67 -0.98 -2.62 169 171 168
-11.67 -1.07 -2.61 169 171 168
-11.68 -1.15 -2.60 169 171 168
-11.69 -1.23 -2.59 169 171 168
-11.69 -1.31 -2.59 169 171 168
-11.69 -1.40 -2.59 170 172 169
-11.69 -1.48 -2.58 170 172 169
-11.70 -1.56 -2.58 170 172 169
-11.69 -1.64 -2.58 170 172 169
-11.70 -1.73 -2.58 170 172 169
-11.70 -1.81 -2.58 170 172 169
-11.70 -1.89 -2.58 170 172 169
-11.70 -1.97 -2.58 168 173 169
-11.70 -2.05 -2.58 169 174 170
-11.70 -2.14 -2.57 169 174 170
-11.70 -2.22 -2.57 169 174 170
-11.70 -2.30 -2.57 169 174 170
-11.70 -2.38 -2.58 169 174 170
-11.70 -2.47 -2.57 169 174 170
-11.70 -2.55 -2.57 169 174 170
-11.70 -2.63 -2.57 169 174 170
-11.70 -2.71 -2.57 170 175 171
-11.70 -2.79 -2.58 170 175 171
-11.70 -2.88 -2.57 170 175 171
-11.69 -2.96 -2.58 170 175 171
-11.69 -3.04 -2.58 170 175 171
-11.70 -3.12 -2.58 170 175 171
-11.70 -3.20 -2.57 170 175 171
-11.70 -3.29 -2.58 170 175 171
-11.70 -3.37 -2.57 171 176 172
-11.70 -3.45 -2.57 170 175 171
-11.71 -3.53 -2.56 170 175 171
-11.71 -3.62 -2.55 170 175 171
-11.72 -3.70 -2.54 170 175 171
-11.72 -3.78 -2.54 170 175 171
-11.72 -3.86 -2.54 170 175 171
-11.72 -3.94 -2.54 170 175 171
-11.73 -4.03 -2.53 170 175 171
-11.73 -4.11 -2.53 171 176 172
-11.73 -4.19 -2.53 171 176 172
-11.73 -4.27 -2.53 171 176 172
-11.73 -4.36 -2.53 171 176 172
-11.73 -4.44 -2.53 171 176 172
-11.73 -4.52 -2.52 171 176 172
-11.73 -4.60 -2.53 171 176 172
-11.73 -4.68 -2.53 171 176 172
-11.72 -4.76 -2.54 174 179 178
-11.72 -4.85 -2.55 174 179 178
-11.71 -4.93 -2.56 174 179 178
-11.70 -5.01 -2.57 174 179 178
-11.71 -5.09 -2.56 174 179 178
-11.71 -5.17 -2.56 174 179 178
-11.70 -5.25 -2.57 174 179 178
-11.70 -5.34 -2.57 174 179 178
-11.69 -5.42 -2.58 172 177 176
-11.69 -5.50 -2.58 172 177 176
-11.68 -5.58 -2.59 172 177 176
-11.68 -5.66 -2.59 172 177 176
-11.68 -5.74 -2.60 172 177 176
-11.67 -5.83 -2.61 172 177 176
-11.67 -5.91 -2.61 172 177 176
-11.67 -5.99 -2.61 172 177 176
-11.67 -6.07 -2.62 169 175 166
-11.67 -6.15 -2.61 168 174 165
-11.67 -6.24 -2.61 169 174 168
-11.68 -6.32 -2.60 176 181 175
-11.68 -6.40 -2.60 172 177 171
-11.69 -6.48 -2.58 178 183 177
-11.68 -6.57 -2.60 184 189 185
-11.65 -6.65 -2.64 163 168 164
-11.65 -6.73 -2.64 155 160 156
-11.86 -6.82 -2.34 176 181 177
-12.30 -6.90 -1.73 228 233 232
-12.49 -6.99 -1.47 246 251 250
-12.48 -7.07 -1.48 251 255 255
-12.49 -7.15 -1.47 252 255 255
-12.49 -7.23 -1.47 244 248 250
-12.48 -7.31 -1.48 253 255 255
-12.48 -7.39 -1.48 246 253 248
-12.48 -7.47 -1.48 246 253 248
-12.48 -7.55 -1.48 246 253 248
-12.48 -7.63 -1.48 246 253 248
-12.48 -7.71 -1.49 246 253 248
-12.46 -7.79 -1.51 246 253 248
-12.45 -7.87 -1.53 246 253 248
-12.44 -7.95 -1.54 246 253 248
-12.43 -8.03 -1.55 246 253 248
-12.42 -8.11 -1.57 246 253 248
-12.40 -8.19 -1.59 246 253 248
-12.40 -8.27 -1.60 246 253 248
-12.39 -8.35 -1.61 246 253 248
-12.38 -8.43 -1.63 246 253 248
-12.38 -8.51 -1.63 246 253 248
-12.37 -8.59 -1.64 246 253 248
-12.36 -8.67 -1.65 246 253 251
-12.36 -8.75 -1.65 246 253 251
-12.36 -8.83 -1.66 246 253 251
-12.36 -8.91 -1.66 246 253 251
-12.36 -8.99 -1.66 246 253 251
-12.35 -9.07 -1.66 246 253 251
-12.35 -9.15 -1.67 246 253 251
-12.34 -9.23 -1.67 246 253 251
-12.34 -9.31 -1.68 246 253 251
-12.34 -9.39 -1.67 246 253 251
-12.35 -9.47 -1.67 246 253 251
-12.34 -9.55 -1.67 246 253 251
-12.35 -9.63 -1.67 246 253 251
-12.35 -9.71 -1.67 246 253 251
-12.35 -9.79 -1.67 246 253 251
-12.36 -9.87 -1.66 246 253 251
-12.35 -9.95 -1.67 246 253 251
-12.35 -10.03 -1.66 246 253 251
-12.36 -10.11 -1.66 246 253 251
-12.36 -10.19 -1.65 246 253 251
-12.36 -10.27 -1.65 246 253 251
-12.36 -10.35 -1.65 246 253 251
-12.36 -10.43 -1.65 246 253 251
-12.36 -10.51 -1.65 246 253 251
-12.36 -10.59 -1.65 246 253 251
-12.36 -10.67 -1.65 246 253 251
-12.37 -10.75 -1.64 246 253 251
-12.37 -10.83 -1.64 246 253 251
-12.37 -10.91 -1.64 246 253 251
-12.37 -10.99 -1.64 246 253 251
-12.37 -11.07 -1.63 246 253 251
-12.37 -11.15 -1.63 246 253 251
-12.38 -11.23 -1.63 246 253 251
-12.38 -11.31 -1.62 246 253 251
-12.38 -11.39 -1.62 246 253 251
-12.38 -11.47 -1.63 246 253 251
-12.37 -11.55 -1.64 246 253 251
-12.37 -11.63 -1.64 246 253 251
-12.37 -11.71 -1.64 246 253 251
-12.37 -11.79 -1.64 246 253 251
-12.37 -11.87 -1.64 246 253 251
-12.36 -11.95 -1.65 246 253 251
-12.36 -12.03 -1.65 246 253 251
-12.37 -12.11 -1.64 246 253 251
-12.36 -12.19 -1.65 246 253 251
-12.37 -12.27 -1.64 246 253 251
-12.36 -12.35 -1.65 246 253 251
-12.37 -12.43 -1.64 246 253 251
-12.36 -12.51 -1.65 246 253 251
-12.36 -12.59 -1.66 246 253 251
-12.36 -12.67 -1.65 246 253 251
-12.36 -12.75 -1.66 246 253 251
-12.36 -12.83 -1.66 246 253 251
-12.36 -12.91 -1.66 246 253 251
-12.36 -12.99 -1.65 246 253 251
-12.36 -13.07 -1.65 246 253 251
-12.35 -13.15 -1.66 245 252 250
-12.36 -13.23 -1.66 245 252 250
-12.35 -13.31 -1.66 245 252 250
-12.36 -13.39 -1.66 245 252 250
-12.36 -13.47 -1.65 245 252 250
-12.37 -13.55 -1.64 245 252 250
-12.37 -13.63 -1.63 245 252 250
-12.38 -13.71 -1.62 245 252 250
-12.40 -13.78 -1.60 246 253 251
-12.42 -13.86 -1.57 245 252 250
-12.43 -13.94 -1.56 245 250 249
-12.44 -14.01 -1.54 246 251 250
-12.43 -14.10 -1.56 245 250 249
-12.36 -14.19 -1.66 242 247 246
-12.24 -14.30 -1.81 244 246 246
-12.09 -14.42 -2.03 246 248 248
-11.95 -14.54 -2.22 228 230 230
-11.88 -14.64 -2.32 208 210 210
-11.84 -14.73 -2.38 190 190 190
-11.82 -14.82 -2.40 186 186 186
-11.80 -14.90 -2.43 190 190 190
-11.81 -14.98 -2.41 196 196 196
-11.80 -15.07 -2.43 200 198 199
-11.80 -15.15 -2.43 200 198 199
-11.80 -15.23 -2.43 197 199 196
-11.81 -15.31 -2.42 195 197 194
-11.80 -15.39 -2.43 195 197 194
-11.81 -15.47 -2.41 194 196 193
-11.82 -15.55 -2.40 194 196 193
-11.82 -15.63 -2.40 193 195 192
-11.82 -15.71 -2.40 193 195 192
-11.83 -15.79 -2.39 192 194 191
-11.83 -15.88 -2.39 195 197 194
-11.83 -15.96 -2.38 195 197 194
-11.83 -16.04 -2.39 195 197 194
-11.83 -16.12 -2.39 195 197 194
-11.82 -16.21 -2.40 195 197 194
-11.81 -16.29 -2.41 195 197 194
-11.82 -16.37 -2.41 195 197 194
-11.82 -16.45 -2.41 195 197 194
-11.81 -16.53 -2.41 195 197 194
-11.81 -16.62 -2.42 195 197 194
-11.82 -16.70 -2.41 195 197 194
-11.81 -16.78 -2.41 195 197 194
-11.82 -16.86 -2.40 195 197 194
-11.82 -16.94 -2.41 195 197 194
-11.82 -17.02 -2.40 195 197 194
-11.82 -17.10 -2.40 195 197 194
-11.82 -17.19 -2.40 197 199 196
-11.82 -17.27 -2.40 197 199 196
-11.83 -17.35 -2.39 197 199 196
-11.82 -17.43 -2.41 197 199 196
-11.81 -17.51 -2.41 197 199 196
-11.81 -17.60 -2.41 197 199 196
-11.81 -17.68 -2.42 197 199 196
-11.81 -17.76 -2.42 197 199 196
-11.80 -17.84 -2.43 199 199 194
-11.80 -17.93 -2.43 199 199 194
-11.80 -18.01 -2.43 199 199 194
-11.79 -18.09 -2.44 197 197 192
-11.79 -18.18 -2.44 197 197 192
-11.80 -18.26 -2.43 197 197 192
-11.79 -18.34 -2.44 197 197 192
-11.78 -18.42 -2.45 197 197 192
-11.78 -18.51 -2.46 200 200 195
-11.78 -18.59 -2.46 199 199 194
-11.77 -18.67 -2.47 195 195 190
-11.78 -18.75 -2.46 190 190 185
-11.78 -18.83 -2.46 186 186 181
-11.78 -18.92 -2.45 181 181 176
-11.79 -19.00 -2.45 178 178 173
-11.78 -19.08 -2.46 176 176 171
-11.78 -19.16 -2.45 173 172 175
-11.79 -19.24 -2.45 172 171 174
-11.80 -19.32 -2.43 171 170 173
-11.81 -19.40 -2.42 171 170 173
-11.81 -19.48 -2.42 170 169 172
-11.81 -19.56 -2.41 170 169 172
-11.82 -19.64 -2.41 170 169 172
-11.83 -19.71 -2.39 170 169 172
-11.84 -19.79 -2.38 163 162 165
-11.85 -19.87 -2.36 161 160 163
-11.87 -19.94 -2.34 158 157 160
-11.89 -20.01 -2.30 154 153 156
-11.91 -20.09 -2.28 152 151 154
-11.93 -20.15 -2.24 145 144 147
-11.95 -20.23 -2.22 136 135 138
-12.02 -20.28 -2.12 132 131 134
-12.10 -20.32 -2.02 138 134 145
-12.18 -20.36 -1.90 133 129 140
-12.25 -20.41 -1.81 105 104 107
-12.29 -20.47 -1.75 50 49 52
-12.38 -20.51 -1.62 52 52 49
-12.44 -20.56 -1.54 58 58 55
-12.57 -20.58 -1.36 52 53 58
-12.81 -20.54 -1.03 27 28 33
-13.21 -20.42 -0.47 14 13 30
-13.64 -20.29 0.13 13 12 29
-13.89 -20.24 0.48 18 19 42
-14.03 -20.25 0.67 27 28 51
-14.13 -20.27 0.81 37 39 55
-14.20 -20.31 0.91 41 43 59
-14.25 -20.36 0.98 42 48 51
-14.27 -20.43 1.00 19 25 28
-14.29 -20.49 1.04 13 5 11
-14.30 -20.56 1.04 14 6 12
-14.31 -20.63 1.06 93 86 68
-14.31 -20.70 1.07 184 177 159
-14.31 -20.78 1.07 238 229 184
-14.30 -20.86 1.05 235 226 181
-14.29 -20.94 1.04 201 188 127
-14.28 -21.02 1.02 188 175 114
-14.27 -21.10 1.01 175 159 87
-14.25 -21.18 0.98 169 153 81
-14.24 -21.26 0.97 181 160 88
-14.22 -21.35 0.94 192 171 99
-14.22 -21.42 0.93 196 170 102
-14.21 -21.50 0.92 198 172 104
-14.21 -21.58 0.92 205 178 115
-14.20 -21.66 0.92 186 159 96
-14.21 -21.73 0.92 179 152 91
-14.21 -21.80 0.93 144 117 56
-14.23 -21.87 0.95 146 124 79
-14.27 -21.92 1.01 162 140 95
-14.31 -21.97 1.06 94 76 57
-14.32 -22.03 1.08 40 22 3
-14.34 -22.10 1.10 40 28 30
-14.36 -22.16 1.13 48 36 38
-14.38 -22.22 1.16 41 34 44
-14.48 -22.24 1.29 134 127 137
-13.69 -22.78 0.19 236 232 241
-12.62 -23.49 -1.29 208 204 213
-12.66 -23.55 -1.24 201 199 200
-12.65 -23.63 -1.25 209 207 208
-12.61 -23.73 -1.30 209 208 201
-12.62 -23.81 -1.29 205 204 197
-12.61 -23.89 -1.30 211 206 208
-12.62 -23.96 -1.29 211 206 208
-12.62 -24.05 -1.29 212 207 209
-12.61 -24.13 -1.30 212 207 209
-12.61 -24.21 -1.30 213 208 210
-12.60 -24.29 -1.31 213 208 210
-12.60 -24.38 -1.32 214 209 211
-12.60 -24.45 -1.32 214 209 211
-12.60 -24.53 -1.32 211 206 208
-12.60 -24.61 -1.32 211 206 208
-12.60 -24.69 -1.32 211 206 208
-12.60 -24.77 -1.32 211 206 208
-12.60 -24.85 -1.32 211 206 208
-12.60 -24.93 -1.32 211 206 208
-12.59 -25.02 -1.33 211 206 208
-12.58 -25.10 -1.35 211 206 208
-12.58 -25.18 -1.34 212 207 209
-12.58 -25.26 -1.34 212 207 209
-12.58 -25.34 -1.35 212 207 209
-12.58 -25.42 -1.35 212 207 209
-12.58 -25.50 -1.35 212 207 209
-12.58 -25.58 -1.35 212 207 209
-12.58 -25.66 -1.34 212 207 209
-12.58 -25.74 -1.35 212 207 209
-12.58 -25.82 -1.34 213 208 210
-12.58 -25.90 -1.35 213 208 210
-12.58 -25.97 -1.34 213 208 210
-12.59 -26.05 -1.34 214 209 211
-12.59 -26.13 -1.33 216 211 213
-12.59 -26.21 -1.34 216 211 213
-12.58 -26.29 -1.34 217 212 211
-12.59 -26.37 -1.33 217 212 211
-12.59 -26.45 -1.34 217 212 209
-12.58 -26.53 -1.34 217 212 209
-12.58 -26.61 -1.34 217 212 209
-12.58 -26.69 -1.34 217 212 209
-12.59 -26.77 -1.34 217 212 209
-12.58 -26.85 -1.34 217 212 209
-12.59 -26.92 -1.34 217 212 209
-12.58 -27.01 -1.34 217 212 209
-12.58 -27.09 -1.34 217 212 209
-12.58 -27.17 -1.34 217 212 209
-12.59 -27.24 -1.34 217 212 209
-12.58 -27.32 -1.34 217 212 209
-12.58 -27.41 -1.35 217 212 209
-12.58 -27.48 -1.34 217 212 209
-12.58 -27.56 -1.35 217 212 209
-12.59 -27.64 -1.34 217 212 209
-12.59 -27.72 -1.34 217 212 209
-12.59 -27.80 -1.33 217 212 209
-12.59 -27.88 -1.33 217 212 209
-12.60 -27.95 -1.32 217 212 209
-12.60 -28.03 -1.32 217 212 209
-12.60 -28.11 -1.32 217 212 209
-12.59 -28.19 -1.33 217 212 209
-12.59 -28.27 -1.33 217 212 209
-12.60 -28.35 -1.32 217 212 209
-12.60 -28.43 -1.32 217 212 209
-12.60 -28.50 -1.32 217 212 209
-12.60 -28.58 -1.31 217 212 209
-12.60 -28.66 -1.32 217 212 209
-12.60 -28.74 -1.32 217 212 209
-12.60 -28.82 -1.31 217 212 209
-12.60 -28.90 -1.31 217 212 209
-12.60 -28.98 -1.32 219 212 215
-12.60 -29.06 -1.32 219 212 215
-12.60 -29.14 -1.32 219 212 215
-12.59 -29.22 -1.33 219 212 215
-12.59 -29.30 -1.33 219 212 215
-12.59 -29.38 -1.33 220 213 216
-12.58 -29.47 -1.34 220 213 216
-12.58 -29.55 -1.35 220 213 216
-12.58 -29.63 -1.35 220 213 216
-12.58 -29.71 -1.35 220 213 216
-12.58 -29.79 -1.35 220 213 216
-12.58 -29.87 -1.35 220 213 216
-12.59 -29.94 -1.34 220 213 216
-12.59 -30.02 -1.33 220 213 216
-12.59 -30.10 -1.33 219 214 213
-12.60 -30.17 -1.32 219 214 213
-12.60 -30.25 -1.32 219 214 213
-12.60 -30.33 -1.32 219 214 213
-12.60 -30.41 -1.31 219 214 213
-12.60 -30.49 -1.31 219 214 213
-12.61 -30.56 -1.31 219 214 213
-12.61 -30.64 -1.31 219 214 213
-12.61 -30.71 -1.30 219 214 213
-12.61 -30.79 -1.30 219 214 213
-12.62 -30.86 -1.28 221 216 215
-12.63 -30.94 -1.28 221 216 215
-12.63 -31.01 -1.27 221 216 215
-12.64 -31.08 -1.26 221 216 215
-12.64 -31.16 -1.26 221 216 215
-12.65 -31.23 -1.24 221 216 215
-12.66 -31.30 -1.23 221 216 215
-12.68 -31.37 -1.21 221 216 215
-12.69 -31.44 -1.19 220 215 214
-12.72 -31.49 -1.15 223 218 217
-12.75 -31.54 -1.11 217 215 213
-12.77 -31.60 -1.08 229 227 225
-12.78 -31.67 -1.06 255 255 254
-12.83 -31.71 -1.00 251 249 247
-13.01 -31.62 -0.75 193 193 190
-13.32 -31.42 -0.32 196 196 193
-13.63 -31.22 0.12 248 248 245
-13.73 -31.20 0.26 251 251 248
-13.81 -31.21 0.36 249 251 248
-13.80 -31.29 0.35 255 255 254
-13.51 -31.63 -0.05 206 208 205
-12.92 -32.25 -0.87 208 210 207
-12.69 -32.55 -1.20 249 254 250
-12.54 -32.76 -1.39 231 236 232
-12.24 18.39 -1.95 136 130 121
-12.22 18.33 -1.97 136 130 121
-12.23 18.24 -1.96 136 130 121
-12.18 18.20 -2.02 136 130 121
-12.18 18.12 -2.02 136 130 121
-12.18 18.04 -2.02 136 130 121
-12.17 17.97 -2.04 136 130 121
-12.15 17.91 -2.07 136 130 121
-12.15 17.83 -2.07 137 131 122
-12.13 17.77 -2.10 137 131 122
-12.12 17.70 -2.12 137 131 122
-12.11 17.62 -2.12 137 131 122
-12.10 17.55 -2.14 137 131 122
-12.08 17.48 -2.16 137 131 122
-12.07 17.41 -2.18 137 131 122
-12.07 17.33 -2.18 137 131 122
-12.06 17.26 -2.19 141 132 126
-12.05 17.19 -2.20 141 132 126
-12.04 17.12 -2.23 141 132 126
-12.03 17.04 -2.24 141 132 126
-12.02 16.97 -2.25 141 132 126
-12.01 16.90 -2.26 142 133 127
-12.01 16.82 -2.27 143 134 128
-12.00 16.75 -2.28 143 134 128
-11.98 16.68 -2.30 143 134 128
-11.97 16.61 -2.32 143 134 128
-11.96 16.54 -2.33 143 134 128
-11.95 16.47 -2.35 144 135 129
-11.94 16.39 -2.36 144 135 129
-11.93 16.31 -2.37 145 136 130
-11.92 16.24 -2.38 146 137 131
-11.92 16.16 -2.38 146 137 131
-11.92 16.08 -2.39 146 137 131
-11.91 16.00 -2.40 146 137 131
-11.90 15.93 -2.42 146 137 131
-11.90 15.85 -2.42 146 137 131
-11.90 15.77 -2.41 146 137 131
-11.90 15.69 -2.42 146 137 131
-11.90 15.61 -2.42 148 139 135
-11.89 15.54 -2.43 149 140 136
-11.89 15.45 -2.43 149 139 138
-11.89 15.37 -2.43 149 139 138
-11.89 15.29 -2.43 149 139 138
-11.89 15.21 -2.43 149 139 138
-11.88 15.14 -2.44 149 139 140
-11.88 15.06 -2.45 149 139 140
-11.88 14.97 -2.45 147 141 136
-11.87 14.90 -2.45 147 141 136
-11.87 14.82 -2.46 147 141 134
-11.86 14.74 -2.47 148 142 135
-11.86 14.66 -2.47 148 142 135
-11.85 14.59 -2.48 149 143 136
-11.85 14.50 -2.48 149 143 136
-11.84 14.43 -2.50 150 144 137
-11.84 14.35 -2.50 150 144 137
-11.84 14.27 -2.50 151 145 138
-11.84 14.19 -2.50 153 147 140
-11.84 14.10 -2.50 153 147 140
-11.84 14.02 -2.50 153 147 140
-11.84 13.94 -2.50 153 147 140
-11.83 13.87 -2.51 153 147 140
-11.83 13.78 -2.51 153 147 140
-11.83 13.70 -2.51 153 147 140
-11.83 13.63 -2.52 153 147 140
-11.82 13.55 -2.53 156 147 143
-11.82 13.47 -2.53 156 147 143
-11.81 13.39 -2.55 156 147 143
-11.80 13.32 -2.55 156 147 143
-11.80 13.23 -2.55 156 147 143
-11.80 13.16 -2.56 156 147 143
-11.79 13.08 -2.57 156 147 143
-11.79 13.00 -2.58 156 147 143
-11.78 12.92 -2.58 156 147 143
-11.78 12.84 -2.58 157 148 144
-11.77 12.76 -2.59 157 148 144
-11.78 12.68 -2.59 158 149 145
-11.78 12.60 -2.58 158 149 145
-11.78 12.51 -2.58 159 150 146
-11.78 12.43 -2.58 159 150 146
-11.78 12.35 -2.58 160 151 147
-11.77 12.27 -2.59 157 153 147
-11.77 12.19 -2.59 157 153 147
-11.77 12.11 -2.59 157 153 147
-11.77 12.03 -2.59 157 153 147
-11.77 11.95 -2.60 157 153 147
-11.78 11.86 -2.59 157 153 147
-11.77 11.78 -2.60 157 153 147
-11.77 11.70 -2.59 157 153 147
-11.77 11.62 -2.60 156 152 146
-11.77 11.54 -2.60 156 152 146
-11.76 11.46 -2.61 155 151 145
-11.77 11.38 -2.60 155 151 145
-11.77 11.29 -2.60 154 150 144
-11.77 11.21 -2.60 154 150 144
-11.77 11.13 -2.60 153 149 143
-11.77 11.05 -2.60 153 149 143
-11.77 10.97 -2.60 152 151 144
-11.77 10.88 -2.60 153 152 145
-11.76 10.81 -2.61 151 150 143
-11.77 10.72 -2.60 150 149 142
-11.76 10.64 -2.61 151 150 143
-11.76 10.56 -2.61 151 150 143
-11.76 10.48 -2.62 152 151 144
-11.75 10.40 -2.62 153 152 145
-11.75 10.32 -2.62 154 153 146
-11.75 10.24 -2.63 157 156 149
-11.74 10.16 -2.64 159 155 149
-11.74 10.08 -2.64 159 155 149
-11.74 10.00 -2.65 162 158 152
-11.73 9.93 -2.66 164 160 154
-11.73 9.84 -2.65 164 163 156
-11.72 9.76 -2.66 165 164 157
-11.72 9.68 -2.66 165 164 155
-11.72 9.60 -2.67 167 166 157
-11.72 9.52 -2.67 170 166 158
-11.71 9.44 -2.68 168 164 156
-11.71 9.36 -2.69 170 166 158
-11.70 9.28 -2.69 171 167 159
-11.70 9.20 -2.70 171 167 159
-11.70 9.12 -2.69 170 166 158
-11.70 9.04 -2.70 174 170 162
-11.70 8.96 -2.70 174 170 162
-11.70 8.88 -2.70 175 171 163
-11.69 8.80 -2.71 175 171 163
-11.69 8.72 -2.71 175 171 163
-11.69 8.64 -2.72 176 172 164
-11.69 8.55 -2.71 176 172 164
-11.69 8.47 -2.72 176 172 164
-11.69 8.39 -2.71 176 170 165
-11.69 8.31 -2.71 176 170 165
-11.69 8.23 -2.72 176 170 165
-11.69 8.14 -2.72 176 170 165
-11.69 8.06 -2.72 175 171 165
-11.69 7.98 -2.71 175 171 165
-11.69 7.89 -2.71 174 173 166
-11.70 7.81 -2.70 175 174 167
-11.70 7.72 -2.69 176 175 168
-11.70 7.64 -2.69 177 176 169
-11.70 7.56 -2.69 177 176 169
-11.70 7.48 -2.70 177 176 169
-11.70 7.40 -2.69 177 176 169
-11.70 7.32 -2.70 177 176 169
-11.70 7.23 -2.70 177 176 169
-11.70 7.15 -2.70 177 176 169
-11.70 7.07 -2.70 177 175 173
-11.69 6.99 -2.71 180 178 176
-11.69 6.91 -2.71 181 179 177
-11.69 6.83 -2.71 181 179 177
-11.69 6.74 -2.71 181 179 177
-11.69 6.66 -2.71 181 179 177
-11.70 6.58 -2.70 181 179 177
-11.69 6.50 -2.71 181 179 177
-11.69 6.41 -2.71 180 180 177
-11.69 6.33 -2.71 181 181 178
-11.69 6.25 -2.71 182 182 182
-11.69 6.17 -2.71 182 182 182
-11.69 6.09 -2.72 182 182 182
-11.69 6.00 -2.71 182 182 182
-11.69 5.92 -2.71 182 182 182
-11.69 5.84 -2.72 182 182 182
-11.69 5.76 -2.72 180 180 177
-11.69 5.68 -2.72 182 182 179
-11.69 5.60 -2.72 182 182 182
-11.68 5.52 -2.72 182 182 182
-11.69 5.43 -2.71 182 182 182
-11.69 5.35 -2.72 182 182 182
-11.69 5.27 -2.71 182 182 182
-11.69 5.19 -2.72 182 182 182
-11.68 5.11 -2.73 182 182 182
-11.68 5.02 -2.72 181 181 181
-11.68 4.94 -2.73 181 181 181
-11.68 4.86 -2.73 181 181 181
-11.68 4.78 -2.73 181 181 181
-11.68 4.70 -2.73 181 181 181
-11.68 4.61 -2.72 181 181 181
-11.68 4.53 -2.72 181 181 181
-11.68 4.45 -2.72 181 181 178
-11.69 4.36 -2.72 180 180 177
-11.68 4.28 -2.72 180 180 175
-11.69 4.20 -2.72 179 179 174
-11.69 4.12 -2.72 179 179 174
-11.68 4.04 -2.72 178 178 173
-11.68 3.95 -2.72 178 178 173
-11.69 3.87 -2.72 176 176 171
-11.69 3.79 -2.72 176 176 171
-11.69 3.71 -2.72 175 175 170
-11.69 3.62 -2.72 175 175 170
-11.68 3.54 -2.72 174 174 169
-11.69 3.46 -2.72 174 174 169
-11.68 3.38 -2.73 173 173 168
-11.69 3.29 -2.71 173 173 168
-11.69 3.21 -2.71 173 173 168
-11.69 3.13 -2.71 173 173 168
-11.69 3.05 -2.71 174 174 169
-11.69 2.97 -2.71 174 174 169
-11.69 2.88 -2.71 174 174 169
-11.70 2.80 -2.70 174 174 169
-11.70 2.72 -2.70 174 174 169
-11.70 2.63 -2.70 174 174 169
-11.70 2.55 -2.70 174 174 169
-11.70 2.47 -2.70 174 174 169
-11.69 2.39 -2.71 173 173 168
-11.71 2.30 -2.69 173 173 168
-11.70 2.22 -2.70 173 173 168
-11.70 2.14 -2.69 173 173 168
-11.70 2.06 -2.70 173 173 168
-11.70 1.98 -2.69 173 173 168
-11.70 1.89 -2.70 173 173 168
-11.70 1.81 -2.70 172 173 165
-11.71 1.73 -2.69 172 173 165
-11.70 1.65 -2.70 172 173 165
-11.70 1.56 -2.69 172 173 165
-11.70 1.48 -2.69 172 173 165
-11.71 1.40 -2.68 172 173 165
-11.71 1.32 -2.68 172 173 165
-11.71 1.23 -2.68 172 173 165
-11.72 1.15 -2.67 172 173 165
-11.72 1.07 -2.67 172 173 165
-11.73 0.98 -2.66 172 173 165
-11.73 0.90 -2.66 172 173 165
-11.73 0.82 -2.66 170 173 165
-11.74 0.73 -2.65 170 173 165
-11.74 0.65 -2.64 170 173 165
-11.75 0.57 -2.63 170 173 165
-11.75 0.49 -2.63 169 171 166
-11.75 0.40 -2.63 169 171 166
-11.75 0.32 -2.63 169 171 166
-11.75 0.24 -2.62 169 171 166
-11.75 0.16 -2.62 169 171 166
-11.75 0.07 -2.62 169 171 166
-11.76 -0.01 -2.62 169 171 166
-11.76 -0.09 -2.61 169 171 166
-11.76 -0.17 -2.61 169 171 166
-11.76 -0.26 -2.61 169 171 166
-11.76 -0.34 -2.61 169 171 166
-11.77 -0.42 -2.60 169 171 166
-11.77 -0.50 -2.60 169 171 166
-11.77 -0.59 -2.60 169 171 166
-11.77 -0.67 -2.59 169 171 166
-11.77 -0.75 -2.59 169 171 166
-11.78 -0.83 -2.59 169 171 168
-11.78 -0.92 -2.58 169 171 168
-11.79 -1.00 -2.58 169 171 168
-11.79 -1.08 -2.57 169 171 168
-11.80 -1.17 -2.56 169 171 168
-11.80 -1.25 -2.55 169 171 168
-11.80 -1.33 -2.55 169 171 168
-11.81 -1.41 -2.54 170 172 169
-11.81 -1.50 -2.54 170 172 169
-11.81 -1.58 -2.54 170 172 169
-11.81 -1.66 -2.54 170 172 169
-11.81 -1.74 -2.54 170 172 169
-11.82 -1.83 -2.52 170 172 169
-11.81 -1.91 -2.54 170 172 169
-11.82 -1.99 -2.53 168 173 172
-11.82 -2.07 -2.53 169 174 173
-11.82 -2.15 -2.53 169 174 173
-11.82 -2.23 -2.53 169 174 173
-11.82 -2.32 -2.53 169 174 173
-11.82 -2.40 -2.53 169 174 173
-11.81 -2.48 -2.54 169 174 173
-11.81 -2.56 -2.54 169 174 173
-11.82 -2.64 -2.53 169 174 173
-11.82 -2.72 -2.53 170 175 174
-11.81 -2.81 -2.54 170 175 174
-11.81 -2.89 -2.54 170 175 174
-11.81 -2.97 -2.54 170 175 174
-11.81 -3.05 -2.54 170 175 174
-11.81 -3.13 -2.54 170 175 174
-11.81 -3.21 -2.54 170 175 174
-11.82 -3.30 -2.53 170 175 171
-11.82 -3.38 -2.53 170 175 171
-11.82 -3.46 -2.53 170 175 171
-11.83 -3.54 -2.52 170 175 171
-11.83 -3.63 -2.52 170 175 171
-11.84 -3.71 -2.51 170 175 171
-11.83 -3.79 -2.51 170 175 171
-11.84 -3.87 -2.50 170 175 171
-11.84 -3.95 -2.50 170 175 171
-11.85 -4.04 -2.49 170 175 171
-11.85 -4.12 -2.49 171 176 172
-11.85 -4.20 -2.49 171 176 172
-11.85 -4.28 -2.48 171 176 172
-11.85 -4.36 -2.48 171 176 172
-11.86 -4.45 -2.47 171 176 172
-11.86 -4.53 -2.47 171 176 172
-11.85 -4.61 -2.48 171 176 172
-11.85 -4.69 -2.48 171 176 172
-11.85 -4.77 -2.49 176 178 178
-11.84 -4.85 -2.50 176 178 178
-11.83 -4.93 -2.51 176 178 178
-11.83 -5.02 -2.51 176 178 178
-11.83 -5.10 -2.51 176 178 178
-11.83 -5.18 -2.51 176 178 178
-11.83 -5.26 -2.52 176 178 178
-11.82 -5.34 -2.53 176 178 178
-11.81 -5.42 -2.54 174 176 176
-11.81 -5.50 -2.55 174 176 176
-11.80 -5.59 -2.56 174 176 176
-11.80 -5.67 -2.55 174 176 176
-11.80 -5.75 -2.56 174 176 176
-11.79 -5.83 -2.58 174 176 176
-11.79 -5.91 -2.58 174 176 176
-11.79 -5.99 -2.57 174 176 176
-11.79 -6.08 -2.58 168 174 165
-11.79 -6.16 -2.57 168 174 165
-11.79 -6.24 -2.58 169 174 168
-11.80 -6.32 -2.56 176 181 175
-11.81 -6.40 -2.55 176 181 175
-11.81 -6.49 -2.54 176 181 175
-11.80 -6.57 -2.56 178 183 179
-11.80 -6.65 -2.55 163 168 164
-11.98 -6.74 -2.30 168 173 169
-12.34 -6.82 -1.81 221 226 222
-12.55 -6.91 -1.52 247 252 251
-12.60 -6.99 -1.44 246 251 250
-12.60 -7.07 -1.44 251 255 255
-12.60 -7.15 -1.44 242 247 246
-12.61 -7.23 -1.43 245 249 251
-12.61 -7.31 -1.43 252 255 255
-12.60 -7.39 -1.44 246 253 248
-12.59 -7.47 -1.45 246 253 248
-12.60 -7.55 -1.44 246 253 248
-12.60 -7.62 -1.44 246 253 248
-12.58 -7.70 -1.47 246 253 248
-12.57 -7.78 -1.48 246 253 248
-12.55 -7.86 -1.51 246 253 248
-12.55 -7.94 -1.51 246 253 248
-12.54 -8.02 -1.52 246 253 248
-12.53 -8.10 -1.54 246 253 248
-12.52 -8.18 -1.55 246 253 248
-12.51 -8.26 -1.57 246 253 248
-12.51 -8.34 -1.57 246 253 248
-12.50 -8.42 -1.58 246 253 248
-12.49 -8.50 -1.60 246 253 248
-12.49 -8.58 -1.60 246 253 248
-12.48 -8.66 -1.60 246 253 251
-12.48 -8.74 -1.60 246 253 251
-12.48 -8.82 -1.61 246 253 251
-12.48 -8.90 -1.61 246 253 251
-12.47 -8.98 -1.62 246 253 251
-12.47 -9.06 -1.62 246 253 251
-12.48 -9.14 -1.61 246 253 251
-12.47 -9.22 -1.63 246 253 251
-12.47 -9.30 -1.63 246 253 251
-12.47 -9.38 -1.63 246 253 251
-12.47 -9.46 -1.63 246 253 251
-12.47 -9.54 -1.62 246 253 251
-12.47 -9.62 -1.62 246 253 251
-12.48 -9.70 -1.61 246 253 251
-12.48 -9.78 -1.61 246 253 251
-12.49 -9.86 -1.60 246 253 251
-12.48 -9.94 -1.61 246 253 251
-12.48 -10.02 -1.60 246 253 251
-12.48 -10.10 -1.60 246 253 251
-12.48 -10.18 -1.60 246 253 251
-12.48 -10.26 -1.61 246 253 251
-12.49 -10.34 -1.60 246 253 251
-12.49 -10.42 -1.60 246 253 251
-12.49 -10.50 -1.59 246 253 251
-12.49 -10.58 -1.59 246 253 251
-12.49 -10.66 -1.59 246 253 251
-12.50 -10.74 -1.58 246 253 251
-12.50 -10.82 -1.58 246 253 251
-12.49 -10.90 -1.59 246 253 251
-12.50 -10.98 -1.58 246 253 251
-12.50 -11.06 -1.58 246 253 251
-12.50 -11.14 -1.58 246 253 251
-12.50 -11.22 -1.57 246 253 251
-12.51 -11.29 -1.56 246 253 251
-12.50 -11.38 -1.57 246 253 251
-12.49 -11.46 -1.59 246 253 251
-12.49 -11.54 -1.59 246 253 251
-12.49 -11.62 -1.60 246 253 251
-12.48 -11.70 -1.60 246 253 251
-12.48 -11.78 -1.60 246 253 251
-12.48 -11.86 -1.60 246 253 251
-12.48 -11.94 -1.61 246 253 251
-12.48 -12.02 -1.61 246 253 251
-12.47 -12.10 -1.62 246 253 251
-12.48 -12.18 -1.61 246 253 251
-12.48 -12.26 -1.61 246 253 251
-12.48 -12.34 -1.61 246 253 251
-12.48 -12.42 -1.61 246 253 251
-12.48 -12.50 -1.60 246 253 251
-12.48 -12.58 -1.61 246 253 251
-12.48 -12.66 -1.61 246 253 251
-12.48 -12.74 -1.61 246 253 251
-12.48 -12.82 -1.61 246 253 251
-12.48 -12.90 -1.60 246 253 251
-12.49 -12.97 -1.60 246 253 251
-12.49 -13.05 -1.60 246 253 251
-12.48 -13.14 -1.61 245 252 250
-12.49 -13.21 -1.60 245 252 250
-12.48 -13.29 -1.60 245 252 250
-12.49 -13.37 -1.60 245 252 250
-12.49 -13.45 -1.59 245 252 250
-12.50 -13.53 -1.57 245 252 250
-12.52 -13.60 -1.55 245 252 250
-12.53 -13.68 -1.53 245 252 250
-12.56 -13.76 -1.50 241 248 246
-12.58 -13.83 -1.47 244 251 249
-12.60 -13.91 -1.44 247 252 251
-12.61 -13.98 -1.43 248 253 252
-12.61 -14.06 -1.43 245 250 249
-12.60 -14.14 -1.44 242 247 246
-12.56 -14.23 -1.50 247 249 249
-12.46 -14.34 -1.64 253 255 255
-12.32 -14.45 -1.83 243 245 245
-12.20 -14.57 -2.00 241 243 243
-12.09 -14.67 -2.15 228 228 228
-12.02 -14.77 -2.24 203 203 203
-11.96 -14.87 -2.33 187 187 187
-11.94 -14.96 -2.36 187 187 187
-11.94 -15.04 -2.36 195 193 194
-11.93 -15.12 -2.37 197 195 196
-11.93 -15.21 -2.37 197 199 196
-11.93 -15.29 -2.37 195 197 194
-11.94 -15.37 -2.36 195 197 194
-11.94 -15.45 -2.36 194 196 193
-11.95 -15.52 -2.34 194 196 193
-11.96 -15.61 -2.34 193 195 192
-11.97 -15.68 -2.32 193 195 192
-11.96 -15.77 -2.33 192 194 191
-11.96 -15.85 -2.33 195 197 194
-11.97 -15.93 -2.31 195 197 194
-11.97 -16.01 -2.32 195 197 194
-11.97 -16.09 -2.32 195 197 194
-11.97 -16.17 -2.32 195 197 194
-11.96 -16.26 -2.33 195 197 194
-11.96 -16.34 -2.34 195 197 194
-11.96 -16.42 -2.34 195 197 194
-11.96 -16.50 -2.34 195 197 194
-11.96 -16.58 -2.34 195 197 194
-11.96 -16.66 -2.34 195 197 194
-11.95 -16.75 -2.35 195 197 194
-11.95 -16.83 -2.35 195 197 194
-11.95 -16.91 -2.35 195 197 194
-11.95 -16.99 -2.34 195 197 194
-11.96 -17.07 -2.34 195 197 194
-11.96 -17.15 -2.34 197 199 196
-11.96 -17.23 -2.33 197 199 196
