ply
format ascii 1.0
element vertex 1565
property float x
property float y
property float z
property uchar red
property uchar green
property uchar blue
end_header
-9.53 -1.95 -3.32 171 173 168
-9.53 -2.04 -3.31 171 173 173
-9.53 -2.13 -3.31 171 173 173
-9.53 -2.21 -3.31 171 173 173
-9.53 -2.30 -3.31 171 173 173
-9.53 -2.38 -3.32 171 173 173
-9.53 -2.47 -3.32 171 173 173
-9.53 -2.56 -3.31 171 173 173
-9.53 -2.64 -3.31 171 173 173
-9.53 -2.73 -3.31 172 174 174
-9.53 -2.82 -3.31 172 174 174
-9.54 -2.90 -3.30 172 174 174
-9.54 -2.99 -3.31 172 174 174
-9.54 -3.08 -3.30 172 174 174
-9.54 -3.16 -3.30 172 174 174
-9.55 -3.25 -3.29 172 177 171
-9.54 -3.34 -3.30 172 177 171
-9.55 -3.42 -3.29 172 177 171
-9.55 -3.51 -3.29 172 177 171
-9.55 -3.59 -3.29 172 177 171
-9.55 -3.68 -3.28 172 177 171
-9.55 -3.77 -3.29 172 177 171
-9.56 -3.85 -3.28 172 177 171
-9.55 -3.94 -3.29 172 177 171
-9.56 -4.03 -3.28 172 177 171
-9.56 -4.11 -3.28 172 177 171
-9.56 -4.20 -3.28 172 177 171
-9.56 -4.28 -3.28 172 177 171
-9.55 -4.37 -3.29 172 177 171
-9.56 -4.46 -3.28 171 178 171
-9.56 -4.54 -3.28 171 178 171
-9.56 -4.63 -3.27 173 180 175
-9.56 -4.72 -3.28 173 180 175
-9.56 -4.80 -3.28 173 180 175
-9.55 -4.89 -3.28 173 180 175
-9.55 -4.97 -3.29 173 180 175
-9.56 -5.06 -3.28 173 180 175
-9.56 -5.15 -3.27 173 180 175
-9.56 -5.23 -3.27 173 180 175
-9.55 -5.32 -3.28 173 180 175
-9.56 -5.40 -3.28 173 180 175
-9.56 -5.49 -3.28 173 180 175
-9.56 -5.58 -3.28 173 180 175
-9.56 -5.66 -3.28 173 180 175
-9.56 -5.75 -3.28 173 180 175
-9.56 -5.84 -3.28 173 181 171
-9.55 -5.92 -3.29 173 181 171
-9.55 -6.01 -3.29 175 180 176
-9.54 -6.09 -3.30 175 180 176
-9.53 -6.18 -3.31 175 180 176
-9.53 -6.26 -3.32 175 180 176
-9.52 -6.35 -3.33 175 180 176
-9.52 -6.44 -3.33 175 180 176
-9.51 -6.52 -3.35 175 180 176
-9.49 -6.61 -3.37 175 180 176
-9.48 -6.69 -3.38 174 179 175
-9.47 -6.78 -3.39 174 179 175
-9.47 -6.87 -3.40 175 180 176
-9.46 -6.95 -3.41 175 180 176
-9.45 -7.04 -3.42 176 181 177
-9.45 -7.13 -3.42 176 181 177
-9.45 -7.21 -3.42 177 182 178
-9.45 -7.30 -3.42 177 182 178
-9.44 -7.39 -3.44 174 179 178
-9.43 -7.47 -3.44 178 183 182
-9.42 -7.56 -3.46 178 183 182
-9.39 -7.65 -3.50 182 187 186
-9.35 -7.73 -3.55 175 180 179
-9.42 -7.82 -3.46 156 161 160
-9.82 -7.90 -2.94 192 197 196
-10.17 -7.98 -2.48 240 245 244
-10.23 -8.06 -2.39 241 246 245
-10.23 -8.14 -2.39 242 247 246
-10.25 -8.23 -2.37 244 249 248
-10.27 -8.31 -2.34 245 250 249
-10.29 -8.39 -2.32 246 251 250
-10.30 -8.48 -2.31 247 252 251
-10.30 -8.56 -2.30 247 252 251
-10.30 -8.65 -2.30 248 253 252
-10.30 -8.73 -2.30 246 253 251
-10.30 -8.81 -2.30 246 253 251
-10.28 -8.90 -2.33 246 253 251
-10.28 -8.98 -2.33 246 253 251
-10.27 -9.07 -2.34 246 253 251
-10.26 -9.15 -2.36 246 253 251
-10.26 -9.24 -2.36 246 253 251
-10.26 -9.32 -2.36 246 253 251
-10.25 -9.41 -2.36 246 253 251
-10.24 -9.49 -2.38 246 253 251
-10.23 -9.58 -2.39 246 253 251
-10.23 -9.66 -2.40 246 253 251
-10.23 -9.74 -2.39 246 253 251
-10.24 -9.83 -2.38 246 253 251
-10.24 -9.91 -2.38 246 253 251
-10.24 -10.00 -2.38 246 253 251
-10.24 -10.08 -2.38 246 253 251
-10.24 -10.16 -2.38 246 253 251
-10.25 -10.25 -2.37 246 253 251
-10.25 -10.33 -2.37 246 253 251
-10.25 -10.42 -2.36 246 253 251
-10.25 -10.50 -2.36 246 253 251
-10.25 -10.58 -2.37 246 253 251
-10.25 -10.67 -2.37 246 253 251
-10.25 -10.75 -2.37 246 253 251
-10.25 -10.84 -2.37 246 253 251
-10.25 -10.92 -2.37 246 253 251
-10.24 -11.01 -2.38 246 253 251
-10.24 -11.09 -2.38 246 253 251
-10.24 -11.17 -2.38 246 253 251
-10.24 -11.26 -2.38 246 253 251
-10.24 -11.34 -2.39 246 253 251
-10.24 -11.43 -2.39 247 252 251
-10.21 -11.52 -2.42 248 253 252
-10.21 -11.60 -2.42 249 254 253
-10.20 -11.69 -2.43 249 254 253
-10.18 -11.77 -2.46 249 254 253
-10.17 -11.86 -2.47 249 254 253
-10.17 -11.94 -2.47 251 255 255
-10.16 -12.03 -2.49 252 255 255
-10.10 -12.12 -2.57 241 246 245
-9.98 -12.23 -2.72 228 233 232
-9.79 -12.34 -2.97 210 215 214
-9.61 -12.46 -3.21 191 196 195
-9.44 -12.57 -3.43 183 188 187
-9.42 -12.66 -3.47 184 189 188
-9.43 -12.75 -3.45 188 193 192
-9.44 -12.83 -3.43 190 195 194
-9.46 -12.92 -3.41 191 193 190
-9.45 -13.01 -3.43 192 194 191
-9.46 -13.09 -3.41 193 195 192
-9.45 -13.18 -3.42 192 194 191
-9.46 -13.26 -3.41 190 192 189
-9.46 -13.35 -3.41 188 190 187
-9.46 -13.43 -3.41 187 189 186
-9.46 -13.52 -3.41 188 190 187
-9.46 -13.61 -3.41 191 193 190
-9.46 -13.69 -3.41 190 192 189
-9.46 -13.78 -3.40 186 188 185
-9.46 -13.87 -3.41 183 185 182
-9.46 -13.95 -3.41 178 180 177
-9.46 -14.04 -3.41 173 175 172
-9.46 -14.13 -3.41 171 173 170
-9.45 -14.22 -3.43 169 171 168
-9.44 -14.30 -3.43 171 174 166
-9.44 -14.39 -3.43 170 173 165
-9.43 -14.48 -3.45 170 173 165
-9.43 -14.57 -3.45 170 173 165
-9.42 -14.66 -3.47 172 175 167
-9.41 -14.74 -3.48 176 179 171
-9.40 -14.83 -3.48 180 183 175
-9.39 -14.92 -3.50 183 186 178
-9.39 -15.01 -3.50 186 189 181
-9.38 -15.10 -3.52 181 184 176
-9.37 -15.19 -3.53 174 177 169
-9.36 -15.27 -3.53 169 172 164
-9.37 -15.36 -3.52 165 168 160
-9.36 -15.45 -3.54 166 169 161
-9.36 -15.54 -3.54 169 172 164
-9.35 -15.62 -3.55 170 173 165
-9.35 -15.71 -3.56 165 167 162
-9.34 -15.80 -3.57 166 168 163
-9.33 -15.89 -3.58 169 171 166
-9.33 -15.98 -3.58 170 172 167
-9.32 -16.07 -3.59 169 171 166
-9.31 -16.16 -3.60 165 167 162
-9.31 -16.24 -3.61 162 164 159
-9.31 -16.33 -3.61 158 160 155
-9.30 -16.42 -3.61 159 161 156
-9.29 -16.51 -3.63 158 160 155
-9.28 -16.60 -3.64 158 160 155
-9.28 -16.69 -3.65 161 163 158
-9.27 -16.78 -3.66 165 167 162
-9.26 -16.87 -3.67 171 173 168
-9.24 -16.96 -3.69 177 179 174
-9.23 -17.05 -3.71 181 183 178
-9.22 -17.14 -3.73 186 188 185
-9.19 -17.24 -3.76 183 185 182
-9.18 -17.33 -3.77 178 180 177
-9.17 -17.42 -3.79 170 172 169
-9.17 -17.51 -3.79 157 159 156
-9.17 -17.59 -3.79 144 146 143
-9.16 -17.68 -3.80 141 143 140
-9.16 -17.77 -3.81 144 146 143
-9.16 -17.86 -3.80 144 146 143
-9.17 -17.94 -3.79 156 158 155
-9.18 -18.02 -3.77 170 172 169
-9.20 -18.11 -3.75 170 172 169
-9.23 -18.18 -3.72 148 150 147
-9.26 -18.26 -3.68 108 110 107
-9.29 -18.33 -3.63 71 73 70
-9.33 -18.41 -3.59 51 53 50
-9.36 -18.48 -3.54 45 45 42
-9.41 -18.55 -3.48 40 40 37
-9.45 -18.62 -3.42 43 43 40
-9.51 -18.69 -3.35 53 53 50
-9.55 -18.76 -3.29 60 60 57
-9.60 -18.83 -3.22 59 59 56
-9.66 -18.89 -3.15 59 59 56
-9.70 -18.96 -3.09 64 64 61
-9.75 -19.03 -3.03 48 48 45
-9.78 -19.10 -2.98 34 34 31
-9.83 -19.16 -2.92 32 32 29
-9.87 -19.23 -2.86 41 41 38
-9.91 -19.31 -2.82 73 73 70
-9.94 -19.38 -2.77 107 107 104
-9.98 -19.45 -2.72 147 147 144
-10.03 -19.51 -2.66 173 173 170
-10.06 -19.58 -2.62 198 203 202
-10.09 -19.65 -2.57 207 212 211
-10.12 -19.73 -2.53 218 220 217
-10.16 -19.80 -2.49 213 215 212
-10.19 -19.87 -2.44 214 216 213
-10.23 -19.94 -2.40 202 204 201
-10.26 -20.01 -2.36 207 207 202
-10.29 -20.08 -2.32 199 199 194
-10.31 -20.15 -2.28 190 190 185
-10.34 -20.22 -2.24 179 179 174
-10.36 -20.30 -2.22 172 171 164
-10.40 -20.37 -2.18 165 164 157
-10.42 -20.44 -2.15 151 150 143
-10.44 -20.52 -2.12 134 133 126
-10.45 -20.60 -2.11 121 117 109
-10.46 -20.67 -2.09 108 104 96
-10.48 -20.75 -2.06 94 90 69
-10.51 -20.82 -2.03 112 108 87
-10.55 -20.88 -1.98 112 110 90
-10.56 -20.96 -1.96 107 105 85
-10.64 -21.01 -1.86 72 70 66
-10.88 -20.98 -1.54 20 18 14
-11.18 -20.92 -1.14 29 26 41
-11.50 -20.85 -0.72 39 36 51
-11.70 -20.83 -0.46 48 51 73
-11.78 -20.88 -0.36 57 60 82
-11.83 -20.93 -0.29 29 32 68
-11.80 -21.02 -0.32 23 26 62
-11.82 -21.09 -0.30 68 72 116
-11.80 -21.18 -0.32 64 68 112
-11.80 -21.26 -0.32 31 37 77
-11.80 -21.34 -0.33 12 18 58
-11.87 -21.39 -0.24 14 13 59
-11.86 -21.47 -0.24 0 0 43
-11.43 -21.77 -0.82 43 42 77
-10.65 -22.25 -1.85 135 134 169
-10.30 -22.51 -2.31 214 215 234
-10.33 -22.58 -2.27 223 224 243
-10.33 -22.66 -2.27 214 215 220
-10.30 -22.76 -2.30 205 206 211
-10.29 -22.85 -2.31 207 209 206
-10.27 -22.95 -2.34 207 209 206
-10.27 -23.03 -2.34 206 206 203
-10.27 -23.11 -2.34 208 208 205
-10.28 -23.19 -2.33 214 214 211
-10.29 -23.27 -2.31 211 211 208
-10.31 -23.34 -2.29 209 207 208
-10.32 -23.43 -2.28 215 213 214
-10.32 -23.51 -2.27 211 211 208
-10.32 -23.59 -2.28 211 211 208
-10.32 -23.67 -2.27 213 213 210
-10.32 -23.76 -2.28 213 213 210
-10.33 -23.84 -2.26 214 214 211
-10.34 -23.92 -2.25 214 214 211
-10.35 -23.99 -2.24 215 215 212
-10.36 -24.08 -2.23 215 215 212
-10.37 -24.15 -2.21 214 214 211
-10.38 -24.23 -2.20 214 214 211
-10.39 -24.31 -2.19 214 214 211
-10.39 -24.39 -2.18 214 214 211
-10.41 -24.47 -2.16 214 214 211
-10.41 -24.55 -2.16 214 214 211
-10.42 -24.62 -2.14 215 213 214
-10.42 -24.71 -2.14 216 214 215
-10.43 -24.79 -2.13 219 214 216
-10.43 -24.87 -2.13 219 214 216
-10.43 -24.95 -2.13 219 214 216
-10.43 -25.03 -2.13 219 214 216
-10.43 -25.12 -2.12 219 214 216
-10.44 -25.20 -2.12 219 214 216
-10.44 -25.28 -2.12 219 214 216
-10.44 -25.37 -2.12 218 213 215
-10.44 -25.45 -2.12 218 213 215
-10.44 -25.53 -2.12 218 213 215
-10.44 -25.62 -2.12 218 213 215
-10.44 -25.70 -2.12 218 213 215
-10.44 -25.79 -2.12 218 213 215
-10.44 -25.87 -2.12 218 213 215
-10.44 -25.95 -2.12 218 213 215
-10.43 -26.04 -2.13 218 213 215
-10.43 -26.12 -2.13 219 214 216
-10.43 -26.21 -2.13 219 214 216
-10.43 -26.29 -2.13 219 214 216
-10.43 -26.38 -2.13 219 214 216
-10.43 -26.46 -2.13 219 214 216
-10.43 -26.54 -2.13 219 214 216
-10.43 -26.63 -2.13 219 214 216
-10.43 -26.71 -2.13 219 214 216
-10.43 -26.79 -2.13 218 213 215
-10.43 -26.88 -2.13 218 213 215
-10.43 -26.96 -2.13 218 213 215
-10.43 -27.05 -2.14 218 213 215
-10.43 -27.13 -2.13 218 213 215
-10.43 -27.21 -2.13 218 213 215
-10.43 -27.29 -2.13 218 213 215
-10.43 -27.38 -2.13 220 215 217
-10.43 -27.46 -2.13 223 218 220
-10.43 -27.55 -2.13 223 218 220
-10.43 -27.63 -2.13 223 218 220
-10.43 -27.71 -2.13 223 218 220
-10.43 -27.80 -2.13 223 218 220
-10.43 -27.88 -2.12 223 218 220
-10.44 -27.96 -2.12 223 218 220
-10.43 -28.05 -2.13 223 218 220
-10.43 -28.13 -2.12 223 218 220
-10.44 -28.21 -2.12 223 218 220
-10.43 -28.30 -2.13 223 218 220
-10.43 -28.38 -2.13 223 218 220
-10.43 -28.47 -2.13 223 218 220
-10.43 -28.55 -2.13 223 218 220
-10.43 -28.63 -2.13 223 218 217
-10.42 -28.72 -2.14 223 218 217
-10.42 -28.81 -2.14 223 218 217
-10.42 -28.89 -2.15 223 218 217
-10.42 -28.98 -2.15 223 218 215
-10.41 -29.06 -2.15 223 218 215
-10.42 -29.15 -2.15 223 218 215
-10.41 -29.23 -2.16 223 218 215
-10.41 -29.32 -2.15 223 218 215
-10.41 -29.40 -2.16 223 218 215
-10.41 -29.49 -2.16 224 219 216
-10.41 -29.57 -2.16 224 219 216
-10.42 -29.65 -2.15 224 219 216
-10.41 -29.73 -2.15 224 219 216
-10.42 -29.82 -2.15 224 219 216
-10.42 -29.90 -2.15 224 219 216
-10.42 -29.98 -2.15 224 219 216
-10.42 -30.06 -2.14 224 219 216
-10.42 -30.15 -2.14 224 219 216
-10.43 -30.23 -2.13 224 219 216
-10.43 -30.31 -2.14 224 219 216
-10.43 -30.39 -2.13 224 219 216
-10.43 -30.47 -2.12 224 219 216
-10.43 -30.56 -2.13 224 219 216
-10.44 -30.64 -2.12 224 219 216
-10.44 -30.72 -2.12 225 220 217
-10.44 -30.80 -2.12 226 221 218
-10.44 -30.88 -2.11 226 221 218
-10.45 -30.96 -2.11 226 221 218
-10.45 -31.04 -2.11 226 221 218
-10.46 -31.12 -2.10 226 221 218
-10.45 -31.21 -2.10 226 221 218
-10.45 -31.29 -2.10 226 221 218
-10.46 -31.37 -2.09 227 222 219
-10.45 -31.46 -2.10 226 221 218
-10.45 -31.54 -2.10 227 222 219
-10.45 -31.63 -2.10 228 223 220
-10.45 -31.71 -2.10 228 223 220
-10.45 -31.80 -2.10 228 223 220
-10.44 -31.88 -2.11 228 223 220
-10.45 -31.97 -2.11 228 223 220
-10.45 -32.04 -2.10 228 223 220
-10.45 -32.13 -2.11 228 223 220
-10.46 -32.21 -2.09 230 225 222
-10.46 -32.29 -2.09 230 225 222
-10.46 -32.37 -2.09 230 225 222
-10.46 -32.46 -2.09 230 225 222
-10.47 -32.54 -2.08 230 225 222
-10.47 -32.62 -2.08 230 225 222
-10.47 -32.70 -2.08 230 225 222
-10.46 -32.79 -2.09 230 225 222
-10.47 -32.86 -2.08 230 225 222
-10.47 -32.95 -2.07 228 226 222
-10.49 -33.02 -2.06 228 226 222
-10.49 -33.10 -2.05 228 226 222
-10.50 -33.17 -2.04 228 226 222
-10.53 -33.23 -2.00 228 226 222
-10.57 -33.28 -1.95 228 226 222
-10.57 -33.36 -1.94 231 226 223
-10.52 -33.49 -2.01 230 225 222
-10.51 -33.58 -2.03 226 216 215
-10.55 -33.63 -1.97 221 211 210
-10.74 -33.54 -1.73 243 229 229
-10.13 19.70 -2.66 139 130 122
-10.10 19.64 -2.70 139 130 122
-10.10 19.55 -2.70 139 130 122
-10.06 19.50 -2.75 139 130 122
-10.07 19.41 -2.74 139 130 122
-10.08 19.32 -2.72 139 130 122
-10.05 19.26 -2.76 139 130 122
-10.04 19.18 -2.77 139 130 122
-10.05 19.09 -2.76 139 130 122
-10.03 19.02 -2.78 141 132 124
-10.03 18.94 -2.78 142 133 125
-10.02 18.86 -2.80 142 133 125
-10.01 18.78 -2.81 142 133 125
-10.01 18.70 -2.82 142 133 125
-10.00 18.63 -2.83 142 133 125
-9.98 18.55 -2.85 142 133 125
-9.98 18.47 -2.85 144 133 126
-9.97 18.40 -2.87 144 133 126
-9.96 18.31 -2.87 144 133 126
-9.96 18.23 -2.88 144 133 126
-9.95 18.15 -2.89 144 133 126
-9.96 18.06 -2.88 145 134 127
-9.96 17.98 -2.88 145 134 127
-9.95 17.90 -2.90 146 135 128
-9.94 17.83 -2.91 146 135 128
-9.93 17.75 -2.92 147 136 129
-9.92 17.67 -2.93 147 136 129
-9.92 17.59 -2.94 149 138 131
-9.91 17.51 -2.95 144 138 131
-9.90 17.43 -2.95 144 138 131
-9.89 17.35 -2.97 144 138 131
-9.88 17.27 -2.98 144 138 131
-9.88 17.19 -2.99 144 138 131
-9.87 17.11 -2.99 144 138 131
-9.87 17.03 -3.00 144 138 131
-9.86 16.95 -3.01 144 138 131
-9.85 16.87 -3.02 146 140 133
-9.85 16.79 -3.03 147 141 134
-9.84 16.71 -3.04 147 141 134
-9.84 16.63 -3.04 147 141 134
-9.83 16.55 -3.05 147 141 134
-9.82 16.47 -3.06 147 141 134
-9.82 16.39 -3.07 147 141 134
-9.81 16.31 -3.07 147 141 134
-9.81 16.22 -3.07 150 141 133
-9.81 16.14 -3.08 151 142 134
-9.80 16.06 -3.09 151 142 134
-9.79 15.98 -3.10 151 142 134
-9.78 15.90 -3.11 149 143 136
-9.79 15.81 -3.11 149 143 136
-9.78 15.73 -3.12 149 143 136
-9.78 15.65 -3.12 149 143 136
-9.77 15.57 -3.13 149 143 136
-9.76 15.49 -3.14 149 143 136
-9.76 15.40 -3.14 149 143 136
-9.76 15.32 -3.15 149 143 136
-9.75 15.24 -3.15 148 142 135
-9.74 15.16 -3.17 148 142 135
-9.74 15.08 -3.17 147 141 134
-9.73 15.00 -3.19 146 140 133
-9.73 14.91 -3.18 143 137 130
-9.73 14.83 -3.18 142 136 129
-9.72 14.75 -3.19 141 135 128
-9.72 14.66 -3.20 141 135 128
-9.71 14.59 -3.21 139 135 129
-9.71 14.50 -3.21 136 132 126
-9.70 14.42 -3.22 136 132 126
-9.70 14.34 -3.22 136 132 126
-9.69 14.25 -3.23 136 132 126
-9.69 14.17 -3.23 135 131 125
-9.69 14.08 -3.23 135 131 125
-9.69 14.00 -3.23 135 131 125
-9.69 13.91 -3.24 136 132 126
-9.69 13.83 -3.24 136 132 126
-9.68 13.75 -3.24 136 132 126
-9.68 13.66 -3.24 136 132 126
-9.68 13.57 -3.24 135 131 125
-9.69 13.49 -3.24 135 131 125
-9.69 13.40 -3.24 135 131 125
-9.69 13.31 -3.24 136 132 126
-9.69 13.23 -3.24 133 132 125
-9.69 13.14 -3.23 134 133 126
-9.69 13.06 -3.24 136 135 128
-9.68 12.97 -3.24 137 136 129
-9.69 12.88 -3.24 138 137 130
-9.68 12.80 -3.25 139 138 131
-9.68 12.72 -3.25 141 140 133
-9.67 12.64 -3.26 145 144 137
-9.67 12.55 -3.26 147 146 139
-9.67 12.47 -3.27 150 149 142
-9.66 12.39 -3.27 153 152 145
-9.67 12.30 -3.27 155 154 147
-9.66 12.22 -3.28 157 156 149
-9.65 12.13 -3.29 157 156 149
-9.65 12.05 -3.29 160 156 148
-9.65 11.96 -3.29 161 157 149
-9.65 11.88 -3.29 161 157 149
-9.65 11.79 -3.29 162 158 150
-9.64 11.71 -3.30 162 158 150
-9.64 11.62 -3.30 163 159 151
-9.64 11.54 -3.30 163 159 151
-9.64 11.45 -3.30 164 160 152
-9.64 11.37 -3.30 164 160 152
-9.64 11.28 -3.30 166 162 154
-9.64 11.20 -3.31 167 163 155
-9.63 11.11 -3.31 167 163 155
-9.64 11.02 -3.30 167 163 155
-9.64 10.93 -3.30 167 163 155
-9.64 10.85 -3.30 167 163 155
-9.64 10.76 -3.30 167 163 155
-9.63 10.68 -3.31 167 163 155
-9.63 10.60 -3.31 167 163 155
-9.63 10.51 -3.31 164 160 152
-9.63 10.43 -3.32 166 162 154
-9.63 10.34 -3.32 165 164 155
-9.62 10.26 -3.32 166 165 156
-9.63 10.17 -3.32 164 163 152
-9.62 10.09 -3.33 162 161 150
-9.62 10.00 -3.33 167 163 153
-9.62 9.92 -3.33 168 164 154
-9.62 9.83 -3.33 169 165 155
-9.61 9.75 -3.34 170 166 156
-9.61 9.66 -3.34 170 166 156
-9.61 9.58 -3.34 171 167 157
-9.61 9.49 -3.35 169 168 157
-9.61 9.41 -3.35 171 170 159
-9.60 9.32 -3.35 172 171 160
-9.61 9.23 -3.34 172 171 160
-9.60 9.15 -3.35 171 172 162
-9.61 9.06 -3.35 171 172 162
-9.60 8.98 -3.35 171 172 162
-9.60 8.89 -3.35 171 172 162
-9.61 8.80 -3.34 171 172 162
-9.61 8.72 -3.34 171 172 162
-9.61 8.63 -3.34 171 172 162
-9.61 8.55 -3.34 171 172 162
-9.61 8.46 -3.34 171 172 162
-9.60 8.38 -3.35 172 173 163
-9.61 8.29 -3.35 172 173 163
-9.61 8.20 -3.35 172 173 163
-9.60 8.12 -3.35 172 173 163
-9.61 8.03 -3.34 172 173 163
-9.61 7.94 -3.35 172 173 163
-9.61 7.86 -3.35 172 173 163
-9.60 7.77 -3.35 172 173 161
-9.61 7.69 -3.35 173 174 162
-9.61 7.60 -3.34 174 175 163
-9.61 7.51 -3.34 175 176 164
-9.61 7.43 -3.34 176 177 165
-9.60 7.34 -3.36 176 177 165
-9.60 7.26 -3.35 176 177 165
-9.60 7.17 -3.36 176 177 165
-9.60 7.09 -3.36 176 177 165
-9.61 7.00 -3.34 176 177 165
-9.60 6.91 -3.35 176 177 165
-9.60 6.82 -3.35 176 177 165
-9.60 6.74 -3.35 178 179 169
-9.60 6.65 -3.35 178 179 169
-9.60 6.57 -3.35 178 179 169
-9.61 6.48 -3.34 178 179 169
-9.61 6.39 -3.34 178 178 173
-9.60 6.31 -3.36 178 178 173
-9.60 6.22 -3.35 178 178 173
-9.59 6.14 -3.36 178 178 173
-9.59 6.05 -3.36 178 178 173
-9.59 5.97 -3.36 178 178 173
-9.59 5.88 -3.37 178 178 173
-9.59 5.80 -3.37 178 178 173
-9.59 5.71 -3.37 178 178 173
-9.59 5.62 -3.37 178 178 173
-9.59 5.54 -3.37 178 178 173
-9.59 5.46 -3.37 178 178 173
-9.59 5.37 -3.37 178 178 173
-9.58 5.28 -3.38 178 178 173
-9.58 5.20 -3.38 178 178 173
-9.58 5.11 -3.38 178 178 173
-9.58 5.03 -3.38 178 178 173
-9.58 4.94 -3.38 178 178 173
-9.58 4.85 -3.38 178 178 173
-9.59 4.76 -3.37 178 178 173
-9.59 4.68 -3.37 178 178 173
-9.59 4.59 -3.36 178 178 173
-9.60 4.50 -3.36 178 178 173
-9.60 4.42 -3.36 178 178 173
-9.60 4.33 -3.36 178 178 173
-9.60 4.24 -3.35 178 178 173
-9.61 4.15 -3.35 178 178 173
-9.60 4.07 -3.35 178 178 173
-9.61 3.98 -3.34 178 178 173
-9.61 3.90 -3.35 176 176 171
-9.60 3.81 -3.35 176 176 171
-9.61 3.72 -3.35 176 176 171
-9.61 3.64 -3.34 174 175 167
-9.61 3.55 -3.34 174 175 167
-9.61 3.46 -3.34 174 175 167
-9.62 3.38 -3.33 174 175 167
-9.62 3.29 -3.33 174 175 167
-9.62 3.20 -3.32 174 175 167
-9.62 3.12 -3.33 174 175 167
-9.62 3.03 -3.32 173 174 166
-9.62 2.94 -3.33 173 174 166
-9.62 2.86 -3.33 173 174 166
-9.61 2.77 -3.34 173 174 166
-9.61 2.69 -3.34 173 174 166
-9.62 2.60 -3.33 173 174 166
-9.61 2.52 -3.34 173 174 166
-9.61 2.43 -3.34 171 174 166
-9.61 2.35 -3.34 171 174 166
-9.61 2.26 -3.34 170 173 161
-9.61 2.17 -3.34 170 173 161
-9.61 2.09 -3.34 170 173 163
-9.61 2.00 -3.34 170 173 163
-9.61 1.91 -3.34 170 173 163
-9.61 1.83 -3.34 170 173 163
-9.62 1.74 -3.33 170 173 165
-9.62 1.65 -3.33 170 173 165
-9.62 1.57 -3.33 170 173 165
-9.62 1.48 -3.33 170 173 165
-9.62 1.39 -3.33 170 172 167
-9.62 1.31 -3.33 170 172 167
-9.62 1.22 -3.33 170 172 167
-9.62 1.14 -3.33 170 172 167
-9.63 1.05 -3.32 170 172 169
-9.63 0.96 -3.32 170 172 169
-9.63 0.88 -3.32 170 173 165
-9.63 0.79 -3.31 170 173 165
-9.63 0.70 -3.31 170 173 165
-9.64 0.61 -3.30 170 173 165
-9.65 0.53 -3.29 170 173 165
-9.64 0.44 -3.30 170 173 165
-9.65 0.35 -3.28 170 173 165
-9.65 0.27 -3.29 170 173 165
-9.65 0.18 -3.29 170 173 165
-9.65 0.10 -3.29 170 173 165
-9.65 0.01 -3.28 170 173 165
-9.65 -0.08 -3.29 170 173 165
-9.65 -0.16 -3.29 170 173 165
-9.65 -0.25 -3.29 170 173 165
-9.65 -0.33 -3.29 170 173 165
-9.66 -0.42 -3.28 170 173 165
-9.65 -0.51 -3.28 170 173 163
-9.66 -0.59 -3.28 170 173 163
-9.65 -0.68 -3.29 170 173 165
-9.66 -0.77 -3.28 170 173 165
-9.66 -0.85 -3.28 170 173 165
-9.66 -0.94 -3.27 170 173 165
-9.66 -1.02 -3.27 170 172 167
-9.66 -1.11 -3.27 170 172 167
-9.66 -1.20 -3.27 170 172 167
-9.66 -1.28 -3.27 170 172 167
-9.66 -1.37 -3.27 170 172 169
-9.66 -1.45 -3.28 170 172 169
-9.66 -1.54 -3.28 170 172 169
-9.65 -1.62 -3.28 170 172 169
-9.65 -1.71 -3.29 170 172 172
-9.65 -1.80 -3.29 170 172 172
-9.65 -1.88 -3.29 171 173 168
-9.64 -1.97 -3.30 171 173 168
-9.64 -2.05 -3.30 171 173 173
-9.65 -2.14 -3.29 171 173 173
-9.65 -2.23 -3.29 171 173 173
-9.65 -2.31 -3.29 171 173 173
-9.65 -2.40 -3.29 171 173 173
-9.65 -2.48 -3.28 171 173 173
-9.65 -2.57 -3.29 171 173 173
-9.65 -2.66 -3.29 171 173 173
-9.65 -2.74 -3.28 171 173 173
-9.65 -2.83 -3.28 171 173 173
-9.65 -2.91 -3.28 171 173 173
-9.65 -3.00 -3.28 171 173 173
-9.66 -3.09 -3.27 171 173 173
-9.66 -3.17 -3.28 171 173 173
-9.67 -3.26 -3.27 172 177 171
-9.67 -3.35 -3.27 172 177 171
-9.67 -3.43 -3.27 172 177 171
-9.67 -3.52 -3.26 172 177 171
-9.67 -3.60 -3.26 172 177 171
-9.67 -3.69 -3.26 172 177 171
-9.67 -3.78 -3.26 172 177 171
-9.67 -3.86 -3.26 172 177 171
-9.67 -3.95 -3.26 172 177 171
-9.68 -4.04 -3.25 172 177 171
-9.68 -4.12 -3.25 172 177 171
-9.68 -4.21 -3.24 172 177 171
-9.68 -4.29 -3.25 172 177 171
-9.68 -4.38 -3.25 172 177 171
-9.68 -4.46 -3.25 171 178 171
-9.68 -4.55 -3.25 171 178 171
-9.68 -4.64 -3.25 173 180 175
-9.68 -4.72 -3.25 173 180 175
-9.68 -4.81 -3.25 173 180 175
-9.68 -4.89 -3.25 173 180 175
-9.68 -4.98 -3.24 173 180 175
-9.69 -5.07 -3.24 173 180 175
-9.69 -5.15 -3.24 173 180 175
-9.69 -5.24 -3.24 173 180 175
-9.68 -5.32 -3.25 173 180 175
-9.68 -5.41 -3.25 173 180 175
-9.68 -5.50 -3.24 173 180 175
-9.69 -5.58 -3.24 173 180 175
-9.68 -5.67 -3.24 173 180 175
-9.69 -5.75 -3.24 173 180 175
-9.68 -5.84 -3.25 173 181 171
-9.68 -5.93 -3.25 173 181 171
-9.67 -6.01 -3.26 175 180 176
-9.67 -6.10 -3.27 175 180 176
-9.66 -6.18 -3.27 175 180 176
-9.66 -6.27 -3.28 175 180 176
-9.65 -6.35 -3.29 175 180 176
-9.64 -6.44 -3.30 175 180 176
-9.63 -6.53 -3.32 175 180 176
-9.62 -6.61 -3.33 175 180 176
-9.61 -6.70 -3.34 174 179 175
-9.59 -6.78 -3.37 174 179 175
-9.58 -6.87 -3.38 175 180 176
-9.57 -6.95 -3.39 175 180 176
-9.56 -7.04 -3.40 176 181 177
-9.57 -7.13 -3.40 176 181 177
-9.56 -7.21 -3.41 177 182 178
-9.56 -7.30 -3.40 177 182 178
-9.55 -7.39 -3.42 176 181 180
-9.56 -7.47 -3.41 178 183 182
-9.54 -7.56 -3.43 177 182 181
-9.50 -7.64 -3.48 171 176 175
-9.50 -7.73 -3.49 168 173 172
-9.71 -7.81 -3.22 174 179 178
-10.14 -7.89 -2.64 234 239 238
-10.35 -7.97 -2.36 244 249 248
-10.36 -8.06 -2.35 244 249 248
-10.37 -8.14 -2.33 244 249 248
-10.38 -8.23 -2.33 245 250 249
-10.39 -8.31 -2.31 245 250 249
-10.41 -8.39 -2.29 246 251 250
-10.41 -8.48 -2.28 247 252 251
-10.42 -8.56 -2.27 247 252 251
-10.42 -8.64 -2.27 248 253 252
-10.41 -8.73 -2.28 246 253 251
-10.41 -8.81 -2.28 246 253 251
-10.40 -8.90 -2.30 246 253 251
-10.39 -8.98 -2.31 246 253 251
-10.38 -9.06 -2.32 246 253 251
-10.37 -9.15 -2.34 246 253 251
-10.36 -9.23 -2.35 246 253 251
-10.36 -9.32 -2.34 246 253 251
-10.36 -9.40 -2.35 246 253 251
-10.35 -9.49 -2.37 246 253 251
-10.34 -9.57 -2.37 246 253 251
-10.34 -9.66 -2.38 246 253 251
-10.34 -9.74 -2.38 246 253 251
-10.34 -9.82 -2.38 246 253 251
-10.34 -9.91 -2.38 246 253 251
-10.34 -9.99 -2.37 246 253 251
-10.35 -10.07 -2.36 246 253 251
-10.35 -10.16 -2.36 246 253 251
-10.35 -10.24 -2.36 246 253 251
-10.35 -10.33 -2.36 246 253 251
-10.36 -10.41 -2.35 246 253 251
-10.36 -10.49 -2.35 246 253 251
-10.36 -10.58 -2.35 246 253 251
-10.36 -10.66 -2.35 246 253 251
-10.37 -10.74 -2.34 246 253 251
-10.36 -10.83 -2.34 246 253 251
-10.36 -10.91 -2.34 246 253 251
-10.37 -11.00 -2.34 246 253 251
-10.37 -11.08 -2.34 246 253 251
-10.36 -11.16 -2.35 246 253 251
-10.36 -11.25 -2.36 246 253 251
-10.35 -11.33 -2.37 246 253 251
-10.34 -11.42 -2.37 248 253 252
-10.32 -11.51 -2.40 249 254 253
-10.32 -11.59 -2.40 251 255 255
-10.32 -11.67 -2.40 248 253 252
-10.32 -11.76 -2.40 246 251 250
-10.31 -11.84 -2.41 246 251 250
-10.30 -11.93 -2.43 248 253 252
-10.29 -12.02 -2.44 252 255 255
-10.26 -12.10 -2.48 244 249 248
-10.25 -12.19 -2.50 253 255 255
-10.18 -12.29 -2.59 249 254 253
-10.00 -12.40 -2.83 223 228 227
-9.78 -12.52 -3.11 195 200 199
-9.63 -12.64 -3.32 183 188 187
-9.57 -12.73 -3.39 184 189 188
-9.55 -12.82 -3.41 186 191 190
-9.56 -12.91 -3.41 193 195 192
-9.57 -12.99 -3.40 192 194 191
-9.58 -13.08 -3.39 190 192 189
-9.57 -13.16 -3.39 188 190 187
-9.59 -13.25 -3.37 188 190 187
-9.59 -13.33 -3.37 190 192 189
-9.58 -13.42 -3.38 191 193 190
-9.58 -13.51 -3.38 192 194 191
-9.59 -13.59 -3.37 192 194 191
-9.59 -13.68 -3.36 191 193 190
-9.60 -13.76 -3.36 188 190 187
-9.60 -13.85 -3.35 186 188 185
-9.60 -13.93 -3.36 183 185 182
-9.59 -14.02 -3.36 180 182 179
-9.59 -14.11 -3.37 178 180 177
-9.58 -14.20 -3.38 177 179 176
-9.58 -14.28 -3.38 174 177 169
-9.57 -14.37 -3.39 173 176 168
-9.57 -14.46 -3.40 172 175 167
-9.56 -14.54 -3.41 172 175 167
-9.55 -14.63 -3.42 176 179 171
-9.55 -14.72 -3.42 180 183 175
-9.54 -14.81 -3.43 186 189 181
-9.53 -14.90 -3.45 190 193 185
-9.53 -14.98 -3.45 188 191 183
-9.52 -15.07 -3.46 187 190 182
-9.51 -15.16 -3.47 185 188 180
-9.50 -15.25 -3.48 183 186 178
-9.50 -15.34 -3.49 180 183 175
-9.50 -15.42 -3.49 177 180 172
-9.49 -15.51 -3.49 176 179 171
-9.49 -15.60 -3.50 174 177 169
-9.49 -15.69 -3.50 166 168 163
-9.48 -15.77 -3.52 168 170 165
-9.48 -15.86 -3.52 169 171 166
-9.47 -15.95 -3.53 170 172 167
-9.46 -16.04 -3.54 170 172 167
-9.45 -16.13 -3.55 168 170 165
-9.45 -16.22 -3.56 165 167 162
-9.44 -16.31 -3.57 164 166 161
-9.44 -16.39 -3.57 163 165 160
-9.43 -16.48 -3.58 161 163 158
-9.43 -16.57 -3.58 158 160 155
-9.43 -16.65 -3.58 156 158 153
-9.41 -16.75 -3.60 156 158 153
-9.39 -16.84 -3.63 158 160 155
-9.39 -16.93 -3.63 162 164 159
-9.38 -17.02 -3.65 163 165 160
-9.36 -17.11 -3.67 163 165 162
-9.35 -17.20 -3.68 173 175 172
-9.34 -17.29 -3.70 184 186 183
-9.31 -17.39 -3.73 187 189 186
-9.31 -17.47 -3.74 186 188 185
-9.30 -17.56 -3.74 178 180 177
-9.30 -17.65 -3.75 164 166 163
-9.29 -17.74 -3.77 152 154 151
-9.29 -17.83 -3.76 145 147 144
-9.29 -17.91 -3.76 137 139 136
-9.30 -18.00 -3.74 136 138 135
-9.30 -18.09 -3.75 149 151 148
-9.32 -18.17 -3.72 165 167 164
-9.33 -18.25 -3.71 171 173 170
-9.35 -18.33 -3.68 163 165 162
-9.38 -18.41 -3.65 151 153 150
-9.40 -18.48 -3.62 107 107 104
-9.43 -18.56 -3.58 80 80 77
-9.47 -18.63 -3.53 54 54 51
-9.52 -18.70 -3.46 41 41 38
-9.56 -18.77 -3.41 37 37 34
-9.60 -18.84 -3.36 44 44 41
-9.65 -18.91 -3.29 52 52 49
-9.70 -18.98 -3.23 54 54 51
-9.75 -19.04 -3.16 66 66 63
-9.80 -19.11 -3.09 65 65 62
-9.85 -19.17 -3.02 65 65 62
-9.90 -19.24 -2.96 48 48 45
-9.95 -19.31 -2.89 37 37 34
-9.98 -19.38 -2.85 29 29 26
-10.02 -19.45 -2.80 45 45 42
-10.07 -19.51 -2.73 60 60 57
-10.11 -19.58 -2.69 94 99 98
-10.14 -19.65 -2.64 120 125 124
-10.17 -19.72 -2.60 165 167 164
-10.21 -19.79 -2.55 187 189 186
-10.25 -19.86 -2.50 212 214 211
-10.28 -19.93 -2.45 209 211 208
-10.32 -20.00 -2.40 215 215 210
-10.36 -20.07 -2.35 206 206 201
-10.38 -20.14 -2.33 193 193 188
-10.41 -20.21 -2.29 185 185 180
-10.43 -20.29 -2.26 183 182 175
-10.46 -20.36 -2.22 183 182 175
-10.47 -20.43 -2.20 177 176 169
-10.49 -20.51 -2.18 166 165 158
-10.51 -20.59 -2.15 150 146 138
-10.53 -20.66 -2.13 134 130 122
-10.55 -20.73 -2.10 100 96 75
-10.58 -20.80 -2.05 92 88 67
-10.63 -20.87 -2.00 108 106 86
-10.64 -20.94 -1.98 120 118 98
-10.73 -20.98 -1.86 91 89 85
-10.96 -20.96 -1.55 30 28 24
-11.29 -20.88 -1.12 24 21 36
-11.60 -20.82 -0.71 23 20 35
-11.83 -20.79 -0.41 28 31 53
-11.92 -20.83 -0.29 42 45 67
-11.95 -20.89 -0.26 33 36 72
-11.92 -20.99 -0.30 29 32 68
-11.92 -21.06 -0.29 59 63 107
-11.92 -21.15 -0.30 61 65 109
-11.94 -21.22 -0.27 45 51 91
-11.93 -21.30 -0.27 21 27 67
-11.93 -21.38 -0.27 24 23 69
-12.02 -21.41 -0.16 14 13 59
-12.00 -21.50 -0.19 0 0 34
-11.48 -21.84 -0.87 25 24 59
-10.72 -22.31 -1.87 124 125 144
-10.43 -22.55 -2.26 212 213 232
-10.46 -22.62 -2.22 237 238 243
-10.47 -22.70 -2.21 219 220 225
-10.44 -22.80 -2.25 209 211 208
-10.42 -22.89 -2.27 209 211 208
-10.40 -22.98 -2.30 209 209 206
-10.39 -23.07 -2.31 207 207 204
-10.39 -23.16 -2.31 208 208 205
-10.40 -23.24 -2.30 209 209 206
-10.40 -23.32 -2.29 211 209 210
-10.42 -23.39 -2.28 211 209 210
-10.42 -23.47 -2.27 210 210 207
-10.43 -23.56 -2.26 211 211 208
-10.44 -23.63 -2.25 211 211 208
-10.44 -23.72 -2.24 213 213 210
-10.45 -23.80 -2.23 213 213 210
-10.46 -23.87 -2.21 214 214 211
-10.47 -23.95 -2.20 214 214 211
-10.49 -24.02 -2.18 214 214 211
-10.49 -24.10 -2.18 214 214 211
-10.51 -24.18 -2.15 214 214 211
-10.51 -24.26 -2.15 214 214 211
-10.52 -24.34 -2.14 214 214 211
-10.53 -24.42 -2.13 214 214 211
-10.54 -24.50 -2.12 214 214 211
-10.55 -24.57 -2.10 215 213 214
-10.54 -24.66 -2.11 215 213 214
-10.55 -24.74 -2.10 218 213 215
-10.55 -24.82 -2.09 218 213 215
-10.56 -24.90 -2.09 218 213 215
-10.55 -24.99 -2.10 218 213 215
-10.56 -25.07 -2.09 218 213 215
-10.56 -25.15 -2.09 218 213 215
-10.56 -25.23 -2.09 218 213 215
-10.56 -25.32 -2.09 218 213 215
-10.55 -25.41 -2.10 218 213 215
-10.55 -25.49 -2.09 218 213 215
-10.55 -25.57 -2.10 218 213 215
-10.56 -25.65 -2.09 218 213 215
-10.56 -25.74 -2.09 218 213 215
-10.55 -25.83 -2.10 218 213 215
-10.55 -25.91 -2.10 218 213 215
-10.55 -25.99 -2.10 218 213 215
-10.55 -26.07 -2.10 219 214 216
-10.55 -26.16 -2.10 219 214 216
-10.54 -26.24 -2.11 219 214 216
-10.55 -26.32 -2.09 219 214 216
-10.55 -26.41 -2.09 219 214 216
-10.55 -26.49 -2.10 219 214 216
-10.55 -26.57 -2.10 219 214 216
-10.56 -26.65 -2.09 218 213 215
-10.55 -26.74 -2.10 218 213 215
-10.55 -26.82 -2.09 218 213 215
-10.55 -26.91 -2.09 218 213 215
-10.55 -26.99 -2.09 218 213 215
-10.55 -27.07 -2.09 218 213 215
-10.54 -27.16 -2.11 218 213 215
-10.55 -27.24 -2.10 218 213 215
-10.55 -27.32 -2.10 220 215 217
-10.55 -27.41 -2.10 223 218 220
-10.55 -27.49 -2.10 223 218 220
-10.55 -27.57 -2.10 223 218 220
-10.55 -27.66 -2.10 223 218 220
-10.55 -27.74 -2.10 223 218 220
-10.55 -27.83 -2.10 223 218 220
-10.55 -27.91 -2.10 223 218 220
-10.55 -27.99 -2.09 223 218 220
-10.55 -28.08 -2.10 223 218 220
-10.55 -28.16 -2.10 223 218 220
-10.54 -28.25 -2.11 223 218 220
-10.54 -28.33 -2.11 223 218 220
-10.55 -28.41 -2.10 223 218 220
-10.54 -28.50 -2.11 223 218 220
-10.54 -28.58 -2.11 223 218 217
-10.54 -28.67 -2.11 223 218 217
-10.54 -28.75 -2.12 223 218 217
-10.54 -28.84 -2.12 223 218 217
-10.54 -28.92 -2.12 223 218 215
-10.54 -29.00 -2.12 223 218 215
-10.54 -29.09 -2.12 223 218 215
-10.54 -29.17 -2.12 223 218 215
-10.53 -29.26 -2.12 223 218 215
-10.53 -29.34 -2.13 223 218 215
-10.53 -29.42 -2.12 224 219 216
-10.53 -29.51 -2.13 224 219 216
-10.53 -29.59 -2.12 224 219 216
-10.53 -29.68 -2.12 224 219 216
-10.53 -29.76 -2.12 224 219 216
-10.53 -29.84 -2.12 224 219 216
-10.53 -29.93 -2.12 224 219 216
-10.54 -30.00 -2.11 224 219 216
-10.54 -30.09 -2.11 224 219 216
-10.55 -30.16 -2.10 224 219 216
-10.54 -30.25 -2.11 224 219 216
-10.54 -30.33 -2.11 224 219 216
-10.55 -30.42 -2.10 224 219 216
-10.55 -30.49 -2.10 224 219 216
-10.56 -30.58 -2.09 224 219 216
-10.55 -30.66 -2.09 225 220 217
-10.56 -30.74 -2.09 226 221 218
-10.56 -30.82 -2.08 226 221 218
-10.57 -30.90 -2.07 226 221 218
-10.57 -30.98 -2.07 226 221 218
-10.57 -31.06 -2.07 226 221 218
-10.58 -31.14 -2.06 226 221 218
-10.57 -31.23 -2.07 226 221 218
-10.58 -31.31 -2.07 227 222 219
-10.57 -31.39 -2.07 226 221 218
-10.57 -31.48 -2.07 227 222 219
-10.57 -31.56 -2.07 228 223 220
-10.57 -31.65 -2.07 228 223 220
-10.57 -31.73 -2.08 228 223 220
-10.56 -31.82 -2.08 228 223 220
-10.56 -31.90 -2.08 228 223 220
-10.56 -31.99 -2.08 228 223 220
-10.58 -32.06 -2.07 228 223 220
-10.58 -32.14 -2.06 228 223 220
-10.58 -32.22 -2.06 230 225 222
-10.58 -32.31 -2.06 230 225 222
-10.58 -32.39 -2.06 230 225 222
-10.58 -32.47 -2.06 230 225 222
-10.59 -32.55 -2.05 230 225 222
-10.59 -32.63 -2.05 230 225 222
-10.59 -32.72 -2.05 230 225 222
-10.59 -32.80 -2.05 230 225 222
-10.59 -32.88 -2.05 228 226 222
-10.60 -32.95 -2.03 228 226 222
-10.62 -33.02 -2.01 228 226 222
-10.65 -33.08 -1.97 228 226 222
-10.68 -33.13 -1.93 228 226 222
-10.73 -33.17 -1.86 228 226 222
-10.71 -33.27 -1.88 231 226 223
-10.66 -33.40 -1.95 228 223 220
-10.64 -33.50 -1.98 223 213 212
-10.66 -33.57 -1.96 222 212 211
-10.92 -33.41 -1.61 246 232 232
-10.27 19.61 -2.60 139 130 122
-10.24 19.55 -2.64 139 130 122
-10.24 19.47 -2.64 139 130 122
-10.21 19.41 -2.68 139 130 122
-10.20 19.33 -2.69 139 130 122
-10.21 19.24 -2.67 139 130 122
-10.19 19.17 -2.71 139 130 122
-10.18 19.09 -2.71 139 130 122
-10.19 19.00 -2.70 139 130 122
-10.18 18.92 -2.71 141 132 124
-10.17 18.85 -2.72 142 133 125
-10.17 18.76 -2.73 142 133 125
-10.16 18.69 -2.74 142 133 125
-10.15 18.61 -2.75 142 133 125
-10.15 18.53 -2.75 142 133 125
-10.14 18.45 -2.76 142 133 125
-10.13 18.38 -2.78 144 133 126
-10.12 18.30 -2.80 144 133 126
-10.12 18.22 -2.80 144 133 126
-10.11 18.14 -2.80 144 133 126
-10.11 18.06 -2.81 144 133 126
-10.10 17.98 -2.82 145 134 127
-10.09 17.90 -2.83 145 134 127
-10.09 17.82 -2.84 146 135 128
-10.08 17.74 -2.85 146 135 128
-10.07 17.66 -2.86 147 136 129
-10.07 17.58 -2.87 147 136 129
-10.05 17.51 -2.88 149 138 131
-10.05 17.43 -2.89 144 138 131
-10.04 17.35 -2.90 144 138 131
-10.03 17.27 -2.91 144 138 131
-10.03 17.19 -2.92 144 138 131
-10.02 17.11 -2.93 144 138 131
-10.01 17.03 -2.94 144 138 131
-10.00 16.95 -2.95 144 138 131
-10.00 16.87 -2.96 144 138 131
-10.00 16.79 -2.96 146 140 133
-9.98 16.72 -2.98 147 141 134
-9.98 16.63 -2.98 147 141 134
-9.97 16.56 -3.00 147 141 134
-9.97 16.47 -3.00 147 141 134
-9.96 16.39 -3.00 147 141 134
-9.96 16.31 -3.01 147 141 134
-9.95 16.23 -3.02 147 141 134
-9.95 16.15 -3.02 150 141 133
-9.95 16.06 -3.02 151 142 134
-9.94 15.99 -3.04 151 142 134
-9.93 15.91 -3.05 151 142 134
-9.93 15.82 -3.05 149 143 136
-9.93 15.74 -3.05 149 143 136
-9.91 15.66 -3.07 149 143 136
-9.91 15.58 -3.08 149 143 136
-9.91 15.50 -3.08 149 143 136
-9.90 15.42 -3.09 149 143 136
-9.90 15.33 -3.09 149 143 136
-9.89 15.26 -3.11 149 143 136
-9.88 15.18 -3.11 149 143 136
-9.87 15.10 -3.13 149 143 136
-9.87 15.01 -3.13 148 142 135
-9.87 14.93 -3.13 147 141 134
-9.86 14.85 -3.14 147 141 134
-9.86 14.76 -3.14 146 140 133
-9.86 14.68 -3.14 144 138 131
-9.86 14.59 -3.14 144 138 131
-9.85 14.52 -3.16 140 136 130
-9.85 14.43 -3.16 139 135 129
-9.84 14.35 -3.17 139 135 129
-9.84 14.27 -3.17 139 135 129
-9.83 14.18 -3.17 139 135 129
-9.83 14.10 -3.18 139 135 129
-9.83 14.02 -3.18 139 135 129
-9.83 13.93 -3.18 139 135 129
-9.82 13.85 -3.19 139 135 129
-9.82 13.76 -3.19 139 135 129
-9.82 13.68 -3.20 139 135 129
-9.81 13.60 -3.20 139 135 129
-9.82 13.51 -3.20 139 135 129
-9.81 13.43 -3.20 135 131 125
-9.82 13.34 -3.20 136 132 126
-9.82 13.25 -3.19 139 135 129
-9.82 13.17 -3.19 133 132 123
-9.83 13.08 -3.19 134 133 124
-9.82 12.99 -3.19 136 135 126
-9.82 12.91 -3.19 137 136 127
-9.82 12.83 -3.20 138 137 128
-9.81 12.74 -3.20 139 138 129
-9.81 12.66 -3.20 141 140 131
-9.81 12.57 -3.21 145 144 135
-9.81 12.49 -3.21 147 146 137
-9.80 12.41 -3.22 150 149 140
-9.80 12.32 -3.22 152 151 142
-9.80 12.24 -3.22 155 154 145
-9.80 12.15 -3.22 157 156 145
-9.79 12.07 -3.23 157 156 145
-9.79 11.99 -3.24 159 155 145
-9.79 11.90 -3.23 160 156 146
-9.78 11.82 -3.25 161 157 149
-9.78 11.73 -3.24 162 158 150
-9.78 11.65 -3.25 162 158 150
-9.78 11.57 -3.25 163 159 151
-9.77 11.48 -3.25 163 159 151
-9.78 11.40 -3.25 164 160 152
-9.77 11.31 -3.26 164 160 152
-9.78 11.22 -3.25 166 162 154
-9.77 11.14 -3.26 167 163 155
-9.77 11.05 -3.26 167 163 155
-9.77 10.97 -3.26 167 163 155
-9.78 10.88 -3.25 167 163 155
-9.77 10.80 -3.26 167 163 155
-9.77 10.71 -3.25 167 163 155
-9.77 10.63 -3.26 167 163 155
-9.77 10.54 -3.26 167 163 155
-9.77 10.46 -3.26 164 160 152
-9.76 10.37 -3.27 166 162 154
-9.76 10.29 -3.27 165 164 155
-9.76 10.20 -3.27 166 165 156
-9.76 10.12 -3.28 167 163 153
-9.75 10.04 -3.28 166 162 152
-9.75 9.95 -3.29 167 163 153
-9.75 9.87 -3.29 168 164 154
-9.75 9.78 -3.29 169 165 155
-9.75 9.70 -3.29 170 166 156
-9.75 9.61 -3.28 170 166 156
-9.75 9.52 -3.29 171 167 157
-9.75 9.44 -3.29 171 167 157
-9.75 9.35 -3.29 173 169 159
-9.74 9.27 -3.30 172 171 162
-9.74 9.19 -3.30 172 171 162
-9.74 9.10 -3.30 172 171 162
-9.75 9.01 -3.29 172 171 162
-9.75 8.92 -3.29 171 172 162
-9.74 8.84 -3.30 171 172 162
-9.75 8.75 -3.29 171 172 162
-9.75 8.67 -3.29 171 172 162
-9.75 8.58 -3.29 171 172 162
-9.75 8.50 -3.29 171 172 162
-9.74 8.41 -3.30 171 172 162
-9.74 8.33 -3.30 172 173 163
-9.74 8.24 -3.29 172 173 163
-9.74 8.15 -3.30 172 173 163
-9.74 8.07 -3.30 172 173 163
-9.74 7.98 -3.30 172 173 163
-9.74 7.90 -3.30 172 173 165
-9.74 7.81 -3.30 172 173 165
-9.74 7.73 -3.30 172 173 161
-9.75 7.64 -3.29 173 174 162
-9.74 7.55 -3.30 174 175 163
-9.74 7.47 -3.30 175 176 164
-9.74 7.38 -3.30 176 177 165
-9.73 7.30 -3.31 176 177 165
-9.74 7.21 -3.30 176 177 165
-9.74 7.13 -3.30 176 177 165
-9.74 7.04 -3.30 176 177 165
-9.74 6.95 -3.30 176 177 165
-9.74 6.87 -3.30 176 177 165
-9.74 6.78 -3.30 176 177 165
-9.74 6.70 -3.30 178 179 169
-9.74 6.61 -3.30 178 179 169
-9.74 6.52 -3.30 178 179 169
-9.74 6.44 -3.30 178 179 169
-9.74 6.35 -3.30 178 178 173
-9.73 6.27 -3.31 178 178 173
-9.73 6.18 -3.31 178 178 173
-9.73 6.10 -3.31 178 178 173
-9.73 6.01 -3.32 178 178 173
-9.73 5.93 -3.32 178 178 173
-9.73 5.84 -3.32 178 178 173
-9.73 5.75 -3.31 178 178 173
-9.73 5.67 -3.32 178 178 173
-9.73 5.58 -3.32 178 178 173
-9.73 5.50 -3.32 178 178 173
-9.72 5.42 -3.32 178 178 173
-9.72 5.33 -3.32 178 178 173
-9.72 5.24 -3.32 178 178 173
-9.71 5.16 -3.33 178 178 173
-9.72 5.07 -3.32 178 178 173
-9.71 4.99 -3.33 178 178 173
-9.72 4.90 -3.33 178 178 173
-9.72 4.81 -3.33 178 178 173
-9.73 4.73 -3.32 178 178 173
-9.72 4.64 -3.32 178 178 173
-9.73 4.55 -3.31 178 178 173
-9.73 4.47 -3.31 178 178 173
-9.74 4.38 -3.30 178 178 173
-9.74 4.29 -3.30 178 178 173
-9.74 4.20 -3.30 178 178 173
-9.74 4.12 -3.29 178 178 173
-9.74 4.03 -3.29 178 178 173
-9.75 3.95 -3.29 178 178 173
-9.74 3.86 -3.30 176 176 171
-9.75 3.77 -3.29 176 176 171
-9.74 3.69 -3.30 176 176 171
-9.74 3.60 -3.30 174 175 167
-9.75 3.52 -3.29 174 175 167
-9.75 3.43 -3.28 174 175 167
-9.75 3.34 -3.29 174 175 167
-9.75 3.26 -3.28 174 175 167
-9.76 3.17 -3.28 174 175 167
-9.76 3.08 -3.27 174 175 167
-9.76 3.00 -3.27 173 174 166
-9.76 2.91 -3.27 173 174 166
-9.76 2.83 -3.28 173 174 166
-9.75 2.74 -3.28 173 174 166
-9.76 2.65 -3.28 173 174 166
-9.76 2.57 -3.28 173 174 166
-9.75 2.49 -3.29 173 174 166
-9.75 2.40 -3.29 171 174 166
-9.75 2.31 -3.29 171 174 166
-9.74 2.23 -3.29 170 173 161
-9.75 2.14 -3.29 170 173 161
-9.74 2.06 -3.30 170 173 163
-9.75 1.97 -3.29 170 173 163
-9.75 1.89 -3.29 170 173 163
-9.76 1.80 -3.28 170 173 163
-9.75 1.71 -3.29 170 173 165
-9.75 1.63 -3.28 170 173 165
-9.75 1.54 -3.28 170 173 165
-9.75 1.45 -3.28 170 173 165
-9.76 1.37 -3.27 170 172 167
-9.76 1.28 -3.28 170 172 167
-9.76 1.20 -3.28 170 172 167
-9.76 1.11 -3.28 170 172 167
-9.76 1.02 -3.27 170 172 169
-9.76 0.94 -3.27 170 172 169
-9.77 0.85 -3.26 170 173 165
-9.77 0.76 -3.26 170 173 165
-9.77 0.68 -3.25 170 173 165
-9.77 0.59 -3.25 170 173 165
-9.78 0.50 -3.25 170 173 165
-9.78 0.42 -3.25 170 173 165
-9.79 0.33 -3.24 170 173 165
-9.79 0.24 -3.24 170 173 165
-9.79 0.16 -3.24 170 173 165
-9.79 0.07 -3.23 170 173 165
-9.78 -0.01 -3.25 170 173 165
-9.79 -0.10 -3.23 170 173 165
-9.79 -0.18 -3.24 170 173 165
-9.79 -0.27 -3.23 170 173 165
-9.79 -0.36 -3.24 170 173 165
-9.79 -0.44 -3.23 170 173 165
-9.79 -0.53 -3.23 170 173 163
-9.79 -0.62 -3.23 170 173 163
-9.79 -0.70 -3.23 170 173 165
-9.79 -0.79 -3.23 170 173 165
-9.79 -0.87 -3.23 170 173 165
-9.80 -0.96 -3.22 170 173 165
-9.80 -1.04 -3.22 170 172 167
-9.80 -1.13 -3.21 170 172 167
-9.80 -1.22 -3.22 170 172 167
-9.81 -1.30 -3.21 170 172 167
-9.80 -1.39 -3.21 170 172 169
-9.80 -1.47 -3.22 170 172 169
-9.80 -1.56 -3.22 170 172 169
-9.79 -1.64 -3.23 170 172 169
-9.79 -1.73 -3.23 170 172 172
-9.79 -1.81 -3.23 170 172 172
-9.79 -1.90 -3.23 171 173 168
-9.79 -1.99 -3.23 171 173 168
-9.78 -2.07 -3.24 171 173 173
-9.79 -2.16 -3.23 171 173 173
-9.79 -2.24 -3.23 171 173 173
-9.79 -2.33 -3.23 171 173 173
-9.79 -2.41 -3.23 171 173 173
-9.79 -2.50 -3.23 171 173 173
-9.79 -2.59 -3.23 171 173 173
-9.80 -2.67 -3.22 171 173 173
-9.80 -2.76 -3.22 171 173 173
-9.79 -2.84 -3.23 171 173 173
-9.80 -2.93 -3.22 171 173 173
-9.80 -3.02 -3.22 171 173 173
-9.80 -3.10 -3.22 171 173 173
-9.80 -3.19 -3.22 171 173 173
-9.80 -3.27 -3.21 172 177 171
-9.81 -3.36 -3.21 172 177 171
-9.80 -3.44 -3.21 172 177 171
-9.81 -3.53 -3.20 172 177 171
-9.80 -3.62 -3.21 172 177 171
-9.81 -3.70 -3.20 172 177 171
-9.81 -3.79 -3.21 172 177 171
-9.82 -3.87 -3.19 172 177 171
-9.81 -3.96 -3.20 172 177 171
-9.82 -4.05 -3.19 172 177 171
-9.82 -4.13 -3.20 172 177 171
-9.82 -4.22 -3.20 172 177 171
-9.82 -4.30 -3.19 172 177 171
-9.82 -4.39 -3.19 172 177 171
-9.82 -4.47 -3.19 171 178 171
-9.82 -4.56 -3.19 171 178 171
-9.82 -4.65 -3.19 173 180 175
-9.83 -4.73 -3.18 173 180 175
-9.83 -4.82 -3.19 173 180 175
-9.83 -4.90 -3.18 173 180 175
-9.82 -4.99 -3.19 173 180 175
-9.82 -5.07 -3.19 173 180 175
-9.83 -5.16 -3.19 173 180 175
-9.82 -5.25 -3.19 173 180 175
-9.83 -5.33 -3.18 173 180 175
-9.83 -5.42 -3.19 173 180 175
-9.83 -5.50 -3.19 173 180 175
-9.83 -5.59 -3.18 173 180 175
-9.82 -5.67 -3.19 173 180 175
-9.82 -5.76 -3.19 173 180 175
-9.82 -5.84 -3.19 173 181 171
-9.82 -5.93 -3.19 173 181 171
-9.81 -6.02 -3.21 175 180 176
-9.81 -6.10 -3.20 175 180 176
-9.80 -6.19 -3.22 175 180 176
-9.80 -6.27 -3.22 175 180 176
-9.79 -6.36 -3.23 175 180 176
-9.78 -6.44 -3.25 175 180 176
-9.77 -6.53 -3.25 175 180 176
-9.76 -6.61 -3.27 175 180 176
-9.74 -6.70 -3.29 174 179 175
-9.73 -6.78 -3.31 174 179 175
-9.72 -6.87 -3.33 175 180 176
-9.71 -6.96 -3.34 175 180 176
-9.71 -7.04 -3.34 176 181 177
-9.71 -7.13 -3.34 176 181 177
-9.69 -7.21 -3.36 177 182 178
-9.69 -7.30 -3.36 177 182 178
-9.69 -7.39 -3.37 177 182 181
-9.68 -7.47 -3.37 178 183 182
-9.65 -7.56 -3.41 179 184 183
-9.64 -7.64 -3.43 163 168 167
-9.85 -7.73 -3.16 172 177 176
-10.21 -7.81 -2.67 219 224 223
-10.45 -7.89 -2.36 246 251 250
-10.50 -7.97 -2.29 246 251 250
-10.50 -8.06 -2.29 245 250 249
-10.51 -8.14 -2.28 245 250 249
-10.53 -8.22 -2.25 246 251 250
-10.54 -8.31 -2.24 246 251 250
-10.55 -8.39 -2.23 247 252 251
-10.55 -8.47 -2.23 247 252 251
-10.55 -8.56 -2.22 247 252 251
-10.54 -8.64 -2.23 247 252 251
-10.54 -8.72 -2.24 246 253 251
-10.54 -8.81 -2.24 246 253 251
-10.53 -8.89 -2.26 246 253 251
-10.52 -8.97 -2.26 246 253 251
-10.51 -9.06 -2.28 246 253 251
-10.50 -9.14 -2.29 246 253 251
-10.49 -9.23 -2.30 246 253 251
-10.49 -9.31 -2.31 246 253 251
-10.48 -9.40 -2.31 246 253 251
-10.48 -9.48 -2.32 246 253 251
-10.47 -9.56 -2.34 246 253 251
-10.46 -9.65 -2.34 246 253 251
-10.46 -9.73 -2.35 246 253 251
-10.46 -9.82 -2.35 246 253 251
-10.46 -9.90 -2.35 246 253 251
-10.46 -9.98 -2.34 246 253 251
-10.47 -10.07 -2.34 246 253 251
-10.47 -10.15 -2.33 246 253 251
-10.47 -10.23 -2.34 246 253 251
-10.48 -10.32 -2.32 246 253 251
-10.48 -10.40 -2.31 246 253 251
-10.48 -10.48 -2.31 246 253 251
-10.49 -10.57 -2.31 246 253 251
-10.49 -10.65 -2.31 246 253 251
-10.49 -10.73 -2.30 246 253 251
-10.49 -10.82 -2.30 246 253 251
-10.49 -10.90 -2.31 246 253 251
-10.49 -10.99 -2.30 246 253 251
-10.49 -11.07 -2.30 246 253 251
-10.49 -11.15 -2.31 246 253 251
-10.49 -11.24 -2.31 246 253 251
-10.48 -11.32 -2.32 246 253 251
-10.47 -11.41 -2.33 242 247 246
-10.47 -11.49 -2.34 245 250 249
-10.47 -11.58 -2.34 248 253 252
-10.46 -11.66 -2.34 248 253 252
-10.46 -11.74 -2.35 246 251 250
-10.45 -11.83 -2.36 245 250 249
-10.44 -11.91 -2.37 247 252 251
-10.43 -12.00 -2.39 249 254 253
-10.41 -12.09 -2.41 246 251 250
-10.40 -12.17 -2.42 242 247 246
-10.40 -12.26 -2.42 246 251 250
-10.36 -12.35 -2.47 251 255 255
-10.25 -12.45 -2.62 237 242 241
-10.07 -12.57 -2.86 210 215 214
-9.90 -12.68 -3.08 191 196 195
-9.77 -12.79 -3.25 189 194 193
-9.70 -12.89 -3.36 178 180 177
-9.68 -12.98 -3.37 185 187 184
-9.70 -13.06 -3.35 191 193 190
-9.72 -13.14 -3.33 192 194 191
-9.73 -13.23 -3.32 188 190 187
-9.72 -13.31 -3.32 187 189 186
-9.73 -13.40 -3.31 190 192 189
-9.73 -13.48 -3.31 193 195 192
-9.74 -13.57 -3.30 192 194 191
-9.74 -13.65 -3.29 192 194 191
-9.75 -13.74 -3.29 191 193 190
-9.76 -13.82 -3.27 190 192 189
-9.76 -13.91 -3.28 188 190 187
-9.76 -13.99 -3.27 187 189 186
-9.75 -14.08 -3.28 186 188 185
-9.74 -14.17 -3.30 186 188 185
-9.74 -14.25 -3.30 183 185 180
-9.74 -14.34 -3.30 180 182 177
-9.73 -14.43 -3.32 178 180 175
-9.72 -14.52 -3.33 178 180 175
-9.71 -14.61 -3.34 179 181 176
-9.70 -14.69 -3.35 184 186 181
-9.70 -14.78 -3.35 188 190 185
-9.70 -14.87 -3.36 191 193 188
-9.69 -14.95 -3.37 190 192 187
-9.69 -15.04 -3.37 191 193 188
-9.67 -15.13 -3.39 193 195 190
-9.66 -15.22 -3.40 193 195 190
-9.66 -15.31 -3.40 192 194 189
-9.66 -15.39 -3.40 188 190 185
-9.66 -15.48 -3.41 185 187 182
-9.66 -15.56 -3.40 183 185 180
-9.65 -15.65 -3.41 179 181 176
-9.65 -15.74 -3.42 177 179 174
-9.64 -15.83 -3.43 173 175 170
-9.63 -15.92 -3.45 170 172 167
-9.63 -16.00 -3.45 168 170 165
-9.61 -16.09 -3.47 166 168 163
-9.61 -16.18 -3.47 168 170 165
-9.61 -16.27 -3.47 168 170 165
-9.60 -16.36 -3.48 168 170 165
-9.60 -16.44 -3.48 168 170 165
-9.59 -16.53 -3.49 166 168 163
-9.59 -16.62 -3.50 165 167 162
-9.58 -16.71 -3.51 163 165 160
-9.56 -16.80 -3.53 159 161 156
-9.56 -16.89 -3.54 156 158 153
-9.55 -16.98 -3.55 155 157 152
-9.54 -17.06 -3.56 159 161 158
-9.53 -17.15 -3.57 162 164 161
-9.52 -17.25 -3.60 163 165 162
-9.51 -17.34 -3.61 168 170 167
-9.50 -17.43 -3.62 174 176 173
-9.49 -17.52 -3.63 181 183 180
-9.48 -17.60 -3.64 181 183 180
-9.47 -17.69 -3.66 176 178 175
-9.47 -17.78 -3.66 176 178 175
-9.46 -17.87 -3.68 165 167 164
-9.45 -17.96 -3.68 150 152 149
-9.45 -18.05 -3.68 138 140 137
-9.45 -18.14 -3.69 137 139 136
-9.45 -18.22 -3.69 145 147 144
-9.47 -18.30 -3.66 155 157 154
-9.47 -18.39 -3.66 161 163 160
-9.48 -18.47 -3.64 175 175 172
-9.50 -18.55 -3.62 172 172 169
-9.53 -18.63 -3.58 151 151 148
-9.55 -18.70 -3.55 102 102 99
-9.59 -18.78 -3.50 52 52 49
-9.62 -18.85 -3.46 38 38 35
-9.65 -18.93 -3.42 40 40 37
-9.69 -19.00 -3.36 34 34 31
-9.74 -19.06 -3.30 46 46 43
-9.79 -19.13 -3.23 47 47 44
-9.85 -19.19 -3.15 55 55 52
-9.89 -19.26 -3.09 59 59 56
-9.95 -19.32 -3.02 69 69 66
-10.00 -19.39 -2.96 64 64 61
-10.05 -19.45 -2.89 50 50 47
-10.09 -19.52 -2.83 31 31 28
-10.15 -19.58 -2.76 15 20 19
-10.19 -19.65 -2.71 22 27 26
-10.22 -19.72 -2.67 57 59 56
-10.26 -19.79 -2.62 89 91 88
-10.29 -19.86 -2.57 149 151 148
-10.34 -19.92 -2.51 186 188 185
-10.38 -19.99 -2.46 215 215 210
-10.42 -20.06 -2.40 216 216 211
-10.44 -20.13 -2.38 202 202 197
-10.47 -20.20 -2.33 195 195 190
-10.50 -20.28 -2.30 191 190 183
-10.52 -20.35 -2.26 186 185 178
-10.54 -20.42 -2.24 179 178 171
-10.56 -20.50 -2.21 177 176 169
-10.58 -20.57 -2.18 179 175 167
-10.61 -20.64 -2.15 175 171 163
-10.63 -20.72 -2.12 141 138 125
-10.67 -20.78 -2.07 110 107 94
-10.71 -20.85 -2.01 92 92 76
-10.74 -20.92 -1.98 90 90 74
-10.83 -20.95 -1.85 74 75 67
-11.06 -20.93 -1.55 29 30 22
-11.41 -20.85 -1.09 27 31 35
-11.74 -20.77 -0.65 29 33 37
-11.99 -20.73 -0.31 25 30 36
-12.11 -20.75 -0.16 40 45 51
-12.11 -20.83 -0.16 30 36 57
-12.05 -20.94 -0.24 29 35 56
-12.04 -21.03 -0.26 53 58 95
-12.03 -21.11 -0.26 58 63 100
-12.06 -21.17 -0.23 54 60 100
-12.07 -21.25 -0.22 38 44 84
-12.09 -21.32 -0.18 39 38 84
-12.11 -21.39 -0.16 25 24 70
-12.15 -21.45 -0.11 20 17 62
-12.08 -21.56 -0.20 1 0 43
-11.74 -21.82 -0.65 0 0 34
-11.12 -22.21 -1.47 100 98 136
-10.70 -22.51 -2.03 208 205 232
-10.56 -22.67 -2.21 229 226 253
-10.53 -22.77 -2.26 232 231 246
-10.55 -22.84 -2.22 208 207 222
-10.53 -22.93 -2.25 202 201 204
-10.51 -23.03 -2.27 208 207 210
-10.53 -23.11 -2.26 208 208 205
-10.52 -23.19 -2.27 210 210 207
-10.52 -23.28 -2.27 216 214 212
-10.53 -23.36 -2.26 212 210 208
-10.54 -23.43 -2.24 210 210 207
-10.55 -23.51 -2.23 210 210 207
-10.57 -23.58 -2.20 210 210 207
-10.57 -23.67 -2.20 211 211 208
-10.58 -23.75 -2.19 213 213 210
-10.59 -23.82 -2.17 213 213 210
-10.61 -23.90 -2.15 214 214 211
-10.62 -23.97 -2.14 214 214 211
-10.63 -24.05 -2.13 213 213 210
-10.64 -24.13 -2.11 213 213 210
-10.65 -24.20 -2.09 213 213 210
-10.66 -24.28 -2.08 213 213 210
-10.67 -24.36 -2.07 213 213 210
-10.68 -24.44 -2.06 213 213 210
-10.69 -24.52 -2.05 214 212 213
-10.70 -24.59 -2.03 215 213 214
-10.70 -24.68 -2.03 218 213 215
-10.70 -24.76 -2.02 218 213 215
-10.70 -24.84 -2.02 218 213 215
-10.71 -24.92 -2.02 218 213 215
-10.70 -25.01 -2.03 218 213 215
-10.70 -25.09 -2.03 218 213 215
-10.70 -25.17 -2.03 218 213 215
-10.70 -25.26 -2.03 218 213 215
-10.69 -25.34 -2.03 218 213 215
-10.70 -25.43 -2.03 218 213 215
-10.69 -25.51 -2.03 218 213 215
-10.69 -25.59 -2.04 218 213 215
-10.69 -25.68 -2.05 218 213 215
-10.68 -25.77 -2.05 218 213 215
-10.68 -25.85 -2.05 218 213 215
-10.69 -25.93 -2.05 218 213 215
-10.69 -26.01 -2.05 218 213 215
-10.69 -26.10 -2.05 218 213 215
-10.68 -26.18 -2.05 218 213 215
-10.69 -26.26 -2.04 218 213 215
