ply
format ascii 1.0
element vertex 1535
property float x
property float y
property float z
property uchar red
property uchar green
property uchar blue
end_header
-12.61 -9.85 -1.55 246 253 251
-12.61 -9.93 -1.54 246 253 251
-12.62 -10.01 -1.54 246 253 251
-12.62 -10.09 -1.54 246 253 251
-12.61 -10.17 -1.54 246 253 251
-12.62 -10.25 -1.54 246 253 251
-12.62 -10.33 -1.54 246 253 251
-12.63 -10.41 -1.53 246 253 251
-12.63 -10.49 -1.53 246 253 251
-12.63 -10.57 -1.52 246 253 251
-12.63 -10.65 -1.52 246 253 251
-12.64 -10.73 -1.51 246 253 251
-12.64 -10.80 -1.51 246 253 251
-12.64 -10.88 -1.51 246 253 251
-12.64 -10.96 -1.50 246 253 251
-12.64 -11.04 -1.50 246 253 251
-12.65 -11.12 -1.50 246 253 251
-12.65 -11.20 -1.50 246 253 251
-12.65 -11.28 -1.49 246 253 251
-12.65 -11.36 -1.50 246 253 251
-12.65 -11.44 -1.50 246 253 251
-12.64 -11.52 -1.50 246 253 251
-12.64 -11.60 -1.51 246 253 251
-12.62 -11.68 -1.53 246 253 251
-12.62 -11.76 -1.53 246 253 251
-12.62 -11.84 -1.53 246 253 251
-12.61 -11.92 -1.54 246 253 251
-12.61 -12.00 -1.55 246 253 251
-12.60 -12.08 -1.56 246 253 251
-12.61 -12.16 -1.55 246 253 251
-12.60 -12.24 -1.56 246 253 251
-12.60 -12.32 -1.56 246 253 251
-12.60 -12.40 -1.56 246 253 251
-12.60 -12.48 -1.57 246 253 251
-12.60 -12.56 -1.56 246 253 251
-12.61 -12.64 -1.55 246 253 251
-12.61 -12.72 -1.54 246 253 251
-12.62 -12.80 -1.53 246 253 251
-12.62 -12.87 -1.53 246 253 251
-12.62 -12.95 -1.53 246 253 251
-12.62 -13.03 -1.53 246 253 251
-12.62 -13.11 -1.54 245 252 250
-12.62 -13.19 -1.54 245 252 250
-12.63 -13.27 -1.53 245 252 250
-12.64 -13.35 -1.51 245 252 250
-12.64 -13.43 -1.50 245 252 250
-12.65 -13.51 -1.50 245 252 250
-12.66 -13.58 -1.48 245 252 250
-12.67 -13.66 -1.46 245 252 250
-12.70 -13.73 -1.42 240 247 245
-12.73 -13.80 -1.39 246 253 251
-12.74 -13.88 -1.36 249 254 253
-12.76 -13.95 -1.34 248 253 252
-12.78 -14.03 -1.31 247 252 251
-12.78 -14.11 -1.31 249 254 253
-12.77 -14.19 -1.32 250 252 252
-12.75 -14.27 -1.35 247 249 249
-12.70 -14.37 -1.42 248 250 250
-12.62 -14.47 -1.54 250 252 252
-12.52 -14.57 -1.67 255 255 255
-12.40 -14.69 -1.85 248 248 248
-12.27 -14.80 -2.02 222 222 222
-12.19 -14.90 -2.14 194 194 194
-12.11 -15.00 -2.25 184 182 183
-12.10 -15.09 -2.27 190 188 189
-12.09 -15.17 -2.28 192 194 191
-12.09 -15.25 -2.28 193 195 192
-12.09 -15.34 -2.28 193 195 192
-12.10 -15.41 -2.26 194 196 193
-12.12 -15.49 -2.24 194 196 193
-12.12 -15.57 -2.23 195 197 194
-12.11 -15.65 -2.25 195 197 194
-12.11 -15.73 -2.25 197 199 196
-12.12 -15.81 -2.24 195 197 194
-12.13 -15.89 -2.23 195 197 194
-12.12 -15.97 -2.23 195 197 194
-12.12 -16.06 -2.24 195 197 194
-12.12 -16.14 -2.24 195 197 194
-12.12 -16.22 -2.24 195 197 194
-12.12 -16.30 -2.24 195 197 194
-12.12 -16.38 -2.24 195 197 194
-12.11 -16.46 -2.25 195 197 194
-12.11 -16.54 -2.25 195 197 194
-12.11 -16.63 -2.25 195 197 194
-12.11 -16.71 -2.25 195 197 194
-12.10 -16.79 -2.26 195 197 194
-12.09 -16.87 -2.27 195 197 194
-12.09 -16.96 -2.28 195 197 194
-12.09 -17.04 -2.28 195 197 194
-12.09 -17.12 -2.28 197 199 196
-12.09 -17.20 -2.28 197 199 196
-12.09 -17.28 -2.28 197 199 196
-12.08 -17.36 -2.29 197 199 196
-12.08 -17.45 -2.29 197 199 196
-12.07 -17.53 -2.30 197 199 196
-12.07 -17.61 -2.31 197 199 196
-12.07 -17.69 -2.30 197 199 196
-12.07 -17.78 -2.31 197 197 192
-12.06 -17.86 -2.31 197 197 192
-12.07 -17.94 -2.31 199 199 194
-12.07 -18.02 -2.31 199 199 194
-12.06 -18.10 -2.31 200 200 195
-12.07 -18.18 -2.31 201 201 196
-12.07 -18.26 -2.31 201 201 196
-12.06 -18.35 -2.31 201 201 196
-12.06 -18.43 -2.31 199 199 194
-12.07 -18.50 -2.30 199 199 194
-12.07 -18.59 -2.31 200 200 195
-12.06 -18.67 -2.32 200 200 195
-12.06 -18.75 -2.32 201 201 196
-12.05 -18.84 -2.33 201 201 196
-12.05 -18.92 -2.33 201 201 196
-12.05 -19.00 -2.33 202 202 197
-12.06 -19.08 -2.32 200 199 202
-12.06 -19.16 -2.31 197 196 199
-12.07 -19.24 -2.31 193 192 195
-12.07 -19.32 -2.31 187 186 189
-12.08 -19.40 -2.30 182 181 184
-12.08 -19.48 -2.30 178 177 180
-12.08 -19.56 -2.29 174 173 176
-12.09 -19.63 -2.28 172 171 174
-12.09 -19.71 -2.27 172 171 174
-12.10 -19.79 -2.26 171 170 173
-12.10 -19.87 -2.26 171 170 173
-12.12 -19.94 -2.23 165 164 167
-12.14 -20.01 -2.20 160 159 162
-12.15 -20.09 -2.19 161 160 163
-12.17 -20.16 -2.16 152 151 154
-12.23 -20.22 -2.08 131 130 133
-12.30 -20.27 -1.98 109 105 116
-12.38 -20.31 -1.88 68 64 75
-12.44 -20.36 -1.79 41 40 45
-12.50 -20.41 -1.71 50 49 54
-12.54 -20.47 -1.65 78 77 80
-12.56 -20.54 -1.62 97 96 99
-12.62 -20.59 -1.53 91 92 97
-12.66 -20.65 -1.47 55 56 61
-12.83 -20.65 -1.24 10 10 20
-13.30 -20.50 -0.59 20 20 30
-13.83 -20.31 0.15 25 28 39
-14.14 -20.23 0.59 21 24 35
-14.28 -20.23 0.79 36 38 52
-14.34 -20.28 0.88 46 48 62
-14.42 -20.31 0.99 49 54 64
-14.45 -20.37 1.03 48 53 63
-14.49 -20.43 1.08 53 51 61
-14.51 -20.49 1.11 44 42 52
-14.51 -20.56 1.12 16 14 15
-14.52 -20.63 1.12 5 3 4
-14.51 -20.71 1.11 12 10 0
-14.50 -20.79 1.09 72 70 50
-14.48 -20.87 1.07 186 181 142
-14.47 -20.96 1.05 236 231 192
-14.45 -21.04 1.02 242 232 181
-14.43 -21.13 1.00 232 222 171
-14.41 -21.21 0.97 238 222 164
-14.39 -21.30 0.94 220 204 146
-14.38 -21.37 0.93 203 181 114
-14.37 -21.46 0.92 174 152 85
-14.36 -21.53 0.90 158 136 58
-14.36 -21.61 0.90 144 122 44
-14.36 -21.68 0.90 157 127 71
-14.38 -21.75 0.93 178 148 92
-14.40 -21.81 0.96 218 192 142
-14.43 -21.87 1.00 245 219 169
-14.45 -21.93 1.03 234 212 174
-14.48 -21.99 1.07 197 175 137
-14.49 -22.06 1.08 165 151 126
-14.51 -22.12 1.10 107 93 68
-14.53 -22.18 1.14 38 28 18
-14.62 -22.20 1.26 62 52 42
-14.69 -22.24 1.36 179 174 171
-13.60 -22.95 -0.16 234 229 226
-12.69 -23.57 -1.44 224 224 221
-12.81 -23.58 -1.28 208 208 205
-12.79 -23.67 -1.29 207 209 206
-12.82 -23.74 -1.26 202 204 201
-12.82 -23.81 -1.25 207 202 204
-12.84 -23.88 -1.22 207 202 204
-12.85 -23.95 -1.22 207 202 204
-12.84 -24.04 -1.23 207 202 204
-12.84 -24.12 -1.23 209 204 206
-12.84 -24.20 -1.23 209 204 206
-12.84 -24.28 -1.23 210 205 207
-12.84 -24.35 -1.23 210 205 207
-12.85 -24.43 -1.22 210 205 207
-12.85 -24.51 -1.22 210 205 207
-12.85 -24.58 -1.22 210 205 207
-12.85 -24.66 -1.21 210 205 207
-12.85 -24.74 -1.21 210 205 207
-12.85 -24.82 -1.21 210 205 207
-12.85 -24.90 -1.22 210 205 207
-12.85 -24.98 -1.21 210 205 207
-12.85 -25.06 -1.22 211 206 208
-12.85 -25.14 -1.22 211 206 208
-12.85 -25.22 -1.22 211 206 208
-12.85 -25.29 -1.21 211 206 208
-12.84 -25.38 -1.22 211 206 208
-12.84 -25.45 -1.22 211 206 208
-12.85 -25.53 -1.22 211 206 208
-12.84 -25.61 -1.22 211 206 208
-12.85 -25.69 -1.21 212 207 209
-12.85 -25.77 -1.21 212 207 209
-12.85 -25.85 -1.21 212 207 209
-12.85 -25.92 -1.21 213 208 210
-12.85 -26.00 -1.21 214 209 211
-12.85 -26.08 -1.22 214 209 211
-12.85 -26.16 -1.22 214 209 208
-12.85 -26.24 -1.22 216 211 210
-12.85 -26.32 -1.21 217 212 209
-12.86 -26.39 -1.21 217 212 209
-12.85 -26.47 -1.21 217 212 209
-12.86 -26.55 -1.20 217 212 209
-12.86 -26.63 -1.20 217 212 209
-12.86 -26.71 -1.21 217 212 209
-12.86 -26.79 -1.21 217 212 209
-12.86 -26.87 -1.21 217 212 209
-12.86 -26.94 -1.21 217 212 209
-12.86 -27.02 -1.21 217 212 209
-12.86 -27.10 -1.21 217 212 209
-12.85 -27.19 -1.21 217 212 209
-12.85 -27.26 -1.21 217 212 209
-12.85 -27.35 -1.22 217 212 209
-12.85 -27.42 -1.21 217 212 209
-12.85 -27.50 -1.21 217 212 209
-12.85 -27.58 -1.22 217 212 209
-12.85 -27.66 -1.21 217 212 209
-12.85 -27.74 -1.21 217 212 209
-12.85 -27.81 -1.21 217 212 209
-12.85 -27.90 -1.22 217 212 209
-12.86 -27.97 -1.21 217 212 209
-12.85 -28.05 -1.21 217 212 209
-12.85 -28.13 -1.21 217 212 209
-12.86 -28.21 -1.21 217 212 209
-12.86 -28.29 -1.21 217 212 209
-12.85 -28.37 -1.21 217 212 209
-12.85 -28.45 -1.21 217 212 209
-12.86 -28.52 -1.21 217 212 209
-12.85 -28.60 -1.21 217 212 209
-12.85 -28.68 -1.21 217 212 209
-12.85 -28.77 -1.22 217 212 209
-12.85 -28.84 -1.21 219 212 215
-12.85 -28.92 -1.21 219 212 215
-12.85 -29.00 -1.21 219 212 215
-12.84 -29.08 -1.22 219 212 215
-12.84 -29.16 -1.22 219 212 215
-12.85 -29.24 -1.22 220 213 216
-12.84 -29.32 -1.23 220 213 216
-12.84 -29.40 -1.23 220 213 216
-12.84 -29.48 -1.22 220 213 216
-12.85 -29.56 -1.22 220 213 216
-12.85 -29.63 -1.22 220 213 216
-12.85 -29.71 -1.22 220 213 216
-12.85 -29.79 -1.22 220 213 216
-12.85 -29.87 -1.22 220 213 216
-12.85 -29.95 -1.21 219 214 213
-12.86 -30.02 -1.21 219 214 213
-12.86 -30.10 -1.21 219 214 213
-12.87 -30.17 -1.19 219 214 213
-12.86 -30.25 -1.20 219 214 213
-12.87 -30.33 -1.19 219 214 213
-12.87 -30.40 -1.18 219 214 213
-12.88 -30.48 -1.17 219 214 213
-12.88 -30.55 -1.17 219 214 213
-12.89 -30.62 -1.16 219 214 213
-12.88 -30.71 -1.17 220 215 214
-12.88 -30.79 -1.17 220 215 214
-12.88 -30.86 -1.17 220 215 214
-12.88 -30.94 -1.17 220 215 214
-12.89 -31.02 -1.16 220 215 214
-12.89 -31.10 -1.16 220 215 214
-12.89 -31.17 -1.16 220 215 214
-12.89 -31.25 -1.16 220 215 214
-12.89 -31.33 -1.15 218 213 212
-12.92 -31.39 -1.12 217 212 211
-12.93 -31.46 -1.11 214 212 210
-12.96 -31.50 -1.05 215 213 211
-13.00 -31.55 -1.01 250 248 246
-13.01 -31.61 -0.98 251 249 247
-13.11 -31.61 -0.86 203 203 200
-13.36 -31.46 -0.50 188 188 185
-13.74 -31.18 0.04 220 220 217
-13.94 -31.08 0.31 246 246 243
-14.01 -31.09 0.41 255 255 254
-14.02 -31.15 0.43 248 250 247
-13.85 -31.39 0.19 236 238 235
-13.45 -31.84 -0.37 179 181 178
-13.18 -32.17 -0.76 231 236 232
-12.98 -32.43 -1.03 247 252 248
-12.50 18.22 -1.83 136 130 121
-12.47 18.17 -1.88 136 130 121
-12.47 18.09 -1.87 136 130 121
-12.43 18.05 -1.93 136 130 121
-12.41 17.98 -1.95 136 130 121
-12.41 17.91 -1.96 136 130 121
-12.39 17.84 -1.98 136 130 121
-12.38 17.77 -2.00 136 130 121
-12.37 17.70 -2.01 137 131 122
-12.35 17.64 -2.04 137 131 122
-12.34 17.56 -2.05 137 131 122
-12.33 17.49 -2.06 137 131 122
-12.33 17.42 -2.07 137 131 122
-12.32 17.34 -2.08 137 131 122
-12.30 17.28 -2.10 137 131 122
-12.30 17.20 -2.11 137 131 122
-12.29 17.13 -2.13 137 131 122
-12.27 17.06 -2.15 137 131 122
-12.26 16.99 -2.16 139 133 128
-12.27 16.90 -2.15 139 133 128
-12.25 16.84 -2.18 139 133 128
-12.24 16.77 -2.20 139 133 128
-12.23 16.70 -2.21 139 133 128
-12.21 16.63 -2.24 140 134 129
-12.19 16.57 -2.26 143 134 130
-12.18 16.50 -2.28 143 134 130
-12.15 16.44 -2.32 144 133 128
-12.14 16.37 -2.33 144 133 128
-12.13 16.30 -2.35 146 133 128
-12.12 16.23 -2.37 146 133 128
-12.10 16.16 -2.38 144 133 130
-12.10 16.08 -2.39 146 135 132
-12.09 16.00 -2.40 146 137 131
-12.09 15.92 -2.40 146 137 131
-12.09 15.84 -2.40 146 137 131
-12.09 15.76 -2.40 146 137 131
-12.09 15.68 -2.40 146 137 133
-12.09 15.60 -2.40 146 137 133
-12.09 15.52 -2.40 148 139 135
-12.09 15.44 -2.40 149 140 136
-12.10 15.35 -2.39 149 139 138
-12.10 15.26 -2.38 149 139 138
-12.10 15.18 -2.38 149 139 138
-12.10 15.10 -2.38 149 139 138
-12.10 15.02 -2.39 149 139 140
-12.10 14.94 -2.39 149 139 140
-12.10 14.86 -2.39 147 141 136
-12.09 14.78 -2.40 147 141 136
-12.09 14.71 -2.40 147 141 134
-12.08 14.63 -2.41 148 142 135
-12.07 14.56 -2.43 148 142 135
-12.08 14.47 -2.42 149 143 136
-12.07 14.39 -2.43 149 143 136
-12.06 14.32 -2.44 150 144 137
-12.06 14.24 -2.44 150 144 137
-12.06 14.16 -2.44 151 145 138
-12.06 14.08 -2.45 153 147 140
-12.06 14.00 -2.45 153 147 140
-12.06 13.92 -2.45 153 147 140
-12.05 13.84 -2.45 153 147 140
-12.05 13.76 -2.46 153 147 140
-12.04 13.69 -2.47 153 147 140
-12.04 13.61 -2.48 153 147 140
-12.03 13.53 -2.48 153 147 140
-12.03 13.45 -2.48 152 148 140
-12.03 13.37 -2.49 152 148 140
-12.03 13.29 -2.49 152 148 140
-12.02 13.21 -2.50 152 148 140
-12.02 13.13 -2.50 154 148 143
-12.02 13.05 -2.50 154 148 143
-12.02 12.97 -2.50 154 148 143
-12.02 12.89 -2.50 154 148 143
-12.02 12.81 -2.50 155 149 144
-12.02 12.73 -2.51 155 149 144
-12.01 12.65 -2.51 155 149 144
-12.01 12.57 -2.52 155 149 144
-12.01 12.49 -2.52 156 150 145
-12.01 12.41 -2.52 156 150 145
-12.01 12.33 -2.52 157 151 146
-12.01 12.25 -2.52 157 151 146
-12.01 12.16 -2.52 156 152 146
-12.01 12.09 -2.52 156 152 146
-12.01 12.00 -2.52 156 152 146
-12.00 11.93 -2.53 155 151 145
-12.00 11.84 -2.53 154 150 144
-12.01 11.76 -2.52 154 150 144
-12.01 11.68 -2.52 153 149 143
-12.00 11.60 -2.53 153 149 143
-12.00 11.52 -2.53 155 151 145
-12.00 11.44 -2.53 155 151 145
-12.00 11.36 -2.54 152 150 146
-12.00 11.27 -2.53 152 150 146
-12.00 11.19 -2.53 151 149 145
-12.00 11.11 -2.54 151 149 145
-12.00 11.03 -2.54 151 149 145
-12.00 10.95 -2.54 151 149 145
-11.99 10.87 -2.54 153 148 147
-11.98 10.80 -2.56 153 148 147
-11.98 10.72 -2.56 153 151 147
-11.98 10.64 -2.56 154 152 148
-11.97 10.56 -2.57 157 155 151
-11.97 10.48 -2.57 158 156 152
-11.97 10.40 -2.58 160 158 154
-11.96 10.32 -2.59 161 159 155
-11.96 10.24 -2.59 162 161 154
-11.95 10.16 -2.60 164 163 156
-11.95 10.08 -2.60 167 163 157
-11.95 10.00 -2.60 167 163 157
-11.94 9.93 -2.61 167 162 159
-11.94 9.85 -2.62 167 162 159
-11.94 9.76 -2.61 165 163 159
-11.93 9.69 -2.63 165 163 159
-11.93 9.61 -2.63 168 161 159
-11.93 9.52 -2.63 168 161 159
-11.92 9.45 -2.64 168 164 158
-11.92 9.37 -2.65 169 165 159
-11.91 9.29 -2.66 169 164 161
-11.91 9.21 -2.66 171 166 163
-11.91 9.13 -2.66 169 168 161
-11.91 9.05 -2.66 169 168 161
-11.90 8.97 -2.67 173 169 163
-11.91 8.89 -2.66 174 170 164
-11.90 8.81 -2.67 172 171 164
-11.90 8.73 -2.68 173 172 165
-11.90 8.64 -2.67 172 173 165
-11.90 8.56 -2.67 172 173 165
-11.90 8.48 -2.68 171 174 166
-11.90 8.40 -2.68 171 174 166
-11.90 8.31 -2.67 174 173 166
-11.91 8.23 -2.66 174 173 166
-11.91 8.15 -2.66 177 171 166
-11.91 8.07 -2.66 177 171 166
-11.91 7.98 -2.66 177 171 166
-11.92 7.90 -2.65 177 171 166
-11.92 7.81 -2.64 176 172 166
-11.92 7.73 -2.65 177 173 167
-11.93 7.65 -2.64 176 175 168
-11.93 7.57 -2.64 177 176 169
-11.93 7.48 -2.64 177 176 169
-11.93 7.40 -2.63 177 176 169
-11.93 7.32 -2.63 177 176 169
-11.93 7.24 -2.63 177 176 169
-11.93 7.16 -2.64 177 176 169
-11.93 7.08 -2.64 177 176 169
-11.93 6.99 -2.63 179 177 175
-11.93 6.91 -2.63 181 179 177
-11.93 6.83 -2.63 181 179 177
-11.93 6.75 -2.63 181 179 177
-11.92 6.67 -2.64 181 179 177
-11.92 6.59 -2.64 181 179 177
-11.92 6.51 -2.65 181 179 180
-11.93 6.42 -2.64 181 179 180
-11.92 6.34 -2.64 181 181 181
-11.92 6.26 -2.65 182 182 182
-11.92 6.18 -2.65 182 182 182
-11.91 6.10 -2.66 182 182 182
-11.90 6.02 -2.67 182 182 182
-11.90 5.94 -2.67 182 182 182
-11.90 5.86 -2.67 182 182 182
-11.90 5.78 -2.68 182 182 182
-11.89 5.70 -2.68 181 181 181
-11.90 5.62 -2.67 182 182 182
-11.90 5.53 -2.67 182 182 182
-11.90 5.45 -2.67 182 182 182
-11.90 5.37 -2.67 182 182 182
-11.90 5.29 -2.67 182 182 182
-11.91 5.21 -2.66 182 182 182
-11.90 5.13 -2.67 182 182 182
-11.91 5.04 -2.66 183 183 183
-11.90 4.96 -2.67 181 181 181
-11.91 4.88 -2.66 181 181 181
-11.91 4.80 -2.66 181 181 181
-11.91 4.71 -2.66 181 181 181
-11.92 4.63 -2.65 181 181 181
-11.91 4.55 -2.66 181 181 181
-11.91 4.47 -2.66 181 181 181
-11.91 4.39 -2.66 180 180 180
-11.91 4.30 -2.66 180 180 180
-11.91 4.22 -2.66 180 180 177
-11.92 4.14 -2.65 179 179 176
-11.91 4.06 -2.66 179 179 176
-11.91 3.98 -2.66 178 178 175
-11.91 3.89 -2.66 178 178 175
-11.91 3.81 -2.66 176 176 173
-11.91 3.73 -2.66 176 176 173
-11.91 3.65 -2.66 175 175 172
-11.92 3.57 -2.65 175 175 172
-11.91 3.49 -2.66 174 174 171
-11.92 3.40 -2.65 174 174 171
-11.92 3.32 -2.65 173 173 170
-11.92 3.24 -2.65 173 173 170
-11.92 3.16 -2.65 173 173 170
-11.92 3.07 -2.64 173 173 173
-11.93 2.99 -2.64 174 174 174
-11.93 2.91 -2.63 174 174 174
-11.94 2.82 -2.62 174 174 174
-11.94 2.74 -2.61 174 174 174
-11.94 2.66 -2.61 174 174 174
-11.95 2.57 -2.60 174 174 174
-11.96 2.49 -2.59 173 173 173
-11.96 2.41 -2.59 173 173 173
-11.97 2.32 -2.58 173 173 173
-11.97 2.24 -2.58 173 173 173
-11.97 2.16 -2.58 173 173 173
-11.97 2.08 -2.57 173 173 173
-11.97 1.99 -2.57 173 173 173
-11.98 1.91 -2.57 173 173 170
-11.98 1.83 -2.57 172 172 169
-11.98 1.75 -2.56 173 173 170
-11.98 1.67 -2.56 173 173 170
-11.98 1.58 -2.56 173 173 168
-11.99 1.50 -2.55 172 172 167
-11.99 1.42 -2.55 172 172 167
-11.99 1.34 -2.55 172 172 167
-11.99 1.26 -2.55 172 172 167
-11.99 1.17 -2.55 172 172 167
-11.98 1.10 -2.56 172 172 167
-11.99 1.01 -2.55 172 172 167
-11.99 0.93 -2.55 172 172 167
-11.99 0.85 -2.55 172 172 167
-11.99 0.77 -2.55 172 172 167
-12.00 0.68 -2.54 172 172 167
-12.00 0.60 -2.54 172 172 167
-12.01 0.52 -2.52 172 172 167
-12.01 0.44 -2.52 170 172 167
-12.01 0.35 -2.52 170 172 167
-12.01 0.27 -2.52 170 172 167
-12.02 0.19 -2.51 170 172 167
-12.02 0.11 -2.51 170 172 167
-12.02 0.02 -2.50 170 172 167
-12.02 -0.06 -2.50 170 172 167
-12.03 -0.14 -2.49 170 172 167
-12.03 -0.22 -2.49 170 172 167
-12.03 -0.30 -2.49 170 172 167
-12.03 -0.39 -2.49 170 172 167
-12.03 -0.47 -2.49 170 172 167
-12.03 -0.55 -2.48 170 172 167
-12.04 -0.63 -2.48 170 172 167
-12.04 -0.72 -2.47 170 172 167
-12.04 -0.80 -2.47 170 172 167
-12.05 -0.88 -2.46 169 171 168
-12.06 -0.96 -2.45 169 171 168
-12.06 -1.04 -2.45 169 171 168
-12.06 -1.13 -2.44 169 171 168
-12.06 -1.21 -2.44 169 171 168
-12.08 -1.29 -2.42 169 171 168
-12.08 -1.37 -2.42 169 171 168
-12.08 -1.45 -2.42 170 172 169
-12.08 -1.54 -2.42 170 172 169
-12.08 -1.62 -2.41 170 172 169
-12.09 -1.70 -2.40 170 172 169
-12.09 -1.78 -2.41 170 172 169
-12.09 -1.86 -2.41 170 172 169
-12.08 -1.94 -2.41 170 172 169
-12.09 -2.03 -2.40 170 172 172
-12.08 -2.11 -2.41 171 173 173
-12.08 -2.19 -2.41 169 174 173
-12.08 -2.27 -2.41 169 174 173
-12.08 -2.35 -2.42 169 174 173
-12.08 -2.43 -2.42 169 174 173
-12.08 -2.51 -2.42 169 174 173
-12.08 -2.59 -2.42 169 174 173
-12.08 -2.67 -2.42 169 174 173
-12.08 -2.75 -2.42 170 175 174
-12.07 -2.83 -2.43 170 175 174
-12.07 -2.92 -2.43 170 175 174
-12.07 -3.00 -2.43 170 175 174
-12.07 -3.08 -2.43 170 175 174
-12.07 -3.16 -2.43 170 175 174
-12.07 -3.24 -2.43 170 175 174
-12.07 -3.32 -2.43 170 175 174
-12.08 -3.40 -2.42 169 174 173
-12.08 -3.49 -2.41 169 174 170
-12.09 -3.57 -2.40 169 174 170
-12.09 -3.65 -2.40 169 174 170
-12.10 -3.73 -2.39 169 174 170
-12.10 -3.81 -2.39 169 174 170
-12.10 -3.89 -2.39 169 174 170
-12.10 -3.98 -2.39 169 174 170
-12.10 -4.06 -2.38 169 174 170
-12.10 -4.14 -2.39 171 176 172
-12.10 -4.22 -2.38 171 176 172
-12.11 -4.30 -2.38 171 176 172
-12.11 -4.38 -2.38 171 176 172
-12.11 -4.46 -2.38 171 176 172
-12.12 -4.55 -2.37 171 176 172
-12.11 -4.63 -2.38 171 176 172
-12.11 -4.71 -2.38 171 176 172
-12.11 -4.79 -2.38 176 178 178
-12.10 -4.87 -2.39 176 178 178
-12.10 -4.95 -2.39 176 178 178
-12.10 -5.03 -2.39 176 178 178
-12.09 -5.11 -2.40 176 178 178
-12.09 -5.19 -2.41 176 178 178
-12.08 -5.27 -2.42 176 178 178
-12.07 -5.35 -2.43 176 178 178
-12.06 -5.43 -2.44 174 176 176
-12.05 -5.52 -2.46 174 176 176
-12.04 -5.60 -2.48 174 176 176
-12.03 -5.68 -2.49 174 176 176
-12.02 -5.76 -2.51 174 176 176
-12.01 -5.84 -2.51 174 176 176
-12.00 -5.92 -2.54 174 176 176
-12.00 -6.00 -2.54 174 176 176
-11.99 -6.08 -2.55 176 179 171
-11.98 -6.16 -2.56 179 182 174
-12.00 -6.25 -2.54 180 182 177
-12.01 -6.33 -2.52 181 183 178
-12.00 -6.41 -2.53 181 183 178
-12.01 -6.49 -2.52 169 171 166
-12.03 -6.57 -2.49 171 173 170
-12.33 -6.66 -2.06 202 204 201
-12.69 -6.75 -1.57 243 245 242
-12.82 -6.83 -1.38 244 246 243
-12.83 -6.91 -1.37 249 251 251
-12.82 -6.99 -1.38 246 248 248
-12.83 -7.07 -1.37 254 255 255
-12.84 -7.15 -1.36 250 252 252
-12.84 -7.23 -1.35 250 251 254
-12.83 -7.31 -1.36 249 250 253
-12.83 -7.39 -1.37 246 253 248
-12.82 -7.47 -1.37 246 253 248
-12.81 -7.54 -1.39 246 253 248
-12.80 -7.62 -1.40 246 253 248
-12.79 -7.70 -1.42 246 253 248
-12.79 -7.78 -1.43 246 253 248
-12.77 -7.86 -1.44 246 253 248
-12.76 -7.94 -1.46 246 253 248
-12.76 -8.02 -1.46 246 253 248
-12.75 -8.10 -1.48 246 253 248
-12.75 -8.18 -1.48 246 253 248
-12.74 -8.26 -1.49 246 253 248
-12.74 -8.34 -1.49 246 253 248
-12.74 -8.42 -1.50 246 253 248
-12.73 -8.50 -1.51 246 253 248
-12.72 -8.58 -1.52 246 253 248
-12.73 -8.66 -1.51 246 253 251
-12.73 -8.74 -1.51 246 253 251
-12.73 -8.81 -1.51 246 253 251
-12.73 -8.89 -1.51 246 253 251
-12.72 -8.97 -1.52 246 253 251
-12.72 -9.05 -1.52 246 253 251
-12.72 -9.13 -1.52 246 253 251
-12.72 -9.21 -1.52 246 253 251
-12.72 -9.29 -1.52 246 253 251
-12.72 -9.37 -1.52 246 253 251
-12.72 -9.45 -1.52 246 253 251
-12.72 -9.53 -1.52 246 253 251
-12.73 -9.61 -1.51 246 253 251
-12.73 -9.69 -1.51 246 253 251
-12.72 -9.77 -1.52 246 253 251
-12.72 -9.85 -1.52 246 253 251
-12.73 -9.93 -1.51 246 253 251
-12.73 -10.00 -1.51 246 253 251
-12.73 -10.08 -1.51 246 253 251
-12.73 -10.16 -1.51 246 253 251
-12.73 -10.24 -1.50 246 253 251
-12.74 -10.32 -1.50 246 253 251
-12.74 -10.40 -1.49 246 253 251
-12.74 -10.48 -1.49 246 253 251
-12.74 -10.56 -1.49 246 253 251
-12.75 -10.64 -1.48 246 253 251
-12.75 -10.72 -1.48 246 253 251
-12.75 -10.80 -1.47 246 253 251
-12.75 -10.87 -1.47 246 253 251
-12.75 -10.95 -1.47 246 253 251
-12.76 -11.03 -1.46 246 253 251
-12.76 -11.11 -1.46 246 253 251
-12.76 -11.19 -1.46 246 253 251
-12.76 -11.27 -1.46 246 253 251
-12.76 -11.35 -1.46 246 253 251
-12.76 -11.43 -1.47 246 253 251
-12.75 -11.51 -1.48 246 253 251
-12.74 -11.59 -1.49 246 253 251
-12.74 -11.67 -1.49 246 253 251
-12.74 -11.75 -1.49 246 253 251
-12.74 -11.83 -1.50 246 253 251
-12.73 -11.91 -1.51 246 253 251
-12.72 -11.99 -1.52 246 253 251
-12.72 -12.07 -1.52 246 253 251
-12.72 -12.15 -1.52 246 253 251
-12.72 -12.23 -1.52 246 253 251
-12.72 -12.31 -1.52 246 253 251
-12.72 -12.39 -1.52 246 253 251
-12.71 -12.47 -1.53 246 253 251
-12.72 -12.55 -1.52 246 253 251
-12.73 -12.62 -1.51 246 253 251
-12.73 -12.70 -1.51 246 253 251
-12.73 -12.78 -1.50 246 253 251
-12.73 -12.86 -1.50 246 253 251
-12.73 -12.94 -1.50 246 253 251
-12.74 -13.02 -1.50 246 253 251
-12.74 -13.10 -1.49 245 252 250
-12.74 -13.18 -1.49 245 252 250
-12.74 -13.26 -1.49 245 252 250
-12.75 -13.33 -1.47 245 252 250
-12.76 -13.41 -1.46 245 252 250
-12.77 -13.49 -1.44 245 252 250
-12.78 -13.56 -1.44 245 252 250
-12.80 -13.64 -1.41 245 252 250
-12.83 -13.71 -1.37 247 253 254
-12.85 -13.79 -1.34 243 249 250
-12.88 -13.86 -1.29 244 248 250
-12.89 -13.93 -1.29 248 252 254
-12.90 -14.01 -1.26 249 253 255
-12.90 -14.09 -1.27 246 250 252
-12.89 -14.17 -1.28 247 248 251
-12.89 -14.25 -1.29 248 249 252
-12.87 -14.33 -1.31 248 249 252
-12.83 -14.42 -1.37 251 252 255
-12.79 -14.51 -1.42 253 252 255
-12.69 -14.62 -1.56 251 250 253
-12.55 -14.73 -1.76 250 249 252
-12.44 -14.85 -1.92 241 240 243
-12.31 -14.96 -2.09 216 213 217
-12.26 -15.05 -2.16 190 187 191
-12.23 -15.14 -2.21 192 194 191
-12.22 -15.23 -2.22 193 195 192
-12.22 -15.31 -2.22 193 195 192
-12.22 -15.39 -2.22 194 196 193
-12.24 -15.47 -2.20 194 196 193
-12.24 -15.55 -2.20 195 197 194
-12.25 -15.62 -2.19 195 197 194
-12.24 -15.71 -2.19 197 199 196
-12.25 -15.79 -2.19 195 197 194
-12.25 -15.87 -2.19 195 197 194
-12.25 -15.95 -2.18 195 197 194
-12.25 -16.03 -2.18 195 197 194
-12.24 -16.11 -2.19 195 197 194
-12.25 -16.19 -2.19 195 197 194
-12.24 -16.27 -2.20 195 197 194
-12.24 -16.35 -2.20 195 197 194
-12.23 -16.44 -2.20 195 197 194
-12.24 -16.52 -2.20 195 197 194
-12.23 -16.60 -2.20 195 197 194
-12.23 -16.68 -2.21 195 197 194
-12.22 -16.76 -2.22 195 197 194
-12.22 -16.85 -2.22 195 197 194
-12.22 -16.93 -2.23 195 197 194
-12.21 -17.01 -2.24 195 197 194
-12.21 -17.09 -2.24 197 199 196
-12.21 -17.17 -2.24 197 199 196
-12.21 -17.25 -2.24 197 199 196
-12.21 -17.33 -2.24 197 199 196
-12.19 -17.42 -2.26 197 199 196
-12.19 -17.50 -2.26 197 199 196
-12.19 -17.58 -2.26 197 199 196
-12.19 -17.67 -2.27 197 199 196
-12.18 -17.75 -2.27 200 200 195
-12.18 -17.83 -2.27 200 200 195
-12.18 -17.91 -2.27 200 200 195
-12.19 -17.99 -2.27 200 200 195
-12.19 -18.07 -2.26 200 200 195
-12.19 -18.15 -2.26 200 200 195
-12.19 -18.23 -2.27 200 200 195
-12.19 -18.31 -2.26 200 200 195
-12.19 -18.39 -2.26 201 201 196
-12.19 -18.48 -2.27 201 201 196
-12.19 -18.55 -2.26 200 200 195
-12.19 -18.64 -2.26 200 200 195
-12.18 -18.72 -2.27 200 200 195
-12.19 -18.80 -2.27 199 199 194
-12.18 -18.88 -2.27 199 199 194
-12.18 -18.96 -2.28 199 199 194
-12.18 -19.04 -2.27 204 203 206
-12.19 -19.12 -2.27 203 202 205
-12.19 -19.20 -2.26 201 200 203
-12.19 -19.28 -2.26 196 195 198
-12.20 -19.36 -2.25 192 191 194
-12.20 -19.44 -2.25 187 186 189
-12.20 -19.52 -2.25 182 181 184
-12.21 -19.60 -2.24 180 179 182
-12.21 -19.68 -2.24 172 171 174
-12.21 -19.76 -2.24 167 166 169
-12.21 -19.84 -2.24 168 167 170
-12.23 -19.91 -2.21 165 164 167
-12.24 -19.99 -2.20 163 162 165
-12.25 -20.07 -2.18 168 167 170
-12.27 -20.13 -2.15 151 150 153
-12.33 -20.19 -2.07 111 110 113
-12.39 -20.24 -1.98 80 76 87
-12.44 -20.30 -1.91 47 43 54
-12.49 -20.35 -1.84 38 36 44
-12.56 -20.40 -1.75 82 80 88
-12.61 -20.46 -1.68 116 115 120
-12.65 -20.52 -1.62 125 124 129
-12.70 -20.57 -1.55 106 107 112
-12.71 -20.65 -1.54 74 75 80
-12.83 -20.67 -1.36 6 7 12
-13.21 -20.56 -0.83 22 23 28
-13.74 -20.37 -0.08 11 15 19
-14.15 -20.24 0.49 14 18 22
-14.33 -20.23 0.74 44 47 58
-14.41 -20.26 0.86 48 51 62
-14.49 -20.29 0.97 49 52 70
-14.52 -20.35 1.01 52 55 73
-14.57 -20.40 1.08 51 55 57
-14.59 -20.47 1.11 50 54 56
-14.61 -20.53 1.14 51 55 59
-14.63 -20.60 1.16 20 24 28
-14.62 -20.68 1.14 8 10 5
-14.59 -20.76 1.11 0 0 0
-14.59 -20.84 1.10 23 24 5
-14.57 -20.92 1.08 134 135 116
-14.54 -21.01 1.04 229 224 196
-14.52 -21.10 1.01 248 243 215
-14.49 -21.19 0.97 244 231 199
-14.48 -21.27 0.95 232 219 187
-14.46 -21.35 0.93 242 222 174
-14.45 -21.43 0.91 250 230 182
-14.44 -21.51 0.90 235 213 148
-14.44 -21.59 0.90 207 185 120
-14.44 -21.66 0.90 166 136 78
-14.46 -21.72 0.93 170 140 82
-14.48 -21.79 0.95 196 169 108
-14.50 -21.85 0.98 232 205 144
-14.51 -21.92 1.00 254 234 173
-14.53 -21.98 1.03 254 234 173
-14.55 -22.04 1.06 252 237 186
-14.57 -22.10 1.08 226 211 160
-14.59 -22.17 1.11 85 77 43
-14.62 -22.22 1.16 41 33 0
-14.74 -22.23 1.31 101 98 83
-13.77 -22.87 -0.04 171 168 153
-12.74 -23.57 -1.49 202 204 201
-12.89 -23.56 -1.29 211 213 210
-12.87 -23.65 -1.31 211 217 218
-12.91 -23.70 -1.26 206 212 213
-12.92 -23.78 -1.24 216 211 213
-12.93 -23.85 -1.22 214 209 211
-12.94 -23.92 -1.21 213 208 210
-12.94 -24.00 -1.21 212 207 209
-12.94 -24.08 -1.21 210 205 207
-12.95 -24.15 -1.20 209 204 206
-12.95 -24.23 -1.19 207 202 204
-12.95 -24.31 -1.19 207 202 204
-12.96 -24.38 -1.19 210 205 207
-12.96 -24.46 -1.18 210 205 207
-12.96 -24.54 -1.18 210 205 207
-12.96 -24.61 -1.18 210 205 207
-12.96 -24.69 -1.18 210 205 207
-12.97 -24.77 -1.17 210 205 207
-12.96 -24.85 -1.18 210 205 207
-12.96 -24.93 -1.18 210 205 207
-12.96 -25.01 -1.18 212 205 205
-12.97 -25.08 -1.17 212 205 205
-12.96 -25.17 -1.18 212 205 205
-12.96 -25.24 -1.18 212 205 205
-12.96 -25.32 -1.18 212 205 205
-12.97 -25.40 -1.17 212 205 205
-12.97 -25.48 -1.17 212 205 205
-12.96 -25.56 -1.18 212 205 205
-12.97 -25.63 -1.17 212 205 205
-12.97 -25.71 -1.17 213 206 206
-12.97 -25.79 -1.17 213 206 206
-12.96 -25.87 -1.18 214 207 207
-12.96 -25.95 -1.18 214 207 207
-12.97 -26.03 -1.17 215 208 208
-12.96 -26.11 -1.18 214 209 208
-12.97 -26.19 -1.17 216 211 210
-12.96 -26.27 -1.18 216 211 210
-12.97 -26.34 -1.17 216 211 210
-12.97 -26.42 -1.17 216 211 210
-12.97 -26.50 -1.17 216 211 210
-12.98 -26.57 -1.16 217 212 211
-12.97 -26.66 -1.17 217 212 211
-12.97 -26.73 -1.17 217 212 211
-12.97 -26.81 -1.17 217 212 211
-12.96 -26.90 -1.18 217 212 211
-12.96 -26.97 -1.18 217 212 211
-12.97 -27.05 -1.17 217 212 211
-12.97 -27.13 -1.17 217 212 211
-12.97 -27.21 -1.17 217 212 211
-12.97 -27.29 -1.17 217 212 211
-12.96 -27.37 -1.18 217 212 211
-12.96 -27.45 -1.18 217 212 211
-12.97 -27.52 -1.17 217 212 209
-12.97 -27.60 -1.16 217 212 209
-12.97 -27.68 -1.17 217 212 209
-12.97 -27.76 -1.17 217 212 209
-12.97 -27.84 -1.17 217 212 209
-12.97 -27.91 -1.17 217 212 209
-12.97 -27.99 -1.16 217 212 209
-12.97 -28.07 -1.16 217 212 209
-12.97 -28.15 -1.17 217 212 209
-12.97 -28.23 -1.16 217 212 209
-12.98 -28.30 -1.16 217 212 209
-12.97 -28.38 -1.16 217 212 209
-12.97 -28.46 -1.16 217 212 209
-12.97 -28.54 -1.17 217 212 209
-12.97 -28.62 -1.17 217 212 209
-12.96 -28.70 -1.18 217 212 209
-12.96 -28.79 -1.19 219 211 217
-12.96 -28.87 -1.19 219 211 217
-12.96 -28.95 -1.19 219 211 217
-12.96 -29.02 -1.19 219 211 217
-12.96 -29.10 -1.19 219 211 217
-12.96 -29.18 -1.19 220 212 218
-12.96 -29.26 -1.19 220 212 218
-12.95 -29.34 -1.19 220 212 218
-12.96 -29.42 -1.19 220 212 218
-12.95 -29.50 -1.19 220 212 218
-12.96 -29.57 -1.19 220 212 218
-12.96 -29.65 -1.18 220 212 218
-12.96 -29.73 -1.18 220 213 216
-12.96 -29.81 -1.19 220 213 216
-12.96 -29.88 -1.18 219 214 213
-12.96 -29.96 -1.18 219 214 213
-12.97 -30.04 -1.17 219 214 213
-12.97 -30.11 -1.16 219 214 213
-12.98 -30.19 -1.16 219 214 213
-12.98 -30.26 -1.15 219 214 213
-12.98 -30.34 -1.15 219 214 213
-12.99 -30.41 -1.14 219 214 213
-12.99 -30.49 -1.14 219 214 213
-13.00 -30.56 -1.13 219 214 213
-13.00 -30.64 -1.13 219 214 213
-13.00 -30.72 -1.13 219 214 213
-13.00 -30.79 -1.12 219 214 213
-13.00 -30.87 -1.13 219 214 213
-13.01 -30.95 -1.12 219 214 213
-13.00 -31.03 -1.13 219 214 213
-13.00 -31.11 -1.13 219 214 213
-13.00 -31.19 -1.12 219 214 213
-13.00 -31.26 -1.12 214 209 208
-13.01 -31.34 -1.11 214 209 208
-13.02 -31.41 -1.10 215 213 211
-13.05 -31.46 -1.06 216 214 212
-13.07 -31.52 -1.02 245 243 241
-13.10 -31.57 -0.99 252 250 248
-13.19 -31.57 -0.86 220 220 217
-13.39 -31.46 -0.58 192 192 189
-13.74 -31.22 -0.09 196 196 193
-13.96 -31.10 0.22 246 246 243
-14.07 -31.07 0.38 253 255 252
-14.08 -31.14 0.39 249 251 248
-13.99 -31.29 0.27 247 249 246
-13.65 -31.68 -0.21 172 174 171
-13.36 -32.04 -0.62 212 217 213
-13.08 -32.37 -1.01 247 252 248
-12.61 18.15 -1.79 136 130 121
-12.57 18.11 -1.86 136 130 121
-12.56 18.04 -1.86 136 130 121
-12.51 18.00 -1.93 136 130 121
-12.51 17.93 -1.94 136 130 121
-12.51 17.84 -1.93 136 130 121
-12.49 17.78 -1.96 136 130 121
-12.48 17.71 -1.98 136 130 121
-12.47 17.64 -1.99 137 131 122
-12.45 17.58 -2.02 137 131 122
-12.44 17.51 -2.04 137 131 122
-12.43 17.44 -2.05 137 131 122
-12.42 17.36 -2.06 137 131 122
-12.42 17.29 -2.07 137 131 122
-12.41 17.22 -2.08 137 131 122
-12.39 17.16 -2.11 137 131 122
-12.38 17.09 -2.13 137 131 122
-12.38 17.01 -2.13 137 131 122
-12.37 16.93 -2.14 139 133 128
-12.36 16.86 -2.15 139 133 128
-12.34 16.79 -2.17 140 134 129
-12.33 16.72 -2.19 140 134 129
-12.32 16.65 -2.21 140 134 129
-12.30 16.59 -2.24 140 134 129
-12.28 16.53 -2.27 142 133 129
-12.27 16.46 -2.28 143 134 130
-12.24 16.40 -2.32 144 133 128
-12.23 16.32 -2.33 144 133 128
-12.22 16.25 -2.34 146 133 128
-12.21 16.18 -2.36 146 133 128
-12.20 16.11 -2.38 144 133 130
-12.20 16.03 -2.38 145 134 131
-12.19 15.96 -2.39 146 137 131
-12.18 15.88 -2.40 146 137 131
-12.19 15.80 -2.39 146 137 131
-12.18 15.72 -2.40 146 137 131
-12.18 15.64 -2.40 146 137 133
-12.19 15.55 -2.39 146 137 133
-12.19 15.47 -2.39 148 139 135
-12.19 15.39 -2.38 149 140 136
-12.20 15.30 -2.38 149 139 138
-12.20 15.22 -2.37 149 139 138
-12.21 15.13 -2.37 149 139 138
-12.21 15.05 -2.37 149 139 138
-12.20 14.97 -2.37 149 139 140
-12.21 14.89 -2.37 149 139 140
-12.21 14.81 -2.37 147 141 136
-12.21 14.73 -2.37 147 141 136
-12.20 14.65 -2.38 147 141 134
-12.18 14.58 -2.40 148 142 135
-12.18 14.50 -2.40 148 142 135
-12.18 14.42 -2.40 149 143 136
-12.17 14.35 -2.41 149 143 136
-12.17 14.27 -2.42 150 144 137
-12.17 14.19 -2.42 150 144 137
-12.16 14.11 -2.43 151 145 138
-12.16 14.03 -2.43 153 147 140
-12.16 13.95 -2.44 153 147 140
-12.15 13.88 -2.44 153 147 140
-12.15 13.80 -2.45 153 147 140
-12.15 13.72 -2.45 153 147 140
-12.14 13.64 -2.46 153 147 140
-12.14 13.56 -2.46 153 147 140
-12.14 13.48 -2.46 153 147 140
-12.13 13.40 -2.47 152 148 140
-12.13 13.33 -2.47 152 148 140
-12.12 13.25 -2.48 152 148 140
-12.13 13.17 -2.48 152 148 140
-12.12 13.09 -2.49 154 148 143
-12.12 13.01 -2.49 154 148 143
-12.12 12.93 -2.49 154 148 143
-12.12 12.85 -2.49 154 148 143
-12.11 12.77 -2.50 156 150 145
-12.11 12.69 -2.50 156 150 145
-12.11 12.61 -2.50 156 150 145
-12.11 12.53 -2.51 156 150 145
-12.11 12.45 -2.51 157 151 146
-12.11 12.37 -2.51 157 151 146
-12.11 12.29 -2.51 158 152 147
-12.11 12.20 -2.51 158 152 147
-12.11 12.12 -2.51 157 153 147
-12.11 12.04 -2.51 156 152 146
-12.10 11.97 -2.51 156 152 146
-12.10 11.88 -2.51 156 152 146
-12.11 11.80 -2.51 155 151 145
-12.11 11.72 -2.51 154 150 144
-12.11 11.63 -2.50 154 150 144
-12.11 11.56 -2.51 153 149 143
-12.11 11.47 -2.51 155 151 145
-12.10 11.40 -2.51 155 151 145
-12.11 11.31 -2.51 153 151 147
-12.10 11.23 -2.51 153 151 147
-12.11 11.15 -2.51 152 150 146
-12.10 11.07 -2.51 152 150 146
-12.10 10.99 -2.52 152 150 146
-12.10 10.91 -2.52 152 150 146
-12.09 10.83 -2.53 152 147 146
-12.09 10.75 -2.53 153 148 147
-12.09 10.67 -2.54 152 150 146
-12.08 10.60 -2.54 153 151 147
-12.08 10.51 -2.54 155 153 149
-12.07 10.44 -2.56 158 156 152
-12.07 10.36 -2.56 159 157 153
-12.07 10.28 -2.56 160 158 154
-12.07 10.20 -2.56 162 161 154
-12.06 10.12 -2.58 164 163 156
-12.06 10.04 -2.58 166 162 156
-12.05 9.96 -2.58 166 162 156
-12.05 9.88 -2.58 167 162 159
-12.05 9.80 -2.59 167 162 159
-12.05 9.72 -2.59 165 163 159
-12.05 9.64 -2.59 165 163 159
-12.04 9.56 -2.60 164 157 155
-12.04 9.48 -2.61 167 160 158
-12.04 9.40 -2.61 167 163 157
-12.03 9.32 -2.61 168 164 158
-12.02 9.25 -2.63 168 163 160
-12.02 9.17 -2.63 169 164 161
-12.02 9.09 -2.64 168 167 160
-12.01 9.01 -2.64 168 167 160
-12.01 8.93 -2.65 170 166 160
-12.01 8.85 -2.65 173 169 163
-12.00 8.77 -2.65 172 171 164
-12.00 8.69 -2.65 172 171 164
-12.00 8.61 -2.66 171 172 164
-12.01 8.52 -2.65 172 173 165
-12.00 8.44 -2.65 170 173 165
-12.01 8.36 -2.65 170 173 165
-12.01 8.28 -2.65 174 173 166
-12.01 8.20 -2.65 174 173 166
-12.01 8.11 -2.65 177 171 166
-12.01 8.03 -2.64 177 171 166
-12.01 7.95 -2.64 177 171 166
-12.02 7.86 -2.63 177 171 166
-12.03 7.78 -2.62 177 173 167
-12.03 7.70 -2.62 178 174 168
-12.03 7.62 -2.62 176 175 168
-12.03 7.53 -2.62 177 176 169
-12.03 7.45 -2.62 177 176 169
-12.03 7.37 -2.62 177 176 169
-12.03 7.29 -2.62 177 176 169
-12.03 7.20 -2.61 177 176 169
-12.03 7.12 -2.62 177 176 169
-12.03 7.04 -2.61 177 176 169
-12.03 6.96 -2.61 179 177 175
-12.04 6.88 -2.61 181 179 177
-12.03 6.80 -2.61 181 179 177
-12.04 6.71 -2.61 181 179 177
-12.03 6.63 -2.61 181 179 177
-12.03 6.55 -2.62 181 179 177
-12.03 6.47 -2.62 181 179 180
-12.03 6.39 -2.61 181 179 180
-12.03 6.31 -2.62 181 181 181
-12.02 6.23 -2.63 182 182 182
-12.02 6.15 -2.63 182 182 182
-12.02 6.07 -2.63 182 182 182
-12.01 5.99 -2.65 182 182 182
-12.01 5.91 -2.65 182 182 182
-12.01 5.83 -2.65 182 182 182
-12.01 5.75 -2.65 182 182 182
-12.00 5.67 -2.65 182 182 182
-12.00 5.59 -2.65 182 182 182
-12.01 5.50 -2.65 182 182 182
-12.00 5.42 -2.65 182 182 182
-12.01 5.34 -2.65 182 182 182
-12.01 5.26 -2.65 182 182 182
-12.01 5.18 -2.65 182 182 182
-12.01 5.10 -2.65 182 182 182
-12.01 5.01 -2.65 182 182 182
-12.02 4.93 -2.64 181 181 181
-12.02 4.85 -2.64 181 181 181
-12.01 4.77 -2.64 181 181 181
-12.01 4.69 -2.64 181 181 181
-12.02 4.60 -2.64 181 181 181
-12.02 4.52 -2.64 180 180 180
-12.02 4.44 -2.64 180 180 180
-12.02 4.36 -2.63 180 180 180
-12.02 4.28 -2.64 180 180 180
-12.01 4.20 -2.64 180 180 177
-12.02 4.11 -2.64 179 179 176
-12.02 4.03 -2.64 179 179 176
-12.01 3.95 -2.64 178 178 175
-12.02 3.87 -2.64 178 178 175
-12.02 3.79 -2.64 176 176 173
-12.02 3.70 -2.63 176 176 173
-12.01 3.63 -2.65 176 176 173
-12.02 3.54 -2.63 175 175 172
-12.02 3.46 -2.64 175 175 172
-12.02 3.38 -2.63 174 174 171
-12.02 3.30 -2.63 174 174 171
-12.02 3.21 -2.63 173 173 170
-12.02 3.13 -2.63 173 173 170
-12.03 3.05 -2.62 173 173 173
-12.03 2.97 -2.61 173 173 173
-12.04 2.88 -2.61 173 173 173
-12.04 2.80 -2.60 173 173 173
-12.05 2.72 -2.59 173 173 173
-12.05 2.63 -2.59 173 173 173
-12.06 2.55 -2.58 173 173 173
-12.06 2.47 -2.57 173 173 173
-12.07 2.38 -2.57 173 173 173
-12.07 2.30 -2.56 173 173 173
-12.07 2.22 -2.56 173 173 173
-12.08 2.14 -2.55 173 173 173
-12.08 2.05 -2.55 173 173 173
-12.08 1.97 -2.54 173 173 173
-12.08 1.89 -2.54 173 173 170
-12.08 1.81 -2.54 172 172 169
-12.08 1.73 -2.54 173 173 170
-12.09 1.64 -2.53 173 173 170
-12.08 1.56 -2.54 173 173 168
-12.08 1.48 -2.54 172 172 167
-12.09 1.40 -2.54 172 172 167
-12.09 1.32 -2.53 172 172 167
-12.09 1.24 -2.53 172 172 167
-12.09 1.16 -2.53 172 172 167
-12.09 1.07 -2.53 172 172 167
-12.09 0.99 -2.53 172 172 167
-12.09 0.91 -2.53 172 172 167
-12.10 0.83 -2.52 172 172 167
-12.10 0.74 -2.51 172 172 167
-12.10 0.66 -2.51 172 172 167
-12.11 0.58 -2.51 172 172 167
-12.11 0.50 -2.50 172 172 167
-12.11 0.42 -2.50 170 172 167
-12.12 0.33 -2.49 170 172 167
-12.12 0.25 -2.49 170 172 167
-12.13 0.17 -2.48 170 172 167
-12.13 0.09 -2.48 170 172 167
-12.13 0.00 -2.47 170 172 167
-12.13 -0.08 -2.48 170 172 167
-12.14 -0.16 -2.46 170 172 167
-12.14 -0.24 -2.46 170 172 167
-12.14 -0.32 -2.46 170 172 167
-12.14 -0.40 -2.46 170 172 167
-12.13 -0.48 -2.47 170 172 167
-12.14 -0.57 -2.45 170 172 167
-12.15 -0.65 -2.45 170 172 167
-12.15 -0.73 -2.44 170 172 167
-12.15 -0.81 -2.44 170 172 167
-12.16 -0.89 -2.44 169 171 168
-12.17 -0.98 -2.42 169 171 168
-12.17 -1.06 -2.42 169 171 168
-12.18 -1.14 -2.41 169 171 168
-12.18 -1.23 -2.40 169 171 168
-12.18 -1.31 -2.40 169 171 168
-12.18 -1.39 -2.40 169 171 168
-12.18 -1.47 -2.40 169 171 168
-12.19 -1.55 -2.39 169 171 168
-12.19 -1.63 -2.39 169 171 168
-12.19 -1.71 -2.39 169 171 168
-12.19 -1.79 -2.39 169 171 168
-12.20 -1.88 -2.38 169 171 168
-12.19 -1.96 -2.38 169 171 168
-12.20 -2.04 -2.38 169 171 171
-12.20 -2.12 -2.38 170 172 172
-12.19 -2.20 -2.38 169 174 173
-12.19 -2.28 -2.39 169 174 173
-12.18 -2.36 -2.40 169 174 173
-12.19 -2.44 -2.39 169 174 173
-12.19 -2.52 -2.39 169 174 173
-12.19 -2.60 -2.39 169 174 173
-12.18 -2.68 -2.40 169 174 173
-12.18 -2.76 -2.41 170 175 174
-12.18 -2.85 -2.41 170 175 174
-12.17 -2.93 -2.41 170 175 174
-12.17 -3.01 -2.41 170 175 174
-12.17 -3.09 -2.41 170 175 174
-12.18 -3.17 -2.41 170 175 174
-12.18 -3.25 -2.40 170 175 174
-12.18 -3.33 -2.40 170 175 174
-12.18 -3.41 -2.40 169 174 173
-12.19 -3.50 -2.39 168 173 169
-12.19 -3.58 -2.39 168 173 169
-12.20 -3.66 -2.38 168 173 169
-12.20 -3.74 -2.38 168 173 169
-12.20 -3.82 -2.38 168 173 169
-12.20 -3.90 -2.38 168 173 169
-12.20 -3.98 -2.38 168 173 169
-12.21 -4.07 -2.37 168 173 169
-12.21 -4.15 -2.36 171 176 172
-12.21 -4.23 -2.37 171 176 172
-12.21 -4.31 -2.36 171 176 172
-12.21 -4.39 -2.36 171 176 172
-12.21 -4.47 -2.37 171 176 172
-12.21 -4.55 -2.36 171 176 172
-12.21 -4.63 -2.36 171 176 172
-12.21 -4.71 -2.36 171 176 172
-12.21 -4.79 -2.36 176 178 178
-12.20 -4.87 -2.37 176 178 178
-12.20 -4.96 -2.37 176 178 178
-12.20 -5.04 -2.37 176 178 178
-12.19 -5.12 -2.38 176 178 178
-12.19 -5.20 -2.39 176 178 178
-12.18 -5.28 -2.40 176 178 178
-12.18 -5.36 -2.41 176 178 178
-12.16 -5.44 -2.43 174 176 176
-12.15 -5.52 -2.44 174 176 176
-12.14 -5.60 -2.46 174 176 176
-12.13 -5.68 -2.48 174 176 176
-12.11 -5.76 -2.50 174 176 176
-12.11 -5.84 -2.51 174 176 176
-12.10 -5.92 -2.52 174 176 176
-12.10 -6.00 -2.52 174 176 176
-12.09 -6.08 -2.53 170 173 165
-12.10 -6.17 -2.52 180 183 175
-12.11 -6.25 -2.51 185 187 182
-12.08 -6.33 -2.54 180 182 177
-12.10 -6.41 -2.52 176 178 173
-12.12 -6.49 -2.49 163 165 160
-12.26 -6.58 -2.29 180 182 179
-12.64 -6.67 -1.76 241 243 240
-12.87 -6.75 -1.44 246 248 245
-12.92 -6.83 -1.36 247 249 246
-12.93 -6.91 -1.35 247 249 249
-12.93 -6.99 -1.34 244 246 246
-12.95 -7.07 -1.32 250 252 252
-12.94 -7.15 -1.33 255 255 255
-12.94 -7.23 -1.33 246 247 250
-12.93 -7.31 -1.35 250 251 254
-12.93 -7.39 -1.35 246 253 248
-12.92 -7.47 -1.36 246 253 248
-12.90 -7.54 -1.39 246 253 248
-12.90 -7.62 -1.39 246 253 248
-12.88 -7.70 -1.41 246 253 248
-12.88 -7.78 -1.42 246 253 248
-12.87 -7.86 -1.43 246 253 248
-12.86 -7.94 -1.45 246 253 248
-12.86 -8.02 -1.45 246 253 248
-12.86 -8.10 -1.45 246 253 248
-12.85 -8.18 -1.46 246 253 248
-12.85 -8.26 -1.46 246 253 248
-12.84 -8.34 -1.47 246 253 248
-12.84 -8.42 -1.47 246 253 248
-12.84 -8.49 -1.48 246 253 248
-12.84 -8.57 -1.48 246 253 248
-12.84 -8.65 -1.48 246 253 251
-12.83 -8.73 -1.48 246 253 251
-12.84 -8.81 -1.48 246 253 251
-12.84 -8.89 -1.47 246 253 251
-12.83 -8.97 -1.48 246 253 251
-12.83 -9.05 -1.48 246 253 251
-12.83 -9.13 -1.48 246 253 251
-12.83 -9.21 -1.49 246 253 251
-12.83 -9.29 -1.49 246 253 251
-12.83 -9.37 -1.49 246 253 251
-12.83 -9.44 -1.49 246 253 251
-12.83 -9.52 -1.49 246 253 251
-12.83 -9.60 -1.48 246 253 251
-12.83 -9.68 -1.49 246 253 251
-12.84 -9.76 -1.48 246 253 251
-12.84 -9.84 -1.48 246 253 251
-12.84 -9.92 -1.47 246 253 251
-12.84 -10.00 -1.47 246 253 251
-12.84 -10.08 -1.47 246 253 251
-12.85 -10.16 -1.46 246 253 251
-12.85 -10.23 -1.46 246 253 251
-12.86 -10.31 -1.45 246 253 251
-12.85 -10.39 -1.46 246 253 251
-12.86 -10.47 -1.45 246 253 251
-12.86 -10.55 -1.45 246 253 251
-12.86 -10.63 -1.45 246 253 251
-12.86 -10.71 -1.45 246 253 251
-12.86 -10.79 -1.45 246 253 251
-12.87 -10.87 -1.44 246 253 251
-12.87 -10.94 -1.44 246 253 251
-12.87 -11.02 -1.43 246 253 251
-12.88 -11.10 -1.42 246 253 251
-12.87 -11.18 -1.43 246 253 251
-12.88 -11.26 -1.42 246 253 251
-12.87 -11.34 -1.43 246 253 251
-12.87 -11.42 -1.44 246 253 251
-12.87 -11.50 -1.44 246 253 251
-12.85 -11.58 -1.46 246 253 251
-12.85 -11.66 -1.46 246 253 251
-12.84 -11.74 -1.47 246 253 251
-12.84 -11.82 -1.47 246 253 251
-12.83 -11.90 -1.49 246 253 251
-12.83 -11.98 -1.49 246 253 251
-12.83 -12.06 -1.49 246 253 251
-12.83 -12.14 -1.49 246 253 251
-12.82 -12.22 -1.50 246 253 251
-12.82 -12.30 -1.50 246 253 251
-12.83 -12.37 -1.49 246 253 251
-12.83 -12.45 -1.49 246 253 251
-12.83 -12.53 -1.49 246 253 251
-12.84 -12.61 -1.48 246 253 251
-12.83 -12.69 -1.49 246 253 251
-12.84 -12.77 -1.47 246 253 251
-12.84 -12.85 -1.47 246 253 251
-12.85 -12.92 -1.46 246 253 251
-12.85 -13.00 -1.46 246 253 251
-12.85 -13.08 -1.46 245 252 250
-12.87 -13.16 -1.44 245 252 250
-12.88 -13.24 -1.42 245 252 250
-12.88 -13.31 -1.42 245 252 250
-12.88 -13.39 -1.42 245 252 250
-12.88 -13.47 -1.41 245 252 250
-12.90 -13.55 -1.39 245 252 250
-12.92 -13.62 -1.36 245 252 250
-12.94 -13.69 -1.33 241 247 248
-12.97 -13.76 -1.28 244 250 251
-13.00 -13.84 -1.25 245 249 251
-13.02 -13.91 -1.23 245 249 251
-13.03 -13.99 -1.21 245 249 251
-13.02 -14.07 -1.22 246 250 252
-13.01 -14.15 -1.24 247 248 251
-13.01 -14.23 -1.24 244 245 248
-13.01 -14.31 -1.24 244 245 248
-12.98 -14.39 -1.28 243 244 247
-12.96 -14.48 -1.31 246 245 248
-12.92 -14.57 -1.36 249 248 251
-12.84 -14.67 -1.48 248 247 250
-12.72 -14.78 -1.65 244 243 246
-12.60 -14.89 -1.82 244 241 245
-12.48 -15.01 -1.98 246 243 247
-12.40 -15.11 -2.09 197 199 196
-12.36 -15.20 -2.15 195 197 194
-12.34 -15.29 -2.18 195 197 194
-12.32 -15.37 -2.20 194 196 193
-12.32 -15.45 -2.21 194 196 193
-12.33 -15.53 -2.20 193 195 192
-12.34 -15.61 -2.18 193 195 192
-12.35 -15.69 -2.16 192 194 191
-12.36 -15.76 -2.16 195 197 194
-12.36 -15.84 -2.16 195 197 194
-12.35 -15.93 -2.16 195 197 194
-12.35 -16.01 -2.16 195 197 194
-12.35 -16.09 -2.16 195 197 194
-12.36 -16.17 -2.16 195 197 194
-12.36 -16.25 -2.16 195 197 194
-12.36 -16.33 -2.16 195 197 194
-12.36 -16.41 -2.16 195 197 194
-12.35 -16.49 -2.16 195 197 194
-12.35 -16.57 -2.16 195 197 194
-12.35 -16.65 -2.16 195 197 194
-12.34 -16.74 -2.18 195 197 194
-12.34 -16.82 -2.18 195 197 194
-12.33 -16.90 -2.19 195 197 194
-12.33 -16.98 -2.20 195 197 194
-12.33 -17.06 -2.20 197 199 196
-12.33 -17.14 -2.20 197 199 196
-12.33 -17.22 -2.20 197 199 196
-12.31 -17.31 -2.21 197 199 196
-12.31 -17.39 -2.21 197 199 196
-12.31 -17.47 -2.21 197 199 196
-12.31 -17.55 -2.21 197 199 196
-12.31 -17.63 -2.22 197 199 196
-12.30 -17.72 -2.23 199 199 194
-12.30 -17.80 -2.24 199 199 194
-12.30 -17.88 -2.24 199 199 194
-12.30 -17.96 -2.24 199 199 194
-12.30 -18.04 -2.23 197 197 192
-12.31 -18.12 -2.22 197 197 192
-12.31 -18.20 -2.22 197 197 192
-12.31 -18.28 -2.22 196 196 191
-12.31 -18.36 -2.22 196 196 191
-12.31 -18.44 -2.22 196 196 191
-12.30 -18.52 -2.23 197 197 192
-12.30 -18.61 -2.23 197 197 192
-12.30 -18.69 -2.23 197 197 192
-12.30 -18.77 -2.23 199 199 194
-12.30 -18.85 -2.23 199 199 194
-12.30 -18.93 -2.24 199 199 194
-12.30 -19.01 -2.24 202 201 204
-12.30 -19.09 -2.23 201 200 203
-12.30 -19.17 -2.23 201 200 203
-12.31 -19.25 -2.22 199 198 201
-12.30 -19.33 -2.23 197 196 199
-12.31 -19.41 -2.22 196 195 198
-12.31 -19.49 -2.21 194 193 196
-12.32 -19.57 -2.20 194 193 196
-12.31 -19.65 -2.21 182 181 184
-12.32 -19.73 -2.21 174 173 176
-12.31 -19.81 -2.22 174 173 176
-12.33 -19.89 -2.20 171 170 173
-12.34 -19.96 -2.18 166 165 168
-12.35 -20.04 -2.17 170 169 172
-12.38 -20.11 -2.13 139 138 141
-12.43 -20.16 -2.05 81 80 83
-12.48 -20.22 -1.98 39 35 46
-12.54 -20.27 -1.90 34 30 41
-12.59 -20.32 -1.82 48 46 54
-12.65 -20.38 -1.74 112 110 118
-12.70 -20.43 -1.68 137 136 141
-12.75 -20.49 -1.60 136 135 140
-12.79 -20.55 -1.55 121 122 127
-12.77 -20.64 -1.57 110 111 116
-12.82 -20.69 -1.51 23 24 29
-13.10 -20.63 -1.11 7 8 13
-13.62 -20.45 -0.37 11 15 19
-14.14 -20.27 0.36 22 26 30
-14.38 -20.22 0.69 37 40 51
-14.46 -20.26 0.80 44 47 58
-14.55 -20.28 0.94 49 52 70
-14.58 -20.34 0.98 48 51 69
-14.63 -20.39 1.05 49 53 55
-14.66 -20.45 1.09 51 55 57
-14.68 -20.51 1.12 51 55 59
-14.71 -20.57 1.16 47 51 55
-14.71 -20.64 1.17 37 39 34
-14.71 -20.72 1.16 14 16 11
-14.70 -20.80 1.15 2 3 0
-14.69 -20.87 1.14 3 4 0
-14.68 -20.95 1.12 67 62 34
-14.66 -21.04 1.09 189 184 156
-14.63 -21.13 1.05 253 240 208
-14.60 -21.22 1.01 255 248 216
-14.57 -21.31 0.96 233 213 165
-14.55 -21.40 0.94 225 205 157
-14.54 -21.47 0.93 239 217 152
-14.54 -21.55 0.92 249 227 162
-14.54 -21.62 0.93 255 236 178
-14.56 -21.69 0.95 255 225 167
-14.57 -21.75 0.97 243 216 155
-14.59 -21.82 0.99 229 202 141
-14.59 -21.89 0.99 230 210 149
-14.61 -21.96 1.02 221 201 140
-14.64 -22.01 1.06 223 208 157
-14.66 -22.07 1.09 255 241 190
-14.67 -22.14 1.10 144 136 102
-14.66 -22.22 1.09 40 32 0
-14.76 -22.24 1.23 37 34 19
-13.98 -22.77 0.13 35 32 17
-12.86 -23.52 -1.45 63 65 62
-12.94 -23.55 -1.34 114 116 113
-12.93 -23.63 -1.35 165 171 172
-12.99 -23.68 -1.26 196 202 203
-13.01 -23.74 -1.23 225 220 222
-13.03 -23.81 -1.21 224 219 221
-13.04 -23.88 -1.19 221 216 218
-13.04 -23.96 -1.19 218 213 215
-13.04 -24.04 -1.19 214 209 211
-13.05 -24.11 -1.18 212 207 209
-13.05 -24.19 -1.18 210 205 207
-13.06 -24.27 -1.17 207 202 204
-13.05 -24.35 -1.18 209 204 206
-13.05 -24.43 -1.18 209 204 206
-13.06 -24.50 -1.17 209 204 206
-13.06 -24.58 -1.16 209 204 206
-13.06 -24.66 -1.17 209 204 206
-13.06 -24.73 -1.16 209 204 206
-13.07 -24.81 -1.15 209 204 206
-13.06 -24.89 -1.16 209 204 206
-13.06 -24.97 -1.17 212 205 205
-13.07 -25.04 -1.15 212 205 205
-13.06 -25.13 -1.16 212 205 205
-13.07 -25.20 -1.15 210 203 203
-13.06 -25.28 -1.16 210 203 203
-13.06 -25.36 -1.16 212 205 205
-13.07 -25.44 -1.15 212 205 205
-13.07 -25.51 -1.15 210 203 203
-13.07 -25.59 -1.15 210 203 203
-13.07 -25.67 -1.15 212 205 205
-13.07 -25.75 -1.15 214 207 207
-13.07 -25.82 -1.15 213 206 206
-13.07 -25.90 -1.15 211 204 204
-13.07 -25.98 -1.15 211 204 204
-13.07 -26.06 -1.15 211 206 205
-13.08 -26.14 -1.14 213 208 207
-13.07 -26.22 -1.15 213 208 207
-13.08 -26.29 -1.14 213 208 207
-13.07 -26.37 -1.15 214 209 208
-13.07 -26.45 -1.15 214 209 208
-13.07 -26.53 -1.15 216 211 210
-13.08 -26.61 -1.14 217 212 211
-13.08 -26.68 -1.14 217 212 211
-13.08 -26.76 -1.14 216 211 210
-13.07 -26.84 -1.15 216 211 210
-13.08 -26.92 -1.14 216 211 210
-13.07 -27.00 -1.15 216 211 210
-13.08 -27.08 -1.14 216 211 210
-13.08 -27.16 -1.14 216 211 210
-13.08 -27.23 -1.14 216 211 210
-13.08 -27.31 -1.14 216 211 210
-13.08 -27.39 -1.14 216 211 210
-13.08 -27.47 -1.14 217 212 209
-13.08 -27.55 -1.14 217 212 209
-13.08 -27.63 -1.14 217 212 209
-13.08 -27.70 -1.13 217 212 209
-13.07 -27.79 -1.15 217 212 209
-13.08 -27.86 -1.14 217 212 209
-13.08 -27.94 -1.14 217 212 209
-13.08 -28.01 -1.13 217 212 209
-13.08 -28.09 -1.13 217 212 209
-13.08 -28.17 -1.13 217 212 209
-13.08 -28.25 -1.13 217 212 209
-13.08 -28.33 -1.14 217 212 209
-13.08 -28.41 -1.14 217 212 209
-13.07 -28.49 -1.15 217 212 209
-13.08 -28.57 -1.14 217 212 209
-13.08 -28.65 -1.14 217 212 209
-13.07 -28.73 -1.15 219 211 217
-13.07 -28.81 -1.15 219 211 217
-13.07 -28.89 -1.15 219 211 217
-13.06 -28.97 -1.16 219 211 217
-13.06 -29.05 -1.16 219 211 217
-13.06 -29.13 -1.16 220 212 218
-13.06 -29.20 -1.16 220 212 218
-13.07 -29.28 -1.15 220 212 218
-13.06 -29.36 -1.16 220 212 218
-13.07 -29.44 -1.15 220 212 218
-13.06 -29.52 -1.16 220 212 218
-13.06 -29.60 -1.16 220 212 218
-13.06 -29.68 -1.16 220 213 216
-13.07 -29.75 -1.15 220 213 216
