ply
format ascii 1.0
element vertex 1536
property float x
property float y
property float z
property uchar red
property uchar green
property uchar blue
end_header
-11.34 -18.47 -2.68 175 175 170
-11.34 -18.55 -2.69 173 173 168
-11.33 -18.64 -2.69 170 170 165
-11.33 -18.72 -2.70 170 170 165
-11.33 -18.80 -2.70 171 171 166
-11.33 -18.89 -2.70 171 171 166
-11.33 -18.97 -2.69 171 171 166
-11.35 -19.04 -2.67 171 171 166
-11.35 -19.12 -2.67 171 171 166
-11.35 -19.21 -2.67 171 171 166
-11.35 -19.29 -2.67 172 171 174
-11.35 -19.37 -2.67 170 169 172
-11.35 -19.46 -2.67 166 165 168
-11.36 -19.53 -2.66 163 162 165
-11.36 -19.61 -2.65 161 160 163
-11.37 -19.70 -2.65 161 160 163
-11.38 -19.78 -2.64 164 163 166
-11.38 -19.86 -2.63 166 165 168
-11.38 -19.94 -2.63 173 172 175
-11.38 -20.02 -2.63 173 172 175
-11.40 -20.10 -2.60 175 174 177
-11.42 -20.17 -2.58 173 172 175
-11.44 -20.24 -2.55 161 160 163
-11.48 -20.31 -2.50 150 149 152
-11.52 -20.37 -2.43 136 135 138
-11.57 -20.43 -2.37 119 118 121
-11.63 -20.48 -2.28 98 94 105
-11.69 -20.54 -2.20 67 63 74
-11.82 -20.56 -2.03 47 46 49
-11.88 -20.61 -1.94 37 36 39
-12.02 -20.62 -1.74 45 45 40
-12.17 -20.63 -1.54 32 32 27
-12.48 -20.56 -1.11 14 15 20
-12.89 -20.45 -0.55 16 17 22
-13.18 -20.38 -0.15 15 13 37
-13.46 -20.32 0.24 56 54 78
-13.64 -20.31 0.48 65 64 97
-13.75 -20.33 0.64 53 52 85
-13.85 -20.36 0.77 34 35 56
-13.88 -20.42 0.82 2 3 24
-13.93 -20.47 0.88 68 75 73
-13.96 -20.53 0.93 190 197 195
-13.98 -20.59 0.96 245 237 215
-14.00 -20.66 0.98 204 196 174
-14.01 -20.73 0.99 182 173 128
-14.02 -20.80 1.01 181 172 127
-14.03 -20.87 1.02 190 177 114
-14.03 -20.94 1.03 188 175 112
-14.02 -21.02 1.01 186 168 97
-14.01 -21.10 1.00 190 172 101
-14.01 -21.18 0.99 158 135 64
-14.00 -21.26 0.98 160 137 66
-14.01 -21.33 0.99 165 139 69
-14.02 -21.40 1.00 176 150 80
-14.03 -21.47 1.01 203 176 111
-14.03 -21.54 1.02 167 140 75
-14.04 -21.61 1.04 200 171 118
-14.05 -21.68 1.05 226 197 144
-14.07 -21.74 1.08 237 213 158
-14.07 -21.82 1.08 229 205 150
-14.08 -21.89 1.09 205 186 149
-14.10 -21.95 1.12 187 168 131
-14.14 -22.00 1.17 50 35 26
-14.18 -22.06 1.22 42 27 18
-14.24 -22.10 1.30 32 25 35
-14.31 -22.13 1.40 62 55 65
-13.78 -22.51 0.67 179 177 189
-12.55 -23.30 -1.02 241 239 251
-12.21 -23.58 -1.49 217 215 223
-12.32 -23.60 -1.33 202 200 208
-12.29 -23.69 -1.37 216 214 215
-12.27 -23.78 -1.40 211 209 210
-12.25 -23.88 -1.43 211 206 205
-12.26 -23.95 -1.42 214 209 208
-12.27 -24.03 -1.41 210 205 207
-12.27 -24.11 -1.41 210 205 207
-12.26 -24.19 -1.41 212 207 209
-12.25 -24.28 -1.43 213 208 210
-12.25 -24.36 -1.43 214 209 211
-12.25 -24.44 -1.44 216 211 213
-12.24 -24.53 -1.45 217 212 214
-12.23 -24.61 -1.45 216 211 213
-12.22 -24.70 -1.47 213 208 210
-12.22 -24.78 -1.47 213 208 210
-12.22 -24.86 -1.47 213 208 210
-12.22 -24.94 -1.48 213 208 210
-12.21 -25.02 -1.48 213 208 210
-12.21 -25.10 -1.48 213 208 210
-12.20 -25.19 -1.50 213 208 210
-12.21 -25.27 -1.49 213 208 210
-12.20 -25.35 -1.50 214 209 211
-12.19 -25.44 -1.51 214 209 211
-12.19 -25.52 -1.51 214 209 211
-12.19 -25.60 -1.51 214 209 211
-12.18 -25.68 -1.52 214 209 211
-12.18 -25.76 -1.52 214 209 211
-12.18 -25.84 -1.52 214 209 211
-12.18 -25.93 -1.53 214 209 211
-12.18 -26.01 -1.53 214 209 211
-12.18 -26.09 -1.53 214 209 211
-12.18 -26.17 -1.53 216 211 213
-12.18 -26.25 -1.53 217 212 214
-12.18 -26.33 -1.53 217 212 214
-12.18 -26.41 -1.53 217 212 214
-12.19 -26.48 -1.52 218 213 212
-12.18 -26.57 -1.52 218 213 212
-12.19 -26.64 -1.51 217 212 214
-12.19 -26.72 -1.51 217 212 214
-12.19 -26.80 -1.51 217 212 214
-12.19 -26.88 -1.51 217 212 214
-12.19 -26.96 -1.51 217 212 214
-12.19 -27.04 -1.51 217 212 214
-12.19 -27.12 -1.51 217 212 214
-12.20 -27.20 -1.50 217 212 214
-12.19 -27.28 -1.51 217 212 214
-12.19 -27.36 -1.51 217 212 214
-12.19 -27.45 -1.52 217 212 214
-12.19 -27.52 -1.51 217 212 214
-12.20 -27.60 -1.50 217 212 214
-12.20 -27.68 -1.50 217 212 214
-12.20 -27.76 -1.50 217 212 214
-12.20 -27.84 -1.50 217 212 214
-12.20 -27.91 -1.50 217 212 211
-12.20 -28.00 -1.50 217 212 211
-12.21 -28.07 -1.49 217 212 211
-12.20 -28.16 -1.50 217 212 211
-12.21 -28.23 -1.48 217 212 211
-12.21 -28.31 -1.48 217 212 211
-12.21 -28.39 -1.48 217 212 211
-12.21 -28.47 -1.48 217 212 211
-12.21 -28.55 -1.48 217 212 211
-12.21 -28.63 -1.48 217 212 211
-12.21 -28.71 -1.48 217 212 211
-12.22 -28.78 -1.47 218 213 212
-12.21 -28.87 -1.48 219 212 215
-12.22 -28.95 -1.48 219 212 215
-12.22 -29.03 -1.48 219 212 215
-12.21 -29.11 -1.48 219 212 215
-12.22 -29.19 -1.48 219 212 212
-12.22 -29.27 -1.48 219 212 212
-12.22 -29.35 -1.48 219 212 212
-12.22 -29.42 -1.47 219 212 212
-12.23 -29.50 -1.46 219 212 212
-12.22 -29.58 -1.47 220 213 213
-12.23 -29.66 -1.46 220 213 213
-12.23 -29.74 -1.46 220 213 213
-12.22 -29.82 -1.47 220 213 213
-12.22 -29.91 -1.47 220 213 213
-12.22 -29.98 -1.47 220 213 213
-12.23 -30.06 -1.46 220 213 213
-12.23 -30.14 -1.45 220 213 213
-12.23 -30.22 -1.45 220 213 213
-12.24 -30.29 -1.45 219 214 213
-12.23 -30.38 -1.45 219 214 213
-12.23 -30.46 -1.46 219 214 213
-12.24 -30.53 -1.45 220 215 214
-12.24 -30.61 -1.45 220 215 214
-12.23 -30.70 -1.45 220 215 214
-12.24 -30.77 -1.45 220 215 214
-12.23 -30.86 -1.46 220 215 214
-12.24 -30.93 -1.45 220 215 214
-12.24 -31.01 -1.44 220 215 214
-12.24 -31.09 -1.44 220 215 214
-12.25 -31.17 -1.44 221 216 215
-12.25 -31.24 -1.43 221 216 215
-12.25 -31.32 -1.43 223 218 217
-12.26 -31.40 -1.42 223 218 217
-12.27 -31.47 -1.41 223 218 217
-12.28 -31.53 -1.38 223 218 217
-12.30 -31.60 -1.36 224 219 218
-12.31 -31.67 -1.34 221 216 215
-12.33 -31.73 -1.32 231 226 225
-12.35 -31.80 -1.29 218 216 214
-12.37 -31.86 -1.27 250 248 246
-12.41 -31.90 -1.21 246 244 242
-12.59 -31.82 -0.97 252 250 248
-12.99 -31.54 -0.41 253 253 250
-13.28 -31.36 -0.02 255 255 254
-13.41 -31.31 0.17 249 249 246
-13.45 -31.35 0.23 249 249 246
-13.45 -31.43 0.23 244 246 243
-13.30 -31.65 0.01 235 237 234
-12.69 -32.28 -0.82 184 186 183
-12.41 -32.61 -1.21 208 210 207
-12.50 -32.61 -1.08 244 249 245
-12.26 -32.92 -1.42 214 219 215
-11.85 18.64 -2.10 136 130 121
-11.82 18.58 -2.15 136 130 121
-11.82 18.51 -2.16 136 130 121
-11.77 18.47 -2.22 136 130 121
-11.76 18.40 -2.23 136 130 121
-11.76 18.31 -2.23 136 130 121
-11.74 18.26 -2.27 136 130 121
-11.73 18.18 -2.28 136 130 121
-11.72 18.11 -2.28 137 131 122
-11.72 18.03 -2.29 137 131 122
-11.71 17.96 -2.30 137 131 122
-11.70 17.88 -2.32 137 131 122
-11.70 17.80 -2.32 137 131 122
-11.69 17.72 -2.33 137 131 122
-11.69 17.65 -2.34 137 131 122
-11.68 17.57 -2.35 137 131 122
-11.67 17.50 -2.35 137 131 122
-11.67 17.42 -2.36 137 131 122
-11.66 17.35 -2.37 142 133 127
-11.65 17.27 -2.38 142 133 127
-11.65 17.19 -2.38 142 133 127
-11.64 17.11 -2.40 142 133 127
-11.63 17.04 -2.41 142 133 127
-11.63 16.96 -2.42 142 133 127
-11.62 16.89 -2.42 142 133 127
-11.61 16.81 -2.44 143 134 128
-11.60 16.74 -2.45 143 134 128
-11.60 16.66 -2.46 144 135 129
-11.59 16.58 -2.47 144 135 129
-11.58 16.51 -2.48 145 136 130
-11.58 16.43 -2.49 145 136 130
-11.56 16.36 -2.50 146 137 131
-11.56 16.28 -2.50 146 137 129
-11.56 16.20 -2.51 146 137 129
-11.56 16.12 -2.51 146 137 129
-11.56 16.04 -2.51 146 137 129
-11.55 15.96 -2.52 146 137 129
-11.55 15.88 -2.52 146 137 129
-11.55 15.80 -2.53 148 139 133
-11.55 15.72 -2.53 149 140 134
-11.54 15.64 -2.53 149 140 136
-11.54 15.56 -2.53 149 140 136
-11.54 15.48 -2.54 149 140 136
-11.54 15.39 -2.54 149 140 136
-11.54 15.31 -2.54 149 139 138
-11.53 15.24 -2.55 149 139 138
-11.53 15.16 -2.56 147 141 136
-11.52 15.08 -2.57 147 141 136
-11.52 15.00 -2.57 147 141 134
-11.51 14.92 -2.58 148 142 135
-11.51 14.84 -2.58 148 142 135
-11.51 14.76 -2.58 149 143 136
-11.50 14.69 -2.59 149 143 136
-11.50 14.60 -2.59 150 144 137
-11.50 14.52 -2.60 150 144 137
-11.49 14.45 -2.61 151 145 138
-11.49 14.36 -2.61 153 147 140
-11.48 14.29 -2.62 153 147 140
-11.48 14.21 -2.62 153 147 140
-11.47 14.13 -2.63 153 147 140
-11.47 14.05 -2.63 153 147 140
-11.47 13.97 -2.64 153 147 140
-11.47 13.89 -2.64 153 147 140
-11.46 13.81 -2.64 153 147 140
-11.46 13.73 -2.65 152 148 140
-11.46 13.64 -2.65 152 148 140
-11.46 13.56 -2.65 152 148 140
-11.46 13.48 -2.65 152 148 140
-11.45 13.40 -2.66 152 148 140
-11.45 13.32 -2.66 152 148 140
-11.44 13.24 -2.67 153 149 141
-11.44 13.16 -2.67 153 149 141
-11.44 13.08 -2.68 153 149 141
-11.43 13.00 -2.68 152 148 140
-11.43 12.92 -2.69 149 145 137
-11.43 12.84 -2.69 149 145 137
-11.43 12.76 -2.69 149 145 137
-11.43 12.68 -2.69 149 145 137
-11.43 12.60 -2.69 149 145 137
-11.42 12.51 -2.70 150 146 138
-11.43 12.43 -2.69 150 146 140
-11.42 12.35 -2.70 148 144 138
-11.41 12.27 -2.71 147 143 137
-11.41 12.19 -2.71 147 143 137
-11.41 12.11 -2.71 147 143 137
-11.41 12.03 -2.72 147 143 137
-11.41 11.95 -2.72 148 144 138
-11.41 11.86 -2.72 149 145 139
-11.41 11.78 -2.72 148 147 138
-11.40 11.71 -2.73 150 149 140
-11.40 11.62 -2.73 152 151 142
-11.40 11.54 -2.73 154 153 144
-11.40 11.46 -2.73 155 154 145
-11.40 11.37 -2.73 155 154 145
-11.40 11.29 -2.74 157 156 145
-11.39 11.21 -2.74 158 157 146
-11.39 11.14 -2.75 161 157 149
-11.39 11.05 -2.75 162 158 150
-11.38 10.97 -2.76 162 158 150
-11.38 10.89 -2.77 163 159 151
-11.38 10.81 -2.77 163 159 151
-11.38 10.73 -2.77 164 160 152
-11.37 10.65 -2.77 164 160 152
-11.37 10.57 -2.77 166 162 154
-11.37 10.49 -2.77 167 163 155
-11.36 10.40 -2.78 167 163 155
-11.36 10.32 -2.78 167 163 155
-11.37 10.24 -2.77 167 163 155
-11.36 10.16 -2.78 167 163 155
-11.36 10.08 -2.78 167 163 155
-11.36 9.99 -2.78 167 163 155
-11.35 9.92 -2.80 167 163 155
-11.35 9.84 -2.80 168 164 156
-11.35 9.75 -2.80 168 164 156
-11.35 9.67 -2.80 169 165 157
-11.34 9.59 -2.81 169 165 157
-11.34 9.51 -2.82 169 165 157
-11.33 9.43 -2.82 171 167 159
-11.33 9.35 -2.82 171 167 159
-11.33 9.27 -2.83 171 167 159
-11.33 9.18 -2.83 171 170 161
-11.33 9.10 -2.83 172 171 162
-11.32 9.02 -2.83 172 171 162
-11.32 8.94 -2.83 172 171 162
-11.33 8.85 -2.83 171 172 162
-11.33 8.77 -2.83 171 172 162
-11.32 8.69 -2.84 173 172 163
-11.32 8.61 -2.84 173 172 163
-11.31 8.53 -2.85 175 171 165
-11.31 8.45 -2.86 175 171 165
-11.31 8.37 -2.86 176 170 165
-11.31 8.28 -2.86 176 170 165
-11.31 8.20 -2.85 176 170 165
-11.32 8.11 -2.85 176 170 165
-11.32 8.03 -2.84 176 172 166
-11.32 7.95 -2.84 177 173 167
-11.32 7.86 -2.83 176 175 168
-11.33 7.78 -2.83 177 176 169
-11.33 7.69 -2.83 177 176 169
-11.34 7.61 -2.82 177 176 169
-11.34 7.52 -2.81 177 176 169
-11.34 7.44 -2.82 177 176 169
-11.35 7.35 -2.80 177 176 169
-11.34 7.27 -2.81 177 176 169
-11.35 7.19 -2.80 179 177 173
-11.35 7.10 -2.80 180 178 174
-11.35 7.02 -2.80 180 178 174
-11.34 6.94 -2.81 180 178 174
-11.34 6.86 -2.81 180 178 174
-11.35 6.77 -2.80 180 178 174
-11.34 6.69 -2.81 180 178 174
-11.34 6.61 -2.81 180 178 174
-11.34 6.53 -2.81 180 180 177
-11.34 6.45 -2.82 180 180 177
-11.34 6.36 -2.82 180 180 177
-11.34 6.28 -2.81 180 180 177
-11.34 6.20 -2.81 180 180 177
-11.34 6.11 -2.81 180 180 177
-11.34 6.03 -2.81 180 180 177
-11.34 5.95 -2.81 180 180 177
-11.34 5.86 -2.81 180 180 175
-11.34 5.78 -2.81 182 182 177
-11.34 5.70 -2.81 182 182 179
-11.34 5.62 -2.81 182 182 179
-11.34 5.53 -2.82 182 182 179
-11.34 5.45 -2.82 182 182 179
-11.34 5.37 -2.82 182 182 179
-11.33 5.29 -2.82 182 182 179
-11.33 5.21 -2.82 182 182 179
-11.33 5.12 -2.83 181 181 178
-11.34 5.04 -2.82 181 181 178
-11.33 4.96 -2.82 181 181 178
-11.33 4.87 -2.82 181 181 178
-11.33 4.79 -2.82 181 181 178
-11.33 4.71 -2.83 181 181 178
-11.34 4.62 -2.82 181 181 178
-11.33 4.54 -2.83 181 181 178
-11.33 4.46 -2.82 180 180 177
-11.33 4.38 -2.83 180 180 175
-11.33 4.30 -2.83 179 179 174
-11.33 4.21 -2.83 179 179 174
-11.34 4.13 -2.82 178 178 173
-11.34 4.04 -2.82 178 178 173
-11.34 3.96 -2.81 176 176 171
-11.34 3.88 -2.82 176 176 171
-11.33 3.80 -2.82 175 175 170
-11.34 3.71 -2.81 175 175 170
-11.34 3.63 -2.81 174 174 169
-11.34 3.54 -2.81 174 174 169
-11.34 3.46 -2.81 173 173 168
-11.35 3.38 -2.80 173 173 168
-11.34 3.30 -2.81 173 173 168
-11.35 3.21 -2.79 174 174 169
-11.35 3.13 -2.79 174 174 169
-11.36 3.04 -2.78 174 174 169
-11.36 2.96 -2.78 174 174 169
-11.36 2.88 -2.79 174 174 169
-11.37 2.79 -2.77 174 174 169
-11.38 2.71 -2.77 174 174 169
-11.37 2.63 -2.77 174 174 169
-11.37 2.54 -2.77 173 173 168
-11.37 2.46 -2.77 173 173 168
-11.37 2.38 -2.77 173 173 168
-11.37 2.29 -2.77 173 173 168
-11.38 2.21 -2.77 173 173 168
-11.38 2.13 -2.76 173 173 168
-11.38 2.04 -2.77 173 173 168
-11.38 1.96 -2.76 172 172 167
-11.38 1.88 -2.76 173 173 168
-11.38 1.79 -2.76 173 173 168
-11.38 1.71 -2.76 173 173 168
-11.38 1.63 -2.76 172 172 167
-11.39 1.54 -2.75 172 172 167
-11.39 1.46 -2.75 172 172 167
-11.39 1.38 -2.75 172 172 167
-11.39 1.30 -2.75 172 172 167
-11.39 1.21 -2.74 172 172 167
-11.39 1.13 -2.74 172 172 167
-11.39 1.05 -2.74 172 172 167
-11.40 0.96 -2.73 172 172 167
-11.39 0.88 -2.74 172 172 167
-11.40 0.79 -2.73 172 172 167
-11.40 0.71 -2.73 172 172 167
-11.41 0.63 -2.72 172 172 167
-11.41 0.55 -2.72 170 172 167
-11.41 0.46 -2.72 170 172 167
-11.41 0.38 -2.72 170 172 167
-11.41 0.30 -2.71 170 172 167
-11.41 0.21 -2.72 170 172 167
-11.42 0.13 -2.70 170 172 167
-11.42 0.05 -2.71 170 172 167
-11.42 -0.04 -2.70 170 172 167
-11.42 -0.12 -2.70 170 172 167
-11.43 -0.20 -2.69 170 172 167
-11.43 -0.29 -2.69 170 172 167
-11.43 -0.37 -2.68 170 172 167
-11.44 -0.45 -2.68 170 172 167
-11.44 -0.54 -2.67 170 172 167
-11.44 -0.62 -2.67 170 172 167
-11.45 -0.70 -2.67 170 172 167
-11.45 -0.79 -2.66 169 171 166
-11.45 -0.87 -2.67 169 171 166
-11.45 -0.95 -2.66 169 171 166
-11.45 -1.03 -2.66 169 171 166
-11.46 -1.12 -2.65 169 171 166
-11.46 -1.20 -2.65 169 171 166
-11.46 -1.28 -2.65 169 171 166
-11.45 -1.36 -2.66 170 172 167
-11.45 -1.45 -2.67 170 172 167
-11.45 -1.53 -2.66 170 172 167
-11.45 -1.61 -2.66 170 172 167
-11.46 -1.70 -2.65 170 172 167
-11.45 -1.78 -2.66 170 172 167
-11.45 -1.86 -2.66 170 172 167
-11.45 -1.94 -2.66 168 173 169
-11.45 -2.02 -2.66 169 174 170
-11.45 -2.11 -2.66 169 174 170
-11.44 -2.19 -2.67 169 174 170
-11.44 -2.27 -2.67 169 174 170
-11.44 -2.35 -2.67 169 174 170
-11.44 -2.43 -2.67 169 174 170
-11.44 -2.52 -2.67 169 174 170
-11.44 -2.60 -2.67 169 174 170
-11.44 -2.68 -2.67 170 175 171
-11.43 -2.76 -2.68 170 175 171
-11.44 -2.85 -2.67 170 175 171
-11.44 -2.93 -2.67 170 175 171
-11.44 -3.01 -2.67 170 175 171
-11.45 -3.10 -2.67 170 175 171
-11.45 -3.18 -2.66 170 175 171
-11.45 -3.26 -2.67 170 175 171
-11.45 -3.34 -2.66 172 177 173
-11.45 -3.43 -2.66 171 176 172
-11.45 -3.51 -2.66 171 176 172
-11.46 -3.59 -2.65 171 176 172
-11.47 -3.68 -2.64 171 176 172
-11.46 -3.76 -2.64 171 176 172
-11.47 -3.84 -2.63 171 176 172
-11.46 -3.92 -2.65 171 176 172
-11.47 -4.01 -2.64 171 176 172
-11.47 -4.09 -2.64 171 176 172
-11.46 -4.17 -2.64 171 176 172
-11.47 -4.25 -2.64 171 176 172
-11.47 -4.34 -2.64 171 176 172
-11.47 -4.42 -2.63 171 176 172
-11.48 -4.50 -2.62 171 176 172
-11.48 -4.58 -2.62 171 176 172
-11.48 -4.67 -2.62 171 176 172
-11.47 -4.75 -2.63 174 179 178
-11.48 -4.83 -2.62 174 179 178
-11.47 -4.91 -2.63 174 179 178
-11.47 -5.00 -2.63 174 179 178
-11.48 -5.08 -2.62 174 179 178
-11.47 -5.16 -2.64 174 179 178
-11.47 -5.24 -2.63 174 179 178
-11.46 -5.32 -2.64 174 179 178
-11.45 -5.41 -2.67 172 177 176
-11.44 -5.49 -2.67 172 177 176
-11.43 -5.57 -2.68 172 177 176
-11.43 -5.65 -2.68 172 177 176
-11.43 -5.73 -2.69 172 177 176
-11.43 -5.82 -2.69 172 177 176
-11.43 -5.90 -2.69 172 177 176
-11.43 -5.98 -2.69 172 177 176
-11.42 -6.06 -2.70 181 184 176
-11.42 -6.15 -2.70 174 177 169
-11.41 -6.23 -2.71 177 179 174
-11.42 -6.31 -2.71 178 180 175
-11.41 -6.39 -2.71 177 179 174
-11.42 -6.48 -2.70 178 180 175
-11.41 -6.56 -2.71 173 175 172
-11.40 -6.64 -2.74 166 168 165
-11.35 -6.72 -2.79 172 174 171
-11.32 -6.81 -2.84 173 175 172
-11.46 -6.89 -2.65 166 168 168
-11.85 -6.98 -2.10 198 200 200
-12.17 -7.06 -1.67 248 250 250
-12.24 -7.15 -1.57 246 248 248
-12.22 -7.23 -1.60 246 247 250
-12.23 -7.31 -1.58 249 250 253
-12.23 -7.39 -1.58 246 253 248
-12.24 -7.47 -1.57 246 253 248
-12.24 -7.55 -1.57 246 253 248
-12.24 -7.63 -1.57 246 253 248
-12.23 -7.71 -1.58 246 253 248
-12.22 -7.79 -1.60 246 253 248
-12.21 -7.87 -1.61 246 253 248
-12.20 -7.95 -1.62 246 253 248
-12.19 -8.03 -1.64 246 253 248
-12.17 -8.11 -1.66 246 253 248
-12.16 -8.19 -1.68 246 253 248
-12.15 -8.27 -1.69 246 253 248
-12.14 -8.35 -1.70 246 253 248
-12.14 -8.43 -1.71 246 253 248
-12.13 -8.51 -1.72 246 253 248
-12.12 -8.59 -1.73 246 253 248
-12.12 -8.68 -1.73 246 253 251
-12.12 -8.76 -1.74 246 253 251
-12.11 -8.84 -1.75 246 253 251
-12.12 -8.92 -1.74 246 253 251
-12.11 -9.00 -1.75 246 253 251
-12.12 -9.08 -1.74 246 253 251
-12.11 -9.16 -1.74 246 253 251
-12.11 -9.24 -1.75 246 253 251
-12.11 -9.32 -1.75 246 253 251
-12.11 -9.40 -1.75 246 253 251
-12.10 -9.48 -1.76 246 253 251
-12.11 -9.56 -1.75 246 253 251
-12.11 -9.64 -1.75 246 253 251
-12.11 -9.72 -1.75 246 253 251
-12.11 -9.80 -1.75 246 253 251
-12.11 -9.88 -1.75 246 253 251
-12.11 -9.96 -1.75 246 253 251
-12.11 -10.05 -1.74 246 253 251
-12.11 -10.13 -1.75 246 253 251
-12.11 -10.21 -1.75 246 253 251
-12.11 -10.29 -1.74 246 253 251
-12.11 -10.37 -1.74 246 253 251
-12.11 -10.45 -1.74 246 253 251
-12.11 -10.53 -1.74 246 253 251
-12.11 -10.61 -1.75 246 253 251
-12.11 -10.69 -1.74 246 253 251
-12.12 -10.77 -1.73 246 253 251
-12.11 -10.85 -1.74 246 253 251
-12.11 -10.93 -1.74 246 253 251
-12.11 -11.01 -1.75 246 253 251
-12.11 -11.09 -1.75 246 253 251
-12.11 -11.17 -1.74 246 253 251
-12.11 -11.25 -1.75 246 253 251
-12.10 -11.34 -1.76 246 253 251
-12.10 -11.42 -1.76 246 253 251
-12.11 -11.50 -1.75 246 253 251
-12.11 -11.58 -1.75 246 253 251
-12.11 -11.66 -1.75 246 253 251
-12.10 -11.74 -1.76 246 253 251
-12.10 -11.82 -1.76 246 253 251
-12.11 -11.90 -1.75 246 253 251
-12.10 -11.98 -1.76 246 253 251
-12.11 -12.06 -1.75 246 253 251
-12.10 -12.14 -1.76 246 253 251
-12.10 -12.22 -1.77 246 253 251
-12.10 -12.30 -1.77 246 253 251
-12.09 -12.39 -1.78 246 253 251
-12.09 -12.47 -1.78 246 253 251
-12.08 -12.55 -1.78 246 253 251
-12.08 -12.63 -1.79 246 253 251
-12.09 -12.71 -1.78 246 253 251
-12.09 -12.79 -1.78 246 253 251
-12.09 -12.87 -1.77 246 253 251
-12.10 -12.95 -1.77 246 253 251
-12.09 -13.03 -1.77 246 253 251
-12.09 -13.11 -1.77 246 253 251
-12.09 -13.19 -1.77 245 252 250
-12.09 -13.27 -1.78 245 252 250
-12.08 -13.36 -1.79 245 252 250
-12.09 -13.43 -1.78 245 252 250
-12.09 -13.51 -1.78 245 252 250
-12.08 -13.60 -1.79 245 252 250
-12.08 -13.68 -1.79 245 252 250
-12.08 -13.76 -1.79 245 252 250
-12.07 -13.84 -1.80 246 253 248
-12.07 -13.92 -1.81 243 250 245
-12.02 -14.02 -1.88 242 247 243
-11.90 -14.13 -2.04 244 249 245
-11.77 -14.24 -2.22 237 242 238
-11.65 -14.35 -2.38 218 223 219
-11.60 -14.44 -2.46 202 204 201
-11.56 -14.54 -2.51 193 195 192
-11.54 -14.62 -2.53 188 190 187
-11.54 -14.71 -2.54 191 193 190
-11.53 -14.79 -2.55 195 195 192
-11.53 -14.87 -2.55 195 195 192
-11.54 -14.95 -2.54 196 196 193
-11.54 -15.04 -2.54 196 196 193
-11.53 -15.12 -2.55 194 192 190
-11.53 -15.20 -2.55 190 188 186
-11.53 -15.28 -2.55 192 194 191
-11.54 -15.36 -2.54 193 195 192
-11.54 -15.45 -2.54 193 195 192
-11.54 -15.53 -2.54 194 196 193
-11.54 -15.61 -2.54 194 196 193
-11.54 -15.69 -2.53 195 197 194
-11.55 -15.77 -2.52 195 197 194
-11.55 -15.85 -2.52 197 199 196
-11.55 -15.93 -2.52 195 197 194
-11.55 -16.02 -2.52 195 197 194
-11.55 -16.10 -2.53 195 197 194
-11.54 -16.19 -2.54 195 197 194
-11.54 -16.27 -2.54 195 197 194
-11.55 -16.35 -2.53 195 197 194
-11.55 -16.43 -2.53 195 197 194
-11.54 -16.52 -2.54 195 197 194
-11.54 -16.60 -2.54 195 197 194
-11.54 -16.68 -2.54 195 197 194
-11.53 -16.76 -2.55 195 197 194
-11.53 -16.85 -2.55 195 197 194
-11.53 -16.93 -2.55 195 197 194
-11.54 -17.01 -2.54 195 197 194
-11.53 -17.09 -2.55 195 197 194
-11.53 -17.18 -2.56 195 197 194
-11.53 -17.26 -2.56 197 199 196
-11.52 -17.34 -2.56 197 199 196
-11.52 -17.43 -2.57 197 199 196
-11.53 -17.51 -2.56 197 199 196
-11.53 -17.59 -2.56 197 199 196
-11.53 -17.67 -2.55 197 199 196
-11.52 -17.75 -2.56 197 199 196
-11.52 -17.84 -2.57 197 199 196
-11.52 -17.92 -2.57 203 203 198
-11.51 -18.01 -2.58 201 201 196
-11.51 -18.09 -2.58 199 199 194
-11.51 -18.17 -2.58 195 195 190
-11.51 -18.25 -2.58 192 192 187
-11.50 -18.34 -2.59 188 188 183
-11.50 -18.42 -2.60 185 185 180
-11.49 -18.51 -2.61 183 183 178
-11.48 -18.59 -2.62 175 175 170
-11.48 -18.68 -2.62 175 175 170
-11.48 -18.76 -2.62 174 174 169
-11.49 -18.84 -2.61 174 174 169
-11.49 -18.92 -2.61 173 173 168
-11.50 -19.00 -2.59 172 172 167
-11.50 -19.08 -2.59 172 172 167
-11.51 -19.16 -2.58 172 172 167
-11.51 -19.24 -2.58 171 170 173
-11.51 -19.32 -2.58 171 170 173
-11.51 -19.41 -2.58 171 170 173
-11.51 -19.49 -2.58 170 169 172
-11.51 -19.57 -2.58 166 165 168
-11.53 -19.65 -2.56 163 162 165
-11.53 -19.73 -2.55 159 158 161
-11.54 -19.81 -2.54 157 156 159
-11.54 -19.89 -2.54 159 158 161
-11.56 -19.96 -2.51 158 157 160
-11.57 -20.04 -2.50 161 160 163
-11.58 -20.11 -2.48 165 164 167
-11.60 -20.19 -2.45 167 166 169
-11.62 -20.26 -2.42 167 166 169
-11.67 -20.32 -2.36 163 162 165
-11.73 -20.37 -2.28 156 155 158
-11.80 -20.42 -2.18 144 140 151
-11.86 -20.48 -2.10 119 115 126
-11.94 -20.52 -1.98 85 84 87
-12.02 -20.57 -1.88 44 43 46
-12.11 -20.60 -1.74 45 45 40
-12.24 -20.62 -1.56 33 33 28
-12.50 -20.57 -1.21 15 16 21
-12.88 -20.47 -0.69 10 11 16
-13.23 -20.37 -0.20 3 1 25
-13.57 -20.29 0.27 34 32 56
-13.72 -20.29 0.48 44 43 76
-13.85 -20.30 0.66 42 41 74
-13.94 -20.33 0.79 50 51 72
-13.97 -20.39 0.82 11 12 33
-14.01 -20.44 0.88 5 12 10
-14.04 -20.51 0.91 74 81 79
-14.06 -20.57 0.94 171 163 141
-14.07 -20.64 0.97 199 191 169
-14.08 -20.71 0.97 190 181 136
-14.10 -20.77 1.00 168 159 114
-14.10 -20.85 1.01 173 160 97
-14.11 -20.92 1.02 172 159 96
-14.11 -20.99 1.02 186 168 97
-14.09 -21.08 0.99 212 194 123
-14.09 -21.15 0.99 199 176 105
-14.09 -21.23 0.98 180 157 86
-14.09 -21.31 0.98 171 145 75
-14.09 -21.38 0.99 160 134 64
-14.09 -21.45 0.99 163 136 71
-14.09 -21.53 0.99 143 116 51
-14.09 -21.60 0.99 168 139 86
-14.10 -21.67 1.00 197 168 115
-14.11 -21.74 1.02 203 179 124
-14.11 -21.81 1.02 197 173 118
-14.12 -21.88 1.04 231 212 175
-14.15 -21.94 1.07 240 221 184
-14.18 -22.00 1.11 66 51 42
-14.23 -22.05 1.18 41 26 17
-14.25 -22.11 1.20 53 46 56
-14.30 -22.15 1.28 27 20 30
-14.28 -22.24 1.24 101 99 111
-13.53 -22.75 0.22 224 222 234
-12.59 -23.38 -1.09 222 220 228
-12.43 -23.55 -1.31 200 198 206
-12.44 -23.63 -1.29 207 205 206
-12.40 -23.73 -1.35 211 209 210
-12.37 -23.83 -1.39 213 208 207
-12.38 -23.91 -1.38 213 208 207
-12.38 -23.98 -1.38 210 205 207
-12.39 -24.06 -1.36 210 205 207
-12.38 -24.14 -1.38 211 206 208
-12.37 -24.23 -1.39 211 206 208
-12.37 -24.31 -1.39 212 207 209
-12.36 -24.39 -1.40 213 208 210
-12.36 -24.48 -1.41 213 208 210
-12.35 -24.56 -1.41 213 208 210
-12.35 -24.64 -1.42 212 207 209
-12.35 -24.72 -1.42 212 207 209
-12.34 -24.81 -1.43 212 207 209
-12.33 -24.89 -1.44 212 207 209
-12.33 -24.97 -1.45 212 207 209
-12.32 -25.06 -1.45 212 207 209
-12.32 -25.14 -1.46 212 207 209
-12.31 -25.23 -1.47 212 207 209
-12.31 -25.30 -1.47 213 208 210
-12.31 -25.39 -1.48 213 208 210
-12.30 -25.47 -1.48 213 208 210
-12.30 -25.55 -1.48 213 208 210
-12.31 -25.63 -1.48 213 208 210
-12.30 -25.71 -1.49 213 208 210
-12.30 -25.79 -1.49 213 208 210
-12.30 -25.87 -1.49 213 208 210
-12.30 -25.95 -1.48 214 209 211
-12.30 -26.03 -1.49 214 209 211
-12.30 -26.11 -1.49 214 209 211
-12.30 -26.19 -1.48 216 211 213
-12.30 -26.27 -1.48 217 212 214
-12.31 -26.35 -1.47 217 212 214
-12.31 -26.42 -1.47 218 213 212
-12.31 -26.50 -1.47 218 213 212
-12.31 -26.58 -1.47 217 212 214
-12.31 -26.66 -1.47 217 212 214
-12.31 -26.74 -1.47 217 212 214
-12.31 -26.82 -1.47 217 212 214
-12.32 -26.90 -1.46 217 212 214
-12.32 -26.98 -1.46 217 212 214
-12.32 -27.06 -1.46 217 212 214
-12.32 -27.14 -1.45 217 212 214
-12.31 -27.22 -1.47 217 212 214
-12.32 -27.30 -1.46 217 212 214
-12.31 -27.38 -1.47 217 212 214
-12.31 -27.46 -1.47 217 212 214
-12.32 -27.54 -1.46 217 212 214
-12.32 -27.62 -1.46 217 212 214
-12.32 -27.69 -1.45 217 212 214
-12.32 -27.78 -1.46 217 212 214
-12.33 -27.85 -1.45 217 212 211
-12.32 -27.94 -1.46 217 212 211
-12.32 -28.01 -1.45 217 212 211
-12.33 -28.09 -1.44 217 212 211
-12.34 -28.16 -1.43 217 212 211
-12.34 -28.24 -1.43 217 212 211
-12.33 -28.33 -1.44 217 212 211
-12.34 -28.40 -1.43 217 212 211
-12.34 -28.48 -1.43 217 212 211
-12.34 -28.56 -1.43 217 212 211
-12.34 -28.64 -1.43 217 212 211
-12.34 -28.72 -1.43 218 213 212
-12.34 -28.80 -1.43 219 212 215
-12.34 -28.88 -1.43 219 212 215
-12.34 -28.96 -1.43 219 212 215
-12.33 -29.05 -1.44 219 212 215
-12.34 -29.12 -1.43 219 212 212
-12.34 -29.20 -1.43 219 212 212
-12.34 -29.28 -1.43 219 212 212
-12.34 -29.36 -1.43 219 212 212
-12.34 -29.44 -1.43 219 212 212
-12.35 -29.52 -1.42 220 213 213
-12.34 -29.60 -1.43 220 213 213
-12.34 -29.68 -1.43 220 213 213
-12.34 -29.76 -1.43 220 213 213
-12.34 -29.84 -1.43 220 213 213
-12.34 -29.92 -1.43 220 213 213
-12.34 -30.00 -1.43 220 213 213
-12.35 -30.07 -1.42 220 213 213
-12.35 -30.15 -1.42 220 213 213
-12.35 -30.23 -1.42 219 214 213
-12.35 -30.31 -1.42 219 214 213
-12.35 -30.39 -1.42 219 214 213
-12.35 -30.47 -1.41 219 214 213
-12.35 -30.55 -1.42 219 214 213
-12.35 -30.63 -1.41 219 214 213
-12.36 -30.71 -1.41 219 214 213
-12.36 -30.79 -1.41 219 214 213
-12.36 -30.87 -1.41 219 214 213
-12.36 -30.95 -1.41 219 214 213
-12.37 -31.02 -1.39 220 215 214
-12.37 -31.09 -1.39 223 218 217
-12.37 -31.17 -1.39 223 218 217
-12.37 -31.25 -1.39 223 218 217
-12.37 -31.33 -1.39 223 218 217
-12.39 -31.40 -1.37 223 218 217
-12.40 -31.47 -1.35 223 218 217
-12.43 -31.52 -1.31 223 218 217
-12.44 -31.59 -1.29 221 216 215
-12.46 -31.65 -1.26 227 222 221
-12.48 -31.71 -1.23 214 212 210
-12.49 -31.78 -1.22 240 238 236
-12.51 -31.84 -1.19 246 244 242
-12.62 -31.82 -1.04 252 250 248
-12.97 -31.59 -0.56 241 241 238
-13.32 -31.35 -0.08 249 249 246
-13.50 -31.27 0.17 249 249 246
-13.54 -31.31 0.22 246 246 243
-13.57 -31.35 0.27 249 251 248
-13.50 -31.49 0.18 244 246 243
-13.04 -31.99 -0.46 191 193 190
-12.58 -32.50 -1.10 202 204 201
-12.59 -32.57 -1.09 244 249 245
-12.44 -32.78 -1.29 221 226 222
-11.98 18.56 -2.05 136 130 121
-11.96 18.50 -2.09 136 130 121
-11.96 18.41 -2.08 136 130 121
-11.91 18.38 -2.15 136 130 121
-11.91 18.30 -2.16 136 130 121
-11.91 18.22 -2.16 136 130 121
-11.88 18.17 -2.20 136 130 121
-11.87 18.09 -2.21 136 130 121
-11.86 18.02 -2.22 137 131 122
-11.85 17.95 -2.24 137 131 122
-11.84 17.88 -2.25 137 131 122
-11.83 17.80 -2.27 137 131 122
-11.82 17.73 -2.28 137 131 122
-11.82 17.65 -2.28 137 131 122
-11.81 17.58 -2.29 137 131 122
-11.81 17.50 -2.29 137 131 122
-11.79 17.43 -2.31 137 131 122
-11.78 17.35 -2.33 137 131 122
-11.78 17.27 -2.33 142 133 127
-11.77 17.20 -2.35 142 133 127
-11.76 17.13 -2.36 142 133 127
-11.76 17.05 -2.36 142 133 127
-11.75 16.98 -2.38 142 133 127
-11.74 16.90 -2.39 142 133 127
-11.74 16.82 -2.39 142 133 127
-11.73 16.75 -2.41 143 134 128
-11.71 16.68 -2.43 143 134 128
-11.71 16.60 -2.43 144 135 129
-11.71 16.52 -2.43 144 135 129
-11.69 16.45 -2.45 145 136 130
-11.69 16.37 -2.46 145 136 130
-11.68 16.30 -2.47 146 137 131
-11.68 16.21 -2.47 146 137 129
-11.68 16.14 -2.48 146 137 129
-11.67 16.06 -2.49 146 137 131
-11.67 15.98 -2.49 146 137 131
-11.67 15.90 -2.49 146 137 131
-11.67 15.81 -2.49 146 137 131
-11.66 15.74 -2.50 148 139 135
-11.66 15.66 -2.50 149 140 136
-11.67 15.57 -2.49 149 140 136
-11.67 15.49 -2.49 149 140 136
-11.66 15.41 -2.50 149 139 138
-11.66 15.33 -2.50 149 139 138
-11.66 15.25 -2.50 149 139 138
-11.66 15.17 -2.50 149 139 138
-11.66 15.09 -2.50 147 141 136
-11.65 15.01 -2.51 147 141 136
-11.65 14.93 -2.51 147 141 134
-11.64 14.85 -2.52 148 142 135
-11.64 14.77 -2.52 148 142 135
-11.64 14.69 -2.53 149 143 136
-11.63 14.61 -2.54 149 143 136
-11.63 14.53 -2.54 150 144 137
-11.62 14.46 -2.55 150 144 137
-11.62 14.37 -2.55 151 145 138
-11.62 14.30 -2.56 153 147 140
-11.61 14.22 -2.57 153 147 140
-11.61 14.14 -2.57 153 147 140
-11.61 14.06 -2.57 153 147 140
-11.60 13.98 -2.58 153 147 140
-11.60 13.90 -2.58 153 147 140
-11.60 13.82 -2.58 153 147 140
-11.60 13.74 -2.58 153 147 140
-11.59 13.66 -2.59 152 148 140
-11.59 13.57 -2.59 152 148 140
-11.58 13.50 -2.60 152 148 140
-11.58 13.42 -2.61 152 148 140
-11.58 13.34 -2.61 152 148 140
-11.58 13.25 -2.60 152 148 140
-11.58 13.18 -2.61 153 149 141
-11.57 13.10 -2.63 153 149 141
-11.57 13.02 -2.62 153 149 141
-11.57 12.94 -2.63 153 149 141
-11.56 12.86 -2.64 152 148 140
-11.56 12.78 -2.64 152 148 140
-11.56 12.70 -2.64 150 146 138
-11.56 12.61 -2.64 152 148 140
-11.56 12.53 -2.64 152 148 140
-11.55 12.45 -2.65 152 148 140
-11.55 12.37 -2.65 150 146 140
-11.55 12.29 -2.65 149 145 139
-11.54 12.21 -2.66 148 144 138
-11.54 12.14 -2.67 148 144 138
-11.53 12.05 -2.67 147 143 137
-11.54 11.97 -2.67 147 143 137
-11.53 11.89 -2.67 148 144 138
-11.54 11.81 -2.67 149 145 139
-11.53 11.73 -2.67 148 147 138
-11.53 11.65 -2.68 150 149 140
-11.53 11.57 -2.68 152 151 142
-11.53 11.48 -2.68 153 152 143
-11.53 11.40 -2.68 154 153 144
-11.53 11.32 -2.68 155 154 145
-11.53 11.24 -2.68 157 156 147
-11.52 11.16 -2.69 158 157 148
-11.51 11.08 -2.70 160 156 150
-11.51 11.00 -2.70 160 156 150
-11.51 10.92 -2.71 159 158 151
-11.51 10.83 -2.70 160 159 152
-11.51 10.75 -2.71 160 159 152
-11.51 10.67 -2.71 161 160 153
-11.50 10.60 -2.73 162 161 154
-11.50 10.51 -2.72 164 163 156
-11.50 10.43 -2.72 165 164 157
-11.50 10.35 -2.73 165 164 157
-11.49 10.27 -2.73 165 164 155
-11.49 10.19 -2.74 165 164 155
-11.49 10.11 -2.74 167 163 155
-11.49 10.02 -2.73 168 164 156
-11.49 9.94 -2.74 167 163 155
-11.48 9.86 -2.74 167 163 155
-11.48 9.78 -2.74 168 164 158
-11.47 9.70 -2.76 168 164 158
-11.47 9.62 -2.76 169 165 157
-11.47 9.54 -2.76 169 165 157
-11.47 9.45 -2.76 170 166 158
-11.46 9.38 -2.77 171 167 159
-11.47 9.29 -2.76 171 167 159
-11.46 9.21 -2.77 171 167 159
-11.46 9.13 -2.77 171 170 161
-11.45 9.05 -2.78 172 171 162
-11.45 8.97 -2.79 172 171 162
-11.45 8.89 -2.78 172 171 162
-11.45 8.81 -2.79 171 172 162
-11.45 8.72 -2.79 171 172 162
-11.45 8.64 -2.79 173 172 163
-11.45 8.56 -2.79 173 172 163
-11.44 8.48 -2.80 175 171 165
-11.44 8.40 -2.80 175 171 165
-11.44 8.32 -2.81 176 170 165
-11.44 8.24 -2.81 176 170 165
-11.44 8.15 -2.80 176 170 165
-11.45 8.06 -2.79 176 170 165
-11.45 7.98 -2.78 176 172 166
-11.45 7.90 -2.78 177 173 167
-11.46 7.81 -2.77 176 175 168
-11.46 7.73 -2.77 177 176 169
-11.46 7.64 -2.77 177 176 169
-11.47 7.56 -2.76 177 176 169
-11.47 7.47 -2.76 177 176 169
-11.47 7.39 -2.76 177 176 169
-11.48 7.31 -2.75 177 176 169
-11.48 7.22 -2.75 177 176 169
-11.48 7.14 -2.75 179 177 173
-11.48 7.06 -2.75 181 179 175
-11.48 6.98 -2.75 181 179 175
-11.48 6.89 -2.75 181 179 175
-11.48 6.81 -2.75 181 179 175
-11.48 6.73 -2.75 181 179 175
-11.47 6.65 -2.76 181 179 177
-11.47 6.56 -2.76 181 179 177
-11.47 6.48 -2.76 181 181 178
-11.47 6.40 -2.76 182 182 179
-11.47 6.32 -2.76 182 182 179
-11.47 6.23 -2.76 182 182 179
-11.47 6.15 -2.76 182 182 179
-11.47 6.07 -2.76 182 182 179
-11.47 5.99 -2.76 182 182 179
-11.47 5.90 -2.76 181 181 178
-11.47 5.82 -2.76 180 180 177
-11.46 5.74 -2.77 182 182 179
-11.47 5.66 -2.76 182 182 179
-11.46 5.58 -2.77 182 182 179
-11.47 5.49 -2.76 182 182 179
-11.46 5.41 -2.77 182 182 179
-11.47 5.33 -2.76 182 182 179
-11.46 5.25 -2.77 182 182 179
-11.46 5.17 -2.77 182 182 179
-11.47 5.08 -2.76 181 181 178
-11.47 5.00 -2.76 181 181 178
-11.47 4.91 -2.76 181 181 178
-11.47 4.83 -2.76 181 181 178
-11.46 4.75 -2.77 181 181 178
-11.46 4.67 -2.77 181 181 178
-11.46 4.59 -2.77 181 181 178
-11.46 4.50 -2.77 181 181 178
-11.46 4.42 -2.77 180 180 177
-11.46 4.34 -2.77 180 180 175
-11.46 4.26 -2.77 179 179 174
-11.46 4.17 -2.77 179 179 174
-11.46 4.09 -2.77 178 178 173
-11.47 4.01 -2.76 178 178 173
-11.47 3.93 -2.76 176 176 171
-11.47 3.84 -2.76 176 176 171
-11.47 3.76 -2.76 175 175 170
-11.47 3.68 -2.76 175 175 170
-11.47 3.59 -2.76 174 174 169
-11.48 3.51 -2.75 174 174 169
-11.47 3.43 -2.76 173 173 168
-11.48 3.34 -2.75 173 173 168
-11.48 3.26 -2.75 173 173 168
-11.48 3.18 -2.75 174 174 169
-11.48 3.09 -2.74 174 174 169
-11.49 3.01 -2.74 174 174 169
-11.49 2.93 -2.73 174 174 169
-11.49 2.84 -2.73 174 174 169
-11.50 2.76 -2.72 174 174 169
-11.50 2.68 -2.72 174 174 169
-11.50 2.59 -2.72 174 174 169
-11.51 2.51 -2.71 173 173 168
-11.50 2.43 -2.72 173 173 168
-11.50 2.35 -2.72 173 173 168
-11.51 2.26 -2.71 173 173 168
-11.51 2.18 -2.71 173 173 168
-11.51 2.09 -2.70 173 173 168
-11.51 2.01 -2.70 173 173 168
-11.51 1.93 -2.70 172 172 167
-11.51 1.85 -2.70 173 173 168
-11.51 1.76 -2.70 173 173 168
-11.52 1.68 -2.70 173 173 168
-11.52 1.60 -2.70 172 172 167
-11.52 1.52 -2.70 172 172 167
-11.52 1.43 -2.69 172 172 167
-11.52 1.35 -2.69 172 172 167
-11.52 1.27 -2.70 172 172 167
-11.52 1.19 -2.70 172 172 167
-11.52 1.10 -2.69 172 172 167
-11.53 1.02 -2.68 172 172 167
-11.53 0.94 -2.68 172 172 167
-11.53 0.85 -2.68 172 172 167
-11.53 0.77 -2.68 172 172 167
-11.53 0.69 -2.67 172 172 167
-11.54 0.60 -2.66 172 172 167
-11.54 0.52 -2.66 170 172 167
-11.54 0.44 -2.66 170 172 167
-11.55 0.35 -2.66 170 172 167
-11.55 0.27 -2.65 170 172 167
-11.55 0.19 -2.65 170 172 167
-11.56 0.10 -2.64 170 172 167
-11.56 0.02 -2.64 170 172 167
-11.56 -0.06 -2.64 170 172 167
-11.56 -0.14 -2.64 170 172 167
-11.57 -0.23 -2.63 170 172 167
-11.56 -0.31 -2.63 170 172 167
-11.57 -0.39 -2.62 170 172 167
-11.57 -0.48 -2.62 170 172 167
-11.57 -0.56 -2.62 170 172 167
-11.58 -0.64 -2.61 170 172 167
-11.58 -0.73 -2.60 170 172 167
-11.58 -0.81 -2.60 169 171 168
-11.58 -0.89 -2.60 169 171 168
-11.59 -0.97 -2.59 169 171 168
-11.59 -1.06 -2.59 169 171 168
-11.59 -1.14 -2.59 169 171 168
-11.59 -1.22 -2.59 169 171 168
-11.59 -1.30 -2.59 169 171 168
-11.59 -1.39 -2.59 170 172 169
-11.59 -1.47 -2.60 170 172 169
-11.59 -1.55 -2.60 170 172 169
-11.59 -1.63 -2.60 170 172 169
-11.59 -1.71 -2.60 170 172 169
-11.59 -1.80 -2.59 170 172 169
-11.59 -1.88 -2.60 170 172 169
-11.59 -1.96 -2.59 168 173 169
-11.59 -2.04 -2.60 169 174 170
-11.59 -2.13 -2.59 169 174 170
-11.59 -2.21 -2.60 169 174 170
-11.58 -2.29 -2.60 169 174 170
-11.58 -2.37 -2.61 169 174 170
-11.58 -2.45 -2.61 169 174 170
-11.58 -2.53 -2.61 169 174 170
-11.58 -2.62 -2.61 169 174 170
-11.58 -2.70 -2.61 170 175 171
-11.58 -2.78 -2.61 170 175 171
-11.57 -2.86 -2.62 170 175 171
-11.57 -2.94 -2.62 170 175 171
-11.58 -3.03 -2.61 170 175 171
-11.58 -3.11 -2.61 170 175 171
-11.58 -3.19 -2.60 170 175 171
-11.58 -3.27 -2.60 170 175 171
-11.58 -3.36 -2.61 171 176 172
-11.58 -3.44 -2.60 171 176 172
-11.58 -3.52 -2.60 171 176 172
-11.59 -3.60 -2.59 171 176 172
-11.60 -3.69 -2.58 171 176 172
-11.60 -3.77 -2.58 171 176 172
-11.60 -3.85 -2.58 171 176 172
-11.60 -3.94 -2.58 171 176 172
-11.61 -4.02 -2.57 171 176 172
-11.60 -4.10 -2.58 171 176 172
-11.60 -4.18 -2.58 171 176 172
-11.60 -4.26 -2.58 171 176 172
-11.60 -4.35 -2.58 171 176 172
-11.61 -4.43 -2.57 171 176 172
-11.61 -4.51 -2.57 171 176 172
-11.61 -4.59 -2.57 171 176 172
-11.61 -4.68 -2.56 171 176 172
-11.61 -4.76 -2.56 174 179 178
-11.61 -4.84 -2.56 174 179 178
-11.61 -4.92 -2.57 174 179 178
-11.60 -5.00 -2.58 174 179 178
-11.60 -5.09 -2.58 174 179 178
-11.60 -5.17 -2.58 174 179 178
-11.60 -5.25 -2.58 174 179 178
-11.59 -5.33 -2.59 174 179 178
-11.58 -5.41 -2.61 172 177 176
-11.57 -5.49 -2.62 172 177 176
-11.56 -5.58 -2.63 172 177 176
-11.56 -5.66 -2.64 172 177 176
-11.56 -5.74 -2.64 172 177 176
-11.56 -5.82 -2.64 172 177 176
-11.55 -5.90 -2.65 172 177 176
-11.55 -5.99 -2.65 172 177 176
-11.54 -6.07 -2.66 178 181 173
-11.55 -6.15 -2.65 173 176 168
-11.54 -6.23 -2.67 176 178 173
-11.54 -6.32 -2.66 180 182 177
-11.54 -6.40 -2.67 177 179 174
-11.54 -6.48 -2.67 180 182 177
-11.53 -6.56 -2.68 180 182 179
-11.50 -6.64 -2.72 162 164 161
-11.47 -6.73 -2.76 158 160 157
-11.54 -6.81 -2.66 161 163 160
-11.94 -6.90 -2.11 183 185 185
-12.30 -6.99 -1.62 230 232 232
-12.37 -7.07 -1.51 254 255 255
-12.38 -7.15 -1.50 254 255 255
-12.36 -7.23 -1.52 239 240 243
-12.37 -7.31 -1.51 251 252 255
-12.38 -7.39 -1.50 246 253 248
-12.38 -7.47 -1.50 246 253 248
-12.37 -7.55 -1.51 246 253 248
-12.38 -7.63 -1.50 246 253 248
-12.37 -7.71 -1.51 246 253 248
-12.36 -7.79 -1.53 246 253 248
-12.34 -7.87 -1.56 246 253 248
-12.33 -7.95 -1.57 246 253 248
-12.32 -8.03 -1.58 246 253 248
-12.31 -8.11 -1.60 246 253 248
-12.30 -8.19 -1.62 246 253 248
-12.28 -8.27 -1.63 246 253 248
-12.27 -8.35 -1.65 246 253 248
-12.26 -8.43 -1.66 246 253 248
-12.26 -8.51 -1.66 246 253 248
-12.25 -8.59 -1.67 246 253 248
-12.26 -8.67 -1.67 246 253 251
-12.25 -8.75 -1.68 246 253 251
-12.24 -8.83 -1.69 246 253 251
-12.24 -8.91 -1.69 246 253 251
-12.25 -8.99 -1.68 246 253 251
-12.25 -9.07 -1.68 246 253 251
-12.25 -9.15 -1.68 246 253 251
-12.24 -9.23 -1.70 246 253 251
-12.24 -9.31 -1.69 246 253 251
-12.24 -9.39 -1.69 246 253 251
-12.24 -9.47 -1.69 246 253 251
-12.24 -9.55 -1.69 246 253 251
-12.25 -9.63 -1.68 246 253 251
-12.25 -9.71 -1.68 246 253 251
-12.25 -9.80 -1.68 246 253 251
-12.24 -9.88 -1.69 246 253 251
-12.24 -9.96 -1.69 246 253 251
-12.24 -10.04 -1.69 246 253 251
-12.25 -10.12 -1.68 246 253 251
-12.25 -10.20 -1.68 246 253 251
-12.25 -10.28 -1.68 246 253 251
-12.25 -10.36 -1.68 246 253 251
-12.26 -10.44 -1.67 246 253 251
-12.25 -10.52 -1.67 246 253 251
-12.25 -10.60 -1.67 246 253 251
-12.26 -10.68 -1.67 246 253 251
-12.26 -10.76 -1.66 246 253 251
-12.25 -10.84 -1.67 246 253 251
-12.26 -10.92 -1.67 246 253 251
-12.26 -11.00 -1.67 246 253 251
-12.25 -11.08 -1.67 246 253 251
-12.25 -11.16 -1.67 246 253 251
-12.25 -11.24 -1.68 246 253 251
-12.25 -11.32 -1.68 246 253 251
-12.25 -11.40 -1.68 246 253 251
-12.25 -11.48 -1.68 246 253 251
-12.25 -11.56 -1.68 246 253 251
-12.25 -11.64 -1.68 246 253 251
-12.24 -11.72 -1.69 246 253 251
-12.24 -11.80 -1.70 246 253 251
-12.24 -11.88 -1.70 246 253 251
-12.24 -11.97 -1.70 246 253 251
-12.24 -12.04 -1.70 246 253 251
-12.23 -12.13 -1.70 246 253 251
-12.23 -12.21 -1.71 246 253 251
-12.23 -12.29 -1.71 246 253 251
-12.23 -12.37 -1.71 246 253 251
-12.22 -12.45 -1.72 246 253 251
-12.22 -12.53 -1.72 246 253 251
-12.21 -12.61 -1.73 246 253 251
-12.22 -12.69 -1.72 246 253 251
-12.22 -12.77 -1.72 246 253 251
-12.22 -12.85 -1.72 246 253 251
-12.23 -12.93 -1.71 246 253 251
-12.22 -13.01 -1.72 246 253 251
-12.23 -13.09 -1.71 246 253 251
-12.22 -13.17 -1.72 245 252 250
-12.22 -13.25 -1.72 245 252 250
-12.22 -13.33 -1.72 245 252 250
-12.22 -13.41 -1.72 245 252 250
-12.23 -13.49 -1.70 245 252 250
-12.23 -13.57 -1.70 245 252 250
-12.23 -13.65 -1.70 245 252 250
-12.24 -13.73 -1.70 245 252 250
-12.24 -13.81 -1.69 244 251 249
-12.24 -13.89 -1.70 246 253 251
-12.25 -13.97 -1.68 248 253 252
-12.22 -14.06 -1.72 247 252 251
-12.15 -14.15 -1.82 247 252 251
-12.05 -14.26 -1.96 242 247 246
-11.91 -14.38 -2.16 230 232 232
-11.80 -14.49 -2.30 215 217 217
-11.72 -14.59 -2.42 195 197 197
-11.67 -14.68 -2.48 193 195 195
-11.66 -14.77 -2.50 194 194 194
-11.66 -14.85 -2.50 194 194 194
-11.66 -14.93 -2.50 195 195 195
-11.66 -15.01 -2.50 195 195 195
-11.66 -15.09 -2.50 196 194 195
-11.66 -15.18 -2.50 195 193 194
-11.66 -15.26 -2.50 192 194 191
-11.66 -15.34 -2.50 193 195 192
-11.67 -15.42 -2.49 193 195 192
-11.67 -15.50 -2.49 194 196 193
-11.68 -15.58 -2.48 194 196 193
-11.68 -15.66 -2.47 195 197 194
-11.69 -15.74 -2.46 195 197 194
-11.70 -15.82 -2.45 197 199 196
-11.70 -15.90 -2.44 195 197 194
-11.70 -15.99 -2.45 195 197 194
-11.69 -16.07 -2.45 195 197 194
-11.69 -16.15 -2.45 195 197 194
-11.69 -16.23 -2.46 195 197 194
-11.70 -16.31 -2.45 195 197 194
-11.70 -16.39 -2.44 195 197 194
-11.70 -16.48 -2.45 195 197 194
-11.69 -16.56 -2.45 195 197 194
-11.70 -16.64 -2.45 195 197 194
-11.70 -16.72 -2.45 195 197 194
-11.69 -16.81 -2.45 195 197 194
-11.69 -16.89 -2.45 195 197 194
-11.69 -16.97 -2.45 195 197 194
-11.69 -17.05 -2.45 195 197 194
-11.69 -17.13 -2.46 195 197 194
-11.69 -17.22 -2.46 197 199 196
-11.68 -17.30 -2.47 197 199 196
-11.68 -17.38 -2.47 197 199 196
-11.68 -17.47 -2.47 197 199 196
-11.68 -17.55 -2.47 197 199 196
-11.68 -17.63 -2.47 197 199 196
-11.68 -17.71 -2.47 197 199 196
-11.68 -17.79 -2.47 197 199 196
-11.68 -17.88 -2.47 203 203 198
-11.68 -17.96 -2.48 202 202 197
-11.67 -18.04 -2.48 201 201 196
-11.67 -18.13 -2.49 199 199 194
-11.67 -18.21 -2.49 197 197 192
-11.67 -18.29 -2.49 195 195 190
-11.66 -18.38 -2.50 194 194 189
-11.65 -18.46 -2.51 194 194 189
-11.64 -18.55 -2.52 190 190 185
-11.64 -18.63 -2.52 188 188 183
-11.64 -18.71 -2.52 186 186 181
-11.65 -18.79 -2.51 181 181 176
-11.66 -18.87 -2.50 178 178 173
-11.66 -18.95 -2.50 173 173 168
-11.67 -19.03 -2.49 171 171 166
-11.67 -19.11 -2.49 168 168 163
-11.67 -19.19 -2.49 168 167 170
-11.67 -19.27 -2.49 170 169 172
-11.67 -19.35 -2.48 172 171 174
-11.68 -19.43 -2.47 172 171 174
-11.68 -19.51 -2.47 170 169 172
-11.69 -19.59 -2.46 165 164 167
-11.69 -19.67 -2.45 160 159 162
-11.70 -19.75 -2.45 157 156 159
-11.71 -19.83 -2.43 158 157 160
-11.72 -19.91 -2.41 157 156 159
-11.74 -19.98 -2.38 153 152 155
-11.76 -20.05 -2.36 154 153 156
-11.77 -20.13 -2.34 158 157 160
-11.80 -20.20 -2.31 157 156 159
-11.82 -20.27 -2.27 152 151 154
-11.89 -20.32 -2.18 150 149 152
-11.96 -20.37 -2.09 155 151 162
-12.03 -20.41 -1.98 154 150 161
-12.09 -20.47 -1.90 122 121 124
-12.16 -20.52 -1.80 58 57 60
-12.26 -20.55 -1.67 46 46 43
-12.33 -20.60 -1.57 37 37 34
-12.50 -20.59 -1.33 27 28 33
-12.83 -20.51 -0.88 15 16 21
-13.22 -20.40 -0.34 7 6 23
-13.61 -20.29 0.20 20 19 36
-13.80 -20.27 0.47 29 30 53
-13.94 -20.28 0.66 39 40 63
-14.03 -20.30 0.79 53 55 71
-14.08 -20.36 0.85 35 37 53
-14.11 -20.41 0.90 14 20 23
-14.13 -20.48 0.93 3 9 12
-14.15 -20.54 0.96 38 30 36
-14.16 -20.61 0.98 122 114 120
-14.18 -20.68 0.99 200 193 175
-14.19 -20.75 1.01 199 192 174
-14.20 -20.82 1.02 181 172 127
-14.20 -20.89 1.02 158 149 104
-14.20 -20.97 1.02 148 135 74
-14.18 -21.05 1.00 180 167 106
-14.18 -21.12 1.00 186 170 98
-14.18 -21.20 0.99 192 176 104
-14.17 -21.28 0.98 214 193 121
-14.16 -21.36 0.97 207 186 114
-14.16 -21.44 0.97 191 165 97
-14.16 -21.51 0.96 171 145 77
-14.16 -21.59 0.96 167 140 77
-14.16 -21.66 0.97 164 137 74
-14.18 -21.73 0.99 175 148 87
-14.17 -21.80 0.98 153 126 65
-14.19 -21.87 1.01 187 165 120
-14.22 -21.93 1.05 209 187 142
-14.25 -21.98 1.10 67 49 30
-14.28 -22.04 1.14 26 8 0
-14.32 -22.09 1.19 57 45 47
-14.31 -22.17 1.17 47 35 37
-14.36 -22.22 1.25 55 48 58
-14.30 -22.32 1.17 192 185 195
-13.25 -23.02 -0.30 236 232 241
-12.48 -23.55 -1.37 205 201 210
-12.55 -23.59 -1.26 202 200 201
-12.53 -23.68 -1.29 208 206 207
-12.49 -23.78 -1.35 208 207 200
-12.51 -23.85 -1.32 207 206 199
-12.51 -23.93 -1.33 211 206 208
-12.51 -24.01 -1.32 211 206 208
-12.50 -24.10 -1.34 211 206 208
-12.49 -24.18 -1.34 212 207 209
-12.49 -24.26 -1.35 212 207 209
-12.48 -24.34 -1.36 212 207 209
-12.48 -24.42 -1.36 212 207 209
-12.48 -24.51 -1.37 212 207 209
-12.47 -24.59 -1.37 212 207 209
-12.47 -24.67 -1.38 212 207 209
-12.46 -24.75 -1.38 212 207 209
-12.46 -24.83 -1.38 212 207 209
-12.46 -24.91 -1.38 212 207 209
-12.46 -24.99 -1.39 212 207 209
-12.45 -25.08 -1.40 212 207 209
-12.45 -25.16 -1.41 212 207 209
-12.44 -25.24 -1.41 212 207 209
-12.44 -25.33 -1.41 213 208 210
-12.44 -25.41 -1.42 213 208 210
-12.43 -25.49 -1.42 213 208 210
-12.44 -25.57 -1.42 213 208 210
-12.43 -25.65 -1.42 213 208 210
-12.43 -25.73 -1.42 213 208 210
-12.44 -25.80 -1.41 213 208 210
-12.43 -25.89 -1.42 213 208 210
-12.43 -25.97 -1.42 214 209 211
-12.44 -26.04 -1.41 214 209 211
-12.44 -26.12 -1.41 216 211 213
-12.44 -26.20 -1.41 216 211 213
-12.44 -26.28 -1.41 217 212 214
-12.45 -26.35 -1.40 217 212 211
-12.45 -26.43 -1.40 217 212 211
-12.46 -26.51 -1.39 217 212 214
-12.46 -26.59 -1.39 217 212 214
-12.45 -26.67 -1.40 217 212 214
-12.46 -26.75 -1.39 217 212 214
-12.46 -26.83 -1.39 217 212 214
-12.46 -26.91 -1.39 217 212 214
-12.46 -26.99 -1.39 217 212 214
-12.46 -27.07 -1.39 217 212 214
-12.45 -27.15 -1.40 217 212 214
-12.45 -27.23 -1.40 217 212 214
-12.46 -27.31 -1.39 217 212 214
-12.46 -27.38 -1.39 217 212 214
-12.46 -27.47 -1.39 217 212 214
-12.46 -27.55 -1.39 217 212 214
-12.46 -27.62 -1.38 217 212 214
-12.46 -27.70 -1.38 217 212 214
-12.46 -27.78 -1.38 217 212 211
-12.46 -27.87 -1.39 217 212 211
-12.46 -27.94 -1.38 217 212 211
-12.47 -28.01 -1.37 217 212 211
-12.47 -28.10 -1.38 217 212 211
-12.47 -28.17 -1.37 217 212 211
-12.47 -28.25 -1.37 217 212 211
-12.47 -28.33 -1.37 217 212 211
-12.48 -28.41 -1.37 217 212 211
-12.48 -28.49 -1.37 217 212 211
-12.47 -28.57 -1.37 217 212 214
-12.47 -28.65 -1.37 218 213 215
-12.48 -28.72 -1.36 219 212 215
-12.48 -28.80 -1.36 219 212 215
-12.48 -28.89 -1.37 219 212 215
-12.48 -28.97 -1.37 219 212 215
-12.48 -29.05 -1.37 219 212 215
-12.48 -29.12 -1.37 219 212 215
-12.47 -29.21 -1.37 219 212 215
-12.47 -29.29 -1.37 219 212 215
-12.48 -29.36 -1.37 219 212 215
-12.48 -29.44 -1.37 220 213 216
-12.48 -29.52 -1.36 220 213 216
-12.47 -29.61 -1.37 220 213 216
-12.47 -29.68 -1.37 220 213 216
-12.48 -29.76 -1.37 220 213 216
-12.47 -29.84 -1.37 220 213 216
-12.47 -29.93 -1.37 220 213 216
-12.48 -30.00 -1.37 220 213 216
-12.48 -30.08 -1.37 220 213 216
-12.48 -30.15 -1.36 219 214 213
-12.48 -30.23 -1.36 219 214 213
-12.48 -30.31 -1.36 219 214 213
-12.49 -30.39 -1.35 219 214 213
-12.48 -30.47 -1.36 219 214 213
-12.49 -30.55 -1.35 219 214 213
-12.49 -30.63 -1.35 219 214 213
-12.48 -30.71 -1.36 219 214 213
-12.49 -30.79 -1.35 219 214 213
-12.50 -30.86 -1.34 219 214 213
-12.49 -30.94 -1.34 220 215 214
-12.49 -31.02 -1.34 221 216 215
-12.50 -31.09 -1.33 221 216 215
-12.51 -31.17 -1.32 221 216 215
-12.51 -31.24 -1.32 221 216 215
-12.52 -31.31 -1.30 221 216 215
-12.54 -31.38 -1.28 221 216 215
-12.57 -31.43 -1.24 221 216 215
-12.58 -31.50 -1.22 219 214 213
-12.60 -31.57 -1.20 224 219 218
-12.62 -31.63 -1.17 215 213 211
-12.64 -31.69 -1.15 236 234 232
-12.65 -31.75 -1.12 254 252 250
-12.72 -31.78 -1.03 252 250 248
-12.97 -31.63 -0.68 216 216 213
-13.34 -31.36 -0.16 223 223 220
-13.58 -31.23 0.17 250 250 247
-13.64 -31.25 0.25 248 248 245
-13.68 -31.29 0.30 250 252 249
-13.68 -31.37 0.30 254 255 253
-13.34 -31.75 -0.17 199 201 198
-12.77 -32.36 -0.96 204 206 203
-12.67 -32.53 -1.09 247 252 248
-12.57 -32.70 -1.24 227 232 228
-12.10 18.49 -2.02 136 130 121
-12.07 18.43 -2.06 136 130 121
-12.07 18.35 -2.05 136 130 121
-12.03 18.30 -2.11 136 130 121
-12.03 18.23 -2.12 136 130 121
-12.03 18.15 -2.12 136 130 121
-12.00 18.09 -2.15 136 130 121
-11.99 18.01 -2.16 136 130 121
-11.98 17.94 -2.18 137 131 122
-11.97 17.87 -2.19 137 131 122
-11.96 17.80 -2.21 137 131 122
-11.95 17.73 -2.23 137 131 122
-11.94 17.66 -2.24 137 131 122
-11.93 17.59 -2.25 137 131 122
-11.92 17.51 -2.26 137 131 122
-11.91 17.44 -2.27 137 131 122
-11.90 17.36 -2.29 137 131 122
-11.90 17.29 -2.30 137 131 122
-11.89 17.22 -2.31 142 133 127
-11.88 17.14 -2.31 142 133 127
-11.88 17.06 -2.32 142 133 127
-11.87 16.99 -2.33 142 133 127
-11.86 16.91 -2.35 142 133 127
-11.85 16.84 -2.36 142 133 127
-11.84 16.76 -2.37 142 133 127
-11.83 16.69 -2.39 143 134 128
-11.82 16.62 -2.40 143 134 128
-11.81 16.55 -2.41 143 134 128
-11.81 16.46 -2.41 144 135 129
-11.80 16.39 -2.43 144 135 129
-11.80 16.31 -2.43 145 136 130
-11.79 16.24 -2.44 145 136 130
-11.79 16.16 -2.45 146 137 129
-11.78 16.08 -2.45 146 137 129
-11.78 16.00 -2.45 146 137 131
-11.78 15.92 -2.46 146 137 131
-11.78 15.84 -2.46 146 137 131
-11.78 15.76 -2.46 146 137 131
-11.77 15.68 -2.47 148 139 135
-11.78 15.60 -2.46 149 140 136
-11.78 15.51 -2.46 149 140 136
-11.77 15.43 -2.47 149 140 136
-11.77 15.36 -2.47 149 139 138
-11.77 15.27 -2.47 149 139 138
-11.77 15.19 -2.48 149 139 138
-11.77 15.11 -2.48 149 139 138
-11.76 15.04 -2.49 147 141 136
-11.75 14.96 -2.50 147 141 136
-11.75 14.88 -2.50 147 141 134
-11.75 14.80 -2.50 148 142 135
-11.75 14.72 -2.50 148 142 135
-11.75 14.64 -2.51 149 143 136
-11.74 14.56 -2.51 149 143 136
-11.74 14.48 -2.52 150 144 137
-11.74 14.40 -2.52 150 144 137
-11.74 14.32 -2.52 151 145 138
-11.73 14.24 -2.53 153 147 140
-11.72 14.16 -2.54 153 147 140
-11.73 14.08 -2.53 153 147 140
-11.72 14.01 -2.55 153 147 140
-11.72 13.92 -2.55 153 147 140
-11.72 13.84 -2.55 153 147 140
-11.71 13.76 -2.55 153 147 140
-11.71 13.68 -2.56 153 147 140
-11.71 13.60 -2.55 152 148 140
-11.71 13.52 -2.56 152 148 140
-11.70 13.44 -2.57 152 148 140
-11.70 13.36 -2.57 152 148 140
-11.70 13.28 -2.57 152 148 140
-11.69 13.20 -2.58 152 148 140
