ply
format ascii 1.0
element vertex 1593
property float x
property float y
property float z
property uchar red
property uchar green
property uchar blue
end_header
-6.84 -26.73 -3.56 222 224 221
-6.84 -26.81 -3.56 222 224 221
-6.84 -26.90 -3.55 222 224 221
-6.85 -26.99 -3.55 222 224 221
-6.86 -27.08 -3.54 222 224 221
-6.86 -27.17 -3.54 222 224 221
-6.86 -27.26 -3.54 222 224 221
-6.86 -27.35 -3.54 222 224 221
-6.87 -27.43 -3.52 222 224 221
-6.87 -27.52 -3.52 224 224 224
-6.87 -27.61 -3.52 224 224 224
-6.88 -27.70 -3.51 223 223 223
-6.88 -27.79 -3.51 223 223 223
-6.89 -27.87 -3.50 224 222 223
-6.88 -27.97 -3.51 224 222 223
-6.88 -28.06 -3.51 224 222 223
-6.88 -28.15 -3.51 224 222 223
-6.89 -28.23 -3.50 224 222 223
-6.88 -28.33 -3.51 224 222 223
-6.88 -28.42 -3.51 225 223 224
-6.88 -28.51 -3.51 225 223 224
-6.89 -28.60 -3.50 225 223 224
-6.89 -28.69 -3.50 225 223 224
-6.89 -28.78 -3.50 225 223 224
-6.89 -28.87 -3.50 225 223 224
-6.89 -28.96 -3.50 225 223 224
-6.89 -29.05 -3.49 226 224 225
-6.89 -29.14 -3.49 228 226 227
-6.91 -29.22 -3.48 228 226 227
-6.91 -29.31 -3.48 228 226 227
-6.91 -29.40 -3.48 228 226 227
-6.92 -29.49 -3.46 229 227 228
-6.93 -29.57 -3.45 230 228 229
-6.92 -29.66 -3.46 230 228 229
-6.94 -29.74 -3.44 230 228 229
-6.95 -29.83 -3.43 230 228 229
-6.95 -29.92 -3.42 230 228 229
-6.95 -30.01 -3.42 230 228 229
-6.96 -30.09 -3.42 230 228 229
-6.97 -30.18 -3.41 233 228 230
-6.97 -30.26 -3.40 233 228 230
-6.98 -30.35 -3.39 233 228 230
-6.99 -30.44 -3.38 233 228 230
-6.99 -30.52 -3.38 233 228 230
-6.99 -30.61 -3.37 233 228 230
-6.99 -30.70 -3.37 233 228 230
-7.00 -30.79 -3.37 233 228 230
-6.99 -30.88 -3.38 233 228 230
-6.99 -30.98 -3.38 233 228 230
-6.99 -31.06 -3.37 233 228 230
-6.99 -31.16 -3.38 234 229 231
-6.99 -31.24 -3.37 237 232 234
-6.98 -31.34 -3.39 237 232 234
-6.98 -31.43 -3.39 237 232 234
-6.98 -31.52 -3.39 237 232 234
-6.98 -31.62 -3.39 237 232 234
-6.98 -31.71 -3.39 237 232 234
-6.96 -31.81 -3.41 237 232 234
-6.96 -31.90 -3.41 237 232 234
-6.96 -31.99 -3.41 237 232 234
-6.96 -32.08 -3.41 237 232 234
-6.97 -32.17 -3.40 237 232 234
-6.96 -32.26 -3.41 237 232 234
-6.97 -32.35 -3.40 237 232 234
-6.98 -32.43 -3.39 237 232 234
-6.98 -32.52 -3.38 237 232 234
-6.99 -32.60 -3.38 237 232 234
-6.99 -32.69 -3.38 238 233 235
-6.99 -32.78 -3.38 239 234 236
-6.99 -32.87 -3.37 239 234 236
-7.00 -32.96 -3.37 240 235 237
-7.00 -33.05 -3.37 240 235 237
-7.01 -33.13 -3.36 241 236 238
-7.01 -33.22 -3.36 241 236 238
-7.02 -33.30 -3.34 241 236 238
-7.02 -33.39 -3.34 240 238 239
-7.03 -33.47 -3.32 240 238 239
-7.04 -33.56 -3.32 240 238 239
-7.05 -33.64 -3.31 240 238 239
-7.06 -33.72 -3.29 240 238 239
-7.06 -33.81 -3.29 240 238 239
-7.07 -33.89 -3.28 240 238 239
-7.07 -33.98 -3.28 240 238 239
-7.07 -34.07 -3.28 240 238 239
-7.07 -34.16 -3.28 240 238 239
-7.07 -34.25 -3.28 240 238 239
-7.08 -34.34 -3.27 240 238 239
-7.08 -34.42 -3.27 240 238 239
-7.09 -34.51 -3.26 240 238 239
-7.10 -34.59 -3.25 239 239 236
-7.12 -34.66 -3.22 239 239 236
-7.13 -34.74 -3.20 237 239 234
-7.17 -34.80 -3.16 237 239 234
-7.19 -34.87 -3.13 237 237 232
-7.22 -34.94 -3.10 239 239 234
-7.20 -35.05 -3.13 243 241 237
-7.14 -35.18 -3.19 239 237 233
-7.11 -35.31 -3.24 239 234 231
-7.12 -35.39 -3.22 245 240 237
-6.99 -35.58 -3.37 231 221 220
-6.78 21.76 -3.76 142 133 125
-6.75 21.70 -3.80 142 133 125
-6.75 21.60 -3.80 142 133 125
-6.73 21.53 -3.82 142 133 125
-6.75 21.42 -3.80 142 133 125
-6.76 21.32 -3.79 142 133 125
-6.73 21.26 -3.83 143 134 126
-6.72 21.18 -3.84 143 134 126
-6.72 21.09 -3.84 143 134 126
-6.70 21.01 -3.87 143 134 126
-6.69 20.93 -3.87 143 134 126
-6.68 20.84 -3.89 143 134 126
-6.67 20.76 -3.90 143 134 128
-6.67 20.67 -3.90 143 134 128
-6.67 20.58 -3.90 144 135 127
-6.67 20.49 -3.90 143 134 126
-6.66 20.41 -3.91 143 134 126
-6.66 20.31 -3.91 143 134 126
-6.65 20.23 -3.93 144 135 127
-6.65 20.14 -3.92 144 135 127
-6.65 20.04 -3.92 144 135 127
-6.64 19.96 -3.94 144 135 127
-6.65 19.87 -3.93 144 135 127
-6.63 19.79 -3.95 144 135 127
-6.62 19.70 -3.96 145 136 130
-6.62 19.61 -3.96 141 132 126
-6.60 19.54 -3.98 135 129 122
-6.60 19.45 -3.98 133 127 120
-6.59 19.36 -3.99 129 123 116
-6.59 19.28 -4.00 127 121 114
-6.58 19.19 -4.01 125 119 112
-6.57 19.10 -4.02 123 117 110
-6.56 19.02 -4.03 120 116 110
-6.55 18.94 -4.04 119 115 109
-6.55 18.85 -4.05 119 115 109
-6.53 18.77 -4.07 119 115 109
-6.53 18.68 -4.07 119 115 109
-6.53 18.58 -4.07 119 115 109
-6.53 18.50 -4.07 119 115 109
-6.52 18.41 -4.09 119 115 109
-6.52 18.32 -4.09 119 115 109
-6.51 18.23 -4.09 118 114 108
-6.51 18.14 -4.09 119 115 109
-6.51 18.05 -4.10 118 114 108
-6.51 17.96 -4.10 119 115 109
-6.50 17.87 -4.11 118 114 108
-6.49 17.79 -4.11 119 115 109
-6.50 17.69 -4.11 118 114 108
-6.48 17.61 -4.13 119 115 109
-6.48 17.52 -4.13 119 115 109
-6.47 17.44 -4.14 120 116 110
-6.47 17.34 -4.14 120 116 110
-6.46 17.26 -4.15 120 116 110
-6.46 17.17 -4.15 120 116 110
-6.45 17.08 -4.16 120 116 110
-6.44 17.00 -4.18 120 116 110
-6.44 16.91 -4.18 120 116 110
-6.43 16.82 -4.19 121 117 111
-6.43 16.73 -4.19 121 117 111
-6.43 16.64 -4.20 125 121 115
-6.42 16.56 -4.21 125 121 113
-6.42 16.46 -4.21 127 123 115
-6.41 16.38 -4.22 127 126 119
-6.41 16.29 -4.22 132 131 124
-6.39 16.21 -4.24 132 131 124
-6.39 16.11 -4.24 136 135 128
-6.39 16.02 -4.24 138 137 130
-6.39 15.93 -4.24 143 142 135
-6.38 15.84 -4.25 147 146 139
-6.38 15.76 -4.26 150 149 142
-6.38 15.66 -4.26 151 150 143
-6.36 15.58 -4.27 153 152 145
-6.36 15.49 -4.27 153 152 145
-6.36 15.40 -4.28 154 153 146
-6.36 15.31 -4.28 156 152 146
-6.35 15.22 -4.30 152 148 142
-6.35 15.13 -4.29 153 149 141
-6.35 15.04 -4.29 154 150 142
-6.35 14.95 -4.30 155 151 143
-6.35 14.85 -4.29 155 151 143
-6.35 14.76 -4.29 152 151 144
-6.35 14.67 -4.29 154 153 146
-6.35 14.58 -4.30 157 156 149
-6.34 14.49 -4.30 157 156 149
-6.35 14.39 -4.30 160 156 150
-6.34 14.30 -4.30 160 156 150
-6.34 14.21 -4.30 159 155 147
-6.33 14.13 -4.31 159 155 147
-6.32 14.04 -4.32 159 155 147
-6.31 13.95 -4.33 160 156 148
-6.32 13.86 -4.33 160 156 148
-6.31 13.77 -4.34 161 157 149
-6.31 13.68 -4.34 161 157 149
-6.31 13.59 -4.34 161 157 149
-6.30 13.50 -4.35 162 158 150
-6.30 13.41 -4.35 161 157 149
-6.30 13.32 -4.35 160 156 148
-6.30 13.22 -4.35 161 157 149
-6.30 13.13 -4.35 162 158 150
-6.30 13.04 -4.36 162 158 150
-6.29 12.95 -4.36 163 159 151
-6.30 12.85 -4.36 164 160 152
-6.30 12.76 -4.36 166 162 154
-6.29 12.67 -4.36 166 162 154
-6.29 12.58 -4.36 166 162 154
-6.29 12.49 -4.36 166 162 154
-6.29 12.40 -4.37 166 162 154
-6.29 12.30 -4.36 166 162 154
-6.28 12.22 -4.37 166 162 154
-6.28 12.12 -4.37 166 162 154
-6.28 12.03 -4.37 166 162 154
-6.28 11.94 -4.37 166 162 154
-6.28 11.85 -4.38 166 162 154
-6.28 11.76 -4.38 166 162 154
-6.28 11.66 -4.38 166 162 154
-6.27 11.58 -4.39 166 162 154
-6.27 11.48 -4.39 166 162 154
-6.27 11.39 -4.39 167 163 155
-6.26 11.30 -4.39 167 163 155
-6.26 11.21 -4.39 167 163 155
-6.26 11.12 -4.40 165 164 155
-6.25 11.03 -4.41 165 164 155
-6.26 10.94 -4.41 165 164 155
-6.24 10.85 -4.42 165 164 155
-6.24 10.76 -4.43 165 164 153
-6.25 10.66 -4.41 166 165 154
-6.25 10.57 -4.42 165 166 156
-6.26 10.47 -4.40 165 166 156
-6.26 10.38 -4.40 167 166 157
-6.26 10.29 -4.40 167 166 157
-6.26 10.19 -4.39 167 166 157
-6.26 10.10 -4.40 167 166 157
-6.27 10.00 -4.39 167 166 157
-6.27 9.91 -4.39 167 166 157
-6.27 9.82 -4.39 167 166 157
-6.26 9.73 -4.40 167 166 157
-6.26 9.64 -4.40 169 168 159
-6.26 9.55 -4.40 169 168 159
-6.26 9.45 -4.40 169 168 159
-6.27 9.36 -4.39 169 168 159
-6.27 9.26 -4.39 169 168 159
-6.25 9.18 -4.41 169 168 159
-6.26 9.08 -4.40 170 171 161
-6.25 9.00 -4.42 170 171 161
-6.25 8.90 -4.41 170 171 161
-6.25 8.81 -4.42 170 171 161
-6.24 8.72 -4.42 170 171 161
-6.23 8.63 -4.43 170 171 161
-6.24 8.54 -4.43 170 171 161
-6.24 8.45 -4.43 170 171 161
-6.24 8.35 -4.42 170 171 161
-6.24 8.26 -4.43 170 171 161
-6.24 8.17 -4.43 171 172 162
-6.23 8.08 -4.43 171 172 162
-6.23 7.99 -4.44 171 172 162
-6.24 7.89 -4.43 171 172 162
-6.23 7.80 -4.43 171 172 162
-6.24 7.71 -4.43 171 172 162
-6.23 7.61 -4.43 171 172 162
-6.24 7.52 -4.42 171 172 162
-6.24 7.43 -4.43 172 173 163
-6.24 7.33 -4.42 172 173 163
-6.24 7.24 -4.43 172 173 163
-6.24 7.15 -4.43 172 173 163
-6.25 7.05 -4.41 172 173 163
-6.25 6.96 -4.41 172 173 163
-6.25 6.87 -4.42 172 173 163
-6.24 6.78 -4.42 172 173 163
-6.24 6.68 -4.42 172 173 163
-6.24 6.59 -4.42 172 173 163
-6.25 6.50 -4.42 172 173 163
-6.25 6.40 -4.41 172 173 163
-6.24 6.31 -4.42 172 173 163
-6.25 6.22 -4.42 172 173 163
-6.24 6.13 -4.42 172 173 163
-6.25 6.04 -4.42 172 173 163
-6.24 5.94 -4.42 173 174 166
-6.24 5.85 -4.42 173 174 166
-6.24 5.76 -4.42 173 174 166
-6.23 5.67 -4.44 173 174 166
-6.24 5.58 -4.43 173 174 166
-6.23 5.49 -4.44 173 174 166
-6.23 5.39 -4.43 173 174 166
-6.23 5.30 -4.43 173 174 166
-6.24 5.20 -4.42 173 174 166
-6.24 5.11 -4.42 173 174 166
-6.24 5.02 -4.42 173 174 166
-6.24 4.93 -4.42 173 174 166
-6.24 4.83 -4.42 173 174 166
-6.25 4.74 -4.42 173 174 166
-6.24 4.65 -4.43 173 174 166
-6.23 4.56 -4.44 173 174 166
-6.24 4.47 -4.43 173 174 166
-6.23 4.37 -4.43 173 174 166
-6.24 4.28 -4.43 173 174 166
-6.25 4.18 -4.42 173 174 166
-6.24 4.09 -4.42 173 174 166
-6.25 4.00 -4.41 173 174 166
-6.23 3.91 -4.43 173 174 166
-6.24 3.81 -4.42 173 174 166
-6.24 3.72 -4.43 173 174 166
-6.23 3.63 -4.43 173 174 166
-6.23 3.54 -4.43 173 174 166
-6.22 3.45 -4.44 173 174 166
-6.22 3.36 -4.45 173 174 166
-6.22 3.27 -4.45 173 174 166
-6.22 3.17 -4.45 173 174 166
-6.22 3.08 -4.45 173 174 166
-6.22 2.99 -4.45 172 172 167
-6.23 2.89 -4.44 172 172 167
-6.22 2.80 -4.45 172 172 167
-6.23 2.71 -4.44 172 172 167
-6.23 2.62 -4.44 172 172 167
-6.23 2.52 -4.44 172 172 167
-6.23 2.43 -4.44 172 172 167
-6.24 2.34 -4.43 172 172 167
-6.24 2.24 -4.43 172 172 167
-6.24 2.15 -4.43 172 172 167
-6.24 2.06 -4.43 172 172 167
-6.24 1.96 -4.43 172 172 167
-6.25 1.87 -4.42 172 172 167
-6.25 1.78 -4.41 172 172 167
-6.25 1.68 -4.41 172 172 167
-6.25 1.59 -4.41 172 172 167
-6.25 1.50 -4.41 170 173 165
-6.25 1.41 -4.41 170 173 165
-6.25 1.32 -4.42 170 173 165
-6.25 1.22 -4.41 170 173 165
-6.24 1.13 -4.42 170 173 165
-6.25 1.04 -4.41 170 173 165
-6.23 0.95 -4.43 170 173 165
-6.24 0.85 -4.42 170 173 165
-6.23 0.76 -4.43 170 173 165
-6.24 0.67 -4.43 170 173 165
-6.24 0.58 -4.42 170 173 165
-6.24 0.48 -4.43 170 173 165
-6.25 0.39 -4.42 170 173 165
-6.24 0.30 -4.42 170 173 165
-6.25 0.20 -4.41 170 173 165
-6.24 0.11 -4.42 170 173 165
-6.25 0.02 -4.42 169 174 170
-6.24 -0.07 -4.42 169 174 170
-6.24 -0.16 -4.42 169 174 170
-6.24 -0.26 -4.42 169 174 170
-6.24 -0.35 -4.43 169 174 170
-6.23 -0.44 -4.43 169 174 170
-6.24 -0.54 -4.42 169 174 170
-6.24 -0.63 -4.43 169 174 170
-6.23 -0.72 -4.43 170 175 171
-6.22 -0.81 -4.45 170 175 171
-6.22 -0.90 -4.45 170 175 171
-6.21 -0.99 -4.46 170 175 171
-6.20 -1.08 -4.47 170 175 171
-6.21 -1.18 -4.46 170 175 171
-6.20 -1.27 -4.47 170 175 171
-6.20 -1.36 -4.47 170 175 171
-6.20 -1.45 -4.47 172 177 171
-6.20 -1.55 -4.47 172 177 171
-6.20 -1.64 -4.47 172 177 171
-6.20 -1.73 -4.47 172 177 171
-6.20 -1.82 -4.47 172 177 171
-6.21 -1.92 -4.46 172 177 171
-6.21 -2.01 -4.46 172 177 171
-6.22 -2.11 -4.45 172 177 171
-6.22 -2.20 -4.45 174 179 173
-6.23 -2.29 -4.44 174 179 173
-6.23 -2.38 -4.44 174 179 173
-6.22 -2.48 -4.44 174 179 173
-6.23 -2.57 -4.43 173 180 173
-6.23 -2.66 -4.43 173 180 173
-6.24 -2.76 -4.43 173 180 173
-6.23 -2.85 -4.43 173 180 173
-6.23 -2.94 -4.43 174 179 175
-6.23 -3.03 -4.43 174 179 175
-6.24 -3.13 -4.42 174 179 175
-6.25 -3.22 -4.41 174 179 175
-6.25 -3.31 -4.41 174 179 175
-6.26 -3.41 -4.40 174 179 175
-6.26 -3.50 -4.40 174 179 175
-6.26 -3.59 -4.40 174 179 175
-6.26 -3.68 -4.40 175 180 176
-6.26 -3.78 -4.40 175 180 176
-6.25 -3.87 -4.41 175 180 176
-6.25 -3.96 -4.41 175 180 176
-6.26 -4.05 -4.40 175 180 176
-6.26 -4.15 -4.41 175 180 176
-6.26 -4.24 -4.41 175 180 176
-6.26 -4.33 -4.41 175 180 176
-6.25 -4.42 -4.41 176 181 177
-6.25 -4.52 -4.41 176 181 177
-6.25 -4.61 -4.41 176 181 177
-6.26 -4.70 -4.41 176 181 177
-6.26 -4.79 -4.41 176 181 177
-6.26 -4.89 -4.41 176 181 177
-6.25 -4.98 -4.41 176 181 177
-6.24 -5.07 -4.42 176 181 177
-6.24 -5.16 -4.42 176 181 177
-6.24 -5.26 -4.43 176 181 177
-6.24 -5.35 -4.42 176 181 177
-6.24 -5.44 -4.43 176 181 177
-6.23 -5.53 -4.43 176 181 177
-6.23 -5.63 -4.44 176 181 177
-6.23 -5.72 -4.44 176 181 177
-6.22 -5.81 -4.45 176 181 177
-6.21 -5.90 -4.46 176 183 181
-6.21 -6.00 -4.46 176 183 181
-6.21 -6.09 -4.46 176 183 181
-6.21 -6.18 -4.46 176 183 181
-6.21 -6.27 -4.46 176 183 181
-6.20 -6.37 -4.47 176 183 181
-6.20 -6.46 -4.48 176 183 181
-6.19 -6.55 -4.49 177 184 182
-6.19 -6.64 -4.49 178 185 183
-6.18 -6.74 -4.50 178 185 183
-6.18 -6.83 -4.50 178 185 183
-6.17 -6.92 -4.51 178 185 183
-6.15 -7.01 -4.53 178 185 183
-6.15 -7.11 -4.53 178 185 183
-6.14 -7.20 -4.55 178 185 180
-6.14 -7.29 -4.54 178 185 180
-6.13 -7.39 -4.56 180 187 185
-6.13 -7.48 -4.56 180 187 185
-6.12 -7.57 -4.57 180 187 185
-6.10 -7.66 -4.60 180 187 185
-6.10 -7.76 -4.60 180 187 185
-6.09 -7.85 -4.61 180 187 185
-6.09 -7.94 -4.61 180 187 185
-6.08 -8.04 -4.62 180 187 185
-6.07 -8.13 -4.63 181 188 186
-6.06 -8.22 -4.64 181 188 186
-6.05 -8.32 -4.66 181 188 186
-6.05 -8.41 -4.66 181 188 186
-6.03 -8.50 -4.68 181 188 186
-6.03 -8.60 -4.68 181 188 186
-6.02 -8.69 -4.69 181 188 186
-6.03 -8.78 -4.68 181 188 186
-6.03 -8.88 -4.68 179 184 183
-6.04 -8.97 -4.67 182 187 186
-6.04 -9.06 -4.67 182 187 186
-6.04 -9.15 -4.67 182 187 186
-6.05 -9.25 -4.65 185 190 189
-6.04 -9.34 -4.66 189 194 193
-6.04 -9.43 -4.67 185 190 189
-6.04 -9.53 -4.66 178 183 182
-6.04 -9.62 -4.67 186 191 190
-6.04 -9.71 -4.67 188 193 192
-6.05 -9.81 -4.66 186 191 190
-6.06 -9.90 -4.64 183 188 187
-6.08 -9.99 -4.62 181 186 185
-6.09 -10.08 -4.61 182 187 186
-6.10 -10.17 -4.59 186 191 190
-6.11 -10.27 -4.58 191 196 195
-6.12 -10.36 -4.57 187 194 189
-6.13 -10.45 -4.56 187 194 189
-6.14 -10.54 -4.54 187 194 189
-6.15 -10.63 -4.54 187 194 189
-6.15 -10.73 -4.54 187 194 189
-6.15 -10.82 -4.53 187 194 189
-6.15 -10.91 -4.54 187 194 189
-6.16 -11.00 -4.53 187 194 189
-6.15 -11.10 -4.53 187 194 189
-6.14 -11.19 -4.54 187 194 189
-6.14 -11.28 -4.54 187 194 189
-6.13 -11.38 -4.56 187 194 189
-6.13 -11.47 -4.56 187 194 189
-6.12 -11.57 -4.56 187 194 189
-6.13 -11.66 -4.56 187 194 189
-6.13 -11.75 -4.56 187 194 189
-6.11 -11.85 -4.58 188 195 190
-6.11 -11.94 -4.58 188 195 190
-6.11 -12.03 -4.59 189 196 191
-6.10 -12.13 -4.60 189 196 191
-6.10 -12.22 -4.60 190 197 192
-6.10 -12.31 -4.60 190 197 192
-6.09 -12.41 -4.61 191 198 193
-6.09 -12.50 -4.61 192 199 194
-6.08 -12.59 -4.62 192 199 194
-6.07 -12.69 -4.63 192 199 194
-6.07 -12.78 -4.63 192 199 194
-6.06 -12.88 -4.65 192 199 194
-6.05 -12.97 -4.65 192 199 194
-6.04 -13.07 -4.67 192 199 194
-6.02 -13.16 -4.69 193 198 194
-6.01 -13.26 -4.71 192 197 193
-6.00 -13.35 -4.72 192 197 191
-5.98 -13.45 -4.74 192 197 191
-5.97 -13.54 -4.75 192 197 196
-5.98 -13.64 -4.74 192 197 196
-5.97 -13.73 -4.75 192 197 193
-5.97 -13.82 -4.75 192 197 193
-5.97 -13.92 -4.76 192 197 193
-5.97 -14.01 -4.75 192 197 193
-5.97 -14.10 -4.76 193 197 199
-5.98 -14.20 -4.74 195 199 201
-6.00 -14.28 -4.72 189 194 193
-6.02 -14.37 -4.69 184 189 188
-6.07 -14.46 -4.63 186 191 190
-6.13 -14.54 -4.55 182 187 186
-6.27 -14.60 -4.39 197 200 211
-6.54 -14.63 -4.06 218 221 232
-6.79 -14.67 -3.76 87 93 135
-6.88 -14.74 -3.64 17 23 65
-6.90 -14.83 -3.62 46 52 121
-6.91 -14.92 -3.61 47 53 122
-6.94 -15.00 -3.57 42 56 138
-6.95 -15.09 -3.56 38 52 134
-6.98 -15.17 -3.52 39 57 140
-7.00 -15.26 -3.50 38 56 139
-7.00 -15.35 -3.49 39 57 140
-7.04 -15.43 -3.45 34 52 135
-7.05 -15.52 -3.43 37 50 119
-7.07 -15.60 -3.41 41 54 123
-7.09 -15.69 -3.39 47 55 101
-7.11 -15.77 -3.37 40 48 94
-7.13 -15.86 -3.34 36 42 74
-7.16 -15.94 -3.30 36 42 74
-7.21 -16.02 -3.25 85 75 74
-7.30 -16.08 -3.13 51 41 40
-7.41 -16.14 -3.00 70 57 25
-7.51 -16.20 -2.87 171 158 126
-7.64 -16.26 -2.72 197 181 137
-7.74 -16.32 -2.60 180 164 120
-7.78 -16.39 -2.55 185 171 144
-7.81 -16.47 -2.51 178 164 137
-7.84 -16.55 -2.47 172 167 153
-7.86 -16.64 -2.45 172 167 153
-7.90 -16.71 -2.40 169 170 149
-7.92 -16.80 -2.38 169 170 149
-7.94 -16.88 -2.35 174 170 149
-7.95 -16.96 -2.34 174 170 149
-7.97 -17.04 -2.31 179 168 153
-8.00 -17.12 -2.28 179 168 153
-8.02 -17.20 -2.25 170 168 148
-8.04 -17.29 -2.23 169 167 147
-8.07 -17.36 -2.19 168 166 146
-8.08 -17.45 -2.17 168 166 146
-8.11 -17.53 -2.14 169 167 149
-8.12 -17.61 -2.13 169 167 149
-8.13 -17.69 -2.11 169 167 149
-8.15 -17.77 -2.09 168 166 148
-8.16 -17.86 -2.08 162 159 144
-8.17 -17.94 -2.06 150 147 132
-8.19 -18.02 -2.04 128 125 112
-8.21 -18.10 -2.02 98 95 82
-8.23 -18.18 -2.00 72 69 56
-8.26 -18.26 -1.96 56 53 40
-8.28 -18.34 -1.94 37 34 21
-8.31 -18.42 -1.90 23 20 7
-8.33 -18.50 -1.88 27 27 22
-8.35 -18.58 -1.85 46 46 41
-8.37 -18.66 -1.82 62 63 55
-8.40 -18.73 -1.79 82 83 75
-8.43 -18.81 -1.75 109 110 100
-8.45 -18.89 -1.73 125 126 116
-8.47 -18.97 -1.70 122 123 111
-8.49 -19.05 -1.68 114 115 103
-8.52 -19.12 -1.65 124 125 113
-8.56 -19.19 -1.60 119 120 108
-8.60 -19.26 -1.55 67 68 58
-8.64 -19.34 -1.50 109 110 100
-8.69 -19.40 -1.44 27 28 20
-8.76 -19.46 -1.35 18 19 11
-8.84 -19.51 -1.25 36 36 31
-8.92 -19.57 -1.16 29 29 24
-8.95 -19.64 -1.12 31 33 33
-8.98 -19.71 -1.08 37 39 39
-9.00 -19.79 -1.05 50 52 52
-9.04 -19.86 -1.01 58 60 60
-9.07 -19.93 -0.97 57 59 59
-9.09 -20.01 -0.95 57 59 59
-9.11 -20.08 -0.92 59 61 61
-9.14 -20.16 -0.89 56 58 58
-9.15 -20.24 -0.87 60 62 62
-9.16 -20.32 -0.86 64 66 66
-9.19 -20.39 -0.82 66 68 68
-9.20 -20.47 -0.81 67 69 69
-9.24 -20.54 -0.76 62 64 64
-9.27 -20.61 -0.72 50 52 52
-9.31 -20.68 -0.68 35 37 37
-9.34 -20.74 -0.64 25 27 27
-9.38 -20.81 -0.59 20 27 25
-9.44 -20.87 -0.52 6 13 11
-9.49 -20.93 -0.45 4 9 3
-9.51 -21.01 -0.43 0 0 0
-9.48 -21.10 -0.47 90 91 83
-8.78 -21.51 -1.33 215 216 208
-7.08 -22.37 -3.40 231 229 227
-6.97 -22.51 -3.53 212 210 208
-7.09 -22.54 -3.38 217 215 213
-7.05 -22.65 -3.44 218 216 214
-7.03 -22.75 -3.46 217 217 212
-7.02 -22.85 -3.47 218 218 213
-7.01 -22.94 -3.49 216 218 215
-6.99 -23.04 -3.51 218 220 217
-6.97 -23.14 -3.53 216 220 224
-6.97 -23.23 -3.54 217 221 225
-6.95 -23.33 -3.55 219 221 218
-6.96 -23.42 -3.55 219 221 218
-6.95 -23.52 -3.56 219 221 218
-6.94 -23.61 -3.57 219 221 218
-6.94 -23.70 -3.57 219 221 218
-6.93 -23.80 -3.58 219 221 218
-6.93 -23.89 -3.58 219 221 218
-6.93 -23.98 -3.58 220 222 219
-6.94 -24.06 -3.57 221 223 220
-6.93 -24.16 -3.58 221 223 220
-6.93 -24.25 -3.58 221 223 220
-6.93 -24.34 -3.58 221 223 220
-6.93 -24.43 -3.58 221 223 220
-6.93 -24.52 -3.58 221 223 220
-6.93 -24.61 -3.58 221 223 220
-6.93 -24.70 -3.58 222 224 221
-6.92 -24.80 -3.59 222 224 221
-6.94 -24.88 -3.57 222 224 221
-6.93 -24.97 -3.58 222 224 221
-6.94 -25.06 -3.57 222 224 221
-6.94 -25.15 -3.57 222 224 221
-6.94 -25.24 -3.57 222 224 221
-6.94 -25.33 -3.57 222 224 221
-6.95 -25.42 -3.56 222 224 221
-6.95 -25.51 -3.56 222 224 221
-6.94 -25.60 -3.57 222 224 221
-6.95 -25.69 -3.55 222 224 221
-6.96 -25.78 -3.55 222 224 221
-6.97 -25.86 -3.54 222 224 221
-6.97 -25.95 -3.53 222 224 221
-6.97 -26.04 -3.53 222 224 221
-6.97 -26.13 -3.53 222 224 221
-6.97 -26.22 -3.53 222 224 221
-6.97 -26.31 -3.54 222 224 221
-6.97 -26.40 -3.53 222 224 221
-6.97 -26.49 -3.54 222 224 221
-6.98 -26.58 -3.52 222 224 221
-6.98 -26.67 -3.52 222 224 221
-6.98 -26.76 -3.52 222 224 221
-6.99 -26.84 -3.51 222 224 221
-6.99 -26.93 -3.51 222 224 221
-7.00 -27.02 -3.49 222 224 221
-7.00 -27.11 -3.49 222 224 221
-7.01 -27.19 -3.48 222 224 221
-7.02 -27.28 -3.48 222 224 221
-7.03 -27.36 -3.46 222 224 221
-7.02 -27.46 -3.47 224 224 224
-7.03 -27.55 -3.46 224 224 224
-7.03 -27.64 -3.46 223 223 223
-7.02 -27.73 -3.47 223 223 223
-7.03 -27.82 -3.46 224 222 223
-7.02 -27.91 -3.47 224 222 223
-7.02 -28.00 -3.47 224 222 223
-7.03 -28.09 -3.46 224 222 223
-7.04 -28.17 -3.45 224 222 223
-7.03 -28.27 -3.46 224 222 223
-7.03 -28.36 -3.46 225 223 224
-7.03 -28.45 -3.46 225 223 224
-7.04 -28.53 -3.45 225 223 224
-7.04 -28.62 -3.44 225 223 224
-7.05 -28.71 -3.44 225 223 224
-7.05 -28.80 -3.44 225 223 224
-7.05 -28.89 -3.44 225 223 224
-7.05 -28.97 -3.43 226 224 225
-7.06 -29.06 -3.42 226 224 225
-7.06 -29.15 -3.42 226 224 225
-7.06 -29.24 -3.42 226 224 225
-7.06 -29.33 -3.42 228 226 227
-7.07 -29.41 -3.41 229 227 228
-7.08 -29.50 -3.40 229 227 228
-7.08 -29.59 -3.40 229 227 228
-7.09 -29.67 -3.39 229 227 228
-7.09 -29.76 -3.39 229 227 228
-7.10 -29.85 -3.37 229 227 228
-7.11 -29.93 -3.37 229 227 228
-7.11 -30.02 -3.36 230 228 229
-7.11 -30.11 -3.36 233 228 230
-7.12 -30.19 -3.35 233 228 230
-7.12 -30.28 -3.35 233 228 230
-7.13 -30.37 -3.34 233 228 230
-7.12 -30.46 -3.35 233 228 230
-7.13 -30.54 -3.34 233 228 230
-7.13 -30.63 -3.34 233 228 230
-7.14 -30.72 -3.33 233 228 230
-7.14 -30.81 -3.33 233 228 230
-7.13 -30.90 -3.33 233 228 230
-7.13 -30.99 -3.33 233 228 230
-7.12 -31.09 -3.35 234 229 231
-7.13 -31.17 -3.34 235 230 232
-7.12 -31.27 -3.35 235 230 232
-7.13 -31.36 -3.34 235 230 232
-7.13 -31.45 -3.34 235 230 232
-7.12 -31.54 -3.35 235 230 232
-7.12 -31.63 -3.35 235 230 232
-7.12 -31.73 -3.35 235 230 232
-7.12 -31.81 -3.35 237 232 234
-7.12 -31.91 -3.36 237 232 234
-7.12 -31.99 -3.35 237 232 234
-7.12 -32.08 -3.35 237 232 234
-7.13 -32.17 -3.34 237 232 234
-7.13 -32.26 -3.34 237 232 234
-7.12 -32.35 -3.35 237 232 234
-7.13 -32.44 -3.34 237 232 234
-7.14 -32.52 -3.33 237 232 234
-7.14 -32.61 -3.33 238 233 235
-7.14 -32.70 -3.32 238 233 235
-7.15 -32.79 -3.32 238 233 235
-7.14 -32.88 -3.32 239 234 236
-7.15 -32.96 -3.31 240 235 237
-7.15 -33.05 -3.31 240 235 237
-7.17 -33.13 -3.29 241 236 238
-7.17 -33.22 -3.29 241 236 238
-7.17 -33.30 -3.29 239 237 238
-7.18 -33.39 -3.27 239 237 238
-7.19 -33.47 -3.26 239 237 238
-7.20 -33.55 -3.25 239 237 238
-7.21 -33.63 -3.24 239 237 238
-7.21 -33.72 -3.24 239 237 238
-7.22 -33.81 -3.23 239 237 238
-7.23 -33.89 -3.22 239 237 238
-7.23 -33.98 -3.22 239 237 238
-7.23 -34.07 -3.22 239 237 238
-7.23 -34.16 -3.22 239 237 238
-7.23 -34.25 -3.21 239 237 238
-7.23 -34.34 -3.21 239 237 238
-7.25 -34.41 -3.20 239 237 238
-7.26 -34.50 -3.18 238 238 235
-7.26 -34.58 -3.18 238 238 235
-7.28 -34.66 -3.15 237 239 234
-7.31 -34.72 -3.12 237 239 234
-7.33 -34.79 -3.09 237 237 232
-7.35 -34.87 -3.07 238 238 233
-7.34 -34.96 -3.08 243 241 237
-7.28 -35.11 -3.16 238 236 232
-7.27 -35.20 -3.17 239 234 231
-7.22 -35.33 -3.23 244 239 236
-7.48 -35.20 -2.91 244 234 233
-6.93 21.67 -3.72 142 133 125
-6.89 21.61 -3.76 142 133 125
-6.90 21.51 -3.75 142 133 125
-6.89 21.44 -3.77 142 133 125
-6.89 21.34 -3.76 142 133 125
-6.91 21.23 -3.74 142 133 125
-6.88 21.17 -3.78 143 134 126
-6.87 21.09 -3.79 143 134 126
-6.87 21.00 -3.79 143 134 126
-6.86 20.91 -3.80 143 134 126
-6.86 20.82 -3.80 143 134 126
-6.85 20.74 -3.81 143 134 126
-6.83 20.66 -3.83 143 134 128
-6.84 20.57 -3.83 143 134 128
-6.83 20.48 -3.83 144 135 127
-6.83 20.39 -3.84 143 134 126
-6.82 20.31 -3.85 143 134 126
-6.82 20.22 -3.85 143 134 126
-6.81 20.13 -3.86 144 135 127
-6.81 20.04 -3.86 144 135 127
-6.81 19.95 -3.86 144 135 127
-6.80 19.87 -3.87 144 135 127
-6.80 19.78 -3.87 144 135 127
-6.79 19.69 -3.88 144 135 127
-6.79 19.61 -3.89 145 136 130
-6.78 19.52 -3.90 141 132 126
-6.77 19.44 -3.91 135 129 122
-6.77 19.35 -3.91 133 127 120
-6.76 19.27 -3.93 129 123 116
-6.75 19.18 -3.94 127 121 114
-6.74 19.09 -3.94 125 119 112
-6.73 19.01 -3.96 123 117 110
-6.73 18.93 -3.97 122 118 112
-6.72 18.84 -3.97 120 116 110
-6.71 18.76 -3.99 120 116 110
-6.71 18.66 -3.99 119 115 109
-6.69 18.59 -4.00 119 115 109
-6.69 18.50 -4.02 118 114 108
-6.69 18.41 -4.01 118 114 108
-6.68 18.32 -4.02 117 113 107
-6.68 18.23 -4.03 119 115 109
-6.67 18.15 -4.03 118 114 108
-6.67 18.05 -4.03 119 115 109
-6.67 17.96 -4.03 118 114 108
-6.67 17.87 -4.03 119 115 109
-6.67 17.78 -4.04 118 114 108
-6.66 17.70 -4.05 119 115 109
-6.66 17.61 -4.05 118 114 108
-6.65 17.52 -4.06 119 115 109
-6.64 17.43 -4.07 119 115 109
-6.63 17.35 -4.08 120 116 110
-6.63 17.26 -4.09 120 116 110
-6.62 17.17 -4.09 120 116 110
-6.62 17.09 -4.10 120 116 110
-6.62 16.99 -4.10 120 116 110
-6.61 16.91 -4.11 121 117 111
-6.61 16.82 -4.11 121 117 111
-6.60 16.73 -4.12 122 118 112
-6.59 16.65 -4.13 122 118 112
-6.59 16.55 -4.13 124 120 114
-6.59 16.47 -4.13 122 121 112
-6.59 16.38 -4.14 125 124 115
-6.58 16.29 -4.15 127 126 119
-6.57 16.21 -4.16 131 130 123
-6.56 16.12 -4.17 136 135 128
-6.55 16.03 -4.18 139 138 131
-6.54 15.95 -4.19 143 142 135
-6.54 15.86 -4.20 146 145 138
-6.53 15.77 -4.20 148 147 140
-6.53 15.68 -4.20 151 150 143
-6.54 15.59 -4.20 154 150 144
-6.53 15.50 -4.21 155 151 145
-6.53 15.41 -4.21 154 150 144
-6.53 15.32 -4.21 155 151 145
-6.52 15.23 -4.22 156 152 144
-6.51 15.14 -4.23 152 148 140
-6.51 15.05 -4.23 153 149 141
-6.51 14.96 -4.23 154 150 142
-6.51 14.87 -4.23 155 151 143
-6.51 14.78 -4.23 155 151 143
-6.50 14.69 -4.24 154 150 144
-6.50 14.60 -4.24 156 152 146
-6.50 14.51 -4.24 157 153 147
-6.50 14.41 -4.24 159 155 149
-6.50 14.33 -4.25 160 156 148
-6.50 14.23 -4.25 160 156 148
-6.49 14.14 -4.25 159 155 147
-6.49 14.06 -4.26 159 155 147
-6.48 13.97 -4.26 160 156 148
-6.48 13.88 -4.27 160 156 148
-6.48 13.79 -4.27 160 156 148
-6.47 13.70 -4.28 161 157 149
-6.47 13.60 -4.28 161 157 149
-6.47 13.51 -4.28 161 157 149
-6.46 13.43 -4.29 162 158 150
-6.46 13.33 -4.29 162 158 150
-6.46 13.24 -4.29 160 156 148
-6.46 13.15 -4.29 161 157 149
-6.46 13.06 -4.29 162 158 150
-6.46 12.97 -4.29 162 158 150
-6.46 12.88 -4.29 163 159 151
-6.46 12.78 -4.29 164 160 152
-6.45 12.70 -4.30 166 162 154
-6.45 12.60 -4.30 166 162 154
-6.45 12.51 -4.30 166 162 154
-6.46 12.42 -4.29 166 162 154
-6.46 12.32 -4.29 166 162 154
-6.46 12.23 -4.29 166 162 154
-6.46 12.14 -4.29 166 162 154
-6.45 12.05 -4.30 166 162 154
-6.45 11.96 -4.30 166 162 154
-6.45 11.87 -4.31 166 162 154
-6.45 11.78 -4.31 167 163 155
-6.45 11.68 -4.31 167 163 155
-6.45 11.59 -4.31 167 163 155
-6.43 11.51 -4.32 167 163 155
-6.44 11.41 -4.32 167 163 155
-6.43 11.33 -4.32 167 163 155
-6.43 11.23 -4.33 167 163 155
-6.43 11.14 -4.33 167 163 155
-6.43 11.05 -4.33 166 165 156
-6.42 10.96 -4.34 166 165 156
-6.42 10.87 -4.34 166 165 156
-6.41 10.78 -4.35 166 165 156
-6.42 10.69 -4.34 166 165 156
-6.42 10.60 -4.34 166 165 156
-6.41 10.51 -4.35 165 166 156
-6.43 10.41 -4.33 165 166 156
-6.43 10.31 -4.33 169 165 157
-6.43 10.22 -4.33 169 165 157
-6.43 10.13 -4.33 169 165 157
-6.42 10.04 -4.34 169 165 157
-6.42 9.95 -4.34 169 165 157
-6.42 9.86 -4.34 169 165 157
-6.42 9.76 -4.34 167 166 157
-6.43 9.67 -4.33 167 166 157
-6.42 9.58 -4.34 169 168 159
-6.42 9.49 -4.34 169 168 159
-6.41 9.40 -4.35 169 168 159
-6.42 9.30 -4.34 169 168 159
-6.42 9.21 -4.34 169 168 159
-6.42 9.12 -4.34 169 168 159
-6.42 9.03 -4.34 170 171 161
-6.41 8.94 -4.35 170 171 161
-6.41 8.85 -4.36 170 171 161
-6.41 8.76 -4.35 170 171 161
-6.40 8.67 -4.36 170 171 161
-6.40 8.58 -4.36 170 171 161
-6.40 8.48 -4.36 170 171 161
-6.40 8.39 -4.36 170 171 161
-6.40 8.30 -4.37 170 171 161
-6.40 8.21 -4.37 170 171 161
-6.39 8.12 -4.37 171 172 162
-6.40 8.02 -4.37 171 172 162
-6.40 7.93 -4.37 171 172 162
-6.40 7.84 -4.36 171 172 162
-6.40 7.74 -4.36 171 172 162
-6.40 7.65 -4.36 171 172 162
-6.40 7.56 -4.36 171 172 162
-6.40 7.47 -4.37 171 172 162
-6.40 7.38 -4.37 172 173 163
-6.40 7.28 -4.36 172 173 163
-6.40 7.19 -4.36 172 173 163
-6.40 7.10 -4.36 172 173 163
-6.40 7.01 -4.36 172 173 163
-6.40 6.91 -4.36 172 173 163
-6.41 6.82 -4.36 172 173 163
-6.41 6.73 -4.36 172 173 163
-6.40 6.64 -4.36 172 173 163
-6.41 6.54 -4.36 172 173 163
-6.41 6.45 -4.35 172 173 163
-6.41 6.36 -4.35 172 173 163
-6.40 6.27 -4.36 172 173 163
-6.41 6.17 -4.36 172 173 163
-6.40 6.08 -4.36 172 173 163
-6.41 5.99 -4.36 172 173 163
-6.41 5.90 -4.36 173 174 166
-6.41 5.80 -4.36 173 174 166
-6.41 5.71 -4.36 173 174 166
-6.41 5.62 -4.36 173 174 166
-6.40 5.53 -4.36 173 174 166
-6.40 5.44 -4.36 173 174 166
-6.41 5.34 -4.35 173 174 166
-6.41 5.25 -4.35 173 174 166
-6.41 5.16 -4.36 173 174 166
-6.41 5.07 -4.35 173 174 166
-6.41 4.97 -4.36 173 174 166
-6.41 4.88 -4.35 173 174 166
-6.41 4.79 -4.35 173 174 166
-6.40 4.70 -4.36 173 174 166
-6.41 4.60 -4.35 173 174 166
-6.40 4.52 -4.36 173 174 166
-6.40 4.42 -4.36 173 174 166
-6.40 4.33 -4.37 173 174 166
-6.39 4.24 -4.37 173 174 166
-6.40 4.15 -4.36 173 174 166
-6.40 4.06 -4.37 173 174 166
-6.41 3.96 -4.36 173 174 166
-6.40 3.87 -4.37 173 174 166
-6.39 3.78 -4.37 173 174 166
-6.40 3.69 -4.37 173 174 166
-6.40 3.59 -4.37 173 174 166
-6.39 3.50 -4.37 173 174 166
-6.38 3.41 -4.38 173 174 166
-6.39 3.32 -4.38 173 174 166
-6.38 3.23 -4.39 173 174 166
-6.38 3.14 -4.38 173 174 166
-6.39 3.04 -4.38 173 174 166
-6.39 2.95 -4.38 172 172 167
-6.39 2.86 -4.38 172 172 167
-6.39 2.77 -4.38 172 172 167
-6.39 2.67 -4.37 172 172 167
-6.39 2.58 -4.37 172 172 167
-6.40 2.49 -4.37 172 172 167
-6.39 2.40 -4.37 172 172 167
-6.40 2.30 -4.37 172 172 167
-6.40 2.21 -4.36 172 172 167
-6.40 2.12 -4.36 172 172 167
-6.41 2.02 -4.36 172 172 167
-6.41 1.93 -4.35 172 172 167
-6.41 1.84 -4.35 172 172 167
-6.41 1.75 -4.36 172 172 167
-6.41 1.65 -4.36 172 172 167
-6.42 1.56 -4.34 172 172 167
-6.42 1.47 -4.34 170 173 165
-6.42 1.38 -4.34 170 173 165
-6.42 1.28 -4.34 170 173 165
-6.41 1.19 -4.35 170 173 165
-6.41 1.10 -4.35 170 173 165
-6.42 1.01 -4.34 170 173 165
-6.41 0.92 -4.35 170 173 165
-6.41 0.82 -4.35 170 173 165
-6.41 0.73 -4.35 170 173 165
-6.42 0.64 -4.34 170 173 165
-6.42 0.55 -4.34 170 173 165
-6.41 0.45 -4.35 170 173 165
-6.42 0.36 -4.34 170 173 165
-6.41 0.27 -4.35 170 173 165
-6.42 0.18 -4.34 170 173 165
-6.41 0.09 -4.35 170 173 165
-6.41 -0.01 -4.35 169 175 166
-6.41 -0.10 -4.35 169 175 166
-6.41 -0.19 -4.35 169 175 166
-6.41 -0.28 -4.35 169 175 166
-6.42 -0.38 -4.34 169 175 166
-6.41 -0.47 -4.35 169 175 166
-6.41 -0.56 -4.35 169 175 166
-6.41 -0.65 -4.36 169 175 166
-6.41 -0.74 -4.35 170 176 167
-6.41 -0.84 -4.36 170 176 167
-6.39 -0.93 -4.38 170 176 167
-6.39 -1.02 -4.38 170 176 167
-6.38 -1.11 -4.39 170 176 167
-6.38 -1.20 -4.39 170 176 167
-6.37 -1.29 -4.40 170 176 167
-6.37 -1.38 -4.40 170 176 167
-6.37 -1.48 -4.40 171 176 170
-6.37 -1.57 -4.40 171 176 170
-6.37 -1.66 -4.40 171 176 170
-6.37 -1.75 -4.40 171 176 170
-6.37 -1.84 -4.40 171 176 170
-6.37 -1.94 -4.40 171 176 170
-6.38 -2.03 -4.39 172 177 171
-6.38 -2.12 -4.38 172 177 171
-6.39 -2.22 -4.37 172 177 171
-6.39 -2.31 -4.38 172 177 171
-6.40 -2.40 -4.37 172 177 171
-6.40 -2.49 -4.37 172 177 171
-6.40 -2.59 -4.36 172 177 171
-6.40 -2.68 -4.36 172 177 171
-6.41 -2.77 -4.36 174 179 175
-6.41 -2.87 -4.36 174 179 175
-6.41 -2.96 -4.36 174 179 175
-6.41 -3.05 -4.35 174 179 175
-6.41 -3.14 -4.35 174 179 175
-6.41 -3.24 -4.35 174 179 175
-6.42 -3.33 -4.34 174 179 175
-6.43 -3.42 -4.33 174 179 175
-6.43 -3.51 -4.32 174 179 175
-6.44 -3.61 -4.32 174 179 175
-6.43 -3.70 -4.32 175 180 176
-6.43 -3.79 -4.33 175 180 176
-6.43 -3.88 -4.33 175 180 176
-6.43 -3.97 -4.33 175 180 176
-6.43 -4.07 -4.33 175 180 176
-6.42 -4.16 -4.34 175 180 176
-6.43 -4.25 -4.33 175 180 176
-6.42 -4.34 -4.34 175 180 176
-6.42 -4.43 -4.34 175 182 177
-6.42 -4.53 -4.34 175 182 177
-6.41 -4.62 -4.35 175 182 177
-6.42 -4.71 -4.34 175 182 177
-6.42 -4.80 -4.34 175 182 177
-6.42 -4.90 -4.34 175 182 177
-6.42 -4.99 -4.34 175 182 177
-6.41 -5.08 -4.35 175 182 177
-6.42 -5.17 -4.34 175 182 177
-6.41 -5.26 -4.35 175 182 177
-6.41 -5.36 -4.36 175 182 177
-6.41 -5.45 -4.36 175 182 177
-6.41 -5.54 -4.36 175 182 177
-6.41 -5.63 -4.36 175 182 177
-6.40 -5.72 -4.37 175 182 177
-6.39 -5.82 -4.37 175 182 177
-6.39 -5.91 -4.37 176 183 181
-6.38 -6.00 -4.39 176 183 181
-6.38 -6.09 -4.39 176 183 181
-6.37 -6.18 -4.40 176 183 181
-6.37 -6.28 -4.40 176 183 181
-6.36 -6.37 -4.41 176 183 181
-6.36 -6.46 -4.41 176 183 181
-6.35 -6.55 -4.43 177 184 182
-6.36 -6.65 -4.42 178 185 183
-6.35 -6.74 -4.43 178 185 183
-6.34 -6.83 -4.43 178 185 183
-6.34 -6.92 -4.43 178 185 183
-6.33 -7.02 -4.45 178 185 183
-6.32 -7.11 -4.46 178 185 183
-6.32 -7.20 -4.47 178 185 180
-6.32 -7.29 -4.46 178 185 180
-6.31 -7.39 -4.48 180 187 185
-6.30 -7.48 -4.49 180 187 185
-6.29 -7.57 -4.49 180 187 185
-6.27 -7.66 -4.52 180 187 185
-6.27 -7.76 -4.52 180 187 185
-6.26 -7.85 -4.54 180 187 185
-6.25 -7.94 -4.54 180 187 185
-6.25 -8.03 -4.55 180 187 185
-6.24 -8.13 -4.56 181 188 186
-6.22 -8.22 -4.58 181 188 186
-6.20 -8.31 -4.61 181 188 186
-6.19 -8.41 -4.62 181 188 186
-6.18 -8.50 -4.64 181 188 186
-6.17 -8.59 -4.64 181 188 186
-6.17 -8.69 -4.65 181 188 186
-6.17 -8.78 -4.65 181 188 186
-6.17 -8.87 -4.64 179 184 183
-6.18 -8.96 -4.63 182 187 186
-6.18 -9.06 -4.63 182 187 186
-6.20 -9.15 -4.61 182 187 186
-6.19 -9.24 -4.62 185 190 189
-6.21 -9.33 -4.60 189 194 193
-6.20 -9.43 -4.61 185 190 189
-6.21 -9.52 -4.60 178 183 182
-6.19 -9.61 -4.62 186 191 190
-6.18 -9.71 -4.63 188 193 192
-6.21 -9.80 -4.60 186 191 190
-6.21 -9.89 -4.60 183 188 187
-6.23 -9.98 -4.57 181 186 185
-6.24 -10.07 -4.56 182 187 186
-6.25 -10.16 -4.54 186 191 190
-6.26 -10.26 -4.53 191 196 195
-6.28 -10.35 -4.51 187 194 189
-6.30 -10.44 -4.49 187 194 189
-6.30 -10.53 -4.49 187 194 189
-6.29 -10.62 -4.49 187 194 189
-6.30 -10.72 -4.49 187 194 189
-6.31 -10.81 -4.48 187 194 189
-6.31 -10.90 -4.47 187 194 189
-6.32 -10.99 -4.47 187 194 189
-6.32 -11.08 -4.46 187 194 189
-6.31 -11.18 -4.47 187 194 189
-6.31 -11.27 -4.47 187 194 189
-6.31 -11.36 -4.48 187 194 189
-6.30 -11.46 -4.48 187 194 189
-6.31 -11.55 -4.48 187 194 189
-6.30 -11.64 -4.49 187 194 189
-6.31 -11.73 -4.48 187 194 189
-6.30 -11.83 -4.49 188 195 190
-6.29 -11.92 -4.49 188 195 190
-6.29 -12.01 -4.50 189 196 191
-6.29 -12.11 -4.50 189 196 191
-6.27 -12.20 -4.52 190 197 192
-6.28 -12.29 -4.52 190 197 192
-6.27 -12.39 -4.53 191 198 193
-6.27 -12.48 -4.52 192 199 194
-6.25 -12.57 -4.54 192 199 194
-6.25 -12.67 -4.55 192 199 194
-6.25 -12.76 -4.55 192 199 194
-6.23 -12.86 -4.57 192 199 194
-6.23 -12.95 -4.58 192 199 194
-6.21 -13.04 -4.59 192 199 194
-6.21 -13.14 -4.60 193 198 194
-6.19 -13.23 -4.62 192 197 193
-6.18 -13.33 -4.63 192 197 193
-6.18 -13.42 -4.64 192 197 193
-6.16 -13.52 -4.66 192 197 196
-6.15 -13.61 -4.67 192 197 196
-6.15 -13.71 -4.67 192 197 193
-6.15 -13.80 -4.67 192 197 193
-6.14 -13.89 -4.68 192 197 196
-6.15 -13.99 -4.68 192 197 196
-6.15 -14.08 -4.67 185 189 193
-6.16 -14.17 -4.65 184 188 192
-6.19 -14.26 -4.62 188 193 189
-6.21 -14.34 -4.59 182 187 183
-6.25 -14.43 -4.55 186 190 194
-6.36 -14.50 -4.41 192 196 200
-6.65 -14.53 -4.06 172 172 200
-6.88 -14.57 -3.77 184 184 212
-6.92 -14.65 -3.73 31 42 102
-6.95 -14.74 -3.69 33 44 104
-6.97 -14.82 -3.66 41 52 131
-7.00 -14.90 -3.63 41 52 131
-7.03 -14.99 -3.59 36 51 135
-7.05 -15.07 -3.56 36 51 135
-7.07 -15.16 -3.54 37 56 136
-7.09 -15.25 -3.52 38 57 137
-7.10 -15.33 -3.51 44 60 139
-7.11 -15.42 -3.50 38 54 133
-7.13 -15.51 -3.47 41 54 113
-7.16 -15.59 -3.44 43 56 115
-7.17 -15.68 -3.42 46 57 88
-7.20 -15.76 -3.39 35 46 77
-7.22 -15.84 -3.36 30 37 51
-7.25 -15.93 -3.32 24 31 45
-7.30 -16.00 -3.27 91 91 77
-7.36 -16.08 -3.19 76 76 62
-7.44 -16.15 -3.09 82 79 53
-7.53 -16.21 -2.98 149 146 120
-7.62 -16.27 -2.87 189 182 151
-7.73 -16.33 -2.74 171 164 133
-7.81 -16.40 -2.63 173 167 144
-7.84 -16.48 -2.60 179 173 150
-7.88 -16.56 -2.56 171 173 156
-7.90 -16.64 -2.52 171 173 156
-7.93 -16.72 -2.49 167 175 154
-7.96 -16.80 -2.45 167 175 154
-7.99 -16.88 -2.42 170 173 151
-8.01 -16.96 -2.40 170 173 151
-8.03 -17.04 -2.36 174 170 151
-8.05 -17.12 -2.35 174 170 151
-8.08 -17.20 -2.31 171 169 151
-8.10 -17.28 -2.28 170 168 150
-8.13 -17.36 -2.25 167 165 147
-8.14 -17.44 -2.23 166 164 146
-8.17 -17.52 -2.20 166 163 148
-8.19 -17.60 -2.18 168 165 150
-8.21 -17.68 -2.15 169 166 151
-8.22 -17.76 -2.13 170 167 152
-8.24 -17.85 -2.12 167 164 151
-8.26 -17.93 -2.09 166 163 150
-8.26 -18.01 -2.08 159 156 143
-8.29 -18.09 -2.05 157 154 141
-8.30 -18.17 -2.04 135 131 121
-8.32 -18.26 -2.01 110 106 96
-8.33 -18.34 -2.00 82 78 68
-8.36 -18.41 -1.96 48 44 34
-8.38 -18.49 -1.94 27 28 20
-8.41 -18.57 -1.91 30 31 23
-8.42 -18.65 -1.88 30 31 21
-8.45 -18.73 -1.86 32 33 23
-8.46 -18.81 -1.84 44 45 33
-8.49 -18.89 -1.81 60 61 49
-8.50 -18.97 -1.79 75 77 62
-8.53 -19.05 -1.76 87 89 74
-8.54 -19.13 -1.74 111 113 98
-8.58 -19.20 -1.70 126 128 113
-8.61 -19.27 -1.66 98 99 87
-8.65 -19.35 -1.61 102 103 91
-8.69 -19.42 -1.56 15 16 6
-8.76 -19.48 -1.48 8 9 0
-8.82 -19.54 -1.40 30 31 23
-8.92 -19.59 -1.28 26 27 19
-8.98 -19.65 -1.21 24 26 26
-9.01 -19.72 -1.16 24 26 26
-9.05 -19.79 -1.12 31 33 33
-9.09 -19.86 -1.07 35 37 37
-9.12 -19.93 -1.04 36 38 38
-9.15 -20.00 -1.00 44 46 46
-9.17 -20.08 -0.97 56 58 58
-9.20 -20.15 -0.93 59 61 61
-9.22 -20.22 -0.91 53 55 55
-9.24 -20.30 -0.89 56 58 58
-9.27 -20.37 -0.85 60 62 62
-9.30 -20.45 -0.82 65 67 67
-9.33 -20.52 -0.78 67 69 69
-9.37 -20.58 -0.73 65 67 67
-9.40 -20.66 -0.70 62 64 64
-9.43 -20.72 -0.65 57 59 59
-9.47 -20.79 -0.60 51 50 55
-9.53 -20.85 -0.54 40 39 44
-9.57 -20.91 -0.48 24 23 14
-9.59 -20.99 -0.46 33 32 23
-9.47 -21.13 -0.61 142 140 122
-8.46 -21.67 -1.84 242 240 222
-7.08 -22.39 -3.53 227 222 210
-7.18 -22.43 -3.41 212 207 195
-7.22 -22.51 -3.36 220 214 209
-7.18 -22.62 -3.42 221 215 210
-7.15 -22.72 -3.44 220 215 214
-7.15 -22.81 -3.44 221 216 215
-7.15 -22.90 -3.44 218 218 218
-7.14 -22.99 -3.46 220 220 220
-7.13 -23.09 -3.47 218 219 222
-7.13 -23.18 -3.47 219 220 223
-7.14 -23.26 -3.46 219 221 218
-7.13 -23.36 -3.47 219 221 218
-7.13 -23.45 -3.47 219 221 218
-7.12 -23.55 -3.49 219 221 218
-7.11 -23.64 -3.49 219 221 218
-7.11 -23.73 -3.50 219 221 218
-7.11 -23.82 -3.49 219 221 218
-7.12 -23.91 -3.49 220 222 219
-7.11 -24.00 -3.49 221 223 220
-7.11 -24.09 -3.49 221 223 220
-7.11 -24.18 -3.49 221 223 220
-7.11 -24.27 -3.49 221 223 220
-7.11 -24.36 -3.49 221 223 220
-7.11 -24.45 -3.49 221 223 220
-7.11 -24.54 -3.49 221 223 220
-7.12 -24.63 -3.48 221 223 220
-7.11 -24.72 -3.50 221 223 220
-7.13 -24.80 -3.48 221 223 220
-7.11 -24.90 -3.49 221 223 220
-7.11 -24.99 -3.49 221 223 220
-7.13 -25.08 -3.48 221 223 220
-7.12 -25.17 -3.48 221 223 220
-7.13 -25.25 -3.47 221 223 220
-7.13 -25.34 -3.47 221 223 220
-7.13 -25.43 -3.47 221 223 220
-7.13 -25.53 -3.48 221 223 220
-7.13 -25.61 -3.47 221 223 220
-7.14 -25.70 -3.46 221 223 220
-7.14 -25.79 -3.46 221 223 220
-7.15 -25.87 -3.45 221 223 220
-7.15 -25.96 -3.45 221 223 220
-7.14 -26.06 -3.45 222 224 221
-7.14 -26.15 -3.45 222 224 221
-7.16 -26.23 -3.44 222 224 221
-7.15 -26.32 -3.44 222 224 221
-7.16 -26.41 -3.43 222 224 221
-7.16 -26.50 -3.44 222 224 221
-7.16 -26.59 -3.43 222 224 221
-7.16 -26.68 -3.43 222 224 221
-7.17 -26.77 -3.43 222 224 221
-7.17 -26.85 -3.42 222 224 221
-7.17 -26.94 -3.42 222 224 221
-7.18 -27.03 -3.41 222 224 221
-7.19 -27.11 -3.40 222 224 221
-7.19 -27.20 -3.40 222 224 221
-7.20 -27.29 -3.39 222 224 221
-7.20 -27.38 -3.39 224 224 224
-7.21 -27.46 -3.38 224 224 224
-7.21 -27.55 -3.38 223 223 223
-7.21 -27.64 -3.38 223 223 223
-7.21 -27.73 -3.38 224 222 223
-7.21 -27.82 -3.37 224 222 223
-7.21 -27.91 -3.38 224 222 223
-7.21 -28.00 -3.38 224 222 223
-7.21 -28.09 -3.37 224 222 223
-7.21 -28.18 -3.37 224 222 223
-7.21 -28.27 -3.37 225 223 224
-7.22 -28.36 -3.37 225 223 224
-7.22 -28.44 -3.35 225 223 224
-7.22 -28.53 -3.35 225 223 224
-7.22 -28.62 -3.36 225 223 224
-7.23 -28.71 -3.35 225 223 224
-7.23 -28.80 -3.35 225 223 224
-7.23 -28.89 -3.34 226 224 225
-7.24 -28.97 -3.34 226 224 225
-7.24 -29.06 -3.34 226 224 225
-7.24 -29.15 -3.33 226 224 225
-7.24 -29.24 -3.34 226 224 225
-7.25 -29.32 -3.33 228 226 227
-7.25 -29.41 -3.32 229 227 228
-7.26 -29.50 -3.31 229 227 228
-7.27 -29.58 -3.30 229 227 228
-7.27 -29.67 -3.30 229 227 228
-7.28 -29.76 -3.29 229 227 228
-7.28 -29.84 -3.28 229 227 228
-7.28 -29.93 -3.28 229 227 228
-7.29 -30.01 -3.27 232 227 229
-7.30 -30.10 -3.26 233 228 230
-7.30 -30.19 -3.26 233 228 230
-7.30 -30.27 -3.26 233 228 230
-7.31 -30.36 -3.25 233 228 230
-7.31 -30.45 -3.25 233 228 230
-7.31 -30.54 -3.25 233 228 230
-7.31 -30.63 -3.25 233 228 230
-7.31 -30.72 -3.24 233 228 230
-7.31 -30.81 -3.25 233 228 230
-7.31 -30.90 -3.25 233 228 230
-7.31 -30.99 -3.25 234 229 231
-7.31 -31.08 -3.25 235 230 232
-7.31 -31.17 -3.25 235 230 232
-7.30 -31.26 -3.26 235 230 232
-7.30 -31.35 -3.26 235 230 232
-7.30 -31.45 -3.27 235 230 232
-7.30 -31.53 -3.26 235 230 232
-7.29 -31.63 -3.27 235 230 232
-7.30 -31.72 -3.27 235 230 232
-7.29 -31.81 -3.27 237 232 234
-7.30 -31.90 -3.27 237 232 234
-7.30 -31.98 -3.27 237 232 234
-7.30 -32.07 -3.27 237 232 234
-7.30 -32.16 -3.27 237 232 234
-7.30 -32.25 -3.27 237 232 234
-7.31 -32.33 -3.25 237 232 234
-7.31 -32.42 -3.25 237 232 234
-7.31 -32.51 -3.24 237 232 234
-7.31 -32.60 -3.25 237 232 234
-7.32 -32.69 -3.24 238 233 235
-7.32 -32.78 -3.24 238 233 235
-7.32 -32.86 -3.23 239 234 236
-7.33 -32.94 -3.22 240 235 237
-7.34 -33.03 -3.22 240 235 237
-7.34 -33.12 -3.21 240 235 237
-7.35 -33.20 -3.20 239 237 238
-7.36 -33.28 -3.18 239 237 238
-7.36 -33.37 -3.18 239 237 238
-7.37 -33.45 -3.17 239 237 238
-7.38 -33.53 -3.16 239 237 238
-7.39 -33.62 -3.16 239 237 238
-7.40 -33.70 -3.14 239 237 238
-7.41 -33.78 -3.13 239 237 238
-7.41 -33.87 -3.13 239 237 238
-7.41 -33.96 -3.13 239 237 238
-7.40 -34.05 -3.13 239 237 238
-7.41 -34.14 -3.13 239 237 238
-7.41 -34.23 -3.13 239 237 238
-7.41 -34.31 -3.12 239 237 238
-7.43 -34.39 -3.11 238 238 235
-7.43 -34.48 -3.10 238 238 235
-7.44 -34.56 -3.09 236 238 233
-7.46 -34.63 -3.07 236 238 233
-7.47 -34.71 -3.06 236 236 231
-7.48 -34.80 -3.05 237 237 232
-7.48 -34.88 -3.04 242 240 236
-7.42 -35.02 -3.11 238 236 232
-7.41 -35.12 -3.12 238 233 230
-7.37 -35.24 -3.18 244 239 236
-7.76 -35.00 -2.70 248 238 237
-7.06 21.59 -3.68 142 133 125
-7.03 21.53 -3.73 142 133 125
-7.03 21.44 -3.72 142 133 125
-7.01 21.37 -3.75 142 133 125
-7.03 21.26 -3.73 142 133 125
-7.03 21.17 -3.73 142 133 125
-7.00 21.10 -3.76 143 134 126
-7.00 21.01 -3.77 143 134 126
-6.99 20.93 -3.77 143 134 126
-6.99 20.84 -3.77 143 134 126
-6.99 20.75 -3.78 143 134 126
-6.98 20.67 -3.79 143 134 126
-6.97 20.59 -3.80 143 134 128
-6.97 20.50 -3.80 143 134 128
-6.96 20.41 -3.81 144 135 127
-6.96 20.32 -3.81 143 134 126
-6.95 20.24 -3.83 143 134 126
-6.95 20.15 -3.83 143 134 126
-6.95 20.06 -3.83 144 135 127
-6.94 19.97 -3.84 144 135 127
-6.94 19.88 -3.84 144 135 127
-6.92 19.80 -3.86 144 135 127
-6.92 19.72 -3.86 144 135 127
-6.92 19.63 -3.86 144 135 127
-6.92 19.54 -3.87 145 136 130
-6.92 19.45 -3.86 141 132 126
-6.90 19.37 -3.88 135 129 122
-6.90 19.28 -3.88 133 127 120
-6.88 19.20 -3.91 129 123 116
-6.87 19.12 -3.92 127 121 114
-6.87 19.03 -3.93 125 119 112
-6.86 18.95 -3.93 123 117 110
-6.85 18.86 -3.95 122 118 112
-6.84 18.78 -3.96 120 116 110
-6.84 18.69 -3.96 120 116 110
-6.83 18.61 -3.98 119 115 109
-6.83 18.52 -3.98 119 115 109
-6.82 18.43 -3.99 118 114 108
-6.81 18.34 -3.99 118 114 108
-6.81 18.26 -4.00 117 113 107
-6.81 18.17 -4.00 119 115 109
-6.80 18.08 -4.00 118 114 108
-6.81 17.99 -4.00 119 115 109
-6.81 17.89 -4.00 118 114 108
-6.81 17.80 -4.00 119 115 109
-6.79 17.72 -4.02 118 114 108
-6.80 17.63 -4.01 119 115 109
-6.79 17.54 -4.02 118 114 108
-6.79 17.45 -4.03 119 115 109
-6.78 17.37 -4.03 119 115 109
-6.77 17.28 -4.04 120 116 110
-6.76 17.20 -4.06 120 116 110
-6.76 17.11 -4.06 120 116 110
-6.75 17.03 -4.07 120 116 110
-6.74 16.94 -4.08 121 117 111
-6.74 16.85 -4.09 121 117 111
-6.74 16.76 -4.09 121 117 111
-6.73 16.67 -4.09 122 118 112
-6.73 16.58 -4.10 122 118 112
-6.72 16.49 -4.10 127 123 117
-6.72 16.41 -4.11 126 125 116
-6.72 16.31 -4.11 129 128 119
-6.71 16.23 -4.12 131 130 123
-6.71 16.14 -4.12 134 133 126
-6.70 16.05 -4.13 137 136 129
-6.70 15.96 -4.14 141 140 133
-6.68 15.88 -4.15 145 144 137
-6.68 15.79 -4.15 147 146 139
-6.68 15.70 -4.16 150 149 142
-6.66 15.62 -4.18 150 149 142
-6.67 15.53 -4.17 153 149 143
-6.65 15.45 -4.19 154 150 144
-6.65 15.35 -4.19 154 150 144
-6.65 15.26 -4.19 155 151 145
-6.65 15.17 -4.19 155 151 143
-6.64 15.08 -4.20 152 148 140
-6.64 15.00 -4.21 153 149 141
-6.64 14.90 -4.20 154 150 142
-6.64 14.81 -4.20 155 151 143
-6.64 14.72 -4.20 155 151 143
-6.64 14.63 -4.21 155 151 145
-6.63 14.54 -4.21 156 152 146
-6.64 14.45 -4.21 157 153 147
-6.63 14.36 -4.21 157 153 147
-6.63 14.27 -4.22 159 155 147
-6.62 14.18 -4.23 160 156 148
-6.62 14.09 -4.23 160 156 148
-6.62 14.00 -4.23 161 157 149
-6.62 13.91 -4.23 161 157 149
-6.62 13.82 -4.23 161 157 149
-6.61 13.73 -4.24 161 157 149
-6.61 13.64 -4.25 161 157 149
-6.60 13.55 -4.26 161 157 149
-6.60 13.46 -4.26 161 157 149
-6.59 13.37 -4.27 161 157 149
-6.59 13.28 -4.26 161 157 149
-6.59 13.19 -4.27 161 157 149
-6.59 13.10 -4.27 161 157 149
-6.60 13.00 -4.26 162 158 150
-6.59 12.91 -4.26 162 158 150
-6.59 12.83 -4.27 163 159 151
-6.58 12.74 -4.27 164 160 152
-6.58 12.64 -4.27 166 162 154
-6.58 12.55 -4.27 166 162 154
-6.58 12.46 -4.28 166 162 154
-6.59 12.37 -4.27 166 162 154
-6.58 12.28 -4.28 166 162 154
-6.58 12.19 -4.28 166 162 154
-6.58 12.10 -4.28 166 162 154
-6.58 12.00 -4.28 166 162 154
-6.58 11.91 -4.28 166 162 154
-6.57 11.82 -4.29 167 163 155
-6.57 11.73 -4.29 167 163 155
-6.57 11.64 -4.29 167 163 155
-6.57 11.55 -4.30 167 163 155
-6.57 11.46 -4.29 167 163 155
-6.57 11.37 -4.30 167 163 155
-6.57 11.28 -4.30 167 163 155
-6.56 11.19 -4.30 167 163 155
-6.56 11.10 -4.31 167 163 155
-6.56 11.01 -4.31 166 165 156
-6.55 10.92 -4.31 166 165 156
-6.55 10.83 -4.32 166 165 156
-6.55 10.73 -4.32 166 165 156
-6.55 10.64 -4.32 166 165 156
-6.55 10.55 -4.32 166 165 156
-6.55 10.46 -4.32 165 166 156
-6.55 10.36 -4.31 166 167 157
-6.55 10.27 -4.31 169 165 157
-6.56 10.18 -4.30 169 165 157
-6.56 10.08 -4.30 169 165 157
-6.56 9.99 -4.30 170 166 158
-6.56 9.90 -4.31 170 166 158
-6.55 9.81 -4.32 170 166 158
-6.55 9.72 -4.31 168 167 158
-6.56 9.63 -4.31 168 167 158
-6.55 9.54 -4.32 169 168 159
-6.56 9.44 -4.31 169 168 159
-6.55 9.36 -4.32 169 168 159
-6.55 9.26 -4.32 169 168 159
-6.55 9.17 -4.32 169 168 159
-6.54 9.08 -4.33 169 168 159
-6.54 8.99 -4.33 170 171 161
-6.54 8.90 -4.33 170 171 161
-6.54 8.80 -4.32 171 172 162
-6.54 8.71 -4.33 171 172 162
-6.54 8.62 -4.33 171 172 162
-6.53 8.54 -4.34 171 172 162
-6.53 8.44 -4.33 171 172 162
-6.53 8.35 -4.34 171 172 162
-6.53 8.26 -4.34 171 172 162
-6.53 8.17 -4.34 171 172 162
-6.52 8.08 -4.35 172 173 163
-6.52 7.99 -4.35 172 173 163
-6.52 7.90 -4.35 172 173 163
-6.53 7.80 -4.35 172 173 163
-6.53 7.71 -4.34 172 173 163
-6.54 7.61 -4.33 172 173 163
-6.53 7.52 -4.34 172 173 163
-6.53 7.43 -4.34 172 173 163
-6.53 7.34 -4.34 172 173 163
-6.53 7.25 -4.34 172 173 163
-6.53 7.15 -4.34 172 173 163
-6.53 7.06 -4.34 172 173 163
-6.54 6.97 -4.33 172 173 163
-6.53 6.88 -4.33 172 173 163
-6.53 6.78 -4.33 172 173 163
-6.53 6.69 -4.33 172 173 163
-6.53 6.60 -4.34 172 173 163
-6.54 6.51 -4.32 172 173 163
-6.54 6.41 -4.33 172 173 163
-6.54 6.32 -4.33 172 173 163
-6.53 6.23 -4.34 172 173 163
-6.54 6.14 -4.33 172 173 163
-6.53 6.05 -4.34 172 173 163
-6.54 5.95 -4.33 172 173 163
-6.54 5.86 -4.33 173 174 166
-6.54 5.77 -4.33 173 174 166
-6.54 5.68 -4.33 173 174 166
-6.53 5.59 -4.33 173 174 166
-6.54 5.50 -4.33 173 174 166
-6.53 5.41 -4.34 173 174 166
-6.53 5.31 -4.33 173 174 166
-6.54 5.22 -4.33 173 174 166
-6.54 5.13 -4.33 173 174 166
-6.54 5.03 -4.33 173 174 166
-6.55 4.94 -4.32 173 174 166
-6.54 4.85 -4.33 173 174 166
-6.54 4.76 -4.32 173 174 166
-6.54 4.67 -4.33 173 174 166
-6.53 4.58 -4.34 173 174 166
-6.53 4.49 -4.35 173 174 166
-6.53 4.39 -4.34 173 174 166
-6.53 4.30 -4.34 173 174 166
-6.53 4.21 -4.34 173 174 166
-6.52 4.12 -4.35 173 174 166
-6.53 4.03 -4.34 173 174 166
-6.53 3.93 -4.33 173 174 166
-6.53 3.84 -4.34 173 174 166
-6.54 3.75 -4.33 173 174 166
-6.53 3.66 -4.34 173 174 166
-6.53 3.57 -4.35 173 174 166
-6.53 3.48 -4.35 173 174 166
-6.52 3.39 -4.36 173 174 166
-6.51 3.30 -4.36 173 174 166
-6.51 3.20 -4.36 173 174 166
-6.52 3.11 -4.36 173 174 166
-6.52 3.02 -4.35 173 174 166
-6.52 2.92 -4.35 172 172 167
-6.52 2.83 -4.35 172 172 167
-6.52 2.74 -4.35 172 172 167
-6.53 2.65 -4.34 172 172 167
-6.52 2.56 -4.35 172 172 167
-6.52 2.46 -4.35 172 172 167
-6.52 2.37 -4.35 172 172 167
-6.52 2.28 -4.35 172 172 167
-6.53 2.19 -4.34 172 172 167
-6.53 2.09 -4.33 172 172 167
-6.54 2.00 -4.33 172 172 167
-6.54 1.91 -4.33 172 172 167
-6.54 1.82 -4.33 172 172 167
-6.55 1.72 -4.32 172 172 167
-6.54 1.63 -4.33 172 172 167
-6.55 1.54 -4.32 172 172 167
-6.55 1.44 -4.31 170 173 165
-6.55 1.35 -4.32 170 173 165
-6.55 1.26 -4.32 170 173 165
