ply
format ascii 1.0
element vertex 1566
property float x
property float y
property float z
property uchar red
property uchar green
property uchar blue
end_header
-9.20 -5.74 -3.35 175 180 174
-9.20 -5.82 -3.35 175 180 176
-9.20 -5.91 -3.35 175 180 176
-9.20 -6.00 -3.35 175 180 176
-9.20 -6.08 -3.36 175 180 176
-9.19 -6.17 -3.37 175 180 176
-9.19 -6.26 -3.37 175 180 176
-9.19 -6.34 -3.37 175 180 176
-9.17 -6.43 -3.39 175 180 176
-9.17 -6.52 -3.39 175 180 176
-9.16 -6.60 -3.40 175 180 176
-9.15 -6.69 -3.42 175 180 176
-9.15 -6.78 -3.42 175 180 176
-9.14 -6.86 -3.43 176 181 177
-9.12 -6.95 -3.46 176 181 177
-9.11 -7.04 -3.47 176 181 177
-9.10 -7.12 -3.49 177 182 178
-9.10 -7.21 -3.49 177 182 181
-9.08 -7.30 -3.51 178 183 182
-9.08 -7.39 -3.51 177 182 181
-9.08 -7.47 -3.51 177 182 181
-9.07 -7.56 -3.52 177 182 181
-9.07 -7.65 -3.52 177 182 181
-9.07 -7.73 -3.53 176 181 180
-9.03 -7.82 -3.58 176 181 180
-8.99 -7.91 -3.63 176 181 180
-9.00 -8.00 -3.61 176 181 180
-9.29 -8.08 -3.25 181 186 185
-9.75 -8.15 -2.64 226 231 230
-9.93 -8.23 -2.40 244 249 248
-9.96 -8.32 -2.36 247 252 251
-9.96 -8.40 -2.36 240 245 244
-10.00 -8.48 -2.32 241 246 245
-10.01 -8.57 -2.30 248 253 252
-10.01 -8.65 -2.30 249 254 253
-10.00 -8.74 -2.31 246 253 251
-10.01 -8.82 -2.30 246 253 251
-10.00 -8.91 -2.32 246 253 251
-10.00 -8.99 -2.31 246 253 251
-9.99 -9.08 -2.33 246 253 251
-9.98 -9.16 -2.34 246 253 251
-9.97 -9.25 -2.35 246 253 251
-9.96 -9.33 -2.36 246 253 251
-9.96 -9.42 -2.36 246 253 251
-9.95 -9.50 -2.37 246 253 251
-9.95 -9.59 -2.38 246 253 251
-9.94 -9.67 -2.39 246 253 251
-9.95 -9.76 -2.38 246 253 251
-9.94 -9.84 -2.39 246 253 251
-9.94 -9.93 -2.39 246 253 251
-9.93 -10.01 -2.40 246 253 251
-9.93 -10.10 -2.40 245 252 250
-9.94 -10.18 -2.39 245 252 250
-9.94 -10.27 -2.40 245 252 250
-9.94 -10.35 -2.39 245 252 250
-9.95 -10.43 -2.38 245 252 250
-9.95 -10.52 -2.37 245 252 250
-9.95 -10.60 -2.38 245 252 250
-9.95 -10.69 -2.38 245 252 250
-9.94 -10.77 -2.39 248 255 253
-9.93 -10.86 -2.40 246 253 251
-9.93 -10.94 -2.41 247 254 252
-9.93 -11.03 -2.41 247 254 252
-9.92 -11.11 -2.41 245 252 250
-9.91 -11.20 -2.43 247 254 252
-9.91 -11.29 -2.43 250 255 255
-9.88 -11.37 -2.46 245 252 250
-9.87 -11.46 -2.48 252 255 255
-9.86 -11.55 -2.50 252 255 255
-9.82 -11.64 -2.54 247 252 251
-9.74 -11.73 -2.65 233 238 237
-9.60 -11.84 -2.84 212 217 216
-9.37 -11.96 -3.13 193 198 197
-9.21 -12.07 -3.34 182 187 186
-9.09 -12.18 -3.49 177 182 181
-9.06 -12.27 -3.54 189 194 193
-9.06 -12.35 -3.54 189 194 193
-9.09 -12.44 -3.50 189 194 193
-9.12 -12.52 -3.46 189 194 193
-9.13 -12.60 -3.44 189 194 193
-9.15 -12.69 -3.42 189 194 193
-9.15 -12.78 -3.42 189 194 193
-9.17 -12.86 -3.40 189 194 193
-9.16 -12.95 -3.41 191 194 186
-9.16 -13.03 -3.41 192 195 187
-9.15 -13.12 -3.42 192 194 189
-9.14 -13.21 -3.44 192 194 189
-9.13 -13.30 -3.44 191 193 188
-9.12 -13.39 -3.46 188 190 185
-9.12 -13.48 -3.46 186 188 185
-9.11 -13.56 -3.47 185 187 184
-9.11 -13.65 -3.48 183 185 182
-9.10 -13.74 -3.49 183 185 182
-9.09 -13.83 -3.50 183 185 185
-9.09 -13.92 -3.50 184 186 186
-9.08 -14.01 -3.52 176 178 178
-9.07 -14.10 -3.52 170 172 172
-9.06 -14.19 -3.54 174 175 178
-9.05 -14.27 -3.55 171 172 175
-9.04 -14.37 -3.57 170 175 169
-9.03 -14.46 -3.58 170 175 169
-9.00 -14.55 -3.61 168 173 167
-8.99 -14.64 -3.63 166 171 165
-8.97 -14.73 -3.65 167 172 166
-8.97 -14.82 -3.66 169 174 168
-8.96 -14.91 -3.67 167 172 166
-8.95 -15.00 -3.68 162 167 161
-8.94 -15.09 -3.70 169 174 168
-8.94 -15.18 -3.70 164 169 163
-8.93 -15.26 -3.70 157 162 156
-8.92 -15.35 -3.72 155 160 154
-8.91 -15.44 -3.73 156 161 155
-8.90 -15.53 -3.74 157 162 156
-8.91 -15.62 -3.74 156 161 155
-8.90 -15.71 -3.74 154 159 153
-8.90 -15.80 -3.75 158 160 157
-8.89 -15.89 -3.76 156 158 155
-8.88 -15.98 -3.77 162 164 161
-8.88 -16.07 -3.78 169 171 168
-8.87 -16.16 -3.79 173 175 172
-8.86 -16.25 -3.81 180 182 179
-8.85 -16.34 -3.82 181 183 180
-8.84 -16.43 -3.83 174 176 173
-8.82 -16.52 -3.85 180 182 179
-8.82 -16.61 -3.86 174 176 173
-8.80 -16.70 -3.88 162 164 161
-8.80 -16.79 -3.88 155 157 154
-8.79 -16.89 -3.90 141 143 140
-8.78 -16.97 -3.90 142 144 141
-8.78 -17.06 -3.91 144 146 143
-8.78 -17.15 -3.91 154 156 153
-8.78 -17.24 -3.91 161 163 160
-8.79 -17.33 -3.90 164 166 163
-8.80 -17.41 -3.87 171 173 170
-8.83 -17.49 -3.84 147 149 146
-8.86 -17.56 -3.80 112 114 111
-8.89 -17.64 -3.76 87 89 86
-8.93 -17.72 -3.71 59 61 58
-8.97 -17.79 -3.66 38 40 37
-9.01 -17.86 -3.60 20 22 19
-9.06 -17.93 -3.54 37 39 36
-9.11 -18.00 -3.47 48 50 47
-9.16 -18.07 -3.41 55 57 54
-9.20 -18.15 -3.35 62 64 61
-9.24 -18.22 -3.30 59 61 58
-9.28 -18.29 -3.25 49 51 48
-9.33 -18.36 -3.19 45 47 44
-9.35 -18.44 -3.16 46 46 43
-9.40 -18.51 -3.10 39 39 36
-9.42 -18.59 -3.06 44 44 41
-9.46 -18.66 -3.01 68 68 65
-9.50 -18.73 -2.96 102 102 99
-9.53 -18.80 -2.92 136 136 133
-9.57 -18.87 -2.87 171 171 168
-9.61 -18.95 -2.82 196 196 193
-9.64 -19.02 -2.78 221 221 218
-9.68 -19.09 -2.73 218 218 215
-9.72 -19.16 -2.68 214 214 211
-9.75 -19.23 -2.64 208 208 205
-9.80 -19.30 -2.58 202 202 199
-9.85 -19.36 -2.51 196 196 193
-9.88 -19.44 -2.47 192 192 189
-9.91 -19.51 -2.43 189 189 186
-9.94 -19.58 -2.39 184 189 188
-9.97 -19.65 -2.35 181 186 185
-10.00 -19.73 -2.31 179 181 178
-10.04 -19.79 -2.26 177 179 176
-10.07 -19.86 -2.22 174 176 173
-10.12 -19.93 -2.16 170 172 169
-10.15 -20.00 -2.11 165 165 160
-10.19 -20.07 -2.06 160 160 155
-10.23 -20.13 -2.01 160 160 155
-10.27 -20.20 -1.96 147 147 142
-10.31 -20.27 -1.91 136 135 128
-10.36 -20.33 -1.84 132 131 124
-10.40 -20.39 -1.79 136 135 128
-10.44 -20.46 -1.74 132 131 124
-10.47 -20.53 -1.70 121 117 109
-10.49 -20.61 -1.68 108 104 96
-10.49 -20.69 -1.67 123 114 99
-10.49 -20.77 -1.68 159 150 135
-10.43 -20.88 -1.75 69 58 41
-10.37 -20.99 -1.83 12 1 0
-10.42 -21.05 -1.77 36 22 24
-10.58 -21.06 -1.55 22 8 10
-10.84 -21.02 -1.22 56 44 76
-11.13 -20.97 -0.84 79 67 99
-11.34 -20.95 -0.57 76 72 124
-11.43 -20.98 -0.45 72 68 120
-11.47 -21.05 -0.40 56 57 118
-11.48 -21.12 -0.39 38 39 100
-11.48 -21.20 -0.39 25 27 83
-11.50 -21.27 -0.36 9 11 67
-11.34 -21.43 -0.56 5 8 46
-10.61 -21.87 -1.52 37 40 78
-9.95 -22.29 -2.38 159 162 182
-9.94 -22.37 -2.39 213 216 236
-10.03 -22.42 -2.28 226 229 238
-10.05 -22.49 -2.25 203 206 215
-10.00 -22.60 -2.32 205 210 204
-9.98 -22.69 -2.34 211 216 210
-9.97 -22.79 -2.36 208 211 201
-9.96 -22.87 -2.36 214 217 207
-9.96 -22.96 -2.36 213 216 206
-9.96 -23.04 -2.36 213 216 206
-9.94 -23.14 -2.39 215 216 208
-9.94 -23.22 -2.40 215 216 208
-9.94 -23.31 -2.39 215 215 210
-9.94 -23.39 -2.39 215 215 210
-9.95 -23.47 -2.38 216 215 208
-9.95 -23.56 -2.38 216 215 208
-9.95 -23.64 -2.38 214 214 209
-9.95 -23.72 -2.37 214 214 209
-9.95 -23.81 -2.38 214 214 211
-9.96 -23.89 -2.37 214 214 211
-9.96 -23.97 -2.36 214 214 211
-9.97 -24.05 -2.36 214 214 211
-9.98 -24.13 -2.35 214 214 211
-9.98 -24.22 -2.34 214 214 211
-9.99 -24.29 -2.32 215 215 212
-9.99 -24.38 -2.32 215 215 212
-10.00 -24.46 -2.31 215 215 212
-10.01 -24.54 -2.30 215 215 212
-10.02 -24.62 -2.29 215 215 212
-10.03 -24.70 -2.28 215 215 212
-10.03 -24.78 -2.27 215 215 212
-10.03 -24.87 -2.28 215 215 212
-10.03 -24.95 -2.27 217 215 216
-10.04 -25.03 -2.26 217 215 216
-10.04 -25.11 -2.27 217 215 216
-10.05 -25.19 -2.25 217 215 216
-10.05 -25.28 -2.25 217 215 216
-10.04 -25.36 -2.26 217 215 216
-10.05 -25.44 -2.25 217 215 216
-10.05 -25.53 -2.24 217 215 216
-10.05 -25.61 -2.24 216 214 215
-10.05 -25.69 -2.24 216 214 215
-10.05 -25.78 -2.24 216 214 215
-10.06 -25.86 -2.24 216 214 215
-10.06 -25.94 -2.24 216 214 215
-10.06 -26.03 -2.24 216 214 215
-10.06 -26.11 -2.23 216 214 215
-10.06 -26.20 -2.24 216 214 215
-10.06 -26.28 -2.24 217 215 216
-10.06 -26.37 -2.24 217 215 216
-10.06 -26.45 -2.23 219 214 216
-10.06 -26.53 -2.23 219 214 216
-10.07 -26.61 -2.23 219 214 216
-10.07 -26.70 -2.23 219 214 216
-10.07 -26.78 -2.23 219 214 216
-10.07 -26.87 -2.23 219 214 216
-10.07 -26.95 -2.23 220 215 217
-10.07 -27.04 -2.23 220 215 217
-10.07 -27.12 -2.23 220 215 217
-10.06 -27.21 -2.23 220 215 217
-10.06 -27.29 -2.23 220 215 217
-10.06 -27.38 -2.23 220 215 217
-10.06 -27.46 -2.24 220 215 217
-10.05 -27.55 -2.24 220 215 217
-10.05 -27.63 -2.24 221 216 218
-10.06 -27.72 -2.24 221 216 218
-10.05 -27.80 -2.25 221 216 218
-10.06 -27.88 -2.23 221 216 218
-10.06 -27.97 -2.23 221 216 218
-10.06 -28.05 -2.23 221 216 218
-10.07 -28.13 -2.23 221 216 218
-10.07 -28.22 -2.23 223 218 220
-10.06 -28.30 -2.23 224 219 221
-10.06 -28.39 -2.23 224 219 221
-10.06 -28.48 -2.24 224 219 221
-10.06 -28.56 -2.24 224 219 221
-10.06 -28.65 -2.24 224 219 221
-10.06 -28.73 -2.24 224 219 221
-10.06 -28.81 -2.24 224 219 218
-10.06 -28.90 -2.24 224 219 218
-10.06 -28.98 -2.24 224 219 218
-10.06 -29.07 -2.24 224 219 218
-10.05 -29.15 -2.24 224 219 216
-10.06 -29.23 -2.24 224 219 216
-10.06 -29.32 -2.24 224 219 216
-10.05 -29.41 -2.24 224 219 216
-10.05 -29.49 -2.24 224 219 216
-10.05 -29.57 -2.24 224 219 216
-10.05 -29.66 -2.24 224 219 216
-10.05 -29.74 -2.24 224 219 216
-10.05 -29.83 -2.24 226 221 218
-10.06 -29.91 -2.23 227 222 219
-10.06 -29.99 -2.24 227 222 219
-10.06 -30.08 -2.24 227 222 219
-10.06 -30.16 -2.23 227 222 219
-10.07 -30.24 -2.23 227 222 219
-10.07 -30.32 -2.22 225 220 217
-10.08 -30.40 -2.21 225 220 217
-10.08 -30.48 -2.21 225 220 217
-10.08 -30.56 -2.21 225 220 217
-10.08 -30.65 -2.20 225 220 217
-10.08 -30.73 -2.21 225 220 217
-10.09 -30.81 -2.20 225 220 217
-10.09 -30.90 -2.20 226 221 218
-10.09 -30.98 -2.19 226 221 218
-10.09 -31.06 -2.19 226 221 218
-10.10 -31.14 -2.19 226 221 218
-10.09 -31.23 -2.20 226 221 218
-10.09 -31.31 -2.19 226 221 218
-10.09 -31.40 -2.20 226 221 218
-10.10 -31.48 -2.18 227 222 219
-10.10 -31.56 -2.18 228 223 220
-10.09 -31.65 -2.19 228 223 220
-10.09 -31.74 -2.19 230 225 222
-10.09 -31.82 -2.19 231 226 223
-10.09 -31.91 -2.19 231 226 223
-10.09 -31.99 -2.19 231 226 223
-10.09 -32.08 -2.20 231 226 223
-10.09 -32.16 -2.19 231 226 223
-10.09 -32.25 -2.20 231 226 223
-10.09 -32.33 -2.20 231 226 223
-10.09 -32.41 -2.20 231 226 223
-10.09 -32.50 -2.20 231 226 223
-10.09 -32.58 -2.19 231 226 223
-10.09 -32.67 -2.20 231 226 223
-10.08 -32.76 -2.21 231 226 223
-10.08 -32.85 -2.22 231 226 223
-10.08 -32.93 -2.21 230 225 222
-10.08 -33.01 -2.22 230 225 222
-10.08 -33.09 -2.20 230 225 222
-10.08 -33.18 -2.21 228 226 222
-10.08 -33.27 -2.21 228 226 222
-10.08 -33.35 -2.21 228 226 222
-10.12 -33.40 -2.16 228 226 222
-10.15 -33.45 -2.11 228 226 222
-10.19 -33.50 -2.06 228 226 222
-10.21 -33.57 -2.04 231 226 223
-10.21 -33.65 -2.03 227 222 219
-10.20 -33.75 -2.05 234 224 223
-10.40 -33.65 -1.79 242 232 231
-7.84 -36.03 -5.14 229 215 215
-9.80 19.88 -2.71 141 132 124
-9.77 19.82 -2.74 141 132 124
-9.77 19.74 -2.74 141 132 124
-9.74 19.68 -2.78 141 132 124
-9.74 19.59 -2.78 141 132 124
-9.75 19.50 -2.77 141 132 124
-9.72 19.44 -2.81 141 132 124
-9.72 19.35 -2.81 141 132 124
-9.72 19.27 -2.81 141 132 124
-9.71 19.19 -2.82 142 133 125
-9.70 19.12 -2.84 142 133 125
-9.70 19.03 -2.84 142 133 125
-9.69 18.95 -2.85 142 133 125
-9.68 18.88 -2.86 142 133 125
-9.68 18.79 -2.86 142 133 125
-9.67 18.72 -2.88 142 133 125
-9.66 18.63 -2.88 142 133 125
-9.66 18.56 -2.89 142 133 125
-9.65 18.48 -2.90 143 132 125
-9.64 18.40 -2.91 144 133 126
-9.63 18.32 -2.93 144 133 126
-9.63 18.24 -2.93 144 133 126
-9.62 18.16 -2.94 144 133 126
-9.61 18.08 -2.95 144 133 126
-9.61 17.99 -2.95 145 134 127
-9.61 17.91 -2.96 145 134 127
-9.60 17.83 -2.96 146 135 128
-9.59 17.75 -2.98 146 135 128
-9.59 17.67 -2.98 147 136 129
-9.58 17.59 -3.00 147 136 129
-9.57 17.51 -3.00 148 139 133
-9.56 17.44 -3.02 146 137 131
-9.55 17.36 -3.03 148 140 129
-9.54 17.28 -3.04 148 140 129
-9.53 17.20 -3.05 148 139 131
-9.53 17.11 -3.05 148 139 131
-9.52 17.04 -3.07 147 141 132
-9.51 16.96 -3.08 147 141 132
-9.51 16.87 -3.08 147 141 132
-9.50 16.80 -3.09 147 141 132
-9.50 16.71 -3.10 148 142 133
-9.49 16.64 -3.11 148 142 133
-9.49 16.55 -3.11 148 142 133
-9.48 16.47 -3.12 148 142 133
-9.48 16.38 -3.12 149 143 134
-9.47 16.30 -3.13 149 143 134
-9.47 16.22 -3.13 148 142 135
-9.46 16.14 -3.15 148 142 135
-9.46 16.05 -3.15 147 141 134
-9.46 15.97 -3.15 147 141 134
-9.46 15.88 -3.15 147 141 134
-9.44 15.81 -3.17 148 142 135
-9.45 15.72 -3.17 148 142 135
-9.44 15.64 -3.18 148 142 135
-9.43 15.56 -3.18 146 142 134
-9.43 15.47 -3.19 147 143 135
-9.42 15.39 -3.19 148 144 136
-9.42 15.31 -3.20 148 144 136
-9.41 15.23 -3.21 148 144 136
-9.41 15.14 -3.22 146 142 134
-9.41 15.06 -3.22 143 139 133
-9.40 14.97 -3.22 143 139 133
-9.40 14.89 -3.22 143 139 133
-9.40 14.81 -3.23 145 141 135
-9.39 14.72 -3.24 144 138 133
-9.39 14.64 -3.24 144 138 133
-9.39 14.55 -3.24 144 138 133
-9.39 14.47 -3.24 144 138 133
-9.39 14.38 -3.24 144 138 133
-9.39 14.30 -3.24 144 138 133
-9.38 14.22 -3.26 146 140 135
-9.39 14.12 -3.24 146 140 135
-9.39 14.04 -3.24 145 141 135
-9.38 13.96 -3.25 146 142 136
-9.38 13.87 -3.25 146 142 136
-9.37 13.79 -3.26 148 144 138
-9.38 13.70 -3.26 150 144 137
-9.37 13.61 -3.26 153 147 140
-9.37 13.53 -3.26 155 149 142
-9.37 13.44 -3.27 156 150 143
-9.36 13.36 -3.27 156 150 143
-9.36 13.28 -3.28 157 151 144
-9.36 13.19 -3.28 157 151 144
-9.36 13.11 -3.28 157 151 144
-9.36 13.02 -3.28 156 152 144
-9.35 12.94 -3.29 156 152 144
-9.35 12.85 -3.29 157 153 145
-9.34 12.77 -3.31 157 153 145
-9.34 12.69 -3.31 159 155 147
-9.34 12.60 -3.31 160 156 148
-9.33 12.52 -3.32 161 157 149
-9.33 12.43 -3.32 161 157 149
-9.32 12.35 -3.33 161 157 149
-9.32 12.27 -3.33 161 157 149
-9.32 12.18 -3.33 161 157 149
-9.31 12.10 -3.35 161 157 149
-9.30 12.02 -3.35 161 157 149
-9.30 11.93 -3.36 161 157 149
-9.29 11.85 -3.37 162 158 150
-9.29 11.76 -3.37 162 158 150
-9.29 11.68 -3.37 163 159 151
-9.29 11.59 -3.37 163 159 151
-9.29 11.51 -3.37 164 160 152
-9.29 11.42 -3.37 164 160 152
-9.29 11.33 -3.37 166 162 154
-9.29 11.25 -3.37 167 163 155
-9.29 11.16 -3.37 167 163 155
-9.29 11.07 -3.37 167 163 155
-9.29 10.99 -3.37 167 163 155
-9.30 10.89 -3.36 167 163 155
-9.29 10.81 -3.37 167 163 155
-9.30 10.72 -3.36 167 163 155
-9.30 10.64 -3.36 167 163 155
-9.30 10.55 -3.36 167 163 155
-9.30 10.46 -3.36 167 163 155
-9.30 10.38 -3.36 168 164 156
-9.30 10.29 -3.36 167 166 157
-9.29 10.20 -3.37 167 166 157
-9.30 10.11 -3.36 168 164 154
-9.29 10.03 -3.37 168 164 154
-9.29 9.95 -3.37 169 165 155
-9.29 9.86 -3.37 170 166 156
-9.29 9.77 -3.37 171 167 157
-9.29 9.69 -3.37 171 167 157
-9.29 9.60 -3.37 173 169 159
-9.28 9.52 -3.38 173 169 159
-9.28 9.43 -3.39 171 170 159
-9.28 9.34 -3.38 171 170 159
-9.28 9.26 -3.38 170 171 161
-9.28 9.17 -3.39 171 172 162
-9.27 9.09 -3.39 171 172 162
-9.27 9.00 -3.40 171 172 162
-9.27 8.92 -3.40 171 172 162
-9.27 8.83 -3.40 171 172 162
-9.27 8.74 -3.40 171 172 162
-9.26 8.66 -3.40 171 172 162
-9.26 8.57 -3.40 171 172 162
-9.26 8.49 -3.40 172 173 163
-9.26 8.40 -3.41 172 173 163
-9.26 8.32 -3.41 172 173 163
-9.25 8.23 -3.42 172 173 163
-9.26 8.14 -3.41 172 173 163
-9.25 8.06 -3.42 172 173 163
-9.25 7.97 -3.42 172 173 163
-9.25 7.89 -3.42 175 176 164
-9.25 7.80 -3.42 175 176 164
-9.25 7.71 -3.42 176 177 165
-9.25 7.63 -3.42 176 177 165
-9.25 7.54 -3.42 176 177 165
-9.25 7.45 -3.42 176 177 165
-9.25 7.36 -3.42 176 177 165
-9.25 7.28 -3.42 176 177 165
-9.25 7.19 -3.42 176 177 165
-9.25 7.10 -3.42 176 177 165
-9.25 7.02 -3.42 176 177 167
-9.25 6.93 -3.42 178 179 169
-9.25 6.84 -3.42 178 179 169
-9.25 6.76 -3.42 178 179 169
-9.25 6.67 -3.42 178 179 171
-9.25 6.58 -3.42 178 179 171
-9.25 6.50 -3.42 178 179 171
-9.25 6.41 -3.42 178 179 171
-9.25 6.32 -3.42 178 179 171
-9.26 6.23 -3.41 178 179 171
-9.26 6.15 -3.41 178 179 171
-9.25 6.06 -3.42 178 179 171
-9.26 5.97 -3.41 178 179 171
-9.25 5.89 -3.42 178 179 171
-9.25 5.80 -3.42 178 179 171
-9.24 5.72 -3.43 178 179 171
-9.24 5.63 -3.43 178 179 171
-9.24 5.54 -3.43 178 179 171
-9.24 5.46 -3.44 178 179 171
-9.24 5.37 -3.44 178 179 171
-9.23 5.29 -3.44 178 179 171
-9.23 5.20 -3.44 178 179 171
-9.23 5.12 -3.44 178 178 173
-9.23 5.03 -3.45 178 178 173
-9.23 4.94 -3.44 178 178 173
-9.23 4.86 -3.44 178 178 173
-9.24 4.77 -3.44 178 178 173
-9.23 4.68 -3.44 178 178 173
-9.24 4.59 -3.44 178 178 173
-9.24 4.51 -3.44 178 178 173
-9.24 4.42 -3.44 178 178 173
-9.24 4.33 -3.44 178 178 173
-9.24 4.24 -3.43 178 178 173
-9.25 4.15 -3.42 178 178 173
-9.25 4.07 -3.42 178 178 173
-9.25 3.98 -3.42 176 176 171
-9.26 3.89 -3.41 175 175 170
-9.26 3.80 -3.41 175 175 170
-9.26 3.72 -3.41 174 175 167
-9.27 3.63 -3.40 174 175 167
-9.27 3.54 -3.40 174 175 167
-9.27 3.45 -3.40 174 175 167
-9.27 3.37 -3.40 174 175 167
-9.27 3.28 -3.40 174 175 167
-9.26 3.20 -3.41 174 175 167
-9.27 3.11 -3.40 174 175 167
-9.26 3.02 -3.41 174 175 167
-9.26 2.94 -3.41 174 175 167
-9.26 2.85 -3.41 174 175 167
-9.26 2.76 -3.41 174 175 167
-9.26 2.68 -3.41 174 175 167
-9.26 2.59 -3.41 174 175 167
-9.26 2.50 -3.41 172 175 167
-9.26 2.42 -3.41 172 175 167
-9.26 2.33 -3.40 173 174 166
-9.26 2.24 -3.41 173 174 166
-9.26 2.15 -3.40 173 174 166
-9.26 2.07 -3.41 173 174 166
-9.26 1.98 -3.40 173 174 166
-9.27 1.89 -3.40 173 174 166
-9.26 1.81 -3.40 173 174 166
-9.27 1.72 -3.40 173 174 166
-9.28 1.63 -3.38 172 173 165
-9.28 1.54 -3.38 172 173 165
-9.28 1.46 -3.38 172 173 165
-9.28 1.37 -3.38 172 173 165
-9.28 1.28 -3.38 172 173 165
-9.28 1.20 -3.39 172 173 165
-9.28 1.11 -3.39 172 173 165
-9.28 1.02 -3.39 172 173 165
-9.27 0.94 -3.39 170 172 167
-9.28 0.85 -3.39 170 172 167
-9.28 0.76 -3.39 170 172 167
-9.27 0.68 -3.39 170 172 167
-9.27 0.59 -3.39 170 172 167
-9.28 0.50 -3.39 170 172 167
-9.29 0.41 -3.38 170 172 167
-9.28 0.33 -3.38 170 172 167
-9.28 0.24 -3.38 170 172 167
-9.28 0.15 -3.38 170 172 167
-9.30 0.07 -3.36 170 172 167
-9.29 -0.02 -3.37 170 172 167
-9.29 -0.11 -3.37 170 172 167
-9.29 -0.19 -3.37 170 172 167
-9.29 -0.28 -3.37 170 172 167
-9.29 -0.37 -3.37 170 172 167
-9.30 -0.46 -3.36 170 173 165
-9.30 -0.54 -3.36 170 173 165
-9.30 -0.63 -3.36 170 173 165
-9.31 -0.72 -3.35 170 173 165
-9.31 -0.80 -3.35 170 173 165
-9.30 -0.89 -3.35 170 173 165
-9.31 -0.98 -3.35 170 172 167
-9.31 -1.06 -3.35 170 172 167
-9.31 -1.15 -3.34 170 172 167
-9.31 -1.24 -3.35 170 172 167
-9.31 -1.32 -3.34 170 172 169
-9.30 -1.41 -3.35 170 172 169
-9.30 -1.50 -3.35 170 172 169
-9.30 -1.58 -3.35 170 172 169
-9.30 -1.67 -3.36 170 172 172
-9.30 -1.75 -3.36 170 172 172
-9.30 -1.84 -3.36 170 173 165
-9.30 -1.93 -3.36 170 173 165
-9.29 -2.01 -3.37 170 172 169
-9.30 -2.10 -3.36 170 172 169
-9.30 -2.19 -3.35 170 172 169
-9.30 -2.27 -3.36 170 172 169
-9.30 -2.36 -3.36 170 172 169
-9.30 -2.45 -3.36 170 172 169
-9.30 -2.53 -3.36 171 173 170
-9.30 -2.62 -3.36 171 173 170
-9.30 -2.71 -3.36 172 174 171
-9.30 -2.79 -3.36 172 174 171
-9.30 -2.88 -3.35 172 174 171
-9.30 -2.97 -3.35 172 174 171
-9.31 -3.06 -3.35 172 174 171
-9.31 -3.14 -3.35 172 174 171
-9.32 -3.23 -3.33 171 176 170
-9.32 -3.32 -3.33 172 177 171
-9.32 -3.40 -3.33 172 177 171
-9.32 -3.49 -3.33 172 177 171
-9.32 -3.58 -3.32 172 177 171
-9.32 -3.66 -3.32 172 177 171
-9.32 -3.75 -3.33 172 177 171
-9.33 -3.84 -3.32 172 177 171
-9.33 -3.92 -3.31 172 177 171
-9.33 -4.01 -3.31 172 177 171
-9.33 -4.10 -3.32 172 177 171
-9.33 -4.18 -3.31 172 177 171
-9.33 -4.27 -3.31 172 177 171
-9.33 -4.36 -3.31 172 177 171
-9.33 -4.44 -3.31 172 177 171
-9.33 -4.53 -3.31 172 177 171
-9.34 -4.62 -3.31 171 181 175
-9.33 -4.70 -3.31 171 181 175
-9.34 -4.79 -3.31 171 181 175
-9.34 -4.88 -3.31 171 181 175
-9.34 -4.96 -3.31 171 181 175
-9.34 -5.05 -3.31 171 181 175
-9.34 -5.14 -3.30 171 181 175
-9.34 -5.22 -3.30 171 181 175
-9.34 -5.31 -3.30 172 182 176
-9.34 -5.40 -3.30 172 182 176
-9.34 -5.48 -3.30 172 182 176
-9.33 -5.57 -3.31 172 182 176
-9.34 -5.66 -3.30 174 181 174
-9.33 -5.74 -3.31 174 181 174
-9.33 -5.83 -3.31 175 180 174
-9.33 -5.91 -3.31 176 181 175
-9.33 -6.00 -3.32 175 180 176
-9.33 -6.09 -3.31 175 180 176
-9.33 -6.17 -3.32 175 180 176
-9.32 -6.26 -3.33 175 180 176
-9.31 -6.35 -3.34 175 180 176
-9.31 -6.43 -3.34 175 180 176
-9.30 -6.52 -3.35 175 180 176
-9.30 -6.61 -3.36 175 180 176
-9.28 -6.69 -3.38 174 179 175
-9.27 -6.78 -3.40 175 180 176
-9.25 -6.87 -3.42 175 180 176
-9.25 -6.95 -3.43 176 181 177
-9.24 -7.04 -3.43 176 181 177
-9.23 -7.13 -3.45 177 182 178
-9.21 -7.21 -3.47 177 182 181
-9.20 -7.30 -3.48 178 183 182
-9.20 -7.39 -3.48 179 184 183
-9.21 -7.47 -3.48 179 184 183
-9.20 -7.56 -3.49 178 183 182
-9.19 -7.65 -3.51 182 187 186
-9.18 -7.73 -3.52 182 187 186
-9.15 -7.82 -3.55 181 186 185
-9.14 -7.91 -3.56 175 180 179
-9.28 -7.99 -3.38 174 179 178
-9.69 -8.07 -2.85 240 245 244
-9.99 -8.15 -2.45 240 245 244
-10.06 -8.23 -2.36 241 246 245
-10.09 -8.31 -2.33 244 249 248
-10.09 -8.40 -2.32 245 250 249
-10.12 -8.48 -2.29 247 252 251
-10.14 -8.57 -2.26 248 253 252
-10.14 -8.65 -2.26 248 253 252
-10.12 -8.73 -2.28 246 253 251
-10.12 -8.82 -2.29 246 253 251
-10.11 -8.90 -2.29 246 253 251
-10.11 -8.99 -2.30 246 253 251
-10.09 -9.07 -2.32 246 253 251
-10.09 -9.16 -2.32 246 253 251
-10.08 -9.24 -2.34 246 253 251
-10.07 -9.33 -2.35 246 253 251
-10.06 -9.41 -2.36 246 253 251
-10.05 -9.50 -2.37 246 253 251
-10.06 -9.58 -2.37 246 253 251
-10.05 -9.67 -2.38 246 253 251
-10.05 -9.75 -2.38 246 253 251
-10.05 -9.84 -2.38 246 253 251
-10.05 -9.92 -2.38 246 253 251
-10.04 -10.01 -2.38 246 253 251
-10.05 -10.09 -2.38 246 253 251
-10.05 -10.17 -2.37 246 253 251
-10.06 -10.26 -2.36 246 253 251
-10.06 -10.34 -2.37 246 253 251
-10.06 -10.43 -2.36 246 253 251
-10.07 -10.51 -2.35 246 253 251
-10.07 -10.59 -2.35 246 253 251
-10.06 -10.68 -2.36 246 253 251
-10.06 -10.77 -2.37 246 253 251
-10.05 -10.85 -2.38 246 253 251
-10.05 -10.93 -2.38 246 253 251
-10.04 -11.02 -2.39 246 253 251
-10.04 -11.10 -2.38 246 253 251
-10.04 -11.19 -2.39 246 253 251
-10.03 -11.28 -2.41 246 253 251
-10.01 -11.36 -2.42 246 253 251
-10.00 -11.45 -2.44 251 255 255
-9.97 -11.54 -2.48 251 255 255
-9.96 -11.62 -2.49 249 254 253
-9.94 -11.71 -2.52 247 252 251
-9.89 -11.80 -2.58 241 246 245
-9.76 -11.91 -2.75 230 235 234
-9.58 -12.02 -2.99 216 221 220
-9.39 -12.14 -3.24 204 209 208
-9.26 -12.24 -3.40 178 183 182
-9.20 -12.34 -3.49 182 187 186
-9.21 -12.43 -3.48 184 189 188
-9.23 -12.51 -3.44 184 189 188
-9.26 -12.59 -3.40 186 191 190
-9.27 -12.67 -3.39 190 195 194
-9.28 -12.76 -3.38 190 195 194
-9.29 -12.85 -3.38 188 193 192
-9.29 -12.93 -3.37 191 194 186
-9.29 -13.02 -3.37 190 193 185
-9.28 -13.11 -3.38 190 192 187
-9.28 -13.19 -3.39 190 192 187
-9.28 -13.28 -3.39 190 192 187
-9.26 -13.37 -3.40 190 192 187
-9.26 -13.46 -3.41 187 189 186
-9.25 -13.55 -3.42 186 188 185
-9.25 -13.63 -3.43 187 189 186
-9.24 -13.72 -3.43 186 188 185
-9.24 -13.81 -3.43 184 186 186
-9.23 -13.90 -3.44 180 182 182
-9.23 -13.98 -3.45 177 179 179
-9.22 -14.07 -3.46 173 175 175
-9.21 -14.16 -3.47 170 171 174
-9.19 -14.25 -3.50 169 170 173
-9.19 -14.34 -3.50 170 176 167
-9.17 -14.43 -3.53 170 176 167
-9.15 -14.52 -3.55 169 175 166
-9.13 -14.62 -3.58 168 174 165
-9.11 -14.71 -3.61 167 173 164
-9.10 -14.80 -3.61 164 170 161
-9.09 -14.89 -3.63 163 169 160
-9.08 -14.98 -3.65 162 168 159
-9.06 -15.07 -3.66 162 168 159
-9.06 -15.15 -3.66 162 168 159
-9.06 -15.24 -3.66 163 169 160
-9.06 -15.33 -3.67 163 169 160
-9.05 -15.42 -3.68 163 169 160
-9.04 -15.51 -3.69 162 168 159
-9.05 -15.60 -3.69 161 167 158
-9.04 -15.68 -3.69 160 166 157
-9.04 -15.77 -3.70 162 164 161
-9.02 -15.87 -3.72 161 163 160
-9.02 -15.95 -3.73 158 160 157
-9.01 -16.04 -3.74 158 160 157
-9.00 -16.13 -3.74 159 161 158
-9.00 -16.22 -3.75 162 164 161
-8.98 -16.31 -3.77 166 168 165
-8.98 -16.40 -3.78 169 171 168
-8.97 -16.49 -3.79 180 182 179
-8.96 -16.58 -3.80 181 183 180
-8.95 -16.67 -3.82 181 183 180
-8.94 -16.76 -3.83 179 181 178
-8.92 -16.86 -3.85 173 175 172
-8.91 -16.95 -3.86 164 166 163
-8.90 -17.04 -3.87 154 156 153
-8.89 -17.13 -3.89 148 150 147
-8.89 -17.22 -3.89 142 144 141
-8.89 -17.31 -3.89 147 149 146
-8.89 -17.39 -3.89 154 156 153
-8.91 -17.48 -3.87 162 164 161
-8.93 -17.56 -3.84 166 168 165
-8.95 -17.64 -3.82 161 163 160
-8.98 -17.72 -3.78 140 142 139
-9.00 -17.80 -3.75 121 123 120
-9.04 -17.87 -3.70 77 79 76
-9.08 -17.94 -3.64 55 57 54
-9.12 -18.02 -3.59 32 34 31
-9.17 -18.08 -3.52 24 26 23
-9.22 -18.15 -3.46 28 30 27
-9.26 -18.23 -3.41 36 38 35
-9.31 -18.30 -3.35 49 51 48
-9.35 -18.37 -3.29 58 60 57
-9.39 -18.44 -3.24 59 59 56
-9.43 -18.51 -3.19 59 59 56
-9.47 -18.59 -3.14 46 46 43
-9.50 -18.66 -3.09 38 38 35
-9.55 -18.73 -3.03 43 43 40
-9.58 -18.80 -2.99 44 44 41
-9.62 -18.87 -2.94 61 61 58
-9.66 -18.94 -2.89 94 94 91
-9.70 -19.01 -2.83 142 142 139
-9.74 -19.08 -2.78 170 170 167
-9.77 -19.15 -2.74 206 206 203
-9.81 -19.23 -2.69 220 220 217
-9.85 -19.30 -2.64 225 225 222
-9.89 -19.36 -2.58 218 218 215
-9.94 -19.43 -2.52 216 216 213
-9.97 -19.50 -2.48 210 210 207
-9.99 -19.58 -2.45 202 207 206
-10.03 -19.65 -2.41 203 208 207
-10.05 -19.72 -2.37 194 196 193
-10.08 -19.79 -2.33 191 193 190
-10.12 -19.86 -2.29 185 187 184
-10.16 -19.93 -2.24 178 180 177
-10.19 -20.00 -2.19 176 176 171
-10.23 -20.07 -2.14 165 165 160
-10.26 -20.14 -2.10 164 164 159
-10.29 -20.21 -2.06 145 145 140
-10.33 -20.28 -2.01 134 133 126
-10.37 -20.34 -1.96 134 133 126
-10.41 -20.41 -1.91 132 131 124
-10.44 -20.48 -1.86 126 125 118
-10.46 -20.55 -1.84 120 116 108
-10.48 -20.63 -1.81 111 107 99
-10.48 -20.71 -1.81 116 109 91
-10.49 -20.79 -1.80 143 136 118
-10.47 -20.88 -1.83 31 24 8
-10.44 -20.98 -1.86 17 10 0
-10.50 -21.03 -1.78 24 14 18
-10.70 -21.02 -1.52 22 12 16
-10.99 -20.97 -1.15 47 40 70
-11.27 -20.92 -0.78 73 66 96
-11.47 -20.91 -0.52 81 78 123
-11.54 -20.95 -0.42 85 82 127
-11.61 -21.00 -0.34 73 75 131
-11.59 -21.09 -0.36 64 66 122
-11.60 -21.16 -0.35 54 56 112
-11.61 -21.24 -0.34 26 28 84
-11.65 -21.30 -0.28 3 7 51
-11.41 -21.50 -0.60 4 8 52
-10.64 -21.96 -1.60 50 50 87
-10.10 -22.32 -2.32 154 154 191
-10.11 -22.40 -2.30 225 226 249
-10.19 -22.44 -2.19 228 229 252
-10.16 -22.54 -2.23 206 210 212
-10.13 -22.64 -2.27 204 208 210
-10.11 -22.73 -2.30 204 207 197
-10.10 -22.82 -2.31 212 215 205
-10.09 -22.91 -2.32 212 215 205
-10.08 -23.00 -2.34 212 215 205
-10.07 -23.09 -2.34 215 216 208
-10.07 -23.18 -2.35 215 216 208
-10.07 -23.26 -2.35 214 214 211
-10.07 -23.34 -2.34 213 213 210
-10.07 -23.43 -2.34 211 209 207
-10.08 -23.51 -2.34 208 206 204
-10.08 -23.59 -2.34 211 211 206
-10.09 -23.67 -2.32 213 213 208
-10.09 -23.76 -2.32 213 213 210
-10.10 -23.83 -2.31 213 213 210
-10.11 -23.91 -2.30 214 214 211
-10.11 -24.00 -2.29 214 214 211
-10.12 -24.08 -2.29 214 214 211
-10.13 -24.16 -2.28 214 214 211
-10.13 -24.24 -2.27 215 215 212
-10.14 -24.32 -2.26 215 215 212
-10.14 -24.40 -2.26 215 215 212
-10.14 -24.49 -2.25 215 215 212
-10.15 -24.57 -2.24 215 215 212
-10.15 -24.65 -2.24 215 215 212
-10.16 -24.73 -2.23 215 215 212
-10.16 -24.81 -2.23 215 215 212
-10.17 -24.89 -2.22 217 215 216
-10.16 -24.98 -2.23 217 215 216
-10.16 -25.06 -2.23 217 215 216
-10.17 -25.14 -2.22 217 215 216
-10.18 -25.22 -2.21 217 215 216
-10.18 -25.31 -2.21 217 215 216
-10.17 -25.39 -2.21 217 215 216
-10.18 -25.47 -2.20 217 215 216
-10.18 -25.55 -2.20 216 214 215
-10.18 -25.64 -2.20 216 214 215
-10.18 -25.72 -2.20 216 214 215
-10.18 -25.81 -2.20 216 214 215
-10.18 -25.89 -2.21 216 214 215
-10.19 -25.97 -2.19 216 214 215
-10.18 -26.06 -2.20 216 214 215
-10.18 -26.14 -2.20 216 214 215
-10.19 -26.23 -2.19 217 215 216
-10.19 -26.31 -2.19 217 215 216
-10.19 -26.39 -2.19 219 214 216
-10.20 -26.47 -2.19 219 214 216
-10.19 -26.56 -2.19 219 214 216
-10.19 -26.64 -2.19 219 214 216
-10.19 -26.73 -2.19 219 214 216
-10.20 -26.81 -2.19 219 214 216
-10.20 -26.89 -2.19 219 214 216
-10.20 -26.98 -2.19 219 214 216
-10.19 -27.07 -2.19 219 214 216
-10.19 -27.15 -2.19 219 214 216
-10.19 -27.23 -2.19 219 214 216
-10.19 -27.32 -2.20 219 214 216
-10.19 -27.40 -2.20 219 214 216
-10.19 -27.49 -2.20 220 215 217
-10.18 -27.57 -2.20 221 216 218
-10.18 -27.66 -2.20 221 216 218
-10.18 -27.74 -2.20 221 216 218
-10.19 -27.82 -2.19 221 216 218
-10.19 -27.91 -2.19 221 216 218
-10.19 -27.99 -2.19 221 216 218
-10.20 -28.07 -2.19 221 216 218
-10.19 -28.16 -2.19 221 216 218
-10.19 -28.24 -2.19 223 218 220
-10.19 -28.33 -2.20 223 218 220
-10.18 -28.41 -2.20 223 218 220
-10.18 -28.50 -2.20 223 218 220
-10.18 -28.58 -2.20 223 218 220
-10.18 -28.67 -2.20 223 218 220
-10.18 -28.75 -2.20 223 218 217
-10.18 -28.84 -2.21 223 218 217
-10.19 -28.92 -2.20 224 219 218
-10.18 -29.00 -2.20 224 219 218
-10.18 -29.09 -2.20 223 218 215
-10.18 -29.18 -2.21 223 218 215
-10.18 -29.26 -2.20 223 218 215
-10.18 -29.34 -2.20 223 218 215
-10.18 -29.42 -2.20 223 218 215
-10.18 -29.51 -2.20 223 218 215
-10.18 -29.59 -2.20 223 218 215
-10.19 -29.67 -2.20 223 218 215
-10.18 -29.76 -2.20 224 219 216
-10.18 -29.84 -2.20 225 220 217
-10.18 -29.93 -2.20 225 220 217
-10.19 -30.01 -2.20 225 220 217
-10.19 -30.09 -2.19 225 220 217
-10.20 -30.17 -2.19 225 220 217
-10.20 -30.26 -2.19 224 219 216
-10.21 -30.33 -2.17 224 219 216
-10.21 -30.41 -2.17 224 219 216
-10.21 -30.50 -2.17 224 219 216
-10.21 -30.58 -2.17 224 219 216
-10.21 -30.66 -2.16 224 219 216
-10.21 -30.75 -2.16 224 219 216
-10.22 -30.83 -2.16 225 220 217
-10.22 -30.91 -2.16 226 221 218
-10.22 -31.00 -2.16 226 221 218
-10.22 -31.08 -2.15 226 221 218
-10.22 -31.17 -2.16 226 221 218
-10.22 -31.25 -2.16 226 221 218
-10.21 -31.33 -2.16 226 221 218
-10.21 -31.42 -2.16 226 221 218
-10.21 -31.50 -2.16 227 222 219
-10.21 -31.59 -2.17 227 222 219
-10.21 -31.67 -2.16 228 223 220
-10.22 -31.75 -2.15 230 225 222
-10.21 -31.84 -2.17 230 225 222
-10.21 -31.92 -2.16 230 225 222
-10.21 -32.01 -2.16 230 225 222
-10.21 -32.10 -2.17 230 225 222
-10.21 -32.18 -2.17 230 225 222
-10.21 -32.27 -2.17 230 225 222
-10.21 -32.35 -2.17 231 226 223
-10.21 -32.43 -2.17 231 226 223
-10.21 -32.52 -2.17 231 226 223
-10.20 -32.60 -2.18 231 226 223
-10.20 -32.69 -2.18 231 226 223
-10.19 -32.78 -2.19 231 226 223
-10.18 -32.87 -2.20 230 225 222
-10.18 -32.96 -2.21 230 225 222
-10.19 -33.03 -2.19 230 225 222
-10.20 -33.11 -2.18 228 226 222
-10.22 -33.17 -2.15 228 226 222
-10.22 -33.26 -2.15 228 226 222
-10.23 -33.34 -2.14 228 226 222
-10.27 -33.39 -2.09 228 226 222
-10.33 -33.42 -2.01 228 226 222
-10.34 -33.49 -1.99 227 222 219
-10.34 -33.57 -1.99 230 225 222
-10.31 -33.68 -2.03 229 219 218
-10.48 -33.62 -1.81 235 225 224
-8.99 -35.04 -3.76 237 223 223
-9.94 19.79 -2.65 141 132 124
-9.91 19.73 -2.69 141 132 124
-9.92 19.64 -2.68 141 132 124
-9.89 19.58 -2.71 141 132 124
-9.89 19.50 -2.71 141 132 124
-9.90 19.41 -2.70 141 132 124
-9.87 19.35 -2.74 141 132 124
-9.87 19.26 -2.74 141 132 124
-9.86 19.18 -2.75 141 132 124
-9.86 19.10 -2.75 142 133 125
-9.85 19.02 -2.77 142 133 125
-9.84 18.94 -2.78 142 133 125
-9.83 18.87 -2.80 142 133 125
-9.83 18.79 -2.80 142 133 125
-9.82 18.70 -2.80 142 133 125
-9.81 18.63 -2.82 142 133 125
-9.81 18.54 -2.82 142 133 125
-9.80 18.47 -2.83 142 133 125
-9.79 18.39 -2.84 143 132 125
-9.79 18.31 -2.85 144 133 126
-9.78 18.23 -2.86 144 133 126
-9.77 18.16 -2.88 144 133 126
-9.76 18.07 -2.88 144 133 126
-9.76 17.99 -2.88 144 133 126
-9.75 17.91 -2.90 145 134 127
-9.75 17.83 -2.90 145 134 127
-9.74 17.75 -2.92 146 135 128
-9.73 17.67 -2.92 146 135 128
-9.72 17.60 -2.94 147 136 129
-9.72 17.51 -2.94 147 136 129
-9.71 17.43 -2.95 148 139 133
-9.70 17.36 -2.97 146 137 131
-9.69 17.28 -2.98 148 140 129
-9.67 17.20 -3.00 148 140 129
-9.67 17.13 -3.01 148 139 131
-9.66 17.04 -3.01 148 139 131
-9.65 16.96 -3.02 146 140 131
-9.65 16.88 -3.03 146 140 131
-9.65 16.80 -3.03 147 141 132
-9.64 16.72 -3.04 147 141 132
-9.63 16.64 -3.06 148 142 133
-9.63 16.56 -3.06 148 142 133
-9.63 16.47 -3.06 149 143 134
-9.62 16.39 -3.07 149 143 134
-9.62 16.31 -3.07 150 144 135
-9.61 16.22 -3.08 150 144 135
-9.61 16.14 -3.08 148 142 135
-9.61 16.06 -3.09 149 143 136
-9.60 15.97 -3.09 148 142 135
-9.60 15.89 -3.10 148 142 135
-9.59 15.81 -3.10 149 143 136
-9.58 15.73 -3.12 149 143 136
-9.58 15.65 -3.12 148 142 135
-9.58 15.56 -3.12 148 142 135
-9.57 15.48 -3.13 147 143 135
-9.57 15.40 -3.13 148 144 136
-9.56 15.32 -3.14 149 145 137
-9.56 15.24 -3.15 149 145 137
-9.55 15.15 -3.16 149 145 137
-9.55 15.07 -3.16 147 143 135
-9.54 14.99 -3.17 143 139 133
-9.54 14.91 -3.18 142 138 132
-9.54 14.82 -3.18 142 138 132
-9.53 14.74 -3.18 143 139 133
-9.53 14.65 -3.18 143 137 132
-9.53 14.57 -3.19 144 138 133
-9.53 14.48 -3.19 144 138 133
-9.53 14.40 -3.19 144 138 133
-9.52 14.32 -3.20 143 137 132
-9.52 14.23 -3.20 143 137 132
-9.52 14.15 -3.20 143 137 132
-9.52 14.06 -3.20 143 137 132
-9.52 13.97 -3.20 143 139 133
-9.52 13.89 -3.20 145 141 135
-9.52 13.80 -3.20 146 142 136
-9.52 13.72 -3.20 147 143 137
-9.52 13.63 -3.20 150 144 137
-9.52 13.54 -3.20 151 145 138
-9.51 13.46 -3.21 154 148 141
-9.52 13.37 -3.21 155 149 142
-9.51 13.29 -3.21 156 150 143
-9.51 13.21 -3.22 157 151 144
-9.50 13.13 -3.23 158 152 145
-9.50 13.04 -3.23 158 152 145
-9.50 12.95 -3.23 156 152 144
-9.49 12.87 -3.24 156 152 144
-9.49 12.79 -3.24 157 153 145
-9.48 12.71 -3.25 159 155 147
-9.48 12.62 -3.25 159 155 147
-9.48 12.54 -3.25 160 156 148
-9.47 12.45 -3.26 161 157 149
-9.47 12.37 -3.26 161 157 149
-9.46 12.29 -3.28 161 157 149
-9.46 12.20 -3.28 161 157 149
-9.46 12.12 -3.28 161 157 149
-9.45 12.04 -3.29 161 157 149
-9.45 11.95 -3.30 161 157 149
-9.45 11.87 -3.30 161 157 149
-9.44 11.78 -3.31 162 158 150
-9.44 11.70 -3.31 162 158 150
-9.44 11.61 -3.31 163 159 151
-9.44 11.53 -3.31 163 159 151
-9.44 11.44 -3.31 164 160 152
-9.44 11.35 -3.31 164 160 152
-9.43 11.27 -3.31 166 162 154
-9.43 11.18 -3.31 167 163 155
-9.43 11.10 -3.31 167 163 155
-9.43 11.01 -3.32 167 163 155
-9.43 10.93 -3.32 167 163 155
-9.43 10.84 -3.32 167 163 155
-9.43 10.75 -3.31 167 163 155
-9.42 10.67 -3.32 167 163 155
-9.44 10.58 -3.31 167 163 155
-9.42 10.50 -3.32 167 163 155
-9.42 10.41 -3.32 167 163 155
-9.43 10.32 -3.32 168 164 156
-9.43 10.24 -3.32 166 165 156
-9.43 10.15 -3.32 166 165 156
-9.43 10.06 -3.31 167 163 153
-9.42 9.98 -3.32 167 163 153
-9.43 9.89 -3.32 169 165 155
-9.43 9.81 -3.32 170 166 156
-9.43 9.72 -3.32 170 166 156
-9.42 9.63 -3.32 171 167 157
-9.42 9.55 -3.33 171 167 157
-9.42 9.46 -3.32 173 169 159
-9.42 9.38 -3.33 171 170 159
-9.42 9.29 -3.33 171 170 159
-9.42 9.21 -3.33 170 171 161
-9.42 9.12 -3.33 171 172 162
-9.41 9.04 -3.34 171 172 162
-9.41 8.95 -3.34 171 172 162
-9.41 8.86 -3.34 171 172 162
-9.41 8.78 -3.35 171 172 162
-9.41 8.69 -3.34 171 172 162
-9.40 8.61 -3.35 171 172 162
-9.40 8.52 -3.35 171 172 162
-9.40 8.44 -3.35 172 173 163
-9.40 8.35 -3.36 172 173 163
-9.40 8.27 -3.36 172 173 163
-9.40 8.18 -3.36 172 173 163
-9.40 8.09 -3.36 172 173 163
-9.39 8.01 -3.37 172 173 163
-9.39 7.92 -3.37 172 173 163
-9.39 7.83 -3.36 174 175 163
-9.39 7.75 -3.37 175 176 164
-9.39 7.66 -3.37 176 177 165
-9.39 7.58 -3.37 176 177 165
-9.39 7.49 -3.37 176 177 165
-9.39 7.41 -3.37 176 177 165
-9.39 7.32 -3.37 176 177 165
-9.39 7.23 -3.37 176 177 165
-9.39 7.15 -3.37 176 177 165
-9.40 7.05 -3.36 176 177 165
-9.39 6.97 -3.37 178 179 169
-9.40 6.88 -3.36 178 179 169
-9.39 6.80 -3.36 178 179 169
-9.40 6.71 -3.36 178 179 169
-9.40 6.62 -3.36 178 179 171
-9.40 6.54 -3.36 178 179 171
-9.39 6.45 -3.36 178 179 171
-9.39 6.36 -3.36 178 179 171
-9.40 6.28 -3.36 178 179 171
-9.39 6.19 -3.36 178 179 171
-9.39 6.11 -3.37 178 179 171
-9.40 6.02 -3.36 178 179 171
-9.40 5.93 -3.36 178 179 171
-9.40 5.84 -3.36 178 179 171
-9.40 5.76 -3.36 178 179 171
-9.39 5.67 -3.37 178 179 171
-9.39 5.59 -3.37 178 179 171
-9.39 5.50 -3.37 178 179 171
-9.38 5.42 -3.38 178 179 171
-9.39 5.33 -3.37 178 179 171
-9.38 5.25 -3.38 178 179 171
-9.38 5.16 -3.39 178 179 171
-9.37 5.08 -3.39 178 178 173
-9.38 4.99 -3.39 178 178 173
-9.37 4.90 -3.39 178 178 173
-9.37 4.82 -3.39 178 178 173
-9.37 4.73 -3.39 178 178 173
-9.37 4.64 -3.39 178 178 173
-9.37 4.56 -3.39 178 178 173
-9.38 4.47 -3.39 178 178 173
-9.38 4.38 -3.38 178 178 173
-9.39 4.29 -3.37 178 178 173
-9.39 4.21 -3.37 178 178 173
-9.39 4.12 -3.37 178 178 173
-9.39 4.03 -3.37 178 178 173
-9.40 3.94 -3.36 176 176 171
-9.40 3.86 -3.36 176 176 171
-9.40 3.77 -3.35 176 176 171
-9.41 3.68 -3.35 174 175 167
-9.41 3.59 -3.35 174 175 167
-9.40 3.51 -3.35 174 175 167
-9.40 3.42 -3.35 174 175 167
-9.40 3.33 -3.35 174 175 167
-9.40 3.25 -3.35 174 175 167
-9.40 3.16 -3.35 174 175 167
-9.40 3.08 -3.35 173 174 166
-9.40 2.99 -3.35 173 174 166
-9.41 2.90 -3.35 173 174 166
-9.40 2.82 -3.35 173 174 166
-9.40 2.73 -3.35 173 174 166
-9.40 2.64 -3.36 173 174 166
-9.41 2.56 -3.35 173 174 166
-9.40 2.47 -3.35 171 174 166
-9.40 2.38 -3.35 171 174 166
-9.41 2.30 -3.35 173 174 166
-9.40 2.21 -3.35 173 174 166
-9.40 2.12 -3.35 173 174 166
-9.40 2.04 -3.35 173 174 166
-9.41 1.95 -3.34 173 174 166
-9.42 1.86 -3.34 173 174 166
-9.42 1.77 -3.33 173 174 166
-9.42 1.69 -3.33 173 174 166
-9.42 1.60 -3.33 172 173 165
-9.42 1.51 -3.32 172 173 165
-9.42 1.43 -3.32 172 173 165
-9.42 1.34 -3.32 172 173 165
-9.43 1.25 -3.32 172 173 165
-9.43 1.17 -3.32 172 173 165
-9.42 1.08 -3.33 172 173 165
-9.42 0.99 -3.33 172 173 165
-9.42 0.91 -3.33 170 172 167
-9.42 0.82 -3.33 170 172 167
-9.42 0.74 -3.33 170 172 167
-9.42 0.65 -3.33 170 172 167
-9.42 0.56 -3.33 170 172 167
-9.42 0.48 -3.32 170 172 167
-9.43 0.39 -3.32 170 172 167
-9.43 0.30 -3.32 170 172 167
-9.43 0.21 -3.31 170 172 167
-9.43 0.13 -3.31 170 172 167
-9.43 0.04 -3.31 170 172 167
-9.43 -0.04 -3.31 170 172 167
-9.43 -0.13 -3.31 170 172 167
-9.44 -0.22 -3.31 170 172 167
-9.44 -0.30 -3.31 170 172 167
-9.44 -0.39 -3.30 170 172 167
-9.44 -0.48 -3.30 170 173 165
-9.45 -0.57 -3.29 170 173 165
-9.45 -0.65 -3.29 170 173 165
-9.45 -0.74 -3.29 170 173 165
-9.45 -0.82 -3.29 170 173 165
-9.45 -0.91 -3.29 170 173 165
-9.45 -1.00 -3.29 170 172 167
-9.45 -1.09 -3.29 170 172 167
-9.46 -1.17 -3.28 170 172 167
-9.45 -1.26 -3.29 170 172 167
-9.45 -1.34 -3.29 170 172 169
-9.45 -1.43 -3.29 170 172 169
-9.46 -1.52 -3.28 170 172 169
-9.46 -1.60 -3.28 170 172 169
-9.44 -1.69 -3.30 170 172 172
-9.44 -1.77 -3.30 170 172 172
-9.44 -1.86 -3.30 170 173 165
-9.44 -1.95 -3.30 170 173 165
-9.44 -2.03 -3.31 170 172 169
-9.44 -2.12 -3.30 170 172 169
-9.44 -2.20 -3.30 170 172 169
-9.44 -2.29 -3.30 170 172 169
-9.44 -2.38 -3.30 170 172 169
-9.45 -2.46 -3.30 170 172 169
-9.45 -2.55 -3.30 171 173 170
-9.45 -2.64 -3.30 171 173 170
-9.45 -2.72 -3.30 172 174 171
-9.45 -2.81 -3.29 172 174 171
-9.45 -2.90 -3.29 172 174 171
-9.45 -2.98 -3.29 172 174 171
-9.45 -3.07 -3.29 172 174 171
-9.45 -3.16 -3.29 172 174 171
-9.46 -3.24 -3.28 170 175 169
-9.46 -3.33 -3.28 171 176 170
-9.46 -3.42 -3.28 172 177 171
-9.47 -3.50 -3.27 172 177 171
-9.47 -3.59 -3.27 172 177 171
-9.47 -3.68 -3.26 172 177 171
-9.47 -3.76 -3.26 172 177 171
-9.48 -3.85 -3.25 172 177 171
-9.47 -3.94 -3.27 172 177 171
-9.47 -4.02 -3.26 172 177 171
-9.48 -4.11 -3.25 172 177 171
-9.48 -4.19 -3.26 172 177 171
-9.48 -4.28 -3.25 172 177 171
-9.48 -4.37 -3.25 172 177 171
-9.48 -4.45 -3.25 172 177 171
-9.48 -4.54 -3.25 172 177 171
-9.48 -4.63 -3.25 171 181 175
-9.48 -4.71 -3.25 171 181 175
-9.48 -4.80 -3.25 171 181 175
-9.48 -4.88 -3.26 171 181 175
-9.48 -4.97 -3.25 171 181 175
-9.48 -5.06 -3.25 171 181 175
-9.49 -5.14 -3.24 171 181 175
-9.48 -5.23 -3.25 171 181 175
-9.48 -5.32 -3.25 172 182 176
-9.49 -5.40 -3.24 172 182 176
-9.48 -5.49 -3.25 172 182 176
-9.49 -5.58 -3.24 172 182 176
-9.49 -5.66 -3.24 174 181 174
-9.49 -5.75 -3.24 174 181 174
-9.49 -5.83 -3.24 175 180 174
-9.49 -5.92 -3.24 176 181 175
-9.48 -6.01 -3.25 175 180 176
-9.47 -6.09 -3.26 175 180 176
-9.48 -6.18 -3.26 175 180 176
-9.47 -6.26 -3.26 175 180 176
-9.46 -6.35 -3.27 175 180 176
-9.46 -6.44 -3.28 175 180 176
-9.45 -6.52 -3.29 175 180 176
-9.44 -6.61 -3.30 175 180 176
-9.43 -6.69 -3.31 174 179 175
-9.42 -6.78 -3.33 175 180 176
-9.40 -6.87 -3.35 175 180 176
-9.39 -6.95 -3.37 176 181 177
-9.37 -7.04 -3.39 176 181 177
-9.37 -7.13 -3.39 177 182 178
-9.37 -7.21 -3.40 177 182 181
-9.36 -7.30 -3.41 177 182 181
-9.35 -7.39 -3.42 181 186 185
-9.36 -7.47 -3.41 177 182 181
-9.36 -7.56 -3.41 174 179 178
-9.34 -7.65 -3.43 182 187 186
-9.32 -7.73 -3.46 181 186 185
-9.29 -7.82 -3.50 176 181 180
-9.41 -7.90 -3.34 167 172 171
-9.77 -7.98 -2.86 207 212 211
-10.08 -8.06 -2.46 240 245 244
-10.17 -8.14 -2.34 241 246 245
-10.18 -8.23 -2.33 242 247 246
-10.22 -8.31 -2.28 244 249 248
-10.24 -8.39 -2.26 245 250 249
-10.25 -8.48 -2.24 247 252 251
-10.25 -8.56 -2.24 248 253 252
-10.26 -8.65 -2.22 248 253 252
-10.26 -8.73 -2.23 246 253 251
-10.25 -8.81 -2.24 246 253 251
-10.24 -8.90 -2.25 246 253 251
-10.23 -8.98 -2.27 246 253 251
-10.22 -9.07 -2.28 246 253 251
-10.21 -9.15 -2.30 246 253 251
-10.20 -9.24 -2.31 246 253 251
-10.19 -9.32 -2.32 246 253 251
-10.19 -9.41 -2.32 246 253 251
-10.18 -9.49 -2.34 246 253 251
-10.17 -9.58 -2.35 246 253 251
-10.17 -9.66 -2.35 246 253 251
-10.17 -9.75 -2.35 246 253 251
-10.17 -9.83 -2.35 246 253 251
-10.17 -9.91 -2.34 246 253 251
-10.17 -10.00 -2.34 246 253 251
-10.18 -10.08 -2.34 246 253 251
-10.18 -10.17 -2.33 246 253 251
-10.19 -10.25 -2.32 246 253 251
-10.19 -10.33 -2.31 246 253 251
-10.19 -10.42 -2.31 246 253 251
-10.20 -10.50 -2.30 246 253 251
-10.20 -10.58 -2.30 246 253 251
-10.20 -10.67 -2.30 246 253 251
-10.20 -10.75 -2.31 246 253 251
-10.19 -10.84 -2.32 246 253 251
-10.18 -10.92 -2.33 246 253 251
-10.18 -11.01 -2.34 246 253 251
-10.18 -11.09 -2.33 246 253 251
-10.17 -11.18 -2.34 246 253 251
-10.16 -11.26 -2.36 246 253 251
-10.15 -11.35 -2.37 246 253 251
-10.14 -11.44 -2.38 246 251 250
-10.12 -11.52 -2.41 246 251 250
-10.10 -11.61 -2.44 248 253 252
-10.09 -11.70 -2.45 248 253 252
-10.07 -11.78 -2.47 248 253 252
-10.06 -11.87 -2.49 244 249 248
-10.01 -11.96 -2.55 238 243 242
-9.88 -12.07 -2.72 234 239 238
-9.73 -12.17 -2.92 210 215 214
-9.54 -12.29 -3.17 195 200 199
-9.46 -12.39 -3.28 182 187 186
-9.40 -12.49 -3.36 183 188 187
-9.37 -12.58 -3.40 186 191 190
-9.39 -12.66 -3.37 186 191 190
-9.40 -12.75 -3.36 186 191 190
-9.41 -12.83 -3.34 190 195 194
-9.41 -12.92 -3.34 190 193 185
-9.42 -13.00 -3.34 190 193 185
-9.41 -13.09 -3.34 190 192 187
-9.41 -13.18 -3.34 190 192 187
-9.41 -13.26 -3.34 190 192 187
-9.41 -13.35 -3.34 190 192 187
-9.41 -13.44 -3.34 187 189 186
-9.40 -13.52 -3.36 186 188 185
-9.40 -13.61 -3.36 190 192 189
-9.40 -13.70 -3.36 187 189 186
-9.40 -13.78 -3.36 185 187 187
-9.39 -13.87 -3.37 180 182 182
-9.39 -13.96 -3.37 176 178 178
-9.38 -14.05 -3.39 172 174 174
-9.37 -14.14 -3.39 169 170 173
-9.36 -14.23 -3.41 168 169 172
-9.35 -14.32 -3.43 169 175 166
-9.33 -14.40 -3.44 168 174 165
-9.31 -14.50 -3.47 168 174 165
-9.30 -14.59 -3.49 168 174 165
-9.28 -14.68 -3.51 168 174 165
-9.28 -14.76 -3.51 169 175 166
-9.27 -14.85 -3.52 169 175 166
-9.26 -14.94 -3.54 170 176 167
-9.25 -15.03 -3.56 174 180 171
-9.24 -15.12 -3.57 170 176 167
-9.23 -15.21 -3.57 166 172 163
-9.23 -15.30 -3.58 161 167 158
-9.23 -15.39 -3.59 160 166 157
-9.22 -15.48 -3.60 160 166 157
-9.22 -15.56 -3.59 162 168 159
-9.21 -15.65 -3.60 164 170 161
-9.21 -15.74 -3.60 165 167 164
-9.20 -15.83 -3.61 165 167 164
-9.19 -15.92 -3.63 165 167 164
-9.20 -16.00 -3.62 165 167 164
-9.18 -16.09 -3.64 164 166 163
-9.18 -16.18 -3.65 163 165 162
-9.17 -16.27 -3.66 162 164 161
-9.16 -16.36 -3.67 161 163 160
-9.15 -16.45 -3.69 162 164 161
-9.14 -16.54 -3.70 166 168 165
-9.13 -16.63 -3.71 174 176 173
-9.13 -16.72 -3.72 180 182 179
-9.12 -16.81 -3.73 181 183 180
-9.10 -16.90 -3.75 178 180 177
-9.09 -16.99 -3.76 172 174 171
-9.08 -17.08 -3.78 168 170 167
-9.06 -17.18 -3.80 166 168 165
-9.05 -17.27 -3.82 157 159 156
-9.05 -17.36 -3.82 147 149 146
-9.05 -17.44 -3.82 143 145 142
-9.05 -17.53 -3.81 145 147 144
-9.06 -17.62 -3.81 151 153 150
-9.06 -17.70 -3.80 163 165 162
-9.07 -17.79 -3.79 174 176 173
-9.08 -17.87 -3.77 154 156 153
-9.11 -17.95 -3.73 130 132 129
-9.13 -18.03 -3.71 100 102 99
-9.17 -18.10 -3.66 74 76 73
-9.21 -18.17 -3.60 55 57 54
-9.25 -18.25 -3.55 41 43 40
-9.30 -18.32 -3.49 36 38 35
-9.35 -18.38 -3.42 37 39 36
-9.40 -18.45 -3.36 47 47 44
-9.44 -18.52 -3.30 57 57 54
-9.48 -18.60 -3.25 59 59 56
-9.53 -18.66 -3.19 60 60 57
-9.58 -18.73 -3.12 59 59 56
-9.62 -18.80 -3.07 47 47 44
-9.66 -18.87 -3.01 36 36 33
-9.71 -18.94 -2.95 38 38 35
-9.74 -19.01 -2.90 57 57 54
-9.79 -19.08 -2.84 72 72 69
-9.83 -19.15 -2.79 105 105 102
-9.86 -19.22 -2.75 140 140 137
-9.90 -19.29 -2.70 180 180 177
-9.94 -19.36 -2.65 202 202 199
-9.98 -19.43 -2.59 220 220 217
-10.02 -19.50 -2.54 224 224 221
-10.05 -19.57 -2.51 216 221 220
-10.08 -19.64 -2.46 218 223 222
-10.10 -19.72 -2.43 213 215 212
-10.14 -19.79 -2.39 206 208 205
-10.16 -19.86 -2.35 200 202 199
-10.20 -19.93 -2.31 191 193 190
-10.24 -20.00 -2.25 193 193 188
-10.27 -20.07 -2.22 183 183 178
-10.30 -20.14 -2.18 170 170 165
-10.33 -20.21 -2.13 157 157 152
-10.36 -20.28 -2.10 150 149 142
-10.40 -20.35 -2.05 146 145 138
-10.42 -20.42 -2.01 136 135 128
-10.45 -20.49 -1.97 123 122 115
-10.47 -20.57 -1.95 114 110 102
-10.49 -20.64 -1.93 106 102 94
-10.50 -20.72 -1.91 107 100 82
-10.52 -20.80 -1.89 127 120 102
-10.52 -20.88 -1.88 60 53 37
-10.53 -20.95 -1.87 44 37 21
-10.62 -21.00 -1.76 33 23 27
-10.84 -20.98 -1.47 21 11 15
-11.14 -20.92 -1.08 41 34 64
-11.43 -20.86 -0.69 63 56 86
-11.62 -20.85 -0.45 68 65 110
-11.68 -20.90 -0.36 68 65 110
-11.75 -20.95 -0.27 47 49 105
-11.73 -21.04 -0.30 46 48 104
-11.74 -21.11 -0.29 65 67 123
-11.73 -21.20 -0.30 49 51 107
-11.75 -21.27 -0.28 19 23 67
-11.77 -21.34 -0.25 1 5 49
-11.57 -21.52 -0.51 6 6 43
-11.00 -21.88 -1.25 50 50 87
-10.49 -22.22 -1.93 152 153 176
-10.32 -22.40 -2.15 225 226 249
-10.30 -22.49 -2.18 223 227 229
-10.30 -22.57 -2.18 204 208 210
-10.26 -22.68 -2.23 209 212 202
-10.25 -22.77 -2.25 208 211 201
-10.23 -22.86 -2.27 213 216 206
-10.22 -22.95 -2.27 212 215 205
-10.21 -23.04 -2.30 215 216 208
-10.20 -23.13 -2.30 217 218 210
-10.21 -23.21 -2.29 215 215 212
-10.22 -23.29 -2.28 214 214 211
-10.22 -23.37 -2.27 214 212 210
-10.22 -23.45 -2.28 212 210 208
-10.23 -23.53 -2.26 210 210 205
-10.24 -23.61 -2.26 211 211 206
-10.24 -23.70 -2.26 213 213 210
-10.25 -23.78 -2.25 213 213 210
-10.25 -23.86 -2.25 214 214 211
-10.25 -23.94 -2.24 214 214 211
-10.26 -24.02 -2.23 214 214 211
-10.26 -24.10 -2.22 215 215 212
-10.28 -24.18 -2.21 215 215 212
-10.28 -24.26 -2.20 215 215 212
-10.29 -24.34 -2.19 215 215 212
-10.30 -24.42 -2.17 215 215 212
-10.30 -24.50 -2.17 215 215 212
-10.31 -24.58 -2.16 215 215 212
-10.32 -24.66 -2.15 215 215 212
-10.32 -24.75 -2.15 215 215 212
-10.32 -24.83 -2.15 216 214 215
-10.32 -24.91 -2.15 217 215 216
-10.32 -25.00 -2.15 217 215 216
-10.32 -25.08 -2.14 217 215 216
-10.32 -25.16 -2.14 217 215 216
-10.33 -25.24 -2.14 217 215 216
-10.33 -25.32 -2.14 217 215 216
-10.33 -25.41 -2.14 217 215 216
-10.33 -25.49 -2.14 216 214 215
-10.32 -25.58 -2.15 216 214 215
-10.33 -25.66 -2.14 216 214 215
-10.33 -25.74 -2.14 216 214 215
-10.33 -25.83 -2.13 216 214 215
-10.33 -25.91 -2.14 216 214 215
-10.34 -25.99 -2.13 216 214 215
-10.33 -26.08 -2.13 216 214 215
-10.33 -26.16 -2.13 217 215 216
-10.33 -26.24 -2.13 217 215 216
-10.33 -26.33 -2.13 219 214 216
-10.33 -26.41 -2.13 219 214 216
-10.34 -26.49 -2.12 219 214 216
-10.34 -26.57 -2.12 219 214 216
-10.34 -26.66 -2.12 219 214 216
-10.34 -26.74 -2.13 219 214 216
-10.33 -26.83 -2.13 219 214 216
-10.33 -26.91 -2.13 218 213 215
-10.33 -27.00 -2.13 218 213 215
-10.34 -27.08 -2.13 218 213 215
-10.34 -27.16 -2.13 218 213 215
-10.34 -27.25 -2.13 218 213 215
-10.33 -27.33 -2.14 218 213 215
-10.33 -27.42 -2.14 219 214 216
-10.34 -27.50 -2.13 220 215 217
-10.33 -27.58 -2.13 221 216 218
-10.33 -27.67 -2.13 221 216 218
-10.33 -27.75 -2.13 221 216 218
-10.34 -27.83 -2.13 221 216 218
-10.34 -27.92 -2.13 221 216 218
-10.34 -28.00 -2.13 221 216 218
-10.33 -28.09 -2.13 221 216 218
-10.33 -28.17 -2.13 221 216 218
-10.33 -28.25 -2.13 223 218 220
-10.33 -28.34 -2.13 223 218 220
-10.33 -28.42 -2.13 223 218 220
-10.32 -28.51 -2.14 223 218 220
-10.33 -28.59 -2.13 223 218 220
-10.32 -28.68 -2.14 223 218 217
-10.33 -28.76 -2.14 223 218 217
-10.32 -28.85 -2.15 223 218 217
-10.33 -28.93 -2.14 223 218 217
-10.32 -29.02 -2.14 223 218 215
-10.33 -29.10 -2.14 223 218 215
-10.33 -29.18 -2.14 223 218 215
-10.33 -29.27 -2.14 223 218 215
-10.33 -29.35 -2.14 223 218 215
-10.33 -29.43 -2.14 223 218 215
-10.33 -29.51 -2.14 223 218 215
-10.33 -29.60 -2.14 223 218 215
-10.33 -29.68 -2.14 224 219 216
-10.33 -29.77 -2.14 224 219 216
-10.34 -29.85 -2.13 224 219 216
-10.34 -29.93 -2.13 224 219 216
-10.34 -30.01 -2.12 224 219 216
-10.34 -30.09 -2.12 224 219 216
-10.35 -30.17 -2.11 224 219 216
