ply
format ascii 1.0
element vertex 1539
property float x
property float y
property float z
property uchar red
property uchar green
property uchar blue
end_header
-12.34 -1.09 -2.31 169 171 168
-12.34 -1.17 -2.30 169 171 168
-12.35 -1.25 -2.29 169 171 168
-12.35 -1.33 -2.29 169 171 168
-12.35 -1.42 -2.29 169 171 168
-12.36 -1.50 -2.27 169 171 168
-12.36 -1.58 -2.27 169 171 168
-12.36 -1.66 -2.27 169 171 168
-12.36 -1.74 -2.27 169 171 168
-12.37 -1.82 -2.27 169 171 168
-12.37 -1.90 -2.26 169 171 168
-12.36 -1.98 -2.27 169 171 168
-12.36 -2.06 -2.27 169 171 168
-12.36 -2.14 -2.27 170 172 169
-12.36 -2.22 -2.27 168 173 172
-12.36 -2.30 -2.28 168 173 172
-12.35 -2.38 -2.28 168 173 172
-12.36 -2.47 -2.28 168 173 172
-12.36 -2.55 -2.27 168 173 172
-12.36 -2.63 -2.27 168 173 172
-12.36 -2.71 -2.27 168 173 172
-12.36 -2.79 -2.27 168 173 172
-12.36 -2.87 -2.27 169 174 173
-12.36 -2.95 -2.27 169 174 173
-12.36 -3.03 -2.27 169 174 173
-12.36 -3.11 -2.27 169 174 173
-12.37 -3.19 -2.26 169 174 173
-12.36 -3.27 -2.27 169 174 173
-12.37 -3.35 -2.26 169 174 173
-12.36 -3.43 -2.27 169 174 173
-12.36 -3.51 -2.27 173 173 173
-12.36 -3.60 -2.27 173 173 173
-12.36 -3.68 -2.27 173 173 173
-12.36 -3.76 -2.27 173 173 173
-12.36 -3.84 -2.27 173 173 173
-12.36 -3.92 -2.27 173 173 173
-12.36 -4.00 -2.28 173 173 173
-12.36 -4.08 -2.27 173 173 173
-12.36 -4.16 -2.27 173 173 173
-12.36 -4.24 -2.27 173 173 173
-12.36 -4.32 -2.27 173 173 173
-12.36 -4.40 -2.27 173 173 173
-12.37 -4.48 -2.26 173 173 173
-12.37 -4.56 -2.27 173 173 173
-12.37 -4.64 -2.26 173 173 173
-12.37 -4.72 -2.27 173 173 173
-12.36 -4.81 -2.27 170 175 174
-12.36 -4.89 -2.27 170 175 174
-12.35 -4.97 -2.28 170 175 174
-12.35 -5.05 -2.28 170 175 174
-12.34 -5.13 -2.31 170 175 174
-12.34 -5.21 -2.31 170 175 174
-12.34 -5.29 -2.31 170 175 174
-12.33 -5.37 -2.32 170 175 174
-12.32 -5.45 -2.34 171 176 175
-12.31 -5.53 -2.35 172 177 176
-12.30 -5.61 -2.36 172 177 176
-12.29 -5.69 -2.37 174 179 178
-12.29 -5.77 -2.38 175 180 179
-12.28 -5.85 -2.39 176 181 180
-12.28 -5.93 -2.39 176 181 180
-12.28 -6.01 -2.39 177 182 181
-12.28 -6.09 -2.39 181 181 181
-12.28 -6.17 -2.39 185 185 185
-12.27 -6.25 -2.40 180 182 182
-12.23 -6.33 -2.46 181 183 183
-12.27 -6.42 -2.40 164 166 166
-12.51 -6.50 -2.07 166 168 168
-12.89 -6.60 -1.52 241 246 245
-13.05 -6.68 -1.30 246 251 250
-13.06 -6.76 -1.29 247 252 251
-13.07 -6.84 -1.27 247 252 251
-13.08 -6.92 -1.26 246 253 251
-13.09 -6.99 -1.24 246 253 251
-13.10 -7.07 -1.23 246 253 251
-13.10 -7.15 -1.23 246 253 251
-13.09 -7.23 -1.24 244 254 251
-13.09 -7.31 -1.24 244 254 251
-13.08 -7.39 -1.26 246 253 251
-13.06 -7.47 -1.28 246 253 251
-13.05 -7.54 -1.30 246 253 251
-13.04 -7.62 -1.31 246 253 251
-13.04 -7.70 -1.32 246 253 251
-13.03 -7.78 -1.33 246 253 251
-13.02 -7.86 -1.34 246 253 251
-13.02 -7.94 -1.34 246 253 251
-13.01 -8.02 -1.35 245 252 250
-13.01 -8.10 -1.36 245 252 250
-13.01 -8.17 -1.36 245 252 250
-13.00 -8.25 -1.37 245 252 250
-13.00 -8.33 -1.37 245 252 250
-13.00 -8.41 -1.38 245 252 250
-13.00 -8.49 -1.38 245 252 250
-12.99 -8.57 -1.38 245 252 250
-12.99 -8.65 -1.38 246 253 251
-12.99 -8.73 -1.39 246 253 251
-12.99 -8.81 -1.38 246 253 251
-12.99 -8.88 -1.39 246 253 251
-12.99 -8.96 -1.39 246 253 251
-12.99 -9.04 -1.39 246 253 251
-12.99 -9.12 -1.39 246 253 251
-12.98 -9.20 -1.40 246 253 251
-12.98 -9.28 -1.40 246 253 251
-12.98 -9.36 -1.40 246 253 251
-12.98 -9.44 -1.40 246 253 251
-12.99 -9.51 -1.39 246 253 251
-12.99 -9.59 -1.39 246 253 251
-12.99 -9.67 -1.39 246 253 251
-13.00 -9.75 -1.37 246 253 251
-13.00 -9.83 -1.37 246 253 251
-13.00 -9.91 -1.37 247 252 251
-13.00 -9.99 -1.38 247 252 251
-13.00 -10.06 -1.37 247 252 251
-13.01 -10.14 -1.36 247 252 251
-13.01 -10.22 -1.36 247 252 251
-13.01 -10.30 -1.36 247 252 251
-13.01 -10.38 -1.35 247 252 251
-13.02 -10.46 -1.35 247 252 251
-13.01 -10.54 -1.35 247 252 251
-13.02 -10.61 -1.34 247 252 251
-13.02 -10.69 -1.34 247 252 251
-13.03 -10.77 -1.33 247 252 251
-13.03 -10.85 -1.33 247 252 251
-13.04 -10.93 -1.32 247 252 251
-13.03 -11.01 -1.33 247 252 251
-13.04 -11.08 -1.32 247 252 251
-13.04 -11.16 -1.32 246 251 250
-13.04 -11.24 -1.32 246 251 250
-13.03 -11.32 -1.33 246 251 250
-13.03 -11.40 -1.33 246 251 250
-13.03 -11.48 -1.33 246 251 250
-13.02 -11.56 -1.34 246 251 250
-13.02 -11.64 -1.34 246 251 250
-13.02 -11.72 -1.34 246 251 250
-13.02 -11.80 -1.34 246 251 250
-13.01 -11.88 -1.36 246 251 250
-13.01 -11.95 -1.36 246 251 250
-13.01 -12.03 -1.36 246 251 250
-13.00 -12.11 -1.37 246 251 250
-13.00 -12.19 -1.37 246 251 250
-13.00 -12.27 -1.37 246 251 250
-13.01 -12.35 -1.36 246 251 250
-13.01 -12.43 -1.36 241 246 245
-13.01 -12.51 -1.36 246 251 250
-13.01 -12.58 -1.36 248 253 252
-13.00 -12.66 -1.37 247 252 251
-13.01 -12.74 -1.36 242 247 246
-13.01 -12.82 -1.35 252 255 255
-13.01 -12.90 -1.35 244 249 248
-13.03 -12.97 -1.33 248 253 252
-13.03 -13.05 -1.33 252 255 255
-13.04 -13.13 -1.31 241 246 245
-13.06 -13.20 -1.29 246 251 250
-13.06 -13.28 -1.29 249 254 253
-13.08 -13.36 -1.26 244 249 248
-13.12 -13.43 -1.20 247 252 251
-13.16 -13.50 -1.15 196 201 200
-13.26 -13.55 -1.01 87 92 91
-13.27 -13.63 -0.99 246 250 254
-13.26 -13.71 -1.01 246 250 254
-13.23 -13.79 -1.05 253 255 255
-13.24 -13.87 -1.03 244 248 250
-13.24 -13.94 -1.03 246 250 252
-13.22 -14.03 -1.06 245 249 251
-13.20 -14.11 -1.08 245 250 249
-13.19 -14.19 -1.10 248 253 252
-13.20 -14.27 -1.09 246 251 250
-13.19 -14.35 -1.10 246 251 250
-13.18 -14.43 -1.12 246 251 247
-13.16 -14.51 -1.14 246 251 247
-13.14 -14.60 -1.17 246 251 247
-13.11 -14.68 -1.21 246 251 247
-13.08 -14.77 -1.26 246 251 245
-13.02 -14.87 -1.34 246 251 245
-12.91 -14.97 -1.49 251 253 250
-12.81 -15.08 -1.64 232 234 231
-12.68 -15.20 -1.83 206 208 205
-12.60 -15.30 -1.94 185 187 184
-12.54 -15.40 -2.03 177 179 176
-12.52 -15.49 -2.06 179 181 178
-12.53 -15.56 -2.03 185 187 184
-12.53 -15.64 -2.03 190 192 189
-12.54 -15.72 -2.02 191 193 190
-12.54 -15.80 -2.03 187 189 186
-12.55 -15.88 -2.01 188 190 187
-12.55 -15.96 -2.01 191 193 190
-12.54 -16.04 -2.02 187 189 186
-12.54 -16.12 -2.02 188 190 187
-12.54 -16.20 -2.02 192 194 191
-12.54 -16.28 -2.02 191 193 190
-12.54 -16.36 -2.03 196 195 198
-12.54 -16.44 -2.03 196 195 198
-12.54 -16.52 -2.02 196 195 198
-12.54 -16.60 -2.02 196 195 198
-12.54 -16.68 -2.02 196 195 198
-12.55 -16.76 -2.01 196 195 198
-12.54 -16.84 -2.02 196 195 198
-12.55 -16.92 -2.01 196 195 198
-12.55 -17.00 -2.01 196 195 198
-12.54 -17.08 -2.02 196 195 198
-12.53 -17.17 -2.03 196 195 198
-12.53 -17.25 -2.04 196 195 198
-12.53 -17.33 -2.04 196 195 198
-12.53 -17.41 -2.04 196 195 198
-12.52 -17.49 -2.05 196 195 198
-12.52 -17.57 -2.06 196 195 198
-12.51 -17.65 -2.06 196 196 196
-12.51 -17.74 -2.06 196 196 196
-12.51 -17.82 -2.06 196 196 196
-12.50 -17.90 -2.07 196 196 196
-12.50 -17.98 -2.07 196 196 196
-12.50 -18.06 -2.07 196 196 196
-12.50 -18.14 -2.08 196 196 196
-12.50 -18.22 -2.08 196 196 196
-12.49 -18.30 -2.09 199 199 199
-12.50 -18.38 -2.08 199 199 199
-12.50 -18.46 -2.08 199 199 199
-12.50 -18.54 -2.07 199 199 199
-12.50 -18.62 -2.08 199 199 199
-12.50 -18.70 -2.08 199 199 199
-12.50 -18.78 -2.08 199 199 199
-12.50 -18.86 -2.08 199 199 199
-12.49 -18.95 -2.09 196 195 200
-12.50 -19.02 -2.08 196 195 200
-12.50 -19.11 -2.08 196 195 200
-12.50 -19.18 -2.07 196 195 200
-12.51 -19.26 -2.06 196 195 200
-12.52 -19.34 -2.06 196 195 200
-12.52 -19.42 -2.06 196 195 200
-12.53 -19.49 -2.04 196 195 200
-12.53 -19.57 -2.03 190 189 194
-12.54 -19.65 -2.02 185 184 189
-12.55 -19.72 -2.01 183 182 187
-12.56 -19.80 -1.99 175 174 179
-12.56 -19.88 -1.99 166 165 170
-12.58 -19.95 -1.96 160 159 164
-12.60 -20.02 -1.93 105 104 109
-12.64 -20.08 -1.88 16 15 20
-12.69 -20.14 -1.81 26 30 34
-12.76 -20.19 -1.71 48 52 56
-12.83 -20.23 -1.61 96 100 104
-12.88 -20.28 -1.54 139 143 147
-12.92 -20.35 -1.49 147 151 155
-12.96 -20.41 -1.43 136 140 144
-12.98 -20.47 -1.40 128 132 136
-12.96 -20.56 -1.43 122 126 130
-12.95 -20.65 -1.45 86 90 94
-13.02 -20.69 -1.34 46 50 54
-13.36 -20.60 -0.86 9 13 17
-13.94 -20.39 -0.04 2 6 10
-14.39 -20.23 0.60 46 50 54
-14.54 -20.24 0.80 49 53 57
-14.64 -20.26 0.95 48 52 56
-14.70 -20.30 1.04 46 50 54
-14.73 -20.36 1.08 46 49 56
-14.77 -20.41 1.13 46 49 56
-14.80 -20.47 1.17 54 59 65
-14.82 -20.53 1.21 54 59 65
-14.84 -20.60 1.22 47 54 47
-14.84 -20.67 1.24 29 36 29
-14.84 -20.74 1.23 7 12 11
-14.84 -20.81 1.24 4 9 8
-14.83 -20.90 1.21 3 5 0
-14.81 -20.98 1.18 16 18 1
-14.79 -21.06 1.16 118 114 97
-14.78 -21.14 1.14 227 223 206
-14.76 -21.23 1.12 255 251 211
-14.74 -21.31 1.08 250 240 200
-14.72 -21.39 1.07 243 230 180
-14.72 -21.47 1.06 222 209 159
-14.72 -21.54 1.06 238 209 160
-14.72 -21.61 1.07 235 206 157
-14.73 -21.69 1.07 245 219 167
-14.73 -21.76 1.08 241 215 163
-14.74 -21.83 1.09 229 208 156
-14.76 -21.89 1.11 222 201 149
-14.77 -21.96 1.13 221 202 163
-14.78 -22.03 1.14 253 234 195
-14.79 -22.09 1.16 170 155 133
-14.76 -22.19 1.11 31 16 0
-14.87 -22.20 1.27 72 61 56
-14.01 -22.78 0.06 67 56 51
-12.74 -23.62 -1.74 52 45 48
-12.95 -23.57 -1.44 45 38 41
-12.99 -23.62 -1.39 44 38 45
-13.04 -23.67 -1.31 71 65 72
-13.09 -23.72 -1.25 113 108 110
-13.13 -23.77 -1.19 155 150 152
-13.15 -23.84 -1.16 200 195 197
-13.16 -23.91 -1.15 227 222 224
-13.16 -23.99 -1.15 238 233 235
-13.17 -24.06 -1.13 238 233 235
-13.18 -24.13 -1.11 221 216 218
-13.20 -24.20 -1.10 200 195 197
-13.20 -24.28 -1.09 203 198 200
-13.21 -24.35 -1.08 206 201 203
-13.21 -24.43 -1.07 206 201 203
-13.21 -24.50 -1.07 204 199 201
-13.22 -24.58 -1.06 207 202 204
-13.23 -24.65 -1.05 209 204 206
-13.23 -24.72 -1.04 209 204 206
-13.24 -24.80 -1.03 206 201 203
-13.25 -24.87 -1.02 214 208 203
-13.25 -24.95 -1.02 211 205 200
-13.25 -25.03 -1.02 215 209 204
-13.25 -25.11 -1.02 208 202 197
-13.26 -25.18 -1.01 207 201 196
-13.25 -25.26 -1.01 210 204 199
-13.25 -25.34 -1.01 217 211 206
-13.25 -25.41 -1.01 210 204 199
-13.25 -25.49 -1.01 205 199 194
-13.25 -25.57 -1.02 210 204 199
-13.24 -25.66 -1.03 214 208 203
-13.25 -25.73 -1.02 214 208 203
-13.24 -25.81 -1.03 210 204 199
-13.24 -25.89 -1.03 206 200 195
-13.24 -25.97 -1.04 207 201 196
-13.24 -26.05 -1.04 211 205 200
-13.23 -26.13 -1.04 213 208 207
-13.24 -26.21 -1.04 213 208 207
-13.24 -26.28 -1.04 214 209 208
-13.24 -26.36 -1.04 214 209 208
-13.24 -26.44 -1.04 216 211 210
-13.24 -26.52 -1.03 216 211 210
-13.24 -26.60 -1.04 217 212 211
-13.24 -26.67 -1.04 217 212 211
-13.23 -26.76 -1.04 216 211 210
-13.23 -26.83 -1.04 216 211 210
-13.24 -26.91 -1.04 216 211 210
-13.24 -26.98 -1.03 216 211 210
-13.25 -27.06 -1.02 216 211 210
-13.26 -27.13 -1.01 216 211 210
-13.25 -27.21 -1.02 216 211 210
-13.25 -27.29 -1.01 216 211 210
-13.26 -27.36 -1.01 218 211 214
-13.25 -27.45 -1.02 218 211 214
-13.25 -27.52 -1.01 218 211 214
-13.25 -27.60 -1.02 218 211 214
-13.25 -27.68 -1.02 218 211 214
-13.25 -27.76 -1.01 218 211 214
-13.25 -27.83 -1.01 218 211 214
-13.25 -27.91 -1.01 218 211 214
-13.25 -27.99 -1.02 218 211 214
-13.25 -28.07 -1.02 218 211 214
-13.24 -28.15 -1.03 218 211 214
-13.25 -28.23 -1.02 218 211 214
-13.24 -28.31 -1.03 218 211 214
-13.24 -28.39 -1.03 218 211 214
-13.25 -28.46 -1.02 218 210 216
-13.24 -28.54 -1.03 219 211 217
-13.24 -28.62 -1.03 218 210 216
-13.24 -28.70 -1.03 218 210 216
-13.24 -28.78 -1.03 218 210 216
-13.24 -28.86 -1.03 218 210 216
-13.24 -28.94 -1.03 218 210 216
-13.24 -29.01 -1.03 218 210 216
-13.24 -29.09 -1.03 218 210 216
-13.24 -29.17 -1.04 219 211 217
-13.24 -29.25 -1.04 219 211 217
-13.23 -29.34 -1.05 219 211 217
-13.23 -29.41 -1.04 219 211 217
-13.23 -29.49 -1.04 219 211 217
-13.23 -29.57 -1.04 219 211 217
-13.23 -29.64 -1.04 219 211 217
-13.23 -29.72 -1.04 219 211 217
-13.23 -29.80 -1.04 219 211 217
-13.23 -29.88 -1.04 219 211 217
-13.24 -29.95 -1.04 219 211 217
-13.24 -30.03 -1.04 219 211 217
-13.24 -30.11 -1.03 219 211 217
-13.24 -30.19 -1.03 219 211 217
-13.25 -30.26 -1.02 219 211 217
-13.25 -30.33 -1.02 219 211 217
-13.26 -30.40 -1.01 219 211 217
-13.26 -30.48 -1.01 219 211 217
-13.27 -30.55 -1.00 219 211 217
-13.27 -30.63 -1.00 219 211 217
-13.27 -30.71 -0.99 219 211 217
-13.28 -30.78 -0.98 219 211 217
-13.29 -30.85 -0.96 219 211 217
-13.30 -30.92 -0.95 219 211 217
-13.30 -30.99 -0.95 219 211 217
-13.31 -31.06 -0.94 222 212 216
-13.31 -31.14 -0.93 221 211 215
-13.32 -31.21 -0.92 220 213 216
-13.34 -31.26 -0.89 219 212 215
-13.37 -31.31 -0.84 237 232 234
-13.41 -31.36 -0.79 249 244 246
-13.45 -31.40 -0.73 228 223 225
-13.57 -31.37 -0.57 230 225 227
-13.80 -31.23 -0.24 234 234 234
-14.05 -31.08 0.11 252 252 252
-14.22 -31.00 0.35 244 244 244
-14.30 -31.00 0.46 250 250 250
-14.30 -31.08 0.46 247 249 249
-14.17 -31.27 0.28 193 195 195
-13.84 -31.66 -0.19 203 208 207
-13.36 -32.18 -0.86 246 251 250
-12.78 18.07 -1.81 133 130 117
-12.78 17.99 -1.81 133 130 117
-12.76 17.93 -1.83 133 130 117
-12.73 17.87 -1.87 133 130 117
-12.72 17.80 -1.89 134 129 117
-12.73 17.72 -1.88 134 129 117
-12.71 17.65 -1.90 134 128 119
-12.71 17.58 -1.91 134 128 119
-12.71 17.50 -1.91 136 127 119
-12.70 17.43 -1.93 136 127 119
-12.69 17.36 -1.94 136 127 119
-12.68 17.29 -1.95 136 127 119
-12.67 17.21 -1.96 137 126 119
-12.66 17.14 -1.98 137 126 119
-12.65 17.07 -1.99 137 126 119
-12.64 17.00 -2.00 137 126 119
-12.62 16.94 -2.03 137 131 126
-12.61 16.87 -2.05 137 131 126
-12.59 16.81 -2.07 136 132 126
-12.58 16.73 -2.09 138 134 128
-12.57 16.66 -2.10 137 135 131
-12.56 16.59 -2.12 137 135 131
-12.55 16.52 -2.14 138 136 132
-12.52 16.47 -2.17 138 136 132
-12.50 16.40 -2.20 139 134 131
-12.49 16.33 -2.22 139 134 131
-12.48 16.26 -2.23 142 133 129
-12.47 16.19 -2.25 142 133 129
-12.46 16.12 -2.27 145 132 127
-12.44 16.05 -2.29 145 132 127
-12.43 15.98 -2.30 148 130 125
-12.43 15.90 -2.31 148 130 125
-12.43 15.82 -2.31 146 134 136
-12.42 15.75 -2.31 146 134 136
-12.41 15.67 -2.33 146 135 130
-12.41 15.59 -2.33 146 135 130
-12.42 15.51 -2.32 146 136 126
-12.42 15.43 -2.32 146 136 126
-12.42 15.34 -2.32 146 135 128
-12.42 15.26 -2.32 146 135 128
-12.43 15.18 -2.30 148 139 135
-12.43 15.09 -2.30 148 139 135
-12.43 15.01 -2.30 148 138 137
-12.44 14.93 -2.29 148 138 137
-12.43 14.85 -2.30 148 138 137
-12.43 14.77 -2.30 148 138 137
-12.44 14.69 -2.29 148 139 135
-12.43 14.61 -2.30 148 139 135
-12.43 14.53 -2.31 149 140 132
-12.42 14.46 -2.32 150 141 133
-12.42 14.38 -2.32 148 142 135
-12.42 14.30 -2.32 148 142 135
-12.42 14.22 -2.32 148 142 135
-12.41 14.14 -2.33 149 143 136
-12.41 14.06 -2.33 150 144 139
-12.41 13.98 -2.33 150 144 139
-12.40 13.91 -2.35 151 145 140
-12.40 13.83 -2.34 151 145 140
-12.39 13.76 -2.36 153 146 144
-12.40 13.67 -2.35 153 146 144
-12.39 13.59 -2.35 154 147 145
-12.39 13.51 -2.35 154 147 145
-12.40 13.43 -2.35 154 147 147
-12.39 13.35 -2.36 154 147 147
-12.39 13.27 -2.35 153 146 144
-12.39 13.19 -2.36 153 146 144
-12.39 13.11 -2.37 153 146 144
-12.39 13.03 -2.37 154 147 145
-12.38 12.96 -2.38 155 148 146
-12.38 12.88 -2.38 155 148 146
-12.38 12.80 -2.38 155 148 146
-12.37 12.72 -2.39 155 148 146
-12.37 12.64 -2.39 155 148 146
-12.37 12.56 -2.39 155 148 146
-12.37 12.48 -2.39 155 148 146
-12.37 12.40 -2.39 156 149 147
-12.37 12.32 -2.39 156 150 145
-12.37 12.24 -2.39 157 151 146
-12.37 12.16 -2.39 157 152 149
-12.37 12.08 -2.39 159 154 151
-12.37 12.00 -2.39 160 156 148
-12.37 11.92 -2.39 160 156 148
-12.37 11.84 -2.39 160 156 148
-12.36 11.76 -2.40 160 156 148
-12.36 11.68 -2.40 160 156 148
-12.36 11.60 -2.40 160 156 148
-12.36 11.52 -2.41 160 156 148
-12.36 11.44 -2.41 160 156 148
-12.35 11.36 -2.41 160 156 148
-12.35 11.28 -2.41 160 156 148
-12.35 11.20 -2.41 160 156 148
-12.35 11.12 -2.42 160 156 148
-12.35 11.04 -2.42 160 156 148
-12.35 10.96 -2.42 160 156 148
-12.34 10.88 -2.43 160 156 148
-12.34 10.80 -2.43 160 156 148
-12.34 10.72 -2.43 160 155 152
-12.34 10.64 -2.43 160 155 152
-12.33 10.57 -2.44 160 155 152
-12.34 10.48 -2.44 159 154 151
-12.33 10.40 -2.44 157 152 149
-12.33 10.32 -2.44 157 152 149
-12.32 10.25 -2.45 156 151 148
-12.32 10.17 -2.45 156 151 148
-12.32 10.09 -2.46 156 151 148
-12.32 10.01 -2.46 156 151 148
-12.32 9.93 -2.46 156 151 148
-12.32 9.85 -2.46 156 151 148
-12.32 9.77 -2.46 156 151 148
-12.32 9.68 -2.45 156 151 148
-12.32 9.61 -2.46 156 151 148
-12.32 9.52 -2.46 156 151 148
-12.31 9.45 -2.47 155 153 151
-12.31 9.37 -2.48 158 156 154
-12.31 9.29 -2.48 160 158 156
-12.31 9.21 -2.48 162 160 158
-12.31 9.12 -2.47 164 162 163
-12.30 9.05 -2.49 165 163 164
-12.30 8.97 -2.49 167 162 164
-12.30 8.89 -2.49 168 163 165
-12.29 8.81 -2.50 170 165 167
-12.29 8.73 -2.50 171 166 168
-12.29 8.65 -2.50 171 166 168
-12.29 8.57 -2.50 173 168 170
-12.30 8.48 -2.49 174 169 171
-12.30 8.40 -2.49 174 169 171
-12.30 8.32 -2.49 172 170 171
-12.30 8.24 -2.48 172 170 171
-12.30 8.16 -2.49 173 171 169
-12.30 8.08 -2.49 173 171 169
-12.30 8.00 -2.49 175 170 169
-12.30 7.92 -2.49 175 170 169
-12.30 7.83 -2.49 175 170 167
-12.30 7.75 -2.49 175 170 167
-12.29 7.68 -2.50 176 171 170
-12.30 7.59 -2.49 177 172 171
-12.30 7.51 -2.49 178 173 172
-12.30 7.43 -2.49 179 174 173
-12.30 7.35 -2.49 177 175 173
-12.30 7.27 -2.49 177 175 173
-12.30 7.19 -2.49 177 175 173
-12.30 7.11 -2.49 179 177 175
-12.30 7.03 -2.49 179 177 175
-12.30 6.95 -2.49 179 177 175
-12.30 6.86 -2.49 180 178 176
-12.29 6.79 -2.50 181 179 177
-12.29 6.71 -2.50 181 179 177
-12.29 6.62 -2.50 181 179 177
-12.29 6.54 -2.50 181 179 177
-12.30 6.46 -2.49 181 179 177
-12.30 6.38 -2.49 181 179 180
-12.30 6.29 -2.48 181 179 180
-12.30 6.21 -2.48 182 182 182
-12.31 6.13 -2.48 183 183 183
-12.31 6.05 -2.48 183 183 183
-12.31 5.97 -2.48 183 183 183
-12.31 5.89 -2.47 183 183 183
-12.31 5.81 -2.48 183 183 183
-12.31 5.73 -2.48 183 183 183
-12.31 5.65 -2.48 183 183 183
-12.30 5.57 -2.49 183 183 183
-12.30 5.49 -2.49 183 183 183
-12.30 5.41 -2.49 182 182 182
-12.30 5.32 -2.49 182 182 182
-12.30 5.25 -2.49 182 182 182
-12.30 5.16 -2.49 182 182 182
-12.30 5.08 -2.49 182 182 182
-12.30 5.00 -2.49 181 181 181
-12.29 4.92 -2.50 181 181 181
-12.29 4.84 -2.50 181 181 181
-12.29 4.76 -2.50 181 181 181
-12.30 4.68 -2.49 181 181 181
-12.29 4.60 -2.50 181 181 181
-12.30 4.52 -2.49 181 181 181
-12.30 4.44 -2.49 180 180 180
-12.30 4.35 -2.48 180 180 180
-12.30 4.27 -2.48 180 180 180
-12.31 4.19 -2.48 180 180 180
-12.30 4.11 -2.49 180 180 180
-12.30 4.03 -2.49 180 180 180
-12.31 3.95 -2.48 179 179 176
-12.31 3.86 -2.48 179 179 176
-12.31 3.78 -2.47 178 178 175
-12.31 3.70 -2.48 178 178 175
-12.30 3.62 -2.49 176 176 173
-12.30 3.54 -2.49 176 176 173
-12.30 3.46 -2.49 176 176 173
-12.30 3.38 -2.49 175 175 172
-12.30 3.30 -2.49 175 175 172
-12.30 3.22 -2.49 174 174 171
-12.30 3.14 -2.49 174 174 171
-12.30 3.06 -2.49 173 173 170
-12.30 2.98 -2.49 173 173 173
-12.30 2.90 -2.49 173 173 173
-12.29 2.82 -2.50 173 173 173
-12.29 2.74 -2.50 173 173 173
-12.30 2.65 -2.49 173 173 173
-12.30 2.57 -2.49 173 173 173
-12.31 2.49 -2.48 173 173 173
-12.30 2.41 -2.49 173 173 173
-12.31 2.33 -2.47 173 173 173
-12.31 2.25 -2.48 173 173 173
-12.31 2.16 -2.48 173 173 173
-12.31 2.08 -2.47 173 173 173
-12.31 2.00 -2.47 173 173 173
-12.32 1.92 -2.46 173 173 173
-12.32 1.84 -2.46 173 173 173
-12.31 1.76 -2.47 173 173 173
-12.31 1.68 -2.47 172 173 165
-12.32 1.60 -2.46 172 173 165
-12.32 1.51 -2.46 172 173 165
-12.32 1.43 -2.46 172 173 165
-12.33 1.35 -2.45 172 173 165
-12.33 1.27 -2.44 172 173 165
-12.34 1.18 -2.44 172 173 165
-12.34 1.10 -2.44 172 173 165
-12.34 1.02 -2.43 171 172 164
-12.34 0.94 -2.43 171 172 164
-12.34 0.86 -2.43 171 172 164
-12.34 0.78 -2.43 171 172 164
-12.35 0.70 -2.42 171 172 164
-12.35 0.61 -2.41 171 172 164
-12.35 0.53 -2.41 171 172 164
-12.36 0.45 -2.40 171 172 164
-12.37 0.37 -2.39 171 171 166
-12.36 0.29 -2.40 171 171 166
-12.37 0.20 -2.39 171 171 166
-12.38 0.12 -2.38 171 171 166
-12.38 0.04 -2.38 171 171 166
-12.38 -0.04 -2.37 171 171 166
-12.39 -0.12 -2.36 171 171 166
-12.39 -0.20 -2.36 171 171 166
-12.39 -0.29 -2.36 171 171 166
-12.39 -0.37 -2.35 171 171 166
-12.39 -0.45 -2.35 171 171 166
-12.40 -0.53 -2.34 171 171 166
-12.40 -0.61 -2.34 171 171 166
-12.41 -0.69 -2.33 171 171 166
-12.42 -0.78 -2.32 171 171 166
-12.42 -0.86 -2.32 171 171 166
-12.43 -0.94 -2.30 169 171 168
-12.43 -1.02 -2.30 169 171 168
-12.44 -1.10 -2.29 169 171 168
-12.44 -1.18 -2.28 169 171 168
-12.44 -1.27 -2.28 169 171 168
-12.45 -1.35 -2.27 169 171 168
-12.45 -1.43 -2.27 169 171 168
-12.46 -1.51 -2.26 169 171 168
-12.46 -1.59 -2.26 169 171 168
-12.47 -1.67 -2.25 169 171 168
-12.47 -1.75 -2.25 169 171 168
-12.47 -1.83 -2.25 169 171 168
-12.47 -1.91 -2.25 169 171 168
-12.47 -2.00 -2.24 169 171 168
-12.47 -2.08 -2.25 169 171 168
-12.47 -2.16 -2.25 170 172 169
-12.47 -2.24 -2.25 168 173 172
-12.46 -2.32 -2.26 168 173 172
-12.46 -2.40 -2.26 168 173 172
-12.46 -2.48 -2.26 168 173 172
-12.46 -2.56 -2.26 168 173 172
-12.46 -2.64 -2.26 168 173 172
-12.47 -2.72 -2.25 168 173 172
-12.47 -2.80 -2.25 168 173 172
-12.47 -2.88 -2.25 168 173 172
-12.47 -2.96 -2.25 168 173 172
-12.47 -3.04 -2.25 168 173 172
-12.47 -3.12 -2.25 168 173 172
-12.47 -3.20 -2.25 168 173 172
-12.47 -3.28 -2.25 168 173 172
-12.48 -3.36 -2.24 168 173 172
-12.47 -3.44 -2.25 168 173 172
-12.47 -3.52 -2.25 173 173 173
-12.47 -3.60 -2.25 173 173 173
-12.47 -3.68 -2.25 173 173 173
-12.46 -3.76 -2.26 173 173 173
-12.47 -3.85 -2.25 173 173 173
-12.47 -3.93 -2.25 173 173 173
-12.47 -4.01 -2.25 173 173 173
-12.46 -4.09 -2.26 173 173 173
-12.46 -4.17 -2.26 173 173 173
-12.46 -4.25 -2.26 173 173 173
-12.46 -4.33 -2.26 173 173 173
-12.47 -4.41 -2.25 173 173 173
-12.47 -4.49 -2.24 173 173 173
-12.47 -4.57 -2.24 173 173 173
-12.47 -4.65 -2.25 173 173 173
-12.47 -4.73 -2.25 173 173 173
-12.46 -4.81 -2.26 170 175 174
-12.46 -4.89 -2.26 170 175 174
-12.45 -4.97 -2.28 170 175 174
-12.45 -5.05 -2.28 170 175 174
-12.44 -5.13 -2.28 170 175 174
-12.43 -5.21 -2.30 170 175 174
-12.43 -5.29 -2.31 170 175 174
-12.43 -5.37 -2.30 170 175 174
-12.42 -5.45 -2.32 171 176 175
-12.41 -5.53 -2.33 172 177 176
-12.40 -5.61 -2.34 172 177 176
-12.40 -5.69 -2.35 174 179 178
-12.39 -5.77 -2.36 175 180 179
-12.39 -5.85 -2.35 175 180 179
-12.38 -5.93 -2.37 176 181 180
-12.39 -6.01 -2.35 176 181 180
-12.39 -6.10 -2.36 180 180 180
-12.38 -6.18 -2.38 175 175 175
-12.35 -6.25 -2.42 172 174 174
-12.30 -6.33 -2.48 173 175 175
-12.41 -6.42 -2.33 161 163 163
-12.83 -6.51 -1.74 228 230 230
-13.13 -6.60 -1.31 244 249 248
-13.19 -6.68 -1.23 247 252 251
-13.17 -6.76 -1.25 247 252 251
-13.18 -6.84 -1.25 247 252 251
-13.18 -6.92 -1.24 246 253 251
-13.19 -6.99 -1.23 246 253 251
-13.19 -7.07 -1.22 246 253 251
-13.20 -7.15 -1.21 246 253 251
-13.19 -7.23 -1.22 244 254 251
-13.19 -7.31 -1.22 244 254 251
-13.18 -7.39 -1.24 246 253 251
-13.16 -7.46 -1.27 246 253 251
-13.15 -7.54 -1.28 246 253 251
-13.15 -7.62 -1.29 246 253 251
-13.14 -7.70 -1.30 246 253 251
-13.13 -7.78 -1.31 246 253 251
-13.12 -7.86 -1.33 246 253 251
-13.11 -7.94 -1.33 246 253 251
-13.11 -8.02 -1.34 245 252 250
-13.10 -8.09 -1.35 245 252 250
-13.10 -8.17 -1.35 245 252 250
-13.10 -8.25 -1.35 245 252 250
-13.10 -8.33 -1.36 245 252 250
-13.10 -8.41 -1.35 245 252 250
-13.09 -8.49 -1.36 245 252 250
-13.10 -8.57 -1.36 245 252 250
-13.10 -8.64 -1.36 246 253 251
-13.09 -8.72 -1.37 246 253 251
-13.09 -8.80 -1.36 246 253 251
-13.09 -8.88 -1.37 246 253 251
-13.10 -8.96 -1.36 246 253 251
-13.09 -9.04 -1.36 246 253 251
-13.09 -9.12 -1.36 246 253 251
-13.09 -9.19 -1.36 246 253 251
-13.09 -9.27 -1.36 246 253 251
-13.09 -9.35 -1.37 246 253 251
-13.09 -9.43 -1.36 246 253 251
-13.10 -9.51 -1.36 246 253 251
-13.10 -9.59 -1.35 246 253 251
-13.10 -9.67 -1.35 246 253 251
-13.10 -9.74 -1.35 246 253 251
-13.11 -9.82 -1.35 246 253 251
-13.11 -9.90 -1.34 247 252 251
-13.11 -9.98 -1.34 247 252 251
-13.11 -10.06 -1.33 247 252 251
-13.11 -10.14 -1.33 247 252 251
-13.12 -10.21 -1.33 247 252 251
-13.12 -10.29 -1.32 247 252 251
-13.13 -10.37 -1.31 247 252 251
-13.13 -10.45 -1.31 247 252 251
-13.13 -10.53 -1.31 247 252 251
-13.14 -10.61 -1.30 247 252 251
-13.14 -10.68 -1.30 247 252 251
-13.14 -10.76 -1.30 247 252 251
-13.14 -10.84 -1.29 247 252 251
-13.15 -10.92 -1.29 247 252 251
-13.15 -11.00 -1.29 247 252 251
-13.14 -11.08 -1.29 247 252 251
-13.14 -11.15 -1.30 246 251 250
-13.14 -11.23 -1.30 246 251 250
-13.14 -11.31 -1.30 246 251 250
-13.14 -11.39 -1.30 246 251 250
-13.14 -11.47 -1.30 246 251 250
-13.13 -11.55 -1.31 246 251 250
-13.14 -11.63 -1.30 246 251 250
-13.13 -11.71 -1.31 246 251 250
-13.13 -11.78 -1.31 244 249 248
-13.13 -11.86 -1.31 245 250 249
-13.13 -11.94 -1.31 246 251 250
-13.13 -12.02 -1.31 246 251 250
-13.13 -12.10 -1.31 246 251 250
-13.12 -12.18 -1.32 246 251 250
-13.12 -12.26 -1.32 247 252 251
-13.12 -12.33 -1.32 248 253 252
-13.12 -12.41 -1.32 251 255 255
-13.12 -12.49 -1.32 246 251 250
-13.13 -12.57 -1.31 249 254 253
-13.13 -12.65 -1.31 252 255 255
-13.14 -12.72 -1.30 241 246 245
-13.14 -12.80 -1.29 248 253 252
-13.15 -12.88 -1.29 245 250 249
-13.15 -12.96 -1.28 247 252 251
-13.15 -13.04 -1.28 249 254 253
-13.16 -13.11 -1.27 249 254 253
-13.19 -13.18 -1.23 246 251 250
-13.29 -13.24 -1.08 244 249 248
-13.42 -13.29 -0.90 213 218 217
-13.70 -13.30 -0.50 125 130 129
-13.82 -13.35 -0.33 34 39 38
-13.94 -13.40 -0.17 1 6 5
-13.93 -13.48 -0.17 84 88 92
-13.78 -13.59 -0.39 251 255 255
-13.57 -13.72 -0.69 248 252 254
-13.40 -13.84 -0.93 248 252 254
-13.36 -13.93 -0.99 246 250 252
-13.36 -14.00 -0.99 246 250 252
-13.33 -14.09 -1.03 246 251 250
-13.31 -14.17 -1.06 247 252 251
-13.31 -14.25 -1.06 246 251 250
-13.30 -14.33 -1.06 246 251 250
-13.29 -14.41 -1.08 246 251 247
-13.28 -14.49 -1.10 246 251 247
-13.27 -14.57 -1.12 246 251 247
-13.25 -14.66 -1.14 246 251 247
-13.23 -14.74 -1.17 246 251 245
-13.22 -14.82 -1.19 246 251 245
-13.19 -14.91 -1.23 243 245 242
-13.12 -15.00 -1.32 247 249 246
-13.03 -15.11 -1.46 246 248 245
-12.89 -15.23 -1.66 232 234 231
-12.76 -15.35 -1.84 208 210 207
-12.69 -15.45 -1.93 188 190 187
-12.66 -15.54 -1.97 178 180 177
-12.65 -15.62 -1.98 176 178 175
-12.66 -15.70 -1.98 190 192 189
-12.65 -15.78 -1.98 188 190 187
-12.65 -15.86 -1.98 192 194 191
-12.66 -15.94 -1.98 194 196 193
-12.65 -16.02 -1.98 192 194 191
-12.66 -16.10 -1.98 193 195 192
-12.65 -16.18 -1.98 195 197 194
-12.65 -16.26 -1.98 192 194 191
-12.65 -16.34 -1.98 195 194 197
-12.65 -16.42 -1.98 195 194 197
-12.65 -16.50 -1.99 195 194 197
-12.66 -16.58 -1.98 195 194 197
-12.66 -16.65 -1.98 195 194 197
-12.66 -16.73 -1.98 195 194 197
-12.67 -16.81 -1.97 195 194 197
-12.67 -16.89 -1.96 195 194 197
-12.67 -16.97 -1.97 196 195 198
-12.67 -17.05 -1.97 196 195 198
-12.66 -17.14 -1.98 196 195 198
-12.66 -17.22 -1.98 196 195 198
-12.65 -17.30 -1.99 196 195 198
-12.65 -17.38 -1.99 196 195 198
-12.64 -17.46 -2.00 196 195 198
-12.64 -17.54 -2.01 196 195 198
-12.63 -17.63 -2.02 196 196 196
-12.62 -17.71 -2.03 196 196 196
-12.62 -17.79 -2.03 196 196 196
-12.62 -17.87 -2.03 196 196 196
-12.62 -17.95 -2.03 196 196 196
-12.62 -18.03 -2.04 196 196 196
-12.62 -18.11 -2.04 196 196 196
-12.62 -18.19 -2.04 196 196 196
-12.61 -18.27 -2.04 197 197 197
-12.61 -18.35 -2.05 197 197 197
-12.61 -18.43 -2.05 197 197 197
-12.61 -18.51 -2.04 197 197 197
-12.62 -18.59 -2.03 197 197 197
-12.62 -18.67 -2.03 197 197 197
-12.62 -18.75 -2.03 197 197 197
-12.61 -18.83 -2.04 197 197 197
-12.61 -18.91 -2.05 196 195 200
-12.61 -18.99 -2.04 196 195 200
-12.61 -19.07 -2.04 196 195 200
-12.62 -19.15 -2.03 196 195 200
-12.62 -19.23 -2.03 196 195 200
-12.63 -19.31 -2.02 196 195 200
-12.63 -19.38 -2.02 196 195 200
-12.65 -19.46 -2.00 196 195 200
-12.65 -19.54 -2.00 196 195 200
-12.65 -19.62 -1.99 189 188 193
-12.66 -19.69 -1.98 185 184 189
-12.67 -19.77 -1.97 176 175 180
-12.68 -19.84 -1.95 171 170 175
-12.69 -19.92 -1.93 171 170 175
-12.70 -19.99 -1.92 130 129 134
-12.73 -20.06 -1.88 58 57 62
-12.78 -20.11 -1.80 77 81 85
-12.87 -20.15 -1.68 106 110 114
-12.93 -20.20 -1.59 134 138 142
-13.00 -20.25 -1.49 139 143 147
-13.04 -20.31 -1.44 132 136 140
-13.06 -20.38 -1.41 131 135 139
-13.07 -20.45 -1.39 129 133 137
-13.06 -20.53 -1.41 125 129 133
-13.02 -20.63 -1.46 111 115 119
-13.03 -20.70 -1.45 81 85 89
-13.25 -20.68 -1.15 37 41 45
-13.77 -20.49 -0.40 11 15 19
-14.35 -20.28 0.42 44 48 52
-14.60 -20.22 0.78 51 55 59
-14.69 -20.25 0.90 49 53 57
-14.76 -20.29 1.00 44 48 52
-14.81 -20.33 1.08 50 53 60
-14.83 -20.40 1.10 47 50 57
-14.86 -20.46 1.15 47 52 58
-14.88 -20.52 1.18 50 55 61
-14.90 -20.58 1.20 52 59 52
-14.92 -20.65 1.23 40 47 40
-14.92 -20.72 1.23 20 25 24
-14.92 -20.79 1.23 12 17 16
-14.90 -20.87 1.21 20 22 5
-14.89 -20.96 1.18 3 5 0
-14.87 -21.04 1.16 19 15 0
-14.85 -21.12 1.13 83 79 62
-14.85 -21.20 1.13 170 160 120
-14.83 -21.28 1.10 221 211 171
-14.82 -21.36 1.08 241 228 178
-14.82 -21.44 1.08 246 233 183
-14.82 -21.51 1.09 249 220 171
-14.83 -21.57 1.10 247 218 169
-14.83 -21.65 1.11 250 224 172
-14.83 -21.72 1.10 244 218 166
-14.83 -21.80 1.10 234 213 161
-14.83 -21.87 1.11 230 209 157
-14.83 -21.95 1.10 232 213 174
-14.84 -22.01 1.11 255 241 202
-14.85 -22.08 1.12 205 190 168
-14.81 -22.17 1.08 42 27 5
-14.91 -22.19 1.22 76 65 60
-14.01 -22.80 -0.06 76 65 60
-12.78 -23.61 -1.80 69 62 65
-12.95 -23.59 -1.57 62 55 58
-13.00 -23.64 -1.49 49 43 50
-13.09 -23.66 -1.36 42 36 43
-13.15 -23.71 -1.28 46 41 43
-13.19 -23.76 -1.22 50 45 47
-13.24 -23.81 -1.16 65 60 62
-13.24 -23.89 -1.15 103 98 100
-13.25 -23.96 -1.14 155 150 152
-13.25 -24.04 -1.14 202 197 199
-13.27 -24.10 -1.12 224 219 221
-13.28 -24.17 -1.09 227 222 224
-13.29 -24.25 -1.09 231 226 228
-13.30 -24.31 -1.06 220 215 217
-13.32 -24.38 -1.05 212 207 209
-13.32 -24.46 -1.04 211 206 208
-13.33 -24.53 -1.03 211 206 208
-13.34 -24.60 -1.02 206 201 203
-13.34 -24.68 -1.02 206 201 203
-13.35 -24.75 -1.00 209 204 206
-13.35 -24.83 -1.00 210 204 199
-13.36 -24.90 -0.99 211 205 200
-13.36 -24.98 -0.99 218 212 207
-13.36 -25.06 -0.98 213 207 202
-13.37 -25.13 -0.97 211 205 200
-13.36 -25.21 -0.98 212 206 201
-13.36 -25.29 -0.98 218 212 207
-13.36 -25.37 -0.98 212 206 201
-13.36 -25.45 -0.98 212 206 201
-13.36 -25.53 -0.99 214 208 203
-13.36 -25.60 -0.99 217 211 206
-13.35 -25.68 -1.00 217 211 206
-13.36 -25.76 -0.99 214 208 203
-13.35 -25.84 -1.00 213 207 202
-13.34 -25.92 -1.01 212 206 201
-13.34 -26.00 -1.01 213 207 202
-13.34 -26.08 -1.01 213 208 207
-13.34 -26.16 -1.01 213 208 207
-13.34 -26.24 -1.01 213 208 207
-13.34 -26.31 -1.01 214 209 208
-13.34 -26.39 -1.01 214 209 208
-13.34 -26.47 -1.01 216 211 210
-13.35 -26.54 -1.00 217 212 211
-13.35 -26.62 -1.00 217 212 211
-13.34 -26.71 -1.01 214 209 208
-13.35 -26.78 -1.00 214 209 208
-13.34 -26.86 -1.01 214 209 208
-13.35 -26.93 -1.00 214 209 208
-13.35 -27.01 -1.00 214 209 208
-13.36 -27.08 -0.98 214 209 208
-13.36 -27.16 -0.99 214 209 208
-13.36 -27.24 -0.98 214 209 208
-13.36 -27.31 -0.98 217 210 213
-13.36 -27.39 -0.98 217 210 213
-13.36 -27.47 -0.98 217 210 213
-13.36 -27.55 -0.98 217 210 213
-13.36 -27.62 -0.98 217 210 213
-13.36 -27.70 -0.98 217 210 213
-13.36 -27.78 -0.98 217 210 213
-13.36 -27.86 -0.99 217 210 213
-13.36 -27.94 -0.99 217 210 213
-13.36 -28.02 -0.99 217 210 213
-13.36 -28.10 -0.99 217 210 213
-13.35 -28.18 -1.00 217 210 213
-13.35 -28.25 -1.00 217 210 213
-13.35 -28.33 -1.00 217 210 213
-13.36 -28.41 -0.99 217 209 215
-13.35 -28.49 -1.00 218 210 216
-13.35 -28.57 -1.00 218 210 216
-13.35 -28.65 -1.00 218 210 216
-13.35 -28.72 -1.00 218 210 216
-13.35 -28.80 -1.00 218 210 216
-13.35 -28.88 -1.00 218 210 216
-13.35 -28.96 -1.00 218 210 216
-13.35 -29.04 -1.00 218 210 216
-13.34 -29.12 -1.01 218 210 216
-13.34 -29.20 -1.01 219 211 217
-13.34 -29.28 -1.01 219 211 217
-13.33 -29.36 -1.02 219 211 217
-13.34 -29.43 -1.01 219 211 217
-13.34 -29.51 -1.02 219 211 217
-13.34 -29.59 -1.01 219 211 217
-13.34 -29.67 -1.02 219 211 217
-13.34 -29.74 -1.01 219 211 217
-13.34 -29.82 -1.01 219 211 217
-13.34 -29.90 -1.01 219 211 217
-13.34 -29.98 -1.01 219 211 217
-13.35 -30.05 -1.00 219 211 217
-13.35 -30.13 -1.00 219 211 217
-13.36 -30.20 -0.99 219 211 217
-13.36 -30.27 -0.99 219 211 217
-13.37 -30.34 -0.97 219 211 217
-13.37 -30.42 -0.97 219 211 217
-13.37 -30.50 -0.97 219 211 217
-13.38 -30.57 -0.96 219 211 217
-13.39 -30.64 -0.95 219 211 217
-13.39 -30.71 -0.94 219 211 217
-13.39 -30.79 -0.94 219 211 217
-13.40 -30.86 -0.93 219 211 217
-13.40 -30.94 -0.93 219 211 217
-13.41 -31.01 -0.92 217 207 211
-13.42 -31.08 -0.90 220 210 214
-13.43 -31.15 -0.89 220 213 216
-13.45 -31.20 -0.85 215 208 211
-13.48 -31.25 -0.81 223 218 220
-13.52 -31.29 -0.76 247 242 244
-13.56 -31.34 -0.70 240 235 237
-13.66 -31.32 -0.56 244 239 241
-13.86 -31.22 -0.28 236 236 236
-14.12 -31.05 0.10 249 249 249
-14.27 -30.99 0.31 248 248 248
-14.39 -30.96 0.47 249 249 249
-14.41 -31.01 0.51 248 250 250
-14.35 -31.14 0.42 220 222 222
-14.03 -31.51 -0.03 206 211 210
-13.59 -32.00 -0.65 225 230 229
-12.90 18.00 -1.77 131 130 119
-12.90 17.92 -1.77 131 130 119
-12.88 17.85 -1.79 131 130 121
-12.85 17.80 -1.83 131 130 121
-12.84 17.73 -1.85 131 130 121
-12.85 17.64 -1.83 131 130 121
-12.83 17.58 -1.86 133 129 121
-12.82 17.51 -1.87 133 129 121
-12.81 17.44 -1.88 134 128 123
-12.80 17.37 -1.90 134 128 123
-12.79 17.30 -1.92 134 128 123
-12.78 17.23 -1.93 134 128 123
-12.77 17.16 -1.94 136 127 123
-12.76 17.09 -1.95 136 127 123
-12.75 17.02 -1.98 136 127 123
-12.73 16.96 -2.00 136 127 123
-12.72 16.89 -2.02 136 130 125
-12.70 16.82 -2.04 137 131 126
-12.70 16.75 -2.05 136 132 124
-12.69 16.68 -2.07 138 134 126
-12.68 16.60 -2.08 136 135 124
-12.66 16.54 -2.10 137 136 125
-12.64 16.47 -2.13 137 136 127
-12.62 16.41 -2.15 137 136 127
-12.60 16.35 -2.18 137 136 129
-12.59 16.28 -2.21 137 136 129
-12.58 16.21 -2.22 140 134 129
-12.56 16.14 -2.24 140 134 129
-12.56 16.06 -2.24 142 133 125
-12.54 16.00 -2.28 142 133 125
-12.53 15.93 -2.28 143 133 123
-12.52 15.86 -2.30 143 133 123
-12.52 15.78 -2.30 146 135 132
-12.52 15.70 -2.30 146 135 132
-12.52 15.62 -2.31 146 135 128
-12.51 15.55 -2.32 146 135 128
-12.51 15.46 -2.31 145 136 128
-12.52 15.38 -2.30 145 136 128
-12.52 15.29 -2.30 145 136 130
-12.53 15.21 -2.29 145 136 130
-12.53 15.13 -2.28 148 139 135
-12.53 15.04 -2.28 148 139 135
-12.54 14.96 -2.28 148 139 135
-12.54 14.88 -2.27 148 139 135
-12.54 14.80 -2.27 148 139 135
-12.54 14.71 -2.27 148 139 135
-12.54 14.63 -2.27 148 138 137
-12.54 14.56 -2.28 148 138 137
-12.54 14.47 -2.27 149 140 134
-12.53 14.40 -2.28 150 141 135
-12.53 14.32 -2.28 148 142 137
-12.53 14.24 -2.28 148 142 137
-12.53 14.17 -2.29 148 142 137
-12.53 14.08 -2.29 149 143 138
-12.52 14.01 -2.30 150 143 141
-12.52 13.93 -2.30 150 143 141
-12.52 13.85 -2.30 151 144 142
-12.51 13.78 -2.32 151 144 142
-12.50 13.70 -2.33 153 146 146
-12.51 13.61 -2.32 153 146 146
-12.51 13.54 -2.32 154 147 147
-12.51 13.45 -2.32 154 147 147
-12.51 13.37 -2.32 154 147 150
-12.51 13.30 -2.32 154 147 150
-12.51 13.21 -2.31 153 146 146
-12.51 13.13 -2.32 153 146 146
-12.51 13.05 -2.32 153 146 146
-12.50 12.98 -2.34 154 147 147
-12.50 12.90 -2.33 155 148 148
-12.49 12.82 -2.34 155 148 148
-12.49 12.74 -2.34 155 148 148
-12.48 12.67 -2.35 155 148 148
-12.48 12.59 -2.36 155 148 148
-12.48 12.51 -2.36 155 148 148
-12.48 12.43 -2.36 155 148 148
-12.48 12.35 -2.36 156 149 149
-12.48 12.27 -2.36 156 149 147
-12.48 12.19 -2.36 157 150 148
-12.48 12.11 -2.36 157 152 151
-12.48 12.03 -2.36 159 154 153
-12.48 11.95 -2.36 160 156 150
-12.48 11.87 -2.36 160 156 150
-12.47 11.79 -2.37 160 156 150
-12.47 11.71 -2.37 160 156 150
-12.47 11.63 -2.37 160 156 150
-12.47 11.55 -2.38 160 156 150
-12.46 11.47 -2.38 160 156 150
-12.46 11.40 -2.39 160 156 150
-12.46 11.32 -2.39 160 156 150
-12.45 11.24 -2.40 160 156 150
-12.46 11.16 -2.39 160 156 150
-12.45 11.08 -2.40 160 156 150
-12.45 11.00 -2.40 160 156 150
-12.46 10.91 -2.39 160 156 150
-12.46 10.83 -2.39 160 156 150
-12.45 10.75 -2.40 160 156 150
-12.45 10.68 -2.40 161 156 155
-12.45 10.60 -2.40 160 155 154
-12.45 10.52 -2.40 160 155 154
-12.44 10.44 -2.41 159 154 153
-12.44 10.36 -2.42 159 154 153
-12.44 10.28 -2.42 157 152 151
-12.44 10.20 -2.42 157 152 151
-12.44 10.12 -2.42 157 152 151
-12.43 10.04 -2.43 156 151 150
-12.43 9.96 -2.43 156 151 150
-12.43 9.88 -2.43 156 151 150
-12.43 9.80 -2.43 156 151 150
-12.43 9.72 -2.43 156 151 150
-12.43 9.64 -2.43 156 151 150
-12.43 9.56 -2.44 156 151 150
-12.43 9.48 -2.43 156 151 150
-12.43 9.40 -2.44 154 152 153
-12.42 9.32 -2.44 157 155 156
-12.42 9.24 -2.45 159 157 158
-12.42 9.16 -2.45 161 159 160
-12.42 9.08 -2.45 164 159 161
-12.42 9.00 -2.45 166 161 163
-12.41 8.93 -2.46 167 161 166
-12.41 8.84 -2.46 168 162 167
-12.41 8.77 -2.46 170 164 169
-12.41 8.69 -2.46 171 165 170
-12.41 8.60 -2.46 171 165 170
-12.41 8.53 -2.46 173 167 172
-12.41 8.44 -2.46 174 168 173
-12.41 8.36 -2.46 174 168 173
-12.42 8.28 -2.45 174 168 173
-12.41 8.20 -2.46 174 168 173
-12.41 8.12 -2.46 173 171 169
-12.42 8.04 -2.45 173 171 169
-12.41 7.96 -2.46 173 171 169
-12.42 7.87 -2.45 173 171 169
-12.41 7.80 -2.46 173 171 169
-12.41 7.72 -2.46 174 172 170
-12.41 7.63 -2.46 174 172 170
-12.41 7.55 -2.46 175 173 171
-12.41 7.47 -2.46 176 174 172
-12.41 7.39 -2.46 177 175 173
-12.41 7.31 -2.46 177 175 173
-12.41 7.23 -2.46 177 175 173
-12.41 7.15 -2.46 177 175 176
-12.42 7.07 -2.45 179 177 178
-12.41 6.99 -2.46 178 178 178
-12.41 6.91 -2.46 178 178 178
-12.41 6.83 -2.46 179 179 176
-12.41 6.75 -2.46 181 181 178
-12.41 6.67 -2.46 181 181 181
-12.40 6.59 -2.47 181 181 181
-12.41 6.50 -2.46 181 181 181
-12.41 6.42 -2.46 181 181 181
-12.41 6.34 -2.46 181 181 181
-12.42 6.26 -2.44 181 181 181
-12.42 6.17 -2.44 182 182 182
-12.42 6.09 -2.44 183 183 183
-12.42 6.01 -2.44 183 183 183
-12.42 5.93 -2.44 183 183 183
-12.42 5.85 -2.44 183 183 183
-12.42 5.77 -2.44 183 183 183
-12.42 5.69 -2.45 183 183 183
-12.42 5.61 -2.44 183 183 183
-12.42 5.53 -2.45 183 182 185
-12.42 5.45 -2.45 183 182 185
-12.42 5.37 -2.45 183 182 185
-12.42 5.29 -2.45 183 182 185
-12.42 5.21 -2.45 183 182 185
-12.42 5.13 -2.45 183 182 185
-12.41 5.05 -2.46 182 181 184
-12.41 4.97 -2.46 181 180 183
-12.41 4.89 -2.46 181 180 183
-12.41 4.81 -2.46 181 180 183
-12.41 4.73 -2.46 181 180 183
-12.41 4.65 -2.46 181 180 183
-12.41 4.56 -2.46 181 181 181
-12.42 4.48 -2.45 181 181 181
-12.41 4.40 -2.46 180 180 180
-12.42 4.32 -2.45 180 180 180
-12.41 4.24 -2.46 180 180 180
-12.42 4.16 -2.45 180 180 180
-12.42 4.08 -2.45 180 180 180
-12.42 4.00 -2.45 180 180 180
-12.42 3.92 -2.45 179 179 179
-12.42 3.84 -2.45 179 179 179
-12.42 3.75 -2.45 178 178 175
-12.42 3.67 -2.45 178 178 175
-12.42 3.59 -2.45 176 176 173
-12.41 3.51 -2.46 176 176 173
-12.42 3.43 -2.45 176 176 173
-12.41 3.35 -2.46 176 176 173
-12.41 3.27 -2.46 175 175 172
-12.41 3.19 -2.46 175 175 172
-12.42 3.11 -2.45 174 174 171
-12.41 3.03 -2.46 174 174 171
-12.41 2.95 -2.46 173 173 173
-12.41 2.87 -2.46 173 173 173
-12.41 2.79 -2.46 173 173 173
-12.41 2.71 -2.46 173 173 173
-12.41 2.63 -2.46 173 173 173
-12.41 2.55 -2.46 173 173 173
-12.42 2.46 -2.45 173 173 173
-12.42 2.38 -2.45 173 173 173
-12.42 2.30 -2.44 173 173 173
-12.43 2.22 -2.44 173 173 173
-12.43 2.14 -2.43 173 173 173
-12.43 2.06 -2.43 173 173 173
-12.43 1.98 -2.43 173 173 173
-12.43 1.89 -2.43 173 173 173
-12.43 1.81 -2.43 173 173 173
-12.43 1.73 -2.43 173 173 173
-12.43 1.65 -2.43 172 172 167
-12.43 1.57 -2.43 172 172 167
-12.43 1.49 -2.43 172 172 167
-12.43 1.41 -2.42 172 172 167
-12.44 1.33 -2.42 172 172 167
-12.45 1.24 -2.40 172 172 167
-12.44 1.16 -2.41 172 172 167
-12.45 1.08 -2.40 172 172 167
-12.45 1.00 -2.40 171 171 166
-12.46 0.92 -2.39 171 171 166
-12.46 0.84 -2.39 171 171 166
-12.46 0.75 -2.38 171 171 166
-12.46 0.67 -2.39 171 171 166
-12.46 0.59 -2.38 171 171 166
-12.47 0.51 -2.37 171 171 166
-12.47 0.43 -2.37 171 171 166
-12.48 0.35 -2.36 171 171 168
-12.48 0.27 -2.36 171 171 168
-12.49 0.18 -2.34 171 171 168
-12.49 0.10 -2.35 171 171 168
-12.49 0.02 -2.34 171 171 168
-12.50 -0.06 -2.33 171 171 168
-12.50 -0.14 -2.33 171 171 168
-12.50 -0.22 -2.33 171 171 168
-12.50 -0.30 -2.33 171 171 168
-12.50 -0.38 -2.33 171 171 168
-12.51 -0.47 -2.31 171 171 168
-12.52 -0.55 -2.31 171 171 168
-12.52 -0.63 -2.30 171 171 168
-12.52 -0.71 -2.30 171 171 168
-12.53 -0.79 -2.29 171 171 168
-12.53 -0.87 -2.28 171 171 168
-12.54 -0.96 -2.27 169 171 171
-12.55 -1.04 -2.26 169 171 171
-12.55 -1.12 -2.26 169 171 171
-12.56 -1.20 -2.25 169 171 171
-12.56 -1.28 -2.24 169 171 171
-12.56 -1.36 -2.24 169 171 171
-12.57 -1.45 -2.23 169 171 171
-12.58 -1.53 -2.22 169 171 171
-12.58 -1.61 -2.22 169 171 171
-12.58 -1.69 -2.22 169 171 171
-12.58 -1.77 -2.21 169 171 171
-12.59 -1.85 -2.20 169 171 171
-12.59 -1.93 -2.21 169 171 171
-12.59 -2.01 -2.20 169 171 171
-12.59 -2.09 -2.21 169 171 171
-12.59 -2.17 -2.21 170 172 172
-12.58 -2.25 -2.21 170 172 169
-12.58 -2.33 -2.22 170 172 169
-12.57 -2.41 -2.23 170 172 169
-12.58 -2.49 -2.22 170 172 169
-12.58 -2.57 -2.22 170 172 169
-12.58 -2.65 -2.21 170 172 169
-12.58 -2.73 -2.21 170 172 169
-12.58 -2.81 -2.21 170 172 169
-12.58 -2.89 -2.21 170 172 169
-12.58 -2.97 -2.21 170 172 169
-12.58 -3.05 -2.22 170 172 169
-12.59 -3.13 -2.20 170 172 169
-12.59 -3.21 -2.20 170 172 169
-12.58 -3.29 -2.21 170 172 169
-12.59 -3.37 -2.21 170 172 169
-12.58 -3.45 -2.22 170 172 169
-12.58 -3.53 -2.22 173 172 175
-12.58 -3.61 -2.22 173 172 175
-12.58 -3.69 -2.22 173 172 175
-12.58 -3.78 -2.21 173 172 175
-12.58 -3.86 -2.22 173 172 175
-12.58 -3.94 -2.22 173 172 175
-12.58 -4.02 -2.22 173 172 175
-12.58 -4.10 -2.22 173 172 175
-12.57 -4.18 -2.23 173 172 175
-12.57 -4.26 -2.23 173 172 175
-12.58 -4.34 -2.22 173 172 175
-12.58 -4.42 -2.22 173 172 175
-12.59 -4.50 -2.21 173 172 175
-12.59 -4.58 -2.21 173 172 175
-12.59 -4.66 -2.21 173 172 175
-12.58 -4.74 -2.22 173 172 175
-12.57 -4.82 -2.23 170 174 176
-12.57 -4.90 -2.23 170 174 176
-12.57 -4.98 -2.23 170 174 176
-12.56 -5.06 -2.24 170 174 176
-12.56 -5.14 -2.25 170 174 176
-12.55 -5.22 -2.26 170 174 176
-12.54 -5.30 -2.28 170 174 176
-12.53 -5.38 -2.28 170 174 176
-12.53 -5.46 -2.29 171 175 177
-12.52 -5.54 -2.30 171 175 177
-12.51 -5.62 -2.31 172 176 178
-12.51 -5.70 -2.31 172 176 178
-12.50 -5.78 -2.33 174 178 180
-12.49 -5.86 -2.34 174 178 180
-12.49 -5.94 -2.34 175 179 181
-12.49 -6.02 -2.34 175 179 181
-12.50 -6.10 -2.34 180 180 180
-12.47 -6.18 -2.37 173 173 173
-12.45 -6.26 -2.40 166 168 168
-12.47 -6.34 -2.37 156 158 158
-12.70 -6.43 -2.05 216 218 218
-13.13 -6.52 -1.44 247 249 249
-13.26 -6.60 -1.25 253 255 255
-13.28 -6.68 -1.22 242 247 246
-13.27 -6.76 -1.23 247 252 251
-13.28 -6.84 -1.23 247 252 251
-13.30 -6.92 -1.19 246 253 251
-13.31 -7.00 -1.18 246 253 251
-13.31 -7.07 -1.18 246 253 251
-13.31 -7.15 -1.18 246 253 251
-13.30 -7.23 -1.19 244 254 251
-13.30 -7.31 -1.19 244 254 251
-13.28 -7.39 -1.21 246 253 251
-13.27 -7.46 -1.23 246 253 251
-13.26 -7.54 -1.25 246 253 251
-13.25 -7.62 -1.26 246 253 251
-13.25 -7.70 -1.26 246 253 251
-13.24 -7.78 -1.28 246 253 251
-13.23 -7.86 -1.29 246 253 251
-13.22 -7.94 -1.30 246 253 251
-13.22 -8.01 -1.30 245 252 250
-13.21 -8.09 -1.32 245 252 250
-13.22 -8.17 -1.31 245 252 250
-13.21 -8.25 -1.32 245 252 250
-13.21 -8.33 -1.32 245 252 250
-13.21 -8.41 -1.32 245 252 250
-13.21 -8.48 -1.32 245 252 250
-13.21 -8.56 -1.33 245 252 250
-13.21 -8.64 -1.33 246 253 251
-13.21 -8.72 -1.33 246 253 251
-13.21 -8.80 -1.32 246 253 251
-13.21 -8.88 -1.32 246 253 251
-13.21 -8.95 -1.32 246 253 251
-13.21 -9.03 -1.32 246 253 251
-13.21 -9.11 -1.32 246 253 251
-13.21 -9.19 -1.33 246 253 251
-13.21 -9.27 -1.33 246 253 251
-13.21 -9.35 -1.32 246 253 251
-13.21 -9.43 -1.33 246 253 251
-13.21 -9.50 -1.32 246 253 251
-13.21 -9.58 -1.31 246 253 251
-13.22 -9.66 -1.30 246 253 251
-13.22 -9.74 -1.30 246 253 251
-13.23 -9.82 -1.30 246 253 251
-13.23 -9.89 -1.30 247 252 251
-13.23 -9.97 -1.29 247 252 251
-13.24 -10.05 -1.28 247 252 251
-13.24 -10.13 -1.28 247 252 251
-13.24 -10.21 -1.27 247 252 251
-13.25 -10.28 -1.27 247 252 251
-13.25 -10.36 -1.26 247 252 251
-13.25 -10.44 -1.26 247 252 251
-13.25 -10.52 -1.26 247 252 251
-13.26 -10.60 -1.25 247 252 251
-13.25 -10.67 -1.26 247 252 251
-13.26 -10.75 -1.24 247 252 251
-13.26 -10.83 -1.25 247 252 251
-13.27 -10.91 -1.24 247 252 251
-13.26 -10.99 -1.24 247 252 251
-13.27 -11.06 -1.24 247 252 251
-13.26 -11.14 -1.24 248 250 247
-13.26 -11.22 -1.25 248 250 247
-13.26 -11.30 -1.25 248 250 247
-13.25 -11.38 -1.26 248 250 247
-13.25 -11.46 -1.26 248 250 247
-13.25 -11.53 -1.26 248 250 247
-13.25 -11.61 -1.26 248 250 247
-13.25 -11.69 -1.27 248 250 247
-13.25 -11.77 -1.26 243 245 242
-13.25 -11.85 -1.26 247 249 246
-13.25 -11.93 -1.26 249 251 248
-13.25 -12.00 -1.26 249 251 248
-13.25 -12.08 -1.26 247 249 246
-13.25 -12.16 -1.26 247 249 246
-13.25 -12.24 -1.26 249 251 248
-13.25 -12.32 -1.26 253 255 252
-13.26 -12.39 -1.25 246 250 252
-13.26 -12.47 -1.25 244 248 250
-13.27 -12.55 -1.24 244 248 250
-13.26 -12.63 -1.24 245 249 251
-13.27 -12.71 -1.23 242 246 248
-13.29 -12.78 -1.20 247 251 253
-13.31 -12.85 -1.18 245 249 251
-13.32 -12.93 -1.17 251 255 255
-13.34 -13.00 -1.14 242 246 248
-13.40 -13.07 -1.05 247 251 253
-13.57 -13.11 -0.81 224 228 230
-13.85 -13.13 -0.41 134 138 140
-14.04 -13.16 -0.15 47 51 53
-14.34 -13.17 0.28 16 20 22
-14.46 -13.22 0.46 9 13 15
-14.53 -13.27 0.56 6 10 12
-14.49 -13.36 0.51 8 12 16
-14.28 -13.48 0.21 118 122 126
-13.90 -13.65 -0.34 252 255 255
-13.61 -13.80 -0.75 248 252 254
-13.52 -13.89 -0.87 241 245 247
-13.50 -13.98 -0.90 242 246 248
-13.47 -14.06 -0.96 248 253 252
-13.45 -14.15 -0.98 249 254 253
-13.44 -14.23 -0.99 246 251 250
-13.43 -14.31 -1.00 246 251 250
-13.42 -14.39 -1.02 246 251 247
-13.41 -14.47 -1.03 246 251 247
-13.41 -14.55 -1.04 246 251 247
-13.39 -14.63 -1.06 246 251 247
-13.37 -14.71 -1.10 246 251 245
-13.35 -14.79 -1.12 246 251 245
-13.34 -14.88 -1.14 251 253 250
-13.32 -14.96 -1.17 250 252 249
-13.29 -15.05 -1.21 250 252 249
-13.22 -15.15 -1.31 250 252 249
-13.08 -15.26 -1.50 244 246 243
-12.97 -15.37 -1.65 227 229 226
-12.88 -15.48 -1.79 202 204 201
-12.82 -15.58 -1.88 184 186 183
-12.79 -15.67 -1.92 177 179 176
-12.78 -15.75 -1.94 185 187 184
-12.78 -15.83 -1.93 194 196 193
-12.78 -15.91 -1.93 194 196 193
-12.79 -15.99 -1.91 190 192 189
-12.78 -16.07 -1.93 193 195 192
-12.78 -16.15 -1.93 195 197 194
-12.78 -16.23 -1.93 188 190 187
-12.78 -16.31 -1.93 195 194 197
-12.78 -16.39 -1.94 195 194 197
-12.78 -16.47 -1.94 195 194 197
-12.78 -16.55 -1.93 195 194 197
-12.78 -16.63 -1.93 195 194 197
-12.78 -16.71 -1.93 195 194 197
-12.78 -16.79 -1.93 195 194 197
-12.79 -16.86 -1.92 195 194 197
-12.79 -16.94 -1.92 196 195 198
-12.79 -17.02 -1.92 196 195 198
-12.79 -17.10 -1.92 196 195 198
-12.78 -17.18 -1.93 196 195 198
-12.78 -17.26 -1.93 196 195 198
-12.78 -17.34 -1.93 196 195 198
-12.77 -17.43 -1.94 196 195 198
-12.77 -17.51 -1.95 196 195 198
-12.76 -17.59 -1.96 196 195 198
-12.75 -17.67 -1.97 196 195 198
-12.75 -17.76 -1.98 196 195 198
-12.75 -17.83 -1.98 196 195 198
-12.74 -17.92 -1.99 196 195 198
-12.75 -18.00 -1.98 196 195 198
-12.75 -18.08 -1.98 196 195 198
-12.75 -18.16 -1.98 196 195 198
-12.74 -18.24 -1.99 197 196 199
-12.74 -18.32 -1.99 197 196 199
-12.74 -18.40 -1.99 197 196 199
-12.74 -18.48 -1.99 197 196 199
-12.75 -18.55 -1.98 197 196 199
-12.75 -18.63 -1.98 197 196 199
-12.74 -18.71 -1.99 197 196 199
-12.74 -18.79 -1.99 197 196 199
-12.74 -18.87 -1.99 196 195 200
-12.74 -18.95 -1.99 196 195 200
-12.75 -19.03 -1.98 196 195 200
-12.75 -19.11 -1.97 196 195 200
-12.75 -19.19 -1.97 196 195 200
-12.75 -19.27 -1.97 196 195 200
-12.76 -19.35 -1.96 196 195 200
-12.77 -19.42 -1.95 196 195 200
-12.77 -19.50 -1.94 197 196 201
-12.78 -19.58 -1.94 192 191 196
-12.78 -19.65 -1.93 187 186 191
-12.79 -19.73 -1.91 179 178 183
-12.80 -19.81 -1.91 171 170 175
-12.81 -19.88 -1.90 174 173 178
-12.81 -19.96 -1.89 158 157 162
-12.83 -20.03 -1.86 116 115 120
-12.87 -20.09 -1.80 142 143 148
-12.97 -20.12 -1.66 162 163 168
-13.04 -20.17 -1.56 162 163 168
-13.10 -20.22 -1.47 142 143 148
-13.14 -20.28 -1.42 133 134 139
-13.17 -20.34 -1.38 137 138 143
-13.17 -20.42 -1.37 131 132 137
-13.15 -20.51 -1.40 117 118 123
-13.11 -20.61 -1.46 113 114 119
-13.08 -20.70 -1.50 99 100 105
-13.23 -20.70 -1.29 52 53 58
-13.65 -20.57 -0.69 14 15 20
-14.28 -20.33 0.21 43 44 49
-14.67 -20.21 0.76 55 56 61
-14.77 -20.23 0.90 52 53 58
-14.82 -20.28 0.98 48 49 54
-14.88 -20.32 1.06 51 55 57
-14.90 -20.38 1.08 48 52 54
-14.92 -20.44 1.12 38 43 51
-14.94 -20.51 1.14 39 44 52
-14.96 -20.57 1.18 41 50 52
