ply
format ascii 1.0
element vertex 1578
property float x
property float y
property float z
property uchar red
property uchar green
property uchar blue
end_header
-7.78 -18.31 -0.77 137 122 73
-7.81 -18.38 -0.73 187 172 123
-7.83 -18.46 -0.70 170 149 97
-7.86 -18.54 -0.67 159 138 86
-7.89 -18.61 -0.63 152 132 102
-7.92 -18.69 -0.60 135 115 85
-7.96 -18.76 -0.56 84 67 57
-7.99 -18.84 -0.52 109 92 82
-8.02 -18.91 -0.49 157 148 140
-8.04 -18.99 -0.47 222 213 205
-8.07 -19.07 -0.43 229 228 219
-8.08 -19.15 -0.41 251 250 241
-8.08 -19.23 -0.41 238 238 238
-8.08 -19.32 -0.41 232 232 232
-8.10 -19.40 -0.40 211 212 217
-8.05 -19.50 -0.45 166 167 172
-8.19 -19.54 -0.29 181 182 185
-7.82 -19.76 -0.72 192 193 196
-6.27 -20.45 -2.52 229 231 228
-4.84 -21.10 -4.19 240 242 239
-4.57 -21.31 -4.51 243 245 242
-4.74 -21.33 -4.31 233 235 232
-4.79 -21.41 -4.25 218 220 217
-4.75 -21.52 -4.29 214 216 213
-4.76 -21.61 -4.29 218 220 217
-4.73 -21.72 -4.31 219 221 218
-4.68 -21.83 -4.38 219 221 218
-4.66 -21.94 -4.41 221 223 220
-4.64 -22.04 -4.43 223 225 222
-4.60 -22.15 -4.47 226 228 225
-4.60 -22.24 -4.47 226 228 225
-4.60 -22.34 -4.47 225 227 224
-4.59 -22.44 -4.49 222 224 221
-4.58 -22.54 -4.49 221 223 220
-4.57 -22.64 -4.51 223 225 222
-4.58 -22.73 -4.49 225 227 224
-4.58 -22.83 -4.49 225 227 224
-4.59 -22.92 -4.48 226 228 225
-4.59 -23.01 -4.48 226 228 225
-4.60 -23.10 -4.47 227 229 226
-4.62 -23.19 -4.45 227 229 226
-4.63 -23.28 -4.43 228 230 227
-4.64 -23.37 -4.42 227 229 226
-4.66 -23.46 -4.41 227 229 226
-4.66 -23.55 -4.41 227 229 226
-4.66 -23.65 -4.41 227 229 226
-4.65 -23.75 -4.42 227 229 226
-4.65 -23.84 -4.41 227 229 226
-4.65 -23.94 -4.42 227 229 226
-4.65 -24.03 -4.41 227 229 226
-4.65 -24.13 -4.41 228 230 227
-4.66 -24.22 -4.41 228 230 227
-4.65 -24.32 -4.42 228 230 227
-4.65 -24.41 -4.41 228 230 227
-4.66 -24.50 -4.40 228 230 227
-4.66 -24.60 -4.40 228 230 227
-4.66 -24.69 -4.40 228 230 227
-4.67 -24.79 -4.39 228 230 227
-4.67 -24.88 -4.39 229 231 228
-4.67 -24.98 -4.39 229 231 228
-4.67 -25.07 -4.39 229 231 228
-4.69 -25.16 -4.37 229 231 228
-4.69 -25.25 -4.36 229 231 228
-4.70 -25.34 -4.35 229 231 228
-4.71 -25.43 -4.35 229 231 228
-4.71 -25.52 -4.34 229 231 228
-4.71 -25.62 -4.34 229 231 228
-4.72 -25.71 -4.33 229 231 228
-4.72 -25.80 -4.33 229 231 228
-4.73 -25.89 -4.31 229 231 228
-4.73 -25.99 -4.31 229 231 228
-4.73 -26.08 -4.32 229 231 228
-4.74 -26.17 -4.31 229 231 228
-4.74 -26.27 -4.31 229 231 228
-4.75 -26.36 -4.29 229 231 228
-4.75 -26.45 -4.29 229 231 228
-4.75 -26.55 -4.29 229 231 228
-4.76 -26.64 -4.29 229 231 228
-4.76 -26.73 -4.28 229 231 228
-4.76 -26.83 -4.28 229 231 228
-4.78 -26.91 -4.27 229 231 228
-4.78 -27.01 -4.27 229 231 228
-4.78 -27.10 -4.26 229 231 228
-4.79 -27.19 -4.25 230 232 229
-4.79 -27.29 -4.25 230 232 229
-4.80 -27.37 -4.24 230 232 229
-4.80 -27.47 -4.24 230 232 229
-4.80 -27.56 -4.24 230 232 229
-4.80 -27.66 -4.24 230 232 229
-4.80 -27.75 -4.24 230 232 229
-4.80 -27.85 -4.24 230 232 229
-4.80 -27.94 -4.23 230 232 229
-4.81 -28.03 -4.23 230 232 229
-4.81 -28.13 -4.23 230 232 229
-4.81 -28.22 -4.23 230 232 229
-4.81 -28.31 -4.22 230 232 229
-4.81 -28.41 -4.23 230 232 229
-4.82 -28.50 -4.21 230 232 229
-4.82 -28.59 -4.22 230 232 229
-4.82 -28.69 -4.21 230 232 229
-4.82 -28.78 -4.21 230 232 229
-4.82 -28.87 -4.21 230 232 229
-4.83 -28.96 -4.20 230 232 229
-4.83 -29.06 -4.20 230 232 229
-4.83 -29.15 -4.20 230 232 229
-4.84 -29.24 -4.19 230 232 229
-4.84 -29.34 -4.19 230 232 229
-4.85 -29.42 -4.18 230 232 229
-4.86 -29.52 -4.17 230 232 229
-4.86 -29.61 -4.17 230 232 229
-4.87 -29.70 -4.16 230 232 229
-4.87 -29.79 -4.16 230 232 229
-4.87 -29.89 -4.16 230 232 229
-4.88 -29.97 -4.14 230 232 229
-4.88 -30.07 -4.15 230 232 229
-4.88 -30.16 -4.14 230 232 229
-4.89 -30.25 -4.14 230 232 229
-4.89 -30.34 -4.13 232 234 231
-4.90 -30.43 -4.12 232 234 231
-4.89 -30.53 -4.13 232 234 231
-4.90 -30.62 -4.12 232 234 231
-4.90 -30.71 -4.12 232 234 231
-4.92 -30.80 -4.10 232 234 231
-4.92 -30.89 -4.10 232 234 231
-4.93 -30.98 -4.09 232 234 231
-4.93 -31.07 -4.09 233 235 232
-4.94 -31.16 -4.08 233 235 232
-4.94 -31.26 -4.08 233 235 232
-4.94 -31.35 -4.07 233 235 232
-4.94 -31.44 -4.07 233 235 232
-4.94 -31.54 -4.08 234 236 233
-4.94 -31.63 -4.07 234 236 233
-4.94 -31.73 -4.08 234 236 233
-4.94 -31.82 -4.07 235 237 234
-4.93 -31.92 -4.08 235 237 234
-4.93 -32.02 -4.09 236 238 235
-4.93 -32.11 -4.09 236 238 235
-4.93 -32.20 -4.08 237 239 236
-4.93 -32.30 -4.09 237 239 236
-4.93 -32.40 -4.09 237 239 236
-4.93 -32.49 -4.09 237 239 236
-4.93 -32.58 -4.09 237 239 236
-4.93 -32.68 -4.08 237 239 236
-4.93 -32.77 -4.09 237 239 236
-4.93 -32.87 -4.09 237 239 236
-4.92 -32.97 -4.10 237 239 236
-4.92 -33.06 -4.10 242 242 239
-4.92 -33.16 -4.10 242 242 239
-4.92 -33.25 -4.10 242 242 239
-4.92 -33.35 -4.10 242 242 239
-4.92 -33.44 -4.10 242 242 239
-4.92 -33.53 -4.09 242 242 239
-4.93 -33.62 -4.09 242 242 239
-4.92 -33.72 -4.09 243 243 240
-4.93 -33.81 -4.09 244 244 241
-4.93 -33.91 -4.09 244 244 241
-4.93 -34.00 -4.09 244 244 241
-4.93 -34.10 -4.09 244 244 241
-4.93 -34.19 -4.08 244 244 241
-4.93 -34.29 -4.09 244 244 241
-4.94 -34.37 -4.07 244 244 241
-4.94 -34.47 -4.08 244 244 241
-4.95 -34.55 -4.06 244 244 241
-4.95 -34.64 -4.06 244 244 241
-4.95 -34.74 -4.06 242 244 241
-4.95 -34.83 -4.06 242 244 241
-4.96 -34.92 -4.05 242 244 241
-4.97 -35.01 -4.04 242 244 241
-4.97 -35.10 -4.04 242 244 241
-4.97 -35.20 -4.04 242 244 241
-4.96 -35.30 -4.05 242 244 241
-4.95 -35.40 -4.06 242 244 241
-4.96 -35.48 -4.05 242 244 241
-4.97 -35.57 -4.04 242 244 241
-4.97 -35.66 -4.04 242 244 241
-4.99 -35.75 -4.02 242 244 241
-5.02 -35.81 -3.98 242 244 241
-5.06 -35.87 -3.93 242 244 241
-5.08 -35.95 -3.91 244 244 241
-5.12 -36.01 -3.86 243 243 240
-5.06 -36.16 -3.94 245 243 241
-5.09 -36.22 -3.90 249 247 245
-4.96 -36.43 -4.05 249 244 243
-5.39 -36.16 -3.54 249 244 243
-4.92 22.86 -4.23 144 133 126
-4.88 22.80 -4.28 144 133 126
-4.88 22.71 -4.28 144 133 126
-4.86 22.63 -4.30 144 133 126
-4.89 22.51 -4.27 144 133 126
-4.91 22.40 -4.24 144 133 126
-4.89 22.32 -4.27 144 133 126
-4.89 22.23 -4.27 144 133 126
-4.89 22.14 -4.27 144 133 126
-4.88 22.05 -4.28 144 133 126
-4.87 21.96 -4.29 144 133 126
-4.87 21.87 -4.29 144 133 126
-4.86 21.78 -4.30 145 134 127
-4.86 21.68 -4.30 145 134 127
-4.85 21.60 -4.31 145 134 127
-4.85 21.50 -4.32 145 134 127
-4.85 21.41 -4.32 145 136 128
-4.84 21.32 -4.32 145 136 128
-4.83 21.23 -4.33 144 135 127
-4.84 21.14 -4.33 142 133 125
-4.84 21.04 -4.33 136 130 123
-4.83 20.95 -4.34 134 128 121
-4.83 20.86 -4.34 132 126 119
-4.83 20.76 -4.34 129 123 116
-4.82 20.68 -4.35 126 120 113
-4.82 20.58 -4.35 123 117 110
-4.81 20.49 -4.36 120 116 108
-4.81 20.40 -4.37 119 115 107
-4.80 20.31 -4.37 119 115 109
-4.79 20.22 -4.38 119 115 109
-4.79 20.13 -4.39 119 115 109
-4.78 20.04 -4.39 119 115 109
-4.77 19.96 -4.41 118 114 106
-4.77 19.86 -4.40 118 114 106
-4.76 19.77 -4.42 118 114 106
-4.76 19.68 -4.42 118 114 106
-4.75 19.59 -4.43 118 114 106
-4.75 19.50 -4.43 118 114 106
-4.75 19.40 -4.44 118 114 106
-4.74 19.32 -4.44 118 114 106
-4.73 19.23 -4.45 118 114 106
-4.73 19.14 -4.46 118 114 106
-4.73 19.04 -4.46 118 114 106
-4.72 18.95 -4.47 118 114 106
-4.72 18.86 -4.47 118 114 106
-4.71 18.76 -4.48 118 114 106
-4.70 18.68 -4.50 118 114 106
-4.69 18.59 -4.50 118 114 106
-4.68 18.50 -4.51 121 117 111
-4.68 18.41 -4.52 121 117 111
-4.66 18.33 -4.53 121 117 111
-4.65 18.24 -4.55 121 117 111
-4.64 18.15 -4.56 120 116 110
-4.63 18.06 -4.57 120 116 110
-4.62 17.97 -4.58 121 117 111
-4.62 17.88 -4.59 124 120 114
-4.61 17.79 -4.60 124 120 112
-4.61 17.70 -4.60 127 123 115
-4.59 17.61 -4.62 129 125 117
-4.60 17.51 -4.61 134 130 122
-4.60 17.42 -4.61 134 133 124
-4.60 17.32 -4.61 138 137 128
-4.59 17.23 -4.62 143 142 133
-4.59 17.14 -4.62 147 146 137
-4.59 17.05 -4.62 151 145 138
-4.58 16.95 -4.63 153 147 140
-4.58 16.86 -4.63 154 148 141
-4.58 16.77 -4.64 154 148 141
-4.58 16.67 -4.63 154 148 141
-4.57 16.58 -4.65 154 148 141
-4.57 16.49 -4.65 153 149 141
-4.56 16.39 -4.65 153 149 141
-4.56 16.30 -4.65 154 150 142
-4.56 16.21 -4.66 154 150 142
-4.55 16.11 -4.66 152 151 142
-4.55 16.02 -4.67 152 151 142
-4.54 15.93 -4.67 152 151 142
-4.53 15.84 -4.69 152 151 142
-4.54 15.74 -4.68 151 152 142
-4.54 15.65 -4.68 152 153 143
-4.53 15.55 -4.69 155 151 143
-4.53 15.46 -4.69 155 151 143
-4.52 15.37 -4.70 156 152 144
-4.52 15.28 -4.70 156 152 144
-4.52 15.18 -4.70 157 153 145
-4.52 15.09 -4.70 157 153 145
-4.51 14.99 -4.71 159 155 147
-4.50 14.90 -4.72 159 155 147
-4.50 14.81 -4.73 159 155 147
-4.50 14.72 -4.73 159 155 147
-4.49 14.62 -4.73 159 155 147
-4.49 14.53 -4.73 159 155 147
-4.49 14.43 -4.73 159 155 147
-4.49 14.34 -4.74 159 155 147
-4.49 14.24 -4.73 159 155 147
-4.49 14.15 -4.73 160 156 148
-4.49 14.05 -4.74 161 157 149
-4.49 13.95 -4.73 161 157 149
-4.49 13.86 -4.74 161 157 149
-4.49 13.76 -4.74 161 157 149
-4.48 13.67 -4.74 161 157 149
-4.48 13.58 -4.75 161 157 149
-4.48 13.48 -4.75 160 156 148
-4.47 13.39 -4.76 160 156 148
-4.47 13.30 -4.76 160 156 148
-4.46 13.21 -4.77 161 157 149
-4.47 13.11 -4.76 161 157 149
-4.46 13.01 -4.77 162 158 150
-4.46 12.92 -4.78 163 159 151
-4.46 12.82 -4.77 163 159 151
-4.45 12.73 -4.78 164 160 152
-4.45 12.64 -4.79 166 162 154
-4.44 12.55 -4.80 166 162 154
-4.43 12.46 -4.80 166 162 154
-4.43 12.36 -4.80 166 162 154
-4.43 12.26 -4.80 166 162 154
-4.44 12.17 -4.80 166 162 154
-4.42 12.08 -4.81 166 162 154
-4.42 11.98 -4.82 167 163 155
-4.42 11.89 -4.82 167 163 155
-4.41 11.80 -4.83 167 163 155
-4.42 11.70 -4.82 167 163 155
-4.41 11.60 -4.83 167 163 155
-4.42 11.50 -4.81 167 163 155
-4.42 11.41 -4.82 165 164 155
-4.42 11.31 -4.82 165 164 155
-4.42 11.22 -4.82 166 165 156
-4.42 11.12 -4.82 166 165 156
-4.42 11.03 -4.82 166 165 156
-4.41 10.93 -4.83 166 165 156
-4.41 10.84 -4.83 166 165 156
-4.41 10.74 -4.83 166 165 156
-4.40 10.65 -4.84 166 165 156
-4.40 10.55 -4.84 166 165 156
-4.40 10.46 -4.84 166 165 156
-4.40 10.37 -4.84 166 165 156
-4.40 10.27 -4.84 166 165 156
-4.40 10.17 -4.84 166 165 156
-4.40 10.08 -4.84 165 166 156
-4.40 9.98 -4.84 166 167 157
-4.40 9.88 -4.84 166 167 157
-4.39 9.79 -4.85 165 166 156
-4.39 9.69 -4.85 165 166 156
-4.39 9.60 -4.85 166 167 157
-4.39 9.50 -4.85 165 166 156
-4.39 9.41 -4.86 165 166 156
-4.37 9.32 -4.87 165 166 156
-4.38 9.22 -4.86 165 166 156
-4.38 9.13 -4.87 165 166 156
-4.38 9.03 -4.87 165 166 156
-4.37 8.94 -4.87 165 166 156
-4.37 8.84 -4.87 165 166 156
-4.37 8.75 -4.88 165 166 156
-4.36 8.66 -4.89 166 167 157
-4.36 8.56 -4.89 167 168 158
-4.36 8.46 -4.89 167 168 158
-4.36 8.37 -4.89 168 169 159
-4.35 8.27 -4.89 168 169 159
-4.35 8.18 -4.90 170 171 161
-4.34 8.09 -4.91 171 172 162
-4.34 7.99 -4.91 171 172 162
-4.35 7.89 -4.90 171 172 162
-4.34 7.80 -4.91 171 172 162
-4.34 7.70 -4.91 171 172 162
-4.34 7.61 -4.91 171 172 162
-4.34 7.51 -4.91 171 172 162
-4.34 7.41 -4.91 171 172 162
-4.34 7.32 -4.91 171 172 162
-4.32 7.23 -4.93 172 173 163
-4.33 7.13 -4.93 172 173 163
-4.32 7.04 -4.93 172 173 163
-4.32 6.94 -4.93 172 173 163
-4.32 6.85 -4.93 172 173 163
-4.31 6.76 -4.95 172 173 163
-4.31 6.66 -4.95 172 173 163
-4.30 6.57 -4.96 172 173 163
-4.29 6.47 -4.96 171 172 164
-4.30 6.37 -4.96 171 172 164
-4.30 6.28 -4.96 171 172 164
-4.31 6.18 -4.95 171 172 164
-4.31 6.08 -4.95 171 172 164
-4.31 5.99 -4.95 171 172 164
-4.31 5.89 -4.95 171 172 164
-4.32 5.79 -4.94 171 172 164
-4.31 5.69 -4.94 172 173 165
-4.31 5.60 -4.95 172 173 165
-4.32 5.50 -4.94 172 173 165
-4.31 5.41 -4.95 172 173 165
-4.31 5.31 -4.94 172 173 165
-4.30 5.22 -4.95 172 173 165
-4.30 5.12 -4.96 172 173 165
-4.30 5.02 -4.95 172 173 165
-4.30 4.93 -4.96 173 173 168
-4.30 4.83 -4.96 173 173 168
-4.29 4.74 -4.97 173 173 168
-4.30 4.64 -4.96 173 173 168
-4.29 4.55 -4.97 173 173 168
-4.29 4.45 -4.97 173 173 168
-4.28 4.36 -4.98 173 173 168
-4.28 4.26 -4.98 173 173 168
-4.28 4.17 -4.98 174 174 169
-4.27 4.07 -4.99 174 174 169
-4.27 3.98 -4.99 174 174 169
-4.27 3.88 -5.00 174 174 169
-4.27 3.78 -4.99 174 174 169
-4.27 3.69 -4.99 174 174 169
-4.28 3.59 -4.98 174 174 169
-4.27 3.49 -4.99 174 174 169
-4.28 3.40 -4.98 171 173 168
-4.28 3.30 -4.98 171 173 168
-4.28 3.20 -4.98 171 173 168
-4.28 3.11 -4.98 171 173 168
-4.28 3.01 -4.98 171 173 168
-4.29 2.91 -4.97 171 173 168
-4.28 2.82 -4.98 171 173 168
-4.29 2.72 -4.97 171 173 168
-4.28 2.63 -4.98 171 173 168
-4.28 2.53 -4.98 171 173 168
-4.28 2.43 -4.98 171 173 168
-4.28 2.34 -4.98 171 173 168
-4.28 2.24 -4.98 171 173 168
-4.27 2.15 -4.99 171 173 168
-4.27 2.05 -4.99 171 173 168
-4.28 1.95 -4.98 171 173 168
-4.28 1.86 -4.98 171 173 170
-4.29 1.76 -4.97 172 174 171
-4.28 1.66 -4.98 170 175 171
-4.28 1.57 -4.98 170 175 171
-4.28 1.47 -4.98 170 175 171
-4.29 1.37 -4.97 170 175 171
-4.29 1.28 -4.97 170 175 171
-4.28 1.18 -4.98 170 175 171
-4.28 1.09 -4.98 170 175 171
-4.28 0.99 -4.98 170 175 171
-4.28 0.89 -4.98 170 175 171
-4.28 0.80 -4.98 170 175 171
-4.29 0.70 -4.97 170 175 171
-4.28 0.60 -4.98 170 175 171
-4.29 0.51 -4.97 170 175 171
-4.29 0.41 -4.96 170 175 171
-4.29 0.31 -4.96 168 175 170
-4.30 0.22 -4.96 168 175 170
-4.30 0.12 -4.96 168 175 170
-4.31 0.02 -4.95 168 175 170
-4.31 -0.07 -4.95 168 175 170
-4.31 -0.17 -4.95 168 175 170
-4.30 -0.27 -4.95 169 176 171
-4.30 -0.36 -4.95 171 178 173
-4.31 -0.46 -4.95 173 180 175
-4.31 -0.56 -4.95 173 180 175
-4.30 -0.65 -4.95 173 180 175
-4.31 -0.75 -4.95 173 180 175
-4.31 -0.84 -4.95 173 180 175
-4.31 -0.94 -4.95 173 180 175
-4.31 -1.04 -4.95 173 180 173
-4.30 -1.13 -4.96 173 180 173
-4.30 -1.23 -4.96 173 180 173
-4.30 -1.32 -4.96 173 180 173
-4.30 -1.42 -4.96 173 180 173
-4.30 -1.52 -4.96 173 180 173
-4.30 -1.61 -4.96 173 180 173
-4.30 -1.71 -4.96 173 180 173
-4.30 -1.80 -4.96 173 180 173
-4.29 -1.90 -4.96 173 180 173
-4.29 -2.00 -4.96 173 180 173
-4.29 -2.09 -4.97 173 180 173
-4.29 -2.19 -4.96 173 180 173
-4.30 -2.29 -4.96 173 180 173
-4.30 -2.38 -4.96 173 180 173
-4.29 -2.48 -4.97 173 180 173
-4.29 -2.57 -4.96 173 180 173
-4.29 -2.67 -4.96 173 180 173
-4.28 -2.76 -4.98 173 183 175
-4.28 -2.86 -4.98 173 183 175
-4.28 -2.96 -4.98 173 183 177
-4.27 -3.05 -5.00 173 183 177
-4.27 -3.15 -4.99 173 183 177
-4.27 -3.24 -4.99 173 183 177
-4.28 -3.34 -4.98 173 183 177
-4.27 -3.44 -4.99 173 183 177
-4.27 -3.53 -4.99 173 183 177
-4.27 -3.63 -5.00 173 183 177
-4.27 -3.73 -4.99 173 183 177
-4.28 -3.82 -4.98 173 183 177
-4.27 -3.92 -4.99 173 183 177
-4.28 -4.02 -4.98 173 183 177
-4.27 -4.11 -4.99 173 183 177
-4.27 -4.21 -5.00 173 183 177
-4.27 -4.30 -4.99 176 183 181
-4.28 -4.40 -4.98 176 183 181
-4.28 -4.50 -4.98 176 183 181
-4.28 -4.59 -4.98 176 183 181
-4.28 -4.69 -4.98 176 183 181
-4.28 -4.79 -4.98 176 183 181
-4.27 -4.88 -4.99 176 183 181
-4.28 -4.98 -4.98 176 183 181
-4.28 -5.07 -4.98 176 183 181
-4.28 -5.17 -4.98 176 183 181
-4.28 -5.27 -4.98 176 183 181
-4.27 -5.36 -4.99 176 183 181
-4.27 -5.46 -4.99 176 183 181
-4.27 -5.56 -4.99 176 183 181
-4.26 -5.65 -5.00 176 183 181
-4.26 -5.75 -5.00 176 183 181
-4.25 -5.84 -5.01 177 184 179
-4.26 -5.94 -5.01 177 184 179
-4.26 -6.04 -5.01 177 184 179
-4.25 -6.13 -5.02 177 184 179
-4.25 -6.23 -5.02 177 184 179
-4.24 -6.32 -5.03 177 184 179
-4.23 -6.42 -5.04 177 184 179
-4.22 -6.52 -5.05 178 185 180
-4.21 -6.61 -5.07 178 185 180
-4.21 -6.71 -5.07 178 185 180
-4.20 -6.81 -5.07 178 185 180
-4.20 -6.90 -5.08 178 185 180
-4.19 -7.00 -5.08 178 185 180
-4.20 -7.10 -5.08 178 185 180
-4.19 -7.19 -5.09 176 186 180
-4.19 -7.29 -5.09 178 188 182
-4.19 -7.38 -5.09 176 186 180
-4.18 -7.48 -5.09 178 188 182
-4.19 -7.58 -5.09 178 188 182
-4.18 -7.67 -5.10 178 188 182
-4.18 -7.77 -5.10 178 188 182
-4.17 -7.87 -5.11 178 188 182
-4.18 -7.96 -5.10 178 188 182
-4.17 -8.06 -5.11 178 188 182
-4.17 -8.16 -5.11 179 189 183
-4.17 -8.25 -5.11 180 190 184
-4.16 -8.35 -5.12 180 190 184
-4.16 -8.45 -5.12 180 190 184
-4.15 -8.54 -5.13 180 190 184
-4.15 -8.64 -5.13 180 190 184
-4.15 -8.74 -5.14 180 190 184
-4.15 -8.83 -5.14 180 190 184
-4.13 -8.93 -5.15 180 190 187
-4.13 -9.03 -5.16 180 190 187
-4.13 -9.12 -5.15 183 190 188
-4.13 -9.22 -5.15 183 190 188
-4.15 -9.32 -5.14 183 190 188
-4.14 -9.41 -5.14 183 190 188
-4.14 -9.51 -5.14 183 190 188
-4.14 -9.61 -5.14 183 190 188
-4.15 -9.70 -5.14 183 190 188
-4.15 -9.80 -5.14 184 191 189
-4.15 -9.90 -5.14 185 192 190
-4.15 -9.99 -5.14 187 194 192
-4.14 -10.09 -5.14 187 194 192
-4.13 -10.19 -5.15 187 194 192
-4.13 -10.28 -5.15 187 194 192
-4.13 -10.38 -5.15 187 194 192
-4.13 -10.48 -5.16 187 194 189
-4.12 -10.58 -5.17 187 194 189
-4.11 -10.67 -5.18 187 194 189
-4.12 -10.77 -5.17 187 194 189
-4.10 -10.87 -5.19 187 194 189
-4.10 -10.96 -5.19 187 194 189
-4.10 -11.06 -5.19 187 194 189
-4.09 -11.16 -5.20 187 194 189
-4.09 -11.26 -5.21 188 195 190
-4.09 -11.35 -5.20 188 195 190
-4.08 -11.45 -5.21 188 195 190
-4.08 -11.55 -5.21 188 195 190
-4.08 -11.64 -5.21 188 195 190
-4.07 -11.74 -5.22 188 195 190
-4.06 -11.84 -5.24 188 195 190
-4.06 -11.94 -5.24 188 195 190
-4.05 -12.03 -5.25 189 196 194
-4.05 -12.13 -5.25 190 197 195
-4.04 -12.23 -5.26 190 197 195
-4.04 -12.33 -5.26 191 198 196
-4.04 -12.42 -5.27 191 198 196
-4.04 -12.52 -5.27 192 199 197
-4.04 -12.62 -5.27 192 199 197
-4.04 -12.72 -5.27 194 201 199
-4.02 -12.81 -5.28 192 199 197
-4.03 -12.91 -5.27 192 199 197
-4.02 -13.01 -5.28 192 199 197
-4.03 -13.10 -5.28 194 201 199
-4.03 -13.20 -5.27 194 201 199
-4.02 -13.30 -5.28 195 202 200
-4.02 -13.40 -5.28 195 202 200
-4.02 -13.49 -5.29 196 203 201
-4.02 -13.59 -5.29 196 203 201
-4.01 -13.69 -5.29 197 204 202
-4.02 -13.78 -5.28 198 205 203
-4.02 -13.88 -5.29 198 205 203
-4.01 -13.98 -5.29 198 205 203
-4.01 -14.08 -5.29 198 205 203
-4.02 -14.17 -5.28 198 205 203
-4.01 -14.27 -5.29 198 205 203
-4.01 -14.37 -5.30 199 206 204
-4.00 -14.47 -5.30 201 208 206
-4.01 -14.56 -5.30 201 208 206
-4.00 -14.66 -5.30 201 208 206
-4.00 -14.76 -5.31 201 208 206
-4.00 -14.85 -5.31 201 208 206
-3.99 -14.95 -5.32 201 208 206
-3.99 -15.05 -5.32 201 208 206
-3.99 -15.15 -5.32 205 203 199
-4.00 -15.24 -5.31 205 203 199
-4.00 -15.34 -5.30 204 204 199
-4.02 -15.43 -5.29 204 204 199
-4.04 -15.52 -5.26 200 205 199
-4.06 -15.62 -5.24 200 205 199
-4.09 -15.71 -5.20 199 207 197
-4.11 -15.80 -5.18 199 207 197
-4.13 -15.89 -5.16 196 203 196
-4.14 -15.99 -5.15 197 204 197
-4.10 -16.09 -5.19 205 211 212
-4.13 -16.18 -5.15 211 217 218
-4.16 -16.27 -5.12 201 205 218
-4.18 -16.36 -5.10 182 186 199
-4.50 -16.38 -4.73 155 158 180
-4.57 -16.45 -4.64 131 134 156
-5.04 -16.43 -4.09 89 94 104
-5.45 -16.42 -3.62 41 46 56
-5.96 -16.37 -3.02 146 139 108
-6.22 -16.40 -2.72 237 230 199
-6.21 -16.49 -2.72 251 231 185
-6.40 -16.53 -2.51 240 220 174
-6.63 -16.56 -2.24 249 230 166
-6.73 -16.62 -2.12 247 228 164
-6.82 -16.68 -2.01 173 150 81
-6.89 -16.75 -1.93 184 161 92
-6.95 -16.82 -1.86 188 157 97
-7.00 -16.90 -1.80 195 164 104
-7.04 -16.98 -1.76 198 171 108
-7.09 -17.05 -1.70 212 185 122
-7.14 -17.12 -1.64 215 197 137
-7.18 -17.20 -1.59 206 188 128
-7.23 -17.27 -1.53 197 185 146
-7.27 -17.35 -1.48 183 171 132
-7.31 -17.42 -1.44 181 172 143
-7.35 -17.50 -1.40 152 143 114
-7.40 -17.57 -1.33 135 132 119
-7.45 -17.64 -1.28 168 165 152
-7.50 -17.72 -1.22 181 181 181
-7.56 -17.78 -1.15 181 181 181
-7.62 -17.85 -1.08 181 181 178
-7.66 -17.93 -1.03 210 210 207
-7.71 -18.00 -0.98 180 173 157
-7.74 -18.07 -0.94 143 136 120
-7.78 -18.15 -0.89 221 209 172
-7.82 -18.22 -0.85 158 146 109
-7.87 -18.29 -0.79 147 130 79
-7.90 -18.36 -0.75 190 173 122
-7.94 -18.44 -0.70 179 159 100
-7.97 -18.51 -0.66 163 143 84
-8.01 -18.59 -0.63 168 147 106
-8.04 -18.66 -0.59 164 143 102
-8.07 -18.74 -0.55 128 107 82
-8.10 -18.81 -0.52 122 101 76
-8.13 -18.89 -0.49 111 93 72
-8.15 -18.97 -0.46 142 124 103
-8.17 -19.04 -0.43 179 165 147
-8.20 -19.12 -0.41 222 208 190
-8.21 -19.20 -0.38 177 167 157
-8.24 -19.27 -0.35 232 222 212
-8.26 -19.35 -0.33 244 234 233
-8.22 -19.45 -0.37 152 142 141
-8.22 -19.54 -0.38 180 170 174
-7.96 -19.73 -0.68 127 117 121
-7.01 -20.18 -1.80 115 117 114
-6.00 -20.67 -2.97 177 179 176
-5.46 -20.97 -3.61 227 229 226
-5.19 -21.17 -3.92 240 242 239
-4.99 -21.35 -4.16 240 242 239
-4.88 -21.49 -4.28 236 238 235
-4.88 -21.58 -4.28 227 229 226
-4.92 -21.66 -4.23 220 222 219
-4.88 -21.77 -4.29 226 228 225
-4.86 -21.87 -4.30 225 227 224
-4.82 -21.98 -4.35 225 227 224
-4.78 -22.10 -4.40 223 225 222
-4.80 -22.18 -4.37 223 225 222
-4.78 -22.28 -4.40 223 225 222
-4.78 -22.38 -4.40 223 225 222
-4.77 -22.48 -4.41 223 225 222
-4.75 -22.58 -4.44 223 225 222
-4.74 -22.68 -4.44 225 227 224
-4.76 -22.77 -4.42 225 227 224
-4.77 -22.86 -4.41 226 228 225
-4.79 -22.95 -4.39 226 228 225
-4.80 -23.04 -4.37 227 229 226
-4.82 -23.12 -4.35 227 229 226
-4.83 -23.21 -4.34 228 230 227
-4.84 -23.30 -4.32 226 228 225
-4.85 -23.39 -4.32 226 228 225
-4.84 -23.49 -4.33 226 228 225
-4.84 -23.59 -4.33 226 228 225
-4.84 -23.68 -4.32 226 228 225
-4.85 -23.77 -4.32 226 228 225
-4.84 -23.87 -4.32 226 228 225
-4.84 -23.97 -4.33 226 228 225
-4.84 -24.06 -4.33 227 229 226
-4.85 -24.15 -4.32 227 229 226
-4.85 -24.24 -4.31 227 229 226
-4.85 -24.34 -4.31 227 229 226
-4.85 -24.43 -4.31 227 229 226
-4.85 -24.53 -4.31 227 229 226
-4.85 -24.62 -4.31 227 229 226
-4.85 -24.72 -4.32 227 229 226
-4.85 -24.81 -4.32 228 230 227
-4.86 -24.90 -4.31 228 230 227
-4.85 -25.00 -4.31 228 230 227
-4.87 -25.09 -4.30 228 230 227
-4.87 -25.18 -4.30 228 230 227
-4.87 -25.28 -4.29 228 230 227
-4.88 -25.36 -4.28 228 230 227
-4.89 -25.46 -4.27 228 230 227
-4.89 -25.55 -4.27 229 231 228
-4.90 -25.64 -4.26 229 231 228
-4.91 -25.73 -4.25 229 231 228
-4.91 -25.82 -4.24 229 231 228
-4.91 -25.92 -4.24 229 231 228
-4.92 -26.01 -4.23 229 231 228
-4.92 -26.10 -4.23 229 231 228
-4.93 -26.19 -4.22 229 231 228
-4.92 -26.29 -4.23 229 231 228
-4.93 -26.38 -4.23 229 231 228
-4.94 -26.47 -4.21 229 231 228
-4.94 -26.56 -4.21 229 231 228
-4.95 -26.65 -4.20 229 231 228
-4.95 -26.75 -4.20 229 231 228
-4.95 -26.84 -4.19 229 231 228
-4.96 -26.93 -4.19 229 231 228
-4.97 -27.02 -4.18 229 231 228
-4.97 -27.11 -4.17 229 231 228
-4.98 -27.20 -4.17 230 232 229
-4.98 -27.30 -4.16 230 232 229
-4.98 -27.39 -4.17 230 232 229
-4.98 -27.49 -4.17 230 232 229
-4.99 -27.58 -4.16 230 232 229
-4.98 -27.67 -4.16 230 232 229
-4.98 -27.77 -4.16 230 232 229
-4.98 -27.86 -4.17 230 232 229
-4.98 -27.96 -4.16 230 232 229
-4.98 -28.05 -4.16 230 232 229
-4.98 -28.14 -4.16 230 232 229
-4.99 -28.24 -4.16 230 232 229
-4.99 -28.33 -4.15 230 232 229
-4.98 -28.43 -4.16 230 232 229
-4.99 -28.52 -4.16 229 231 228
-4.99 -28.61 -4.15 229 231 228
-4.99 -28.70 -4.15 229 231 228
-4.99 -28.80 -4.15 229 231 228
-5.00 -28.89 -4.14 229 231 228
-5.00 -28.98 -4.14 229 231 228
-5.01 -29.07 -4.13 229 231 228
-5.01 -29.16 -4.13 229 231 228
-5.01 -29.26 -4.13 229 231 228
-5.02 -29.35 -4.11 229 231 228
-5.03 -29.44 -4.11 229 231 228
-5.03 -29.53 -4.10 229 231 228
-5.03 -29.62 -4.10 229 231 228
-5.04 -29.71 -4.10 229 231 228
-5.04 -29.81 -4.09 229 231 228
-5.05 -29.90 -4.08 230 232 229
-5.05 -29.99 -4.08 230 232 229
-5.06 -30.08 -4.07 229 231 228
-5.06 -30.17 -4.07 230 232 229
-5.07 -30.26 -4.06 230 232 229
-5.08 -30.35 -4.05 230 232 229
-5.07 -30.44 -4.05 230 232 229
-5.08 -30.53 -4.05 230 232 229
-5.09 -30.62 -4.04 230 232 229
-5.09 -30.71 -4.03 230 232 229
-5.09 -30.81 -4.03 230 232 229
-5.10 -30.89 -4.02 232 234 231
-5.11 -30.98 -4.02 232 234 231
-5.10 -31.08 -4.02 232 234 231
-5.11 -31.17 -4.01 232 234 231
-5.11 -31.26 -4.01 232 234 231
-5.11 -31.36 -4.01 232 234 231
-5.10 -31.46 -4.02 233 235 232
-5.11 -31.55 -4.01 233 235 232
-5.10 -31.65 -4.02 234 236 233
-5.11 -31.74 -4.01 234 236 233
-5.11 -31.83 -4.02 235 237 234
-5.11 -31.92 -4.02 236 238 235
-5.11 -32.02 -4.02 236 238 235
-5.10 -32.12 -4.03 236 238 235
-5.10 -32.21 -4.02 236 238 235
-5.09 -32.31 -4.03 236 238 235
-5.10 -32.40 -4.03 236 238 235
-5.09 -32.50 -4.03 236 238 235
-5.10 -32.59 -4.03 236 238 235
-5.10 -32.69 -4.03 236 238 235
-5.10 -32.78 -4.02 236 238 235
-5.10 -32.87 -4.02 236 238 235
-5.10 -32.96 -4.02 241 241 238
-5.10 -33.06 -4.03 241 241 238
-5.10 -33.15 -4.02 241 241 238
-5.10 -33.25 -4.02 241 241 238
-5.10 -33.34 -4.02 241 241 238
-5.10 -33.43 -4.02 241 241 238
-5.10 -33.53 -4.02 242 242 239
-5.10 -33.62 -4.03 243 243 240
-5.09 -33.72 -4.03 244 244 241
-5.10 -33.81 -4.03 244 244 241
-5.10 -33.91 -4.03 244 244 241
-5.10 -34.00 -4.03 244 244 241
-5.10 -34.09 -4.02 244 244 241
-5.11 -34.18 -4.02 244 244 241
-5.12 -34.27 -4.00 244 244 241
-5.11 -34.37 -4.01 244 244 241
-5.12 -34.45 -4.00 244 244 241
-5.12 -34.54 -4.00 244 244 241
-5.13 -34.64 -3.99 242 244 241
-5.12 -34.73 -4.00 242 244 241
-5.13 -34.82 -3.99 242 244 241
-5.13 -34.92 -3.99 242 244 241
-5.13 -35.01 -3.99 242 244 241
-5.13 -35.10 -3.99 242 244 241
-5.12 -35.21 -4.00 242 244 241
-5.12 -35.30 -4.00 242 244 241
-5.12 -35.39 -4.00 242 244 241
-5.12 -35.48 -4.00 242 244 241
-5.14 -35.57 -3.98 242 244 241
-5.15 -35.65 -3.96 242 244 241
-5.19 -35.72 -3.92 242 244 241
-5.22 -35.78 -3.88 242 244 241
-5.25 -35.85 -3.84 244 244 241
-5.30 -35.90 -3.79 242 242 239
-5.24 -36.04 -3.86 244 242 240
-5.25 -36.13 -3.85 246 244 242
-5.18 -36.28 -3.93 245 240 239
-5.36 -36.23 -3.72 254 249 248
-5.07 22.77 -4.19 144 133 126
-5.03 22.71 -4.24 144 133 126
-5.05 22.61 -4.22 144 133 126
-5.03 22.53 -4.24 144 133 126
-5.06 22.41 -4.21 144 133 126
-5.07 22.30 -4.19 144 133 126
-5.04 22.23 -4.23 144 133 126
-5.04 22.14 -4.23 144 133 126
-5.04 22.05 -4.23 144 133 126
-5.03 21.96 -4.24 144 133 126
-5.03 21.87 -4.24 144 133 126
-5.02 21.78 -4.25 144 133 126
-5.02 21.69 -4.25 145 134 127
-5.01 21.60 -4.26 145 134 127
-5.01 21.51 -4.27 145 134 127
-5.01 21.41 -4.27 145 134 127
-5.00 21.32 -4.27 144 135 127
-4.99 21.24 -4.28 144 135 127
-5.00 21.14 -4.28 144 135 127
-4.99 21.05 -4.29 143 134 126
-4.99 20.96 -4.29 137 131 124
-4.98 20.87 -4.30 134 128 121
-4.99 20.77 -4.29 132 126 119
-4.98 20.68 -4.30 128 122 115
-4.97 20.60 -4.32 125 119 112
-4.97 20.50 -4.32 122 116 109
-4.96 20.41 -4.33 120 116 108
-4.95 20.33 -4.34 119 115 107
-4.94 20.24 -4.34 118 114 108
-4.93 20.15 -4.36 118 114 108
-4.93 20.06 -4.36 118 114 108
-4.93 19.96 -4.36 119 115 109
-4.92 19.88 -4.37 118 114 106
-4.92 19.78 -4.37 118 114 106
-4.91 19.69 -4.38 118 114 106
-4.91 19.60 -4.39 118 114 106
-4.90 19.51 -4.39 118 114 106
-4.90 19.42 -4.39 118 114 106
-4.89 19.33 -4.41 118 114 106
-4.89 19.24 -4.41 118 114 106
-4.89 19.14 -4.41 118 114 106
-4.87 19.06 -4.43 118 114 106
-4.87 18.97 -4.43 118 114 106
-4.87 18.88 -4.43 118 114 106
-4.86 18.78 -4.44 118 114 106
-4.85 18.70 -4.45 118 114 106
-4.85 18.60 -4.45 118 114 106
-4.85 18.51 -4.46 118 114 106
-4.83 18.43 -4.47 121 117 111
-4.84 18.33 -4.47 121 117 111
-4.82 18.24 -4.49 121 117 111
-4.81 18.16 -4.50 121 117 111
-4.79 18.08 -4.52 120 116 110
-4.78 17.99 -4.53 120 116 110
-4.77 17.90 -4.55 120 116 110
-4.77 17.81 -4.55 121 117 111
-4.76 17.72 -4.56 121 117 109
-4.76 17.63 -4.56 124 120 112
-4.74 17.54 -4.58 127 123 115
-4.75 17.44 -4.57 132 128 120
-4.75 17.35 -4.57 133 132 123
-4.75 17.25 -4.57 137 136 127
-4.75 17.16 -4.57 140 139 130
-4.75 17.06 -4.57 145 144 135
-4.74 16.97 -4.58 151 145 138
-4.74 16.88 -4.58 153 147 140
-4.74 16.78 -4.58 153 147 140
-4.73 16.70 -4.60 154 148 141
-4.72 16.60 -4.60 154 148 141
-4.72 16.51 -4.61 154 148 141
-4.71 16.42 -4.61 153 149 141
-4.71 16.33 -4.62 153 149 141
-4.71 16.23 -4.62 154 150 142
-4.71 16.14 -4.62 154 150 142
-4.70 16.05 -4.63 152 151 142
-4.70 15.95 -4.63 152 151 142
-4.70 15.86 -4.63 152 151 142
-4.69 15.77 -4.64 152 151 142
-4.69 15.67 -4.64 151 152 142
-4.69 15.58 -4.64 152 153 143
-4.69 15.48 -4.64 156 152 144
-4.68 15.39 -4.65 156 152 144
-4.68 15.30 -4.66 156 152 144
-4.67 15.21 -4.66 156 152 144
-4.67 15.12 -4.67 156 152 144
-4.67 15.02 -4.66 157 153 145
-4.66 14.93 -4.67 159 155 147
-4.67 14.83 -4.67 159 155 147
-4.66 14.74 -4.67 159 155 147
-4.66 14.64 -4.67 159 155 147
-4.65 14.55 -4.68 159 155 147
-4.65 14.46 -4.69 159 155 147
-4.65 14.36 -4.69 159 155 147
-4.65 14.27 -4.69 160 156 148
-4.65 14.17 -4.68 160 156 148
-4.65 14.08 -4.69 160 156 148
-4.65 13.98 -4.68 161 157 149
-4.65 13.89 -4.69 161 157 149
-4.65 13.79 -4.69 161 157 149
-4.65 13.70 -4.69 161 157 149
-4.64 13.61 -4.70 161 157 149
-4.64 13.51 -4.70 161 157 149
-4.63 13.42 -4.71 161 157 149
-4.63 13.33 -4.71 161 157 149
-4.63 13.23 -4.71 161 157 149
-4.62 13.14 -4.72 161 157 149
-4.62 13.05 -4.72 161 157 149
-4.61 12.95 -4.73 162 158 150
-4.61 12.86 -4.73 163 159 151
-4.62 12.76 -4.72 163 159 151
-4.61 12.67 -4.74 164 160 152
-4.61 12.58 -4.74 166 162 154
-4.60 12.48 -4.74 166 162 154
-4.60 12.39 -4.75 166 162 154
-4.59 12.30 -4.75 166 162 154
-4.59 12.20 -4.76 166 162 154
-4.59 12.11 -4.76 166 162 154
-4.59 12.01 -4.76 166 162 154
-4.58 11.92 -4.76 167 163 155
-4.58 11.82 -4.76 167 163 155
-4.58 11.73 -4.77 167 163 155
-4.59 11.63 -4.76 167 163 155
-4.58 11.54 -4.77 167 163 155
-4.58 11.44 -4.77 167 163 155
-4.58 11.35 -4.76 165 164 155
-4.58 11.25 -4.77 165 164 155
-4.58 11.16 -4.76 166 165 156
-4.57 11.07 -4.78 166 165 156
-4.58 10.97 -4.77 166 165 156
-4.57 10.88 -4.78 166 165 156
-4.57 10.78 -4.78 166 165 156
-4.57 10.69 -4.78 166 165 156
-4.56 10.59 -4.79 166 165 156
-4.56 10.50 -4.79 166 165 156
-4.56 10.40 -4.79 166 165 156
-4.56 10.31 -4.79 166 165 156
-4.56 10.21 -4.79 166 165 156
-4.55 10.12 -4.80 166 165 156
-4.56 10.02 -4.79 166 167 157
-4.56 9.93 -4.79 167 168 158
-4.56 9.83 -4.80 166 167 157
-4.56 9.74 -4.80 166 167 157
-4.56 9.64 -4.80 166 167 157
-4.55 9.55 -4.81 167 168 158
-4.55 9.45 -4.81 165 166 156
-4.54 9.36 -4.81 165 166 156
-4.54 9.27 -4.82 166 167 157
-4.54 9.17 -4.81 166 167 157
-4.54 9.07 -4.82 166 167 157
-4.53 8.98 -4.82 166 167 157
-4.54 8.88 -4.82 166 167 157
-4.53 8.79 -4.83 166 167 157
-4.53 8.69 -4.83 166 167 157
-4.52 8.60 -4.84 166 167 157
-4.52 8.51 -4.84 167 168 158
-4.51 8.42 -4.85 168 169 159
-4.51 8.32 -4.85 168 169 159
-4.51 8.22 -4.85 170 171 161
-4.51 8.13 -4.85 170 171 161
-4.51 8.04 -4.85 171 172 162
-4.50 7.94 -4.86 171 172 162
-4.50 7.85 -4.86 171 172 162
-4.50 7.75 -4.86 171 172 162
-4.50 7.65 -4.86 171 172 162
-4.50 7.56 -4.86 171 172 162
-4.50 7.46 -4.87 171 172 162
-4.50 7.37 -4.87 171 172 162
-4.49 7.28 -4.87 171 172 162
-4.49 7.18 -4.87 172 173 163
-4.48 7.09 -4.88 172 173 163
-4.49 6.99 -4.88 172 173 163
-4.48 6.90 -4.88 172 173 163
-4.48 6.80 -4.88 172 173 163
-4.47 6.71 -4.89 172 173 163
-4.47 6.61 -4.89 172 173 163
-4.46 6.52 -4.90 172 173 163
-4.46 6.43 -4.91 171 172 164
-4.46 6.33 -4.91 171 172 164
-4.46 6.23 -4.91 171 172 164
-4.46 6.14 -4.91 171 172 164
-4.47 6.04 -4.90 171 172 164
-4.47 5.94 -4.89 171 172 164
-4.47 5.85 -4.90 171 172 164
-4.48 5.75 -4.88 171 172 164
-4.48 5.65 -4.88 172 173 165
-4.47 5.56 -4.90 172 173 165
-4.47 5.46 -4.89 172 173 165
-4.46 5.37 -4.91 172 173 165
-4.47 5.27 -4.90 172 173 165
-4.46 5.18 -4.90 172 173 165
-4.46 5.08 -4.91 172 173 165
-4.46 4.99 -4.91 172 173 165
-4.46 4.89 -4.91 173 173 168
-4.46 4.80 -4.91 173 173 168
-4.45 4.70 -4.92 173 173 168
-4.46 4.60 -4.91 173 173 168
-4.45 4.51 -4.92 173 173 168
-4.45 4.41 -4.92 173 173 168
-4.45 4.32 -4.92 173 173 168
-4.45 4.22 -4.92 173 173 168
-4.45 4.13 -4.92 174 174 169
-4.45 4.03 -4.92 174 174 169
-4.45 3.93 -4.92 174 174 169
-4.44 3.84 -4.93 174 174 169
-4.45 3.74 -4.92 174 174 169
-4.45 3.65 -4.92 174 174 169
-4.45 3.55 -4.92 174 174 169
-4.44 3.46 -4.93 174 174 169
-4.44 3.36 -4.93 171 173 168
-4.45 3.26 -4.92 171 173 168
-4.45 3.17 -4.92 171 173 168
-4.45 3.07 -4.92 171 173 168
-4.45 2.98 -4.92 171 173 168
-4.45 2.88 -4.92 171 173 168
-4.45 2.78 -4.92 171 173 168
-4.45 2.69 -4.92 171 173 168
-4.45 2.59 -4.92 171 173 168
-4.45 2.50 -4.92 171 173 168
-4.44 2.40 -4.93 171 173 168
-4.44 2.31 -4.94 171 173 168
-4.44 2.21 -4.94 171 173 168
-4.44 2.11 -4.93 171 173 168
-4.44 2.02 -4.93 171 173 168
-4.44 1.92 -4.93 171 173 168
-4.45 1.83 -4.92 171 173 170
-4.46 1.73 -4.91 172 174 171
-4.46 1.63 -4.91 170 175 171
-4.46 1.53 -4.90 170 175 171
-4.46 1.44 -4.90 170 175 171
-4.46 1.34 -4.91 170 175 171
-4.46 1.25 -4.91 170 175 171
-4.45 1.15 -4.92 170 175 171
-4.45 1.06 -4.92 170 175 171
-4.45 0.96 -4.92 170 175 171
-4.45 0.87 -4.92 170 175 171
-4.44 0.77 -4.93 170 175 171
-4.44 0.68 -4.93 170 175 171
-4.45 0.58 -4.92 170 175 171
-4.45 0.48 -4.92 170 175 171
-4.46 0.38 -4.91 170 175 171
-4.46 0.29 -4.91 167 174 169
-4.47 0.19 -4.90 167 174 169
-4.47 0.09 -4.90 167 174 169
-4.48 -0.00 -4.89 167 174 169
-4.48 -0.10 -4.89 167 174 169
-4.48 -0.20 -4.88 167 174 169
-4.48 -0.29 -4.88 169 176 171
-4.48 -0.39 -4.89 171 178 173
-4.47 -0.48 -4.89 173 180 175
-4.48 -0.58 -4.89 173 180 175
-4.48 -0.68 -4.89 173 180 175
-4.47 -0.77 -4.89 173 180 175
-4.48 -0.87 -4.88 173 180 175
-4.48 -0.96 -4.89 173 180 175
-4.48 -1.06 -4.89 173 180 173
-4.47 -1.15 -4.90 173 180 173
-4.47 -1.25 -4.90 173 180 173
-4.47 -1.34 -4.90 173 180 173
-4.47 -1.44 -4.90 173 180 173
-4.47 -1.54 -4.90 173 180 173
-4.46 -1.63 -4.91 173 180 173
-4.46 -1.73 -4.91 173 180 173
-4.46 -1.82 -4.91 173 180 173
-4.46 -1.92 -4.91 173 180 173
-4.46 -2.01 -4.91 173 180 173
-4.46 -2.11 -4.91 173 180 173
-4.46 -2.21 -4.91 173 180 173
-4.46 -2.30 -4.91 173 180 173
-4.46 -2.40 -4.91 173 180 173
-4.46 -2.49 -4.91 173 180 173
-4.46 -2.59 -4.91 173 180 173
-4.46 -2.69 -4.91 173 180 173
-4.45 -2.78 -4.92 172 182 174
-4.45 -2.88 -4.92 172 182 174
-4.45 -2.97 -4.92 173 183 177
-4.44 -3.07 -4.93 173 183 177
-4.45 -3.16 -4.92 173 183 177
-4.45 -3.26 -4.92 173 183 177
-4.45 -3.36 -4.92 173 183 177
-4.45 -3.45 -4.92 173 183 177
-4.44 -3.55 -4.93 173 183 177
-4.44 -3.64 -4.93 173 183 177
-4.44 -3.74 -4.93 174 184 178
-4.44 -3.83 -4.93 174 184 178
-4.44 -3.93 -4.93 174 184 178
-4.44 -4.03 -4.93 174 184 178
-4.44 -4.12 -4.93 174 184 178
-4.44 -4.22 -4.94 174 184 178
-4.44 -4.31 -4.94 176 183 181
-4.44 -4.41 -4.93 176 183 181
-4.45 -4.51 -4.92 176 183 181
-4.44 -4.60 -4.93 176 183 181
-4.45 -4.70 -4.92 176 183 181
-4.45 -4.79 -4.92 176 183 181
-4.45 -4.89 -4.92 176 183 181
-4.45 -4.99 -4.92 176 183 181
-4.45 -5.08 -4.92 176 183 181
-4.44 -5.18 -4.93 176 183 181
-4.44 -5.27 -4.93 176 183 181
-4.43 -5.37 -4.94 176 183 181
-4.43 -5.47 -4.94 176 183 181
-4.43 -5.56 -4.94 176 183 181
-4.42 -5.66 -4.95 176 183 181
-4.42 -5.75 -4.96 176 183 181
-4.42 -5.85 -4.96 177 184 179
-4.42 -5.94 -4.96 177 184 179
-4.42 -6.04 -4.95 177 184 179
-4.42 -6.14 -4.96 177 184 179
-4.42 -6.23 -4.96 177 184 179
-4.41 -6.33 -4.97 177 184 179
-4.41 -6.42 -4.97 177 184 179
-4.39 -6.52 -5.00 178 185 180
-4.37 -6.62 -5.01 178 185 180
-4.38 -6.71 -5.01 178 185 180
-4.37 -6.81 -5.02 178 185 180
-4.36 -6.90 -5.02 178 185 180
-4.36 -7.00 -5.02 178 185 180
-4.36 -7.10 -5.02 178 185 180
-4.35 -7.19 -5.04 176 186 180
-4.36 -7.29 -5.03 178 188 182
-4.36 -7.38 -5.03 176 186 180
-4.35 -7.48 -5.04 178 188 182
-4.35 -7.58 -5.04 178 188 182
-4.34 -7.67 -5.05 178 188 182
-4.35 -7.77 -5.04 178 188 182
-4.34 -7.87 -5.05 178 188 182
-4.35 -7.96 -5.04 178 188 182
-4.34 -8.06 -5.05 178 188 182
-4.33 -8.15 -5.06 179 189 183
-4.34 -8.25 -5.05 180 190 184
-4.33 -8.35 -5.06 180 190 184
-4.33 -8.44 -5.06 180 190 184
-4.33 -8.54 -5.06 180 190 184
-4.32 -8.64 -5.08 180 190 184
-4.32 -8.73 -5.08 180 190 184
-4.32 -8.83 -5.08 180 190 184
-4.31 -8.93 -5.09 180 190 187
-4.31 -9.02 -5.09 180 190 187
-4.31 -9.12 -5.09 183 190 188
-4.31 -9.21 -5.09 183 190 188
-4.32 -9.31 -5.08 183 190 188
-4.32 -9.41 -5.07 183 190 188
-4.32 -9.50 -5.07 183 190 188
-4.32 -9.60 -5.07 183 190 188
-4.33 -9.70 -5.07 183 190 188
-4.32 -9.79 -5.07 184 191 189
-4.32 -9.89 -5.07 185 192 190
-4.32 -9.98 -5.08 187 194 192
-4.31 -10.08 -5.08 187 194 192
-4.31 -10.18 -5.09 187 194 192
-4.31 -10.27 -5.09 187 194 192
-4.31 -10.37 -5.09 187 194 192
-4.31 -10.47 -5.09 187 194 189
-4.30 -10.56 -5.09 187 194 189
-4.30 -10.66 -5.10 187 194 189
-4.30 -10.76 -5.10 187 194 189
-4.29 -10.85 -5.11 187 194 189
-4.29 -10.95 -5.11 187 194 189
-4.29 -11.05 -5.11 187 194 189
-4.28 -11.14 -5.13 187 194 189
-4.28 -11.24 -5.12 188 195 190
-4.28 -11.34 -5.13 188 195 190
-4.27 -11.43 -5.13 188 195 190
-4.27 -11.53 -5.14 188 195 190
-4.26 -11.63 -5.14 188 195 190
-4.25 -11.73 -5.15 188 195 190
-4.25 -11.82 -5.16 188 195 190
-4.24 -11.92 -5.16 188 195 190
-4.23 -12.02 -5.18 189 196 194
-4.23 -12.11 -5.18 190 197 195
-4.22 -12.21 -5.19 190 197 195
-4.22 -12.31 -5.19 191 198 196
-4.21 -12.41 -5.20 191 198 196
-4.21 -12.50 -5.20 192 199 197
-4.20 -12.60 -5.21 192 199 197
-4.21 -12.70 -5.21 194 201 199
-4.20 -12.79 -5.21 191 198 196
-4.20 -12.89 -5.21 191 198 196
-4.21 -12.99 -5.21 192 199 197
-4.20 -13.08 -5.21 192 199 197
-4.20 -13.18 -5.21 194 201 199
-4.19 -13.28 -5.22 195 202 200
-4.20 -13.37 -5.22 195 202 200
-4.19 -13.47 -5.22 195 202 200
-4.19 -13.57 -5.22 196 203 201
-4.19 -13.67 -5.23 197 204 202
-4.19 -13.76 -5.23 198 205 203
-4.19 -13.86 -5.22 198 205 203
-4.19 -13.96 -5.22 198 205 203
-4.19 -14.05 -5.23 198 205 203
-4.19 -14.15 -5.23 198 205 203
-4.19 -14.25 -5.23 198 205 203
-4.18 -14.34 -5.24 198 205 203
-4.17 -14.44 -5.25 199 206 204
-4.17 -14.54 -5.25 199 206 204
-4.16 -14.64 -5.26 199 206 204
-4.16 -14.73 -5.26 199 206 204
-4.16 -14.83 -5.27 199 206 204
-4.15 -14.93 -5.27 199 206 204
-4.16 -15.03 -5.26 199 206 204
-4.17 -15.12 -5.25 204 202 198
-4.18 -15.21 -5.23 204 202 198
-4.19 -15.31 -5.22 203 203 198
-4.21 -15.40 -5.20 203 203 198
-4.23 -15.49 -5.18 199 204 198
-4.27 -15.58 -5.14 199 204 198
-4.28 -15.68 -5.12 198 206 196
-4.26 -15.78 -5.14 198 206 196
-4.22 -15.88 -5.19 212 219 212
-4.11 -16.01 -5.32 212 219 212
-4.12 -16.10 -5.31 208 214 215
-4.41 -16.12 -4.97 185 191 192
-4.77 -16.13 -4.55 146 150 163
-4.92 -16.19 -4.37 99 103 116
-5.33 -16.18 -3.90 61 64 86
-5.39 -16.26 -3.82 38 41 63
-5.60 -16.29 -3.57 5 10 20
-6.04 -16.27 -3.05 0 4 14
-6.08 -16.35 -3.01 204 197 166
-6.29 -16.39 -2.76 251 244 213
-6.39 -16.45 -2.64 237 217 171
-6.63 -16.48 -2.36 242 222 176
-6.77 -16.53 -2.20 250 231 167
-6.87 -16.59 -2.09 221 202 138
-6.90 -16.67 -2.04 174 151 82
-6.95 -16.75 -1.99 195 172 103
-7.02 -16.82 -1.91 188 157 97
-7.06 -16.89 -1.86 189 158 98
-7.10 -16.97 -1.81 179 152 89
-7.14 -17.05 -1.76 186 159 96
-7.19 -17.12 -1.71 194 176 116
-7.22 -17.20 -1.67 192 174 114
-7.26 -17.28 -1.63 193 181 142
-7.30 -17.35 -1.58 200 188 149
-7.34 -17.43 -1.54 218 209 180
-7.39 -17.50 -1.48 204 195 166
-7.44 -17.57 -1.42 175 172 159
-7.49 -17.64 -1.36 207 204 191
-7.54 -17.72 -1.30 206 206 206
-7.60 -17.79 -1.23 204 204 204
-7.66 -17.85 -1.16 182 182 179
-7.71 -17.92 -1.10 189 189 186
-7.76 -17.99 -1.04 156 149 133
-7.80 -18.07 -0.99 137 130 114
-7.84 -18.14 -0.95 214 202 165
-7.88 -18.21 -0.90 176 164 127
-7.92 -18.29 -0.85 156 139 88
-7.97 -18.35 -0.79 190 173 122
-8.01 -18.43 -0.75 196 176 117
-8.05 -18.50 -0.71 186 166 107
-8.08 -18.58 -0.67 175 154 113
-8.11 -18.65 -0.63 204 183 142
-8.14 -18.73 -0.59 181 160 135
-8.18 -18.80 -0.55 152 131 106
-8.22 -18.87 -0.50 132 114 93
-8.25 -18.94 -0.46 107 89 68
-8.28 -19.02 -0.43 126 112 94
-8.30 -19.10 -0.40 165 151 133
-8.33 -19.17 -0.37 129 119 109
-8.35 -19.25 -0.34 182 172 162
-8.37 -19.33 -0.32 187 177 176
-8.38 -19.41 -0.32 132 122 121
-8.34 -19.51 -0.36 189 179 183
-7.95 -19.75 -0.82 77 67 71
-7.26 -20.10 -1.63 48 50 47
-7.06 -20.27 -1.86 78 80 77
-7.05 -20.36 -1.87 117 119 116
-6.79 -20.55 -2.18 154 156 153
-6.31 -20.83 -2.73 190 192 189
-5.52 -21.25 -3.67 229 231 228
-5.16 -21.49 -4.09 244 246 243
-4.99 -21.65 -4.29 237 239 236
-4.89 -21.78 -4.40 232 234 231
-4.98 -21.84 -4.30 228 230 227
-4.98 -21.94 -4.30 225 227 224
-4.97 -22.04 -4.32 221 223 220
-4.95 -22.14 -4.33 220 222 219
-4.96 -22.23 -4.32 221 223 220
-4.94 -22.33 -4.34 225 227 224
-4.95 -22.42 -4.34 227 229 226
-4.94 -22.52 -4.35 223 225 222
-4.93 -22.62 -4.36 225 227 224
-4.93 -22.71 -4.36 225 227 224
-4.94 -22.81 -4.35 226 228 225
-4.95 -22.89 -4.33 226 228 225
-4.98 -22.98 -4.30 227 229 226
-4.98 -23.07 -4.30 227 229 226
-4.99 -23.16 -4.28 228 230 227
-5.01 -23.25 -4.26 225 227 224
-5.02 -23.34 -4.25 225 227 224
-5.03 -23.43 -4.24 225 227 224
-5.04 -23.52 -4.23 225 227 224
-5.04 -23.61 -4.23 225 227 224
-5.05 -23.70 -4.22 225 227 224
-5.04 -23.80 -4.23 225 227 224
-5.04 -23.89 -4.23 225 227 224
-5.04 -23.99 -4.23 227 229 226
-5.03 -24.09 -4.24 227 229 226
-5.03 -24.18 -4.24 227 229 226
-5.04 -24.27 -4.23 227 229 226
-5.05 -24.36 -4.22 227 229 226
-5.03 -24.46 -4.24 227 229 226
-5.04 -24.55 -4.23 227 229 226
-5.03 -24.65 -4.24 227 229 226
-5.03 -24.75 -4.24 228 230 227
-5.03 -24.84 -4.24 228 230 227
-5.04 -24.93 -4.23 228 230 227
-5.04 -25.02 -4.23 228 230 227
-5.05 -25.11 -4.22 228 230 227
-5.06 -25.20 -4.21 228 230 227
-5.06 -25.30 -4.20 228 230 227
-5.07 -25.38 -4.19 228 230 227
-5.08 -25.48 -4.19 228 230 227
-5.08 -25.57 -4.18 228 230 227
-5.09 -25.66 -4.17 228 230 227
-5.09 -25.75 -4.17 228 230 227
-5.09 -25.85 -4.17 228 230 227
-5.09 -25.94 -4.17 228 230 227
-5.09 -26.03 -4.17 228 230 227
-5.10 -26.13 -4.16 228 230 227
-5.10 -26.22 -4.16 228 230 227
-5.10 -26.31 -4.16 228 230 227
-5.10 -26.40 -4.15 228 230 227
-5.10 -26.50 -4.15 228 230 227
-5.11 -26.59 -4.14 228 230 227
-5.12 -26.68 -4.14 228 230 227
-5.13 -26.77 -4.13 228 230 227
-5.13 -26.86 -4.12 228 230 227
-5.14 -26.95 -4.12 228 230 227
-5.14 -27.04 -4.11 229 231 228
-5.14 -27.14 -4.11 230 232 229
-5.15 -27.23 -4.10 230 232 229
-5.15 -27.32 -4.10 230 232 229
-5.15 -27.41 -4.10 230 232 229
-5.16 -27.50 -4.09 230 232 229
-5.15 -27.60 -4.10 230 232 229
-5.16 -27.69 -4.09 230 232 229
-5.16 -27.79 -4.09 230 232 229
-5.16 -27.88 -4.09 230 232 229
-5.17 -27.97 -4.08 230 232 229
-5.16 -28.07 -4.09 230 232 229
-5.16 -28.16 -4.08 230 232 229
-5.16 -28.25 -4.08 230 232 229
-5.17 -28.34 -4.08 230 232 229
-5.17 -28.44 -4.08 229 231 228
-5.17 -28.53 -4.07 229 231 228
-5.18 -28.62 -4.07 229 231 228
-5.18 -28.71 -4.07 229 231 228
-5.18 -28.80 -4.06 229 231 228
-5.19 -28.89 -4.05 229 231 228
-5.19 -28.99 -4.05 229 231 228
-5.19 -29.08 -4.05 229 231 228
-5.19 -29.17 -4.05 229 231 228
-5.20 -29.26 -4.04 229 231 228
-5.20 -29.36 -4.05 229 231 228
-5.21 -29.45 -4.03 229 231 228
-5.21 -29.54 -4.03 229 231 228
-5.22 -29.63 -4.02 229 231 228
-5.23 -29.72 -4.01 229 231 228
-5.23 -29.80 -4.00 229 231 228
-5.24 -29.89 -3.99 229 231 228
-5.24 -29.99 -3.99 229 231 228
-5.24 -30.08 -3.99 229 231 228
-5.24 -30.17 -3.99 230 232 229
-5.25 -30.26 -3.98 230 232 229
-5.25 -30.36 -3.98 230 232 229
-5.25 -30.45 -3.98 230 232 229
-5.25 -30.54 -3.98 230 232 229
-5.26 -30.63 -3.97 230 232 229
-5.27 -30.72 -3.96 230 232 229
-5.27 -30.81 -3.96 230 232 229
-5.27 -30.90 -3.96 232 234 231
-5.28 -31.00 -3.95 232 234 231
-5.28 -31.09 -3.95 232 234 231
-5.28 -31.18 -3.95 232 234 231
-5.28 -31.27 -3.95 232 234 231
-5.28 -31.37 -3.95 233 235 232
-5.28 -31.46 -3.95 233 235 232
-5.28 -31.56 -3.95 234 236 233
-5.28 -31.65 -3.95 234 236 233
-5.28 -31.75 -3.95 235 237 234
-5.27 -31.84 -3.96 235 237 234
-5.27 -31.94 -3.96 236 238 235
-5.27 -32.03 -3.96 236 238 235
-5.27 -32.13 -3.96 235 237 234
-5.27 -32.22 -3.96 235 237 234
-5.27 -32.31 -3.96 235 237 234
-5.27 -32.40 -3.96 235 237 234
-5.27 -32.50 -3.96 235 237 234
-5.28 -32.59 -3.95 235 237 234
-5.28 -32.68 -3.95 235 237 234
-5.27 -32.78 -3.96 235 237 234
-5.27 -32.87 -3.96 238 238 235
-5.27 -32.97 -3.96 238 238 235
-5.27 -33.06 -3.96 239 239 236
-5.27 -33.15 -3.96 239 239 236
-5.27 -33.25 -3.96 241 241 238
-5.28 -33.34 -3.95 241 241 238
-5.28 -33.43 -3.95 241 241 238
-5.28 -33.52 -3.95 243 243 240
-5.27 -33.62 -3.96 243 243 240
-5.28 -33.71 -3.95 243 243 240
-5.27 -33.81 -3.96 243 243 240
-5.28 -33.90 -3.95 243 243 240
-5.28 -33.99 -3.94 243 243 240
-5.28 -34.08 -3.94 243 243 240
-5.29 -34.17 -3.93 243 243 240
-5.29 -34.27 -3.94 243 243 240
-5.29 -34.36 -3.94 243 243 240
-5.30 -34.44 -3.92 244 244 241
-5.30 -34.53 -3.92 242 244 241
-5.30 -34.63 -3.93 242 244 241
-5.31 -34.72 -3.91 242 244 241
-5.31 -34.81 -3.91 242 244 241
-5.31 -34.91 -3.92 242 244 241
-5.31 -35.00 -3.92 242 244 241
-5.29 -35.10 -3.93 242 244 241
-5.29 -35.20 -3.94 242 244 241
-5.29 -35.29 -3.93 242 244 241
-5.29 -35.39 -3.93 242 244 241
-5.30 -35.47 -3.92 242 244 241
-5.32 -35.55 -3.90 242 244 241
-5.37 -35.61 -3.85 242 244 241
-5.42 -35.65 -3.78 242 244 241
-5.45 -35.72 -3.75 245 245 242
-5.49 -35.79 -3.70 243 243 240
-5.43 -35.93 -3.78 239 237 235
-5.43 -36.02 -3.77 243 241 239
-5.39 -36.15 -3.82 247 242 241
-5.45 -36.19 -3.74 255 250 249
-5.32 -36.39 -3.90 225 220 219
-5.22 22.68 -4.15 144 133 126
-5.18 22.63 -4.20 144 133 126
-5.19 22.52 -4.19 144 133 126
-5.18 22.44 -4.20 144 133 126
-5.20 22.33 -4.18 144 133 126
-5.21 22.22 -4.16 144 133 126
-5.20 22.14 -4.18 144 133 126
-5.18 22.06 -4.20 144 133 126
-5.18 21.97 -4.20 144 133 126
-5.17 21.88 -4.21 144 133 126
-5.17 21.79 -4.21 144 133 126
-5.17 21.70 -4.22 144 133 126
-5.16 21.61 -4.22 145 134 127
-5.16 21.51 -4.22 145 134 127
-5.16 21.42 -4.23 145 134 127
-5.15 21.34 -4.24 145 134 127
-5.14 21.25 -4.25 144 135 127
-5.13 21.16 -4.26 144 135 127
-5.12 21.07 -4.27 144 135 129
-5.13 20.98 -4.26 143 134 128
-5.12 20.89 -4.27 137 131 124
-5.11 20.80 -4.28 134 128 121
-5.11 20.71 -4.28 132 126 119
-5.11 20.61 -4.29 127 121 114
-5.11 20.52 -4.29 125 119 112
-5.10 20.43 -4.29 122 116 109
-5.09 20.34 -4.30 119 115 109
-5.09 20.25 -4.31 118 114 108
-5.08 20.17 -4.32 118 114 108
-5.07 20.08 -4.33 118 114 108
-5.06 19.99 -4.34 118 114 108
-5.06 19.90 -4.34 118 114 108
-5.05 19.81 -4.35 118 114 106
-5.05 19.72 -4.35 118 114 106
-5.04 19.63 -4.36 118 114 106
-5.04 19.53 -4.36 118 114 106
-5.04 19.45 -4.37 118 114 106
-5.03 19.36 -4.38 118 114 106
-5.03 19.26 -4.38 118 114 106
-5.02 19.17 -4.39 118 114 106
-5.01 19.09 -4.40 119 115 107
-5.01 18.99 -4.41 119 115 107
-5.01 18.90 -4.40 119 115 107
-5.00 18.81 -4.41 119 115 107
-5.00 18.72 -4.41 119 115 107
-4.99 18.63 -4.43 119 115 107
-4.98 18.54 -4.43 119 115 107
-4.98 18.45 -4.44 119 115 107
-4.97 18.36 -4.45 120 116 110
-4.97 18.27 -4.45 120 116 110
-4.95 18.18 -4.47 120 116 110
-4.94 18.09 -4.48 120 116 110
-4.94 18.01 -4.49 119 115 109
-4.93 17.91 -4.49 119 115 109
-4.92 17.83 -4.51 119 115 109
-4.91 17.74 -4.52 120 116 110
-4.90 17.65 -4.53 120 116 108
-4.90 17.56 -4.54 121 117 109
-4.89 17.47 -4.54 123 122 113
-4.89 17.37 -4.54 129 128 119
-4.89 17.28 -4.54 132 131 122
-4.88 17.19 -4.55 136 135 126
-4.88 17.10 -4.55 139 138 129
-4.88 17.00 -4.55 144 143 134
-4.88 16.91 -4.55 151 145 138
-4.87 16.82 -4.56 153 147 140
-4.87 16.72 -4.56 153 147 140
-4.87 16.63 -4.57 153 147 140
-4.86 16.54 -4.57 154 148 141
-4.86 16.45 -4.58 154 148 141
-4.86 16.35 -4.58 153 149 141
-4.85 16.26 -4.59 153 149 141
-4.84 16.17 -4.60 154 150 142
-4.84 16.08 -4.60 154 150 142
-4.84 15.98 -4.60 152 151 142
-4.84 15.89 -4.60 152 151 142
-4.84 15.79 -4.60 152 151 142
-4.84 15.70 -4.60 152 151 142
-4.84 15.60 -4.60 151 152 142
-4.83 15.52 -4.62 151 152 142
-4.83 15.42 -4.62 156 152 144
-4.82 15.33 -4.62 156 152 144
-4.82 15.24 -4.63 156 152 144
-4.81 15.15 -4.63 156 152 144
-4.81 15.06 -4.64 156 152 144
-4.81 14.96 -4.64 157 153 145
-4.80 14.87 -4.65 159 155 147
-4.80 14.77 -4.64 159 155 147
-4.80 14.68 -4.64 159 155 147
-4.79 14.59 -4.66 159 155 147
-4.79 14.50 -4.66 159 155 147
-4.78 14.41 -4.67 159 155 147
-4.79 14.31 -4.66 159 155 147
-4.79 14.21 -4.67 160 156 148
-4.78 14.12 -4.67 160 156 148
-4.79 14.02 -4.66 160 156 148
-4.78 13.93 -4.67 160 156 148
-4.78 13.84 -4.67 161 157 149
-4.78 13.74 -4.67 161 157 149
-4.78 13.65 -4.67 161 157 149
-4.78 13.55 -4.67 161 157 149
-4.77 13.46 -4.69 161 157 149
-4.77 13.37 -4.68 161 157 149
-4.76 13.28 -4.69 162 158 150
-4.77 13.18 -4.69 161 157 149
-4.76 13.09 -4.70 161 157 149
-4.76 12.99 -4.69 161 157 149
-4.76 12.90 -4.70 162 158 150
-4.75 12.81 -4.71 163 159 151
-4.75 12.71 -4.71 163 159 151
-4.74 12.62 -4.71 164 160 152
-4.74 12.53 -4.72 166 162 154
-4.74 12.43 -4.72 166 162 154
-4.73 12.34 -4.73 166 162 154
-4.73 12.24 -4.73 166 162 154
-4.73 12.15 -4.73 166 162 154
-4.72 12.06 -4.74 166 162 154
-4.72 11.96 -4.74 166 162 154
-4.72 11.87 -4.74 167 163 155
-4.72 11.78 -4.74 167 163 155
-4.72 11.68 -4.74 167 163 155
-4.72 11.59 -4.74 167 163 155
-4.72 11.49 -4.74 167 163 155
-4.72 11.40 -4.74 167 163 155
-4.72 11.30 -4.74 165 164 155
-4.71 11.21 -4.75 165 164 155
-4.72 11.11 -4.75 166 165 156
-4.70 11.02 -4.76 166 165 156
-4.70 10.93 -4.76 166 165 156
-4.70 10.83 -4.77 166 165 156
-4.69 10.74 -4.77 166 165 156
-4.70 10.64 -4.77 167 166 157
-4.70 10.55 -4.77 167 166 157
