ply
format ascii 1.0
element vertex 1556
property float x
property float y
property float z
property uchar red
property uchar green
property uchar blue
end_header
-13.25 14.92 -2.13 141 136 138
-13.25 14.84 -2.13 141 136 138
-13.26 14.75 -2.11 142 135 135
-13.27 14.66 -2.10 143 136 136
-13.27 14.58 -2.10 145 136 128
-13.27 14.50 -2.10 146 137 129
-13.27 14.42 -2.10 146 137 129
-13.26 14.35 -2.11 148 139 131
-13.26 14.28 -2.12 149 137 142
-13.25 14.20 -2.13 150 138 143
-13.25 14.13 -2.13 148 138 142
-13.24 14.05 -2.14 149 139 143
-13.24 13.97 -2.14 149 139 140
-13.24 13.89 -2.14 149 139 140
-13.25 13.81 -2.14 147 140 140
-13.25 13.73 -2.14 147 140 140
-13.24 13.66 -2.14 147 140 140
-13.24 13.58 -2.14 148 141 141
-13.23 13.51 -2.15 148 141 141
-13.23 13.43 -2.15 149 142 142
-13.22 13.36 -2.17 149 142 142
-13.22 13.28 -2.18 150 143 143
-13.22 13.20 -2.17 150 143 143
-13.22 13.12 -2.18 151 144 144
-13.22 13.04 -2.17 153 146 146
-13.22 12.96 -2.17 154 147 147
-13.22 12.88 -2.17 153 146 149
-13.22 12.80 -2.17 153 146 149
-13.23 12.72 -2.16 153 146 149
-13.23 12.64 -2.16 153 146 149
-13.23 12.56 -2.16 154 147 150
-13.22 12.48 -2.17 155 148 151
-13.22 12.41 -2.17 155 148 151
-13.22 12.33 -2.18 155 148 151
-13.21 12.26 -2.18 155 148 151
-13.21 12.18 -2.19 155 148 151
-13.20 12.11 -2.21 155 148 151
-13.20 12.03 -2.21 155 148 151
-13.20 11.95 -2.21 156 149 149
-13.19 11.87 -2.21 156 149 149
-13.20 11.79 -2.21 156 151 150
-13.20 11.71 -2.21 157 152 151
-13.19 11.64 -2.22 156 151 153
-13.19 11.56 -2.21 157 152 154
-13.20 11.47 -2.20 157 152 154
-13.20 11.39 -2.20 159 154 156
-13.20 11.31 -2.20 159 154 156
-13.20 11.23 -2.20 160 155 157
-13.21 11.15 -2.19 160 155 157
-13.21 11.07 -2.19 161 156 158
-13.20 11.00 -2.20 160 155 157
-13.19 10.92 -2.21 161 156 158
-13.19 10.85 -2.22 161 156 158
-13.18 10.77 -2.23 162 157 159
-13.18 10.69 -2.23 162 157 159
-13.19 10.61 -2.22 163 158 160
-13.18 10.53 -2.23 163 158 160
-13.18 10.46 -2.23 164 159 161
-13.18 10.38 -2.23 162 157 156
-13.18 10.30 -2.24 163 158 157
-13.18 10.22 -2.23 163 158 157
-13.18 10.14 -2.24 164 159 158
-13.18 10.06 -2.23 164 159 158
-13.18 9.98 -2.24 166 161 160
-13.18 9.90 -2.24 166 161 160
-13.18 9.82 -2.23 167 162 161
-13.17 9.75 -2.24 167 162 161
-13.17 9.67 -2.24 167 162 161
-13.17 9.59 -2.25 167 162 161
-13.17 9.51 -2.25 167 162 161
-13.17 9.43 -2.25 167 162 161
-13.16 9.36 -2.26 167 162 161
-13.15 9.28 -2.27 167 162 161
-13.15 9.21 -2.27 167 162 161
-13.15 9.13 -2.27 168 163 165
-13.15 9.05 -2.27 168 163 165
-13.15 8.97 -2.27 168 163 165
-13.15 8.89 -2.27 168 163 165
-13.15 8.81 -2.27 168 163 165
-13.15 8.73 -2.27 168 163 165
-13.15 8.65 -2.27 168 163 165
-13.16 8.57 -2.27 168 163 165
-13.16 8.49 -2.27 167 162 164
-13.15 8.41 -2.27 167 162 164
-13.15 8.33 -2.27 167 162 164
-13.15 8.25 -2.27 167 162 164
-13.15 8.17 -2.27 167 162 164
-13.15 8.09 -2.27 167 162 164
-13.15 8.01 -2.27 167 162 164
-13.15 7.94 -2.27 167 162 164
-13.15 7.86 -2.27 164 160 169
-13.14 7.78 -2.28 165 161 170
-13.14 7.70 -2.28 165 162 166
-13.14 7.62 -2.28 165 162 166
-13.14 7.54 -2.28 165 162 166
-13.15 7.46 -2.27 165 162 166
-13.15 7.38 -2.27 166 164 165
-13.15 7.30 -2.27 167 165 166
-13.14 7.22 -2.28 169 163 170
-13.15 7.14 -2.27 170 164 171
-13.15 7.06 -2.27 169 166 170
-13.15 6.98 -2.28 172 169 173
-13.15 6.91 -2.28 175 172 176
-13.14 6.83 -2.29 176 173 177
-13.14 6.75 -2.29 177 174 180
-13.14 6.67 -2.28 179 176 182
-13.15 6.59 -2.27 177 175 176
-13.15 6.50 -2.27 180 178 179
-13.15 6.43 -2.27 180 177 181
-13.14 6.35 -2.28 180 177 181
-13.15 6.27 -2.27 181 178 182
-13.15 6.19 -2.27 181 178 182
-13.15 6.11 -2.27 181 178 182
-13.15 6.03 -2.27 182 179 183
-13.15 5.95 -2.27 182 181 184
-13.15 5.87 -2.27 182 181 184
-13.15 5.79 -2.27 184 181 185
-13.15 5.71 -2.28 186 183 187
-13.14 5.64 -2.28 186 183 187
-13.14 5.56 -2.29 186 183 187
-13.14 5.48 -2.29 184 181 185
-13.13 5.40 -2.30 186 183 187
-13.13 5.32 -2.30 183 182 185
-13.13 5.25 -2.30 183 182 185
-13.13 5.17 -2.31 183 182 185
-13.13 5.08 -2.30 183 182 185
-13.14 5.00 -2.29 183 182 185
-13.14 4.92 -2.29 183 182 185
-13.14 4.84 -2.29 183 182 185
-13.14 4.77 -2.29 183 182 185
-13.14 4.69 -2.29 183 182 185
-13.14 4.61 -2.29 183 182 185
-13.14 4.53 -2.29 183 182 185
-13.14 4.45 -2.29 182 181 184
-13.13 4.37 -2.30 181 180 183
-13.13 4.29 -2.30 181 180 183
-13.13 4.21 -2.30 180 179 182
-13.13 4.13 -2.30 180 179 182
-13.13 4.06 -2.31 180 179 182
-13.13 3.98 -2.31 180 179 182
-13.12 3.90 -2.32 180 179 182
-13.13 3.82 -2.31 180 179 182
-13.12 3.74 -2.32 179 178 181
-13.12 3.66 -2.32 179 178 181
-13.13 3.58 -2.31 178 177 180
-13.13 3.50 -2.31 178 177 180
-13.13 3.42 -2.31 176 175 178
-13.13 3.34 -2.31 176 175 178
-13.13 3.26 -2.30 176 175 178
-13.13 3.18 -2.30 176 175 178
-13.14 3.10 -2.29 175 174 177
-13.14 3.02 -2.29 175 174 177
-13.15 2.94 -2.28 175 174 177
-13.14 2.86 -2.28 174 173 176
-13.15 2.78 -2.28 174 173 178
-13.15 2.70 -2.27 174 173 178
-13.15 2.62 -2.27 173 172 177
-13.15 2.54 -2.28 173 172 177
-13.15 2.46 -2.27 173 172 177
-13.16 2.37 -2.26 173 172 177
-13.16 2.30 -2.27 173 172 177
-13.16 2.22 -2.27 173 172 177
-13.16 2.14 -2.26 173 172 177
-13.17 2.06 -2.25 172 171 176
-13.17 1.98 -2.25 171 170 175
-13.17 1.90 -2.25 171 170 175
-13.17 1.82 -2.25 171 170 175
-13.17 1.74 -2.25 171 170 175
-13.17 1.66 -2.24 171 170 175
-13.18 1.58 -2.24 171 170 175
-13.17 1.50 -2.24 171 170 173
-13.18 1.42 -2.23 171 170 173
-13.18 1.34 -2.23 171 170 173
-13.18 1.26 -2.23 171 170 173
-13.18 1.18 -2.23 171 170 173
-13.18 1.10 -2.23 171 170 173
-13.19 1.02 -2.22 171 170 173
-13.20 0.93 -2.21 171 170 173
-13.19 0.86 -2.21 170 169 172
-13.20 0.78 -2.20 170 169 172
-13.20 0.70 -2.20 170 169 172
-13.21 0.61 -2.19 170 169 172
-13.21 0.54 -2.19 170 169 172
-13.21 0.46 -2.19 170 169 172
-13.21 0.38 -2.18 170 169 172
-13.21 0.30 -2.18 170 169 172
-13.22 0.22 -2.18 170 170 170
-13.22 0.14 -2.18 170 170 170
-13.22 0.06 -2.18 170 170 170
-13.22 -0.02 -2.18 170 170 170
-13.23 -0.10 -2.16 170 170 170
-13.23 -0.18 -2.15 170 170 170
-13.24 -0.26 -2.15 170 170 170
-13.25 -0.35 -2.13 170 170 170
-13.25 -0.43 -2.13 170 170 170
-13.26 -0.51 -2.12 170 170 170
-13.26 -0.59 -2.12 170 170 170
-13.26 -0.67 -2.11 170 170 170
-13.26 -0.75 -2.11 170 170 170
-13.27 -0.83 -2.10 170 170 170
-13.28 -0.91 -2.09 170 170 170
-13.28 -0.99 -2.09 170 170 170
-13.28 -1.07 -2.08 168 169 172
-13.29 -1.15 -2.08 168 169 172
-13.30 -1.23 -2.06 168 169 172
-13.30 -1.31 -2.06 168 169 172
-13.30 -1.39 -2.05 168 169 172
-13.31 -1.47 -2.04 168 169 172
-13.31 -1.55 -2.04 168 169 172
-13.31 -1.63 -2.04 168 169 172
-13.31 -1.71 -2.04 168 169 172
-13.32 -1.79 -2.03 168 169 172
-13.32 -1.86 -2.03 168 169 172
-13.32 -1.94 -2.02 168 169 172
-13.33 -2.02 -2.01 168 169 172
-13.34 -2.10 -2.01 168 169 172
-13.34 -2.18 -2.01 168 169 172
-13.34 -2.26 -2.00 169 170 173
-13.34 -2.34 -2.01 168 169 172
-13.34 -2.42 -2.01 168 169 172
-13.34 -2.50 -2.00 168 169 172
-13.33 -2.58 -2.01 168 169 172
-13.33 -2.66 -2.01 168 169 172
-13.33 -2.73 -2.01 168 169 172
-13.34 -2.81 -2.01 168 169 172
-13.33 -2.89 -2.01 168 169 172
-13.33 -2.97 -2.02 169 170 173
-13.33 -3.05 -2.02 169 170 173
-13.33 -3.13 -2.01 169 170 173
-13.33 -3.21 -2.01 169 170 173
-13.34 -3.29 -2.00 169 170 173
-13.34 -3.37 -2.00 169 170 173
-13.34 -3.45 -1.99 169 170 173
-13.34 -3.52 -2.00 169 170 173
-13.34 -3.60 -1.99 172 171 176
-13.34 -3.68 -2.00 172 171 176
-13.34 -3.76 -2.00 172 171 176
-13.34 -3.84 -2.00 172 171 176
-13.34 -3.92 -2.00 172 171 176
-13.34 -4.00 -2.00 172 171 176
-13.35 -4.08 -1.99 172 171 176
-13.35 -4.16 -1.99 172 171 176
-13.34 -4.23 -1.99 173 172 177
-13.36 -4.31 -1.97 173 172 177
-13.35 -4.39 -1.98 173 172 177
-13.35 -4.47 -1.99 173 172 177
-13.35 -4.55 -1.99 173 172 177
-13.34 -4.63 -2.00 173 172 177
-13.33 -4.71 -2.01 173 172 177
-13.34 -4.78 -2.01 173 172 177
-13.33 -4.86 -2.01 169 173 177
-13.33 -4.94 -2.01 169 173 177
-13.33 -5.02 -2.01 169 173 177
-13.32 -5.10 -2.02 169 173 177
-13.33 -5.18 -2.02 169 173 177
-13.33 -5.26 -2.01 169 173 177
-13.32 -5.34 -2.02 169 173 177
-13.34 -5.42 -2.00 169 173 177
-13.34 -5.50 -1.99 167 171 175
-13.35 -5.57 -1.98 175 179 183
-13.33 -5.65 -2.01 171 175 179
-13.30 -5.73 -2.05 169 173 177
-13.30 -5.81 -2.06 157 161 165
-13.42 -5.89 -1.88 156 160 164
-13.65 -5.98 -1.55 195 199 203
-13.90 -6.07 -1.19 240 244 248
-13.97 -6.16 -1.08 250 250 250
-14.00 -6.23 -1.04 250 250 250
-13.99 -6.31 -1.06 248 250 250
-13.99 -6.39 -1.05 248 250 250
-14.02 -6.46 -1.01 248 250 250
-14.03 -6.54 -1.00 248 250 250
-14.02 -6.62 -1.00 246 251 250
-14.03 -6.70 -1.00 246 251 250
-14.02 -6.77 -1.00 247 252 251
-14.01 -6.85 -1.02 247 252 251
-14.01 -6.93 -1.03 246 253 251
-14.00 -7.00 -1.04 246 253 251
-13.99 -7.08 -1.05 246 253 251
-13.99 -7.16 -1.05 246 253 251
-13.98 -7.23 -1.06 244 254 251
-13.98 -7.31 -1.06 244 254 251
-13.98 -7.39 -1.07 246 253 251
-13.98 -7.46 -1.07 246 253 251
-13.97 -7.54 -1.08 246 253 251
-13.97 -7.62 -1.09 246 253 251
-13.97 -7.69 -1.08 246 253 251
-13.96 -7.77 -1.10 246 253 251
-13.96 -7.85 -1.09 246 253 251
-13.95 -7.93 -1.11 246 253 251
-13.95 -8.00 -1.11 245 252 250
-13.94 -8.08 -1.12 245 252 250
-13.94 -8.16 -1.13 245 252 250
-13.94 -8.23 -1.12 245 252 250
-13.94 -8.31 -1.13 245 252 250
-13.94 -8.39 -1.12 245 252 250
-13.94 -8.47 -1.13 245 252 250
-13.94 -8.54 -1.13 245 252 250
-13.94 -8.62 -1.13 245 252 250
-13.94 -8.70 -1.13 245 252 250
-13.94 -8.77 -1.13 245 252 250
-13.94 -8.85 -1.13 245 252 250
-13.94 -8.93 -1.13 245 252 250
-13.94 -9.00 -1.13 245 252 250
-13.94 -9.08 -1.12 245 252 250
-13.94 -9.16 -1.12 245 252 250
-13.94 -9.24 -1.12 245 252 250
-13.94 -9.31 -1.12 245 252 250
-13.94 -9.39 -1.12 245 252 250
-13.94 -9.47 -1.12 245 252 250
-13.95 -9.54 -1.11 245 252 250
-13.95 -9.62 -1.11 245 252 250
-13.95 -9.70 -1.11 245 252 250
-13.96 -9.77 -1.10 245 252 250
-13.96 -9.85 -1.09 247 252 251
-13.97 -9.93 -1.09 247 252 251
-13.97 -10.00 -1.08 247 252 251
-13.97 -10.08 -1.08 247 252 251
-13.99 -10.15 -1.05 247 252 251
-14.00 -10.23 -1.03 247 252 251
-14.01 -10.31 -1.02 247 252 251
-14.02 -10.38 -1.00 247 252 251
-14.03 -10.46 -1.00 246 251 250
-14.05 -10.53 -0.97 239 244 243
-14.05 -10.61 -0.96 248 253 252
-14.06 -10.68 -0.95 246 251 250
-14.07 -10.76 -0.93 248 253 252
-14.08 -10.83 -0.92 249 254 253
-14.10 -10.91 -0.89 246 251 250
-14.10 -10.98 -0.89 244 249 248
-14.11 -11.06 -0.88 249 249 249
-14.11 -11.14 -0.87 250 250 250
-14.12 -11.21 -0.86 252 252 252
-14.14 -11.28 -0.83 249 249 249
-14.14 -11.36 -0.83 251 251 251
-14.14 -11.44 -0.83 249 249 249
-14.16 -11.51 -0.80 249 249 249
-14.23 -11.58 -0.71 248 248 248
-14.30 -11.64 -0.60 251 251 251
-14.43 -11.70 -0.42 242 242 242
-14.60 -11.74 -0.17 217 217 217
-14.75 -11.79 0.06 193 193 193
-14.95 -11.83 0.34 163 163 163
-15.07 -11.88 0.52 96 96 96
-15.11 -11.95 0.58 45 45 45
-15.12 -12.02 0.60 15 15 15
-15.11 -12.09 0.58 14 17 26
-15.06 -12.18 0.50 21 24 33
-15.02 -12.26 0.45 39 42 51
-15.02 -12.33 0.45 44 47 56
-15.04 -12.40 0.47 44 47 56
-15.06 -12.47 0.51 32 35 44
-15.07 -12.55 0.51 35 38 47
-15.08 -12.62 0.53 41 44 53
-15.09 -12.69 0.56 40 43 52
-15.12 -12.75 0.59 35 38 47
-15.13 -12.83 0.60 35 38 47
-15.12 -12.90 0.60 37 40 49
-15.13 -12.97 0.61 34 37 46
-15.13 -13.05 0.61 30 33 42
-15.14 -13.12 0.62 34 37 46
-15.14 -13.19 0.62 40 43 52
-15.11 -13.27 0.58 44 48 52
-15.07 -13.35 0.52 28 32 36
-15.00 -13.44 0.42 28 32 34
-14.93 -13.54 0.32 15 19 21
-14.86 -13.63 0.22 25 29 31
-14.67 -13.75 -0.06 106 110 112
-14.45 -13.88 -0.38 246 251 250
-14.34 -13.99 -0.55 241 246 245
-14.29 -14.07 -0.62 246 251 250
-14.26 -14.16 -0.66 246 251 250
-14.24 -14.24 -0.69 246 251 247
-14.22 -14.32 -0.71 246 251 247
-14.21 -14.40 -0.73 246 251 247
-14.20 -14.48 -0.74 246 251 247
-14.19 -14.56 -0.76 246 251 245
-14.18 -14.64 -0.77 246 251 245
-14.17 -14.72 -0.79 248 250 247
-14.16 -14.80 -0.81 248 250 247
-14.15 -14.87 -0.82 248 250 247
-14.14 -14.95 -0.83 248 250 247
-14.14 -15.03 -0.84 248 250 247
-14.15 -15.10 -0.82 248 250 247
-14.16 -15.18 -0.81 248 250 247
-14.17 -15.25 -0.79 248 250 247
-14.18 -15.32 -0.77 248 250 247
-14.20 -15.40 -0.75 248 250 247
-14.21 -15.47 -0.74 248 250 247
-14.21 -15.55 -0.74 248 250 247
-14.22 -15.62 -0.72 248 250 247
-14.21 -15.70 -0.74 248 250 247
-14.21 -15.77 -0.73 248 250 247
-14.19 -15.86 -0.76 248 250 247
-14.13 -15.95 -0.85 243 242 245
-14.04 -16.06 -0.99 241 240 243
-13.93 -16.17 -1.14 228 227 230
-13.80 -16.29 -1.32 208 207 210
-13.72 -16.40 -1.44 192 191 194
-13.68 -16.49 -1.50 187 186 189
-13.66 -16.58 -1.54 189 188 191
-13.66 -16.65 -1.54 193 192 195
-13.66 -16.73 -1.53 188 187 190
-13.66 -16.81 -1.54 192 191 194
-13.66 -16.89 -1.53 196 195 198
-13.66 -16.96 -1.53 197 196 199
-13.67 -17.04 -1.52 197 196 199
-13.67 -17.12 -1.52 195 194 197
-13.67 -17.19 -1.52 194 193 196
-13.67 -17.27 -1.51 193 192 195
-13.67 -17.35 -1.52 194 193 198
-13.67 -17.43 -1.52 194 193 198
-13.65 -17.51 -1.55 194 193 198
-13.65 -17.59 -1.55 194 193 198
-13.64 -17.67 -1.56 194 193 198
-13.65 -17.75 -1.55 194 193 198
-13.64 -17.83 -1.56 194 193 198
-13.63 -17.91 -1.57 194 193 198
-13.63 -17.99 -1.57 194 193 198
-13.63 -18.07 -1.58 194 193 198
-13.62 -18.15 -1.59 194 193 198
-13.62 -18.23 -1.59 194 193 198
-13.62 -18.31 -1.60 194 193 198
-13.62 -18.38 -1.60 194 193 198
-13.61 -18.46 -1.60 194 193 198
-13.61 -18.54 -1.60 194 193 198
-13.60 -18.62 -1.61 195 194 199
-13.61 -18.70 -1.61 195 194 199
-13.61 -18.78 -1.60 195 194 199
-13.61 -18.86 -1.61 195 194 199
-13.61 -18.93 -1.60 195 194 199
-13.62 -19.01 -1.59 195 194 199
-13.62 -19.09 -1.59 195 194 199
-13.63 -19.16 -1.57 195 194 199
-13.63 -19.24 -1.58 195 194 199
-13.63 -19.31 -1.57 193 192 197
-13.64 -19.39 -1.56 190 189 194
-13.65 -19.46 -1.55 188 187 192
-13.67 -19.53 -1.52 187 186 191
-13.68 -19.60 -1.50 183 182 187
-13.69 -19.67 -1.48 178 177 182
-13.71 -19.74 -1.46 174 173 178
-13.72 -19.82 -1.45 179 178 183
-13.72 -19.89 -1.44 171 170 175
-13.73 -19.97 -1.43 166 165 170
-13.75 -20.04 -1.40 160 159 164
-13.77 -20.10 -1.37 150 149 154
-13.79 -20.17 -1.35 147 146 151
-13.79 -20.25 -1.35 67 66 71
-13.75 -20.35 -1.41 29 28 33
-13.66 -20.47 -1.54 41 40 45
-13.59 -20.58 -1.64 45 44 49
-13.53 -20.69 -1.72 48 47 52
-13.54 -20.76 -1.71 53 52 57
-13.64 -20.79 -1.56 54 53 58
-13.95 -20.71 -1.11 53 52 57
-14.65 -20.42 -0.08 52 51 56
-15.04 -20.30 0.47 50 49 54
-15.01 -20.38 0.44 49 50 55
-14.93 -20.50 0.31 41 42 47
-14.98 -20.55 0.39 18 21 43
-15.06 -20.58 0.51 1 4 26
-15.05 -20.66 0.50 10 15 64
-15.05 -20.73 0.50 50 55 104
-15.03 -20.82 0.46 46 53 117
-15.02 -20.90 0.45 39 46 110
-15.00 -20.98 0.42 31 40 108
-14.97 -21.07 0.37 26 35 103
-14.94 -21.16 0.33 21 32 88
-14.92 -21.25 0.30 18 29 85
-14.92 -21.32 0.31 4 13 63
-14.91 -21.40 0.29 19 28 78
-14.92 -21.47 0.30 43 51 97
-14.92 -21.54 0.30 34 42 88
-14.90 -21.63 0.27 37 39 82
-14.86 -21.72 0.22 38 40 83
-14.82 -21.82 0.16 34 36 81
-14.80 -21.91 0.13 33 35 80
-14.81 -21.98 0.14 36 35 79
-14.81 -22.05 0.15 36 35 79
-14.80 -22.13 0.13 40 38 76
-14.77 -22.23 0.08 46 44 82
-14.61 -22.39 -0.15 52 49 78
-14.18 -22.72 -0.77 78 75 104
-13.69 -23.10 -1.49 149 146 163
-13.59 -23.23 -1.63 166 163 180
-13.60 -23.31 -1.63 162 158 169
-13.55 -23.41 -1.69 167 163 174
-13.55 -23.50 -1.70 176 170 175
-13.55 -23.57 -1.70 181 175 180
-13.56 -23.65 -1.68 170 164 171
-13.58 -23.71 -1.64 162 156 163
-13.60 -23.78 -1.63 150 144 151
-13.60 -23.86 -1.62 145 139 146
-13.60 -23.93 -1.62 146 140 147
-13.60 -24.01 -1.63 148 142 149
-13.60 -24.09 -1.62 148 142 149
-13.60 -24.17 -1.62 147 141 148
-13.59 -24.25 -1.63 148 142 149
-13.58 -24.33 -1.64 133 127 134
-13.59 -24.41 -1.64 112 106 113
-13.60 -24.48 -1.62 92 86 93
-13.62 -24.54 -1.59 77 71 78
-13.66 -24.59 -1.53 67 61 68
-13.71 -24.64 -1.46 62 56 63
-13.78 -24.67 -1.35 62 56 63
-13.85 -24.70 -1.25 63 55 63
-13.88 -24.76 -1.22 68 60 68
-13.91 -24.82 -1.17 73 65 73
-13.99 -24.84 -1.06 66 58 66
-14.04 -24.88 -0.97 75 67 75
-14.10 -24.92 -0.89 75 67 75
-14.13 -24.97 -0.85 66 58 66
-14.16 -25.03 -0.81 55 47 55
-14.18 -25.10 -0.78 49 41 49
-14.19 -25.16 -0.76 55 47 55
-14.19 -25.24 -0.76 66 58 66
-14.21 -25.30 -0.74 84 76 84
-14.22 -25.37 -0.72 112 104 112
-14.23 -25.44 -0.70 147 139 147
-14.24 -25.51 -0.69 182 174 182
-14.25 -25.58 -0.67 208 200 208
-14.26 -25.65 -0.66 211 205 210
-14.27 -25.72 -0.64 212 206 211
-14.28 -25.79 -0.64 216 210 215
-14.28 -25.86 -0.62 218 212 217
-14.29 -25.93 -0.61 213 207 212
-14.29 -26.00 -0.61 205 199 204
-14.30 -26.07 -0.60 204 198 203
-14.30 -26.15 -0.59 207 201 206
-14.30 -26.22 -0.60 210 204 209
-14.30 -26.30 -0.60 209 203 208
-14.29 -26.38 -0.61 209 203 208
-14.30 -26.46 -0.61 210 204 209
-14.30 -26.53 -0.60 209 203 208
-14.30 -26.61 -0.61 207 201 206
-14.29 -26.69 -0.61 211 205 210
-14.29 -26.76 -0.61 214 208 213
-14.29 -26.84 -0.61 213 205 211
-14.29 -26.92 -0.61 212 204 210
-14.29 -26.99 -0.61 212 205 208
-14.29 -27.07 -0.62 212 205 208
-14.29 -27.14 -0.61 213 206 209
-14.29 -27.22 -0.61 215 208 211
-14.30 -27.29 -0.61 214 207 210
-14.29 -27.37 -0.61 213 206 209
-14.30 -27.44 -0.60 214 207 210
-14.30 -27.52 -0.61 214 207 210
-14.29 -27.60 -0.61 214 207 210
-14.29 -27.68 -0.61 214 207 210
-14.28 -27.76 -0.62 214 207 210
-14.28 -27.84 -0.63 214 207 210
-14.27 -27.92 -0.64 214 206 212
-14.26 -28.00 -0.65 214 206 212
-14.26 -28.08 -0.66 214 206 212
-14.25 -28.17 -0.68 214 206 212
-14.24 -28.25 -0.69 214 206 212
-14.24 -28.32 -0.69 214 206 212
-14.25 -28.40 -0.68 214 206 212
-14.25 -28.47 -0.67 214 206 212
-14.25 -28.54 -0.67 214 206 212
-14.25 -28.62 -0.67 214 206 212
-14.25 -28.70 -0.67 215 207 213
-14.25 -28.78 -0.68 215 207 213
-14.25 -28.85 -0.67 215 207 213
-14.26 -28.92 -0.66 215 207 213
-14.26 -28.99 -0.66 215 207 213
-14.26 -29.07 -0.65 215 207 213
-14.26 -29.14 -0.65 215 207 213
-14.26 -29.22 -0.65 215 207 213
-14.25 -29.31 -0.68 215 207 213
-14.25 -29.39 -0.68 215 207 213
-14.24 -29.47 -0.69 215 207 213
-14.24 -29.54 -0.69 215 207 213
-14.25 -29.61 -0.67 215 207 213
-14.27 -29.67 -0.65 215 207 213
-14.28 -29.74 -0.64 215 207 213
-14.29 -29.80 -0.61 215 207 213
-14.30 -29.87 -0.60 215 207 213
-14.30 -29.95 -0.60 215 207 213
-14.31 -30.01 -0.59 215 207 213
-14.32 -30.08 -0.57 215 207 213
-14.33 -30.15 -0.56 215 207 213
-14.32 -30.23 -0.57 215 207 213
-14.33 -30.30 -0.55 215 207 213
-14.34 -30.37 -0.54 215 207 213
-14.35 -30.44 -0.53 220 210 214
-14.36 -30.50 -0.52 220 210 214
-14.38 -30.56 -0.49 218 211 214
-14.41 -30.61 -0.44 221 214 217
-14.44 -30.66 -0.40 212 207 209
-14.48 -30.70 -0.34 209 204 206
-14.51 -30.74 -0.29 244 239 241
-14.55 -30.78 -0.23 246 241 243
-14.62 -30.79 -0.14 201 201 201
-14.78 -30.72 0.09 189 189 189
-14.94 -30.64 0.33 187 187 187
-15.02 -30.64 0.45 246 246 246
-15.04 -30.69 0.48 244 246 246
-15.08 -30.74 0.53 249 251 251
-15.13 -30.76 0.61 213 218 217
-15.07 -30.89 0.52 188 193 192
-13.80 17.43 -1.45 125 125 120
-13.77 17.38 -1.49 125 125 120
-13.80 17.28 -1.45 126 126 121
-13.77 17.23 -1.49 126 126 121
-13.77 17.15 -1.50 127 125 121
-13.78 17.07 -1.48 127 125 121
-13.75 17.01 -1.52 126 124 120
-13.74 16.94 -1.53 126 124 120
-13.73 16.88 -1.55 132 128 122
-13.71 16.82 -1.58 132 128 122
-13.70 16.75 -1.59 132 126 121
-13.68 16.69 -1.62 126 120 115
-13.65 16.64 -1.67 126 120 115
-13.62 16.59 -1.72 132 126 121
-13.60 16.53 -1.74 132 126 121
-13.57 16.48 -1.79 132 126 121
-13.54 16.43 -1.83 131 129 127
-13.52 16.37 -1.86 130 128 126
-13.50 16.31 -1.90 132 126 131
-13.49 16.24 -1.90 131 125 130
-13.48 16.17 -1.92 132 126 131
-13.48 16.09 -1.92 133 127 132
-13.49 16.01 -1.91 135 130 132
-13.50 15.92 -1.90 136 131 133
-13.54 15.80 -1.83 132 130 131
-13.53 15.74 -1.85 132 130 131
-13.63 15.57 -1.70 133 133 141
-14.17 15.02 -0.91 129 129 137
-15.05 14.18 0.37 120 122 147
-15.55 13.67 1.10 106 108 133
-15.65 13.51 1.25 91 93 134
-15.61 13.47 1.19 101 103 144
-15.20 13.75 0.59 126 122 154
-14.19 14.54 -0.88 128 124 156
-13.48 15.07 -1.92 131 129 137
-13.46 15.01 -1.94 131 129 137
-13.43 14.96 -2.00 134 133 126
-13.38 14.92 -2.07 138 137 130
-13.36 14.86 -2.10 141 136 135
-13.35 14.78 -2.10 141 136 135
-13.35 14.71 -2.10 142 135 138
-13.37 14.61 -2.08 143 136 139
-13.37 14.54 -2.09 145 136 130
-13.37 14.46 -2.09 146 137 131
-13.36 14.38 -2.09 146 137 131
-13.35 14.31 -2.11 148 139 133
-13.34 14.24 -2.12 149 136 144
-13.34 14.16 -2.12 150 137 145
-13.34 14.08 -2.12 150 137 145
-13.33 14.01 -2.14 150 137 145
-13.34 13.93 -2.13 149 139 140
-13.34 13.85 -2.13 149 139 140
-13.33 13.77 -2.13 147 140 140
-13.33 13.69 -2.13 147 140 140
-13.33 13.62 -2.13 147 140 140
-13.33 13.54 -2.14 148 141 141
-13.32 13.47 -2.15 148 141 141
-13.32 13.39 -2.16 149 142 142
-13.31 13.32 -2.17 149 142 142
-13.31 13.24 -2.17 150 143 143
-13.31 13.16 -2.17 150 143 143
-13.31 13.08 -2.16 151 144 144
-13.31 13.00 -2.17 153 146 146
-13.31 12.92 -2.17 153 146 146
-13.31 12.84 -2.16 153 145 151
-13.32 12.76 -2.15 153 145 151
-13.32 12.68 -2.15 153 145 151
-13.32 12.60 -2.15 153 145 151
-13.32 12.52 -2.15 154 146 152
-13.32 12.45 -2.16 155 147 153
-13.32 12.36 -2.15 155 147 153
-13.31 12.29 -2.17 155 147 153
-13.30 12.22 -2.18 155 147 153
-13.30 12.14 -2.18 155 147 153
-13.29 12.07 -2.19 155 147 153
-13.29 11.99 -2.20 155 147 153
-13.29 11.91 -2.20 156 149 152
-13.29 11.83 -2.20 156 149 152
-13.29 11.75 -2.20 156 151 153
-13.29 11.68 -2.20 157 152 154
-13.29 11.59 -2.19 156 151 153
-13.29 11.51 -2.19 157 152 154
-13.30 11.43 -2.18 157 152 154
-13.30 11.35 -2.18 159 154 156
-13.30 11.27 -2.18 159 154 156
-13.30 11.19 -2.18 160 155 157
-13.30 11.11 -2.19 160 155 157
-13.30 11.03 -2.18 161 156 158
-13.29 10.96 -2.19 160 155 157
-13.29 10.88 -2.19 161 156 158
-13.29 10.81 -2.20 161 156 158
-13.29 10.73 -2.20 162 157 159
-13.28 10.65 -2.21 162 157 159
-13.28 10.57 -2.21 163 158 160
-13.28 10.50 -2.22 163 158 160
-13.28 10.42 -2.21 164 159 161
-13.28 10.34 -2.22 162 157 156
-13.28 10.26 -2.21 163 158 157
-13.28 10.18 -2.22 163 158 157
-13.28 10.10 -2.22 164 159 158
-13.28 10.02 -2.22 164 159 158
-13.28 9.94 -2.22 166 161 160
-13.28 9.86 -2.22 166 161 160
-13.27 9.79 -2.23 167 162 161
-13.27 9.71 -2.23 167 162 161
-13.27 9.63 -2.23 167 162 161
-13.27 9.55 -2.23 167 162 161
-13.26 9.48 -2.23 167 162 161
-13.26 9.40 -2.24 167 162 161
-13.25 9.33 -2.25 167 162 161
-13.25 9.25 -2.25 167 162 161
-13.25 9.17 -2.26 167 162 161
-13.25 9.09 -2.26 168 163 165
-13.25 9.01 -2.26 168 163 165
-13.25 8.93 -2.26 168 163 165
-13.25 8.85 -2.26 168 163 165
-13.25 8.77 -2.26 168 163 165
-13.25 8.70 -2.26 168 163 165
-13.25 8.61 -2.25 168 163 165
-13.26 8.53 -2.24 168 163 165
-13.25 8.45 -2.25 167 162 164
-13.26 8.37 -2.24 167 162 164
-13.25 8.30 -2.25 167 162 164
-13.25 8.21 -2.25 167 162 164
-13.25 8.14 -2.25 167 162 164
-13.25 8.06 -2.25 167 162 164
-13.24 7.98 -2.27 167 162 164
-13.25 7.90 -2.26 167 162 164
-13.25 7.82 -2.26 164 160 169
-13.25 7.74 -2.26 165 161 170
-13.25 7.66 -2.26 165 162 166
-13.25 7.58 -2.25 165 162 166
-13.25 7.50 -2.25 165 162 166
-13.25 7.42 -2.25 165 162 166
-13.25 7.35 -2.25 166 164 165
-13.25 7.26 -2.25 167 165 166
-13.25 7.19 -2.26 169 163 170
-13.25 7.11 -2.25 169 163 170
-13.24 7.03 -2.27 169 166 170
-13.25 6.95 -2.26 172 169 173
-13.25 6.87 -2.26 174 171 175
-13.24 6.80 -2.27 176 173 177
-13.25 6.72 -2.26 177 174 180
-13.24 6.64 -2.27 179 176 182
-13.24 6.56 -2.27 177 174 178
-13.25 6.48 -2.26 180 177 181
-13.25 6.40 -2.26 180 177 183
-13.25 6.32 -2.26 180 177 183
-13.25 6.24 -2.26 181 178 184
-13.25 6.16 -2.25 181 178 184
-13.25 6.08 -2.25 181 178 184
-13.25 6.00 -2.26 182 179 185
-13.25 5.92 -2.25 183 182 187
-13.25 5.84 -2.25 182 181 186
-13.25 5.76 -2.25 184 181 187
-13.25 5.68 -2.25 186 183 189
-13.25 5.61 -2.26 187 184 190
-13.25 5.53 -2.26 186 183 189
-13.24 5.45 -2.27 186 183 189
-13.24 5.37 -2.27 187 184 190
-13.24 5.29 -2.27 183 182 185
-13.24 5.21 -2.28 185 184 187
-13.24 5.13 -2.28 185 184 187
-13.25 5.05 -2.26 185 184 187
-13.25 4.97 -2.26 185 184 187
-13.25 4.89 -2.25 185 184 187
-13.25 4.81 -2.26 185 184 187
-13.25 4.73 -2.25 185 184 187
-13.25 4.65 -2.25 183 182 185
-13.25 4.57 -2.26 183 182 185
-13.24 4.50 -2.27 183 182 185
-13.24 4.42 -2.27 182 181 184
-13.24 4.34 -2.27 181 180 183
-13.23 4.26 -2.28 181 180 183
-13.23 4.19 -2.28 180 179 182
-13.23 4.11 -2.28 180 179 182
-13.23 4.03 -2.29 180 179 182
-13.22 3.95 -2.29 180 179 182
-13.22 3.87 -2.29 180 179 182
-13.23 3.79 -2.29 180 179 182
-13.23 3.71 -2.29 179 178 181
-13.22 3.64 -2.30 179 178 181
-13.22 3.56 -2.29 178 177 180
-13.23 3.47 -2.29 178 177 180
-13.23 3.40 -2.29 176 175 178
-13.23 3.31 -2.28 176 175 178
-13.24 3.23 -2.27 175 174 177
-13.24 3.15 -2.27 175 174 177
-13.25 3.07 -2.25 175 174 177
-13.24 2.99 -2.27 175 174 177
-13.25 2.91 -2.25 175 174 177
-13.25 2.83 -2.25 175 174 177
-13.25 2.75 -2.25 174 173 178
-13.26 2.67 -2.24 174 173 178
-13.25 2.59 -2.25 173 172 177
-13.25 2.51 -2.25 173 172 177
-13.26 2.43 -2.24 173 172 177
-13.25 2.35 -2.25 173 172 177
-13.26 2.27 -2.24 173 172 177
-13.26 2.19 -2.24 173 172 177
-13.27 2.11 -2.23 173 172 177
-13.27 2.03 -2.23 172 171 176
-13.27 1.95 -2.23 171 170 175
-13.27 1.87 -2.23 171 170 175
-13.27 1.79 -2.22 171 170 175
-13.28 1.71 -2.22 171 170 175
-13.28 1.63 -2.22 171 170 175
-13.28 1.55 -2.21 171 170 175
-13.27 1.48 -2.22 171 170 173
-13.27 1.40 -2.22 171 170 173
-13.28 1.32 -2.22 171 170 173
-13.28 1.24 -2.21 171 170 173
-13.28 1.16 -2.21 171 170 173
-13.28 1.08 -2.21 171 170 173
-13.29 1.00 -2.20 171 170 173
-13.29 0.92 -2.19 171 170 173
-13.29 0.84 -2.19 170 169 172
-13.30 0.76 -2.18 170 169 172
-13.30 0.68 -2.18 170 169 172
-13.30 0.60 -2.18 170 169 172
-13.31 0.52 -2.17 170 169 172
-13.31 0.44 -2.17 170 169 172
-13.32 0.36 -2.16 170 169 172
-13.31 0.28 -2.16 170 169 172
-13.32 0.20 -2.16 170 169 172
-13.33 0.12 -2.15 170 169 172
-13.32 0.04 -2.15 170 169 172
-13.33 -0.04 -2.14 170 169 172
-13.33 -0.12 -2.14 170 169 172
-13.33 -0.20 -2.14 170 169 172
-13.34 -0.28 -2.12 170 169 172
-13.35 -0.36 -2.11 170 169 172
-13.36 -0.44 -2.10 170 169 172
-13.36 -0.52 -2.09 170 169 172
-13.37 -0.60 -2.09 170 169 172
-13.37 -0.68 -2.08 170 169 172
-13.37 -0.76 -2.07 170 169 172
-13.37 -0.84 -2.07 170 169 172
-13.38 -0.92 -2.07 170 169 172
-13.38 -1.00 -2.06 170 169 172
-13.38 -1.08 -2.06 168 169 174
-13.38 -1.16 -2.06 168 169 174
-13.39 -1.24 -2.05 168 169 174
-13.40 -1.32 -2.04 168 169 174
-13.40 -1.40 -2.04 168 169 174
-13.41 -1.48 -2.02 168 169 174
-13.41 -1.56 -2.02 168 169 174
-13.41 -1.64 -2.02 168 169 174
-13.41 -1.72 -2.02 168 169 174
-13.42 -1.80 -2.00 168 169 174
-13.42 -1.88 -2.00 168 169 174
-13.43 -1.96 -2.00 168 169 174
-13.43 -2.04 -1.99 168 169 174
-13.44 -2.12 -1.98 168 169 174
-13.44 -2.20 -1.98 168 169 174
-13.44 -2.27 -1.98 169 170 175
-13.44 -2.35 -1.98 168 169 172
-13.44 -2.43 -1.98 168 169 172
-13.43 -2.51 -1.99 168 169 172
-13.43 -2.59 -1.99 168 169 172
-13.43 -2.67 -1.99 168 169 172
-13.43 -2.74 -1.99 168 169 172
-13.43 -2.82 -2.00 168 169 172
-13.42 -2.90 -2.00 168 169 172
-13.43 -2.98 -2.00 169 170 173
-13.43 -3.06 -2.00 169 170 173
-13.43 -3.14 -2.00 169 170 173
-13.43 -3.22 -1.99 169 170 173
-13.44 -3.30 -1.98 169 170 173
-13.44 -3.38 -1.98 169 170 173
-13.44 -3.46 -1.97 169 170 173
-13.44 -3.53 -1.98 169 170 173
-13.44 -3.61 -1.97 172 170 178
-13.44 -3.69 -1.98 172 170 178
-13.44 -3.77 -1.98 172 170 178
-13.45 -3.85 -1.97 172 170 178
-13.44 -3.93 -1.97 172 170 178
-13.44 -4.01 -1.97 172 170 178
-13.44 -4.08 -1.97 172 170 178
-13.45 -4.16 -1.96 172 170 178
-13.45 -4.24 -1.97 173 171 179
-13.45 -4.32 -1.97 173 171 179
-13.45 -4.40 -1.97 173 171 179
-13.44 -4.48 -1.98 173 171 179
-13.44 -4.56 -1.98 173 171 179
-13.43 -4.63 -1.99 173 171 179
-13.43 -4.71 -1.99 173 171 179
-13.43 -4.79 -1.99 173 171 179
-13.43 -4.87 -1.99 169 172 179
-13.44 -4.95 -1.98 169 172 179
-13.43 -5.03 -1.99 169 172 179
-13.43 -5.11 -1.99 169 172 179
-13.43 -5.18 -1.99 169 172 179
-13.44 -5.26 -1.98 169 172 179
-13.44 -5.34 -1.97 169 172 179
-13.45 -5.42 -1.96 169 172 179
-13.46 -5.50 -1.95 168 171 178
-13.45 -5.58 -1.97 172 175 182
-13.43 -5.66 -2.00 169 172 179
-13.43 -5.73 -2.00 170 173 180
-13.50 -5.82 -1.90 157 160 167
-13.82 -5.91 -1.42 179 182 189
-14.03 -6.00 -1.12 239 242 249
-14.06 -6.08 -1.07 247 250 255
-14.07 -6.16 -1.05 250 250 250
-14.08 -6.24 -1.04 250 250 250
-14.10 -6.31 -1.02 248 250 250
-14.10 -6.39 -1.02 248 250 250
-14.11 -6.47 -1.00 248 250 250
-14.11 -6.54 -0.99 248 250 250
-14.12 -6.62 -0.99 246 251 250
-14.11 -6.70 -0.99 246 251 250
-14.11 -6.77 -0.99 247 252 251
-14.11 -6.85 -1.00 247 252 251
-14.10 -6.93 -1.01 246 253 251
-14.10 -7.00 -1.01 246 253 251
-14.09 -7.08 -1.02 246 253 251
-14.08 -7.16 -1.04 246 253 251
-14.08 -7.23 -1.04 244 254 251
-14.08 -7.31 -1.04 244 254 251
-14.08 -7.39 -1.04 246 253 251
-14.07 -7.46 -1.05 246 253 251
-14.07 -7.54 -1.05 246 253 251
-14.07 -7.62 -1.06 246 253 251
-14.07 -7.69 -1.06 246 253 251
-14.06 -7.77 -1.07 246 253 251
-14.06 -7.85 -1.08 246 253 251
-14.04 -7.92 -1.10 246 253 251
-14.04 -8.00 -1.10 245 252 250
-14.04 -8.08 -1.10 245 252 250
-14.03 -8.16 -1.11 245 252 250
-14.03 -8.23 -1.12 245 252 250
-14.03 -8.31 -1.11 245 252 250
-14.03 -8.39 -1.11 245 252 250
-14.03 -8.46 -1.11 245 252 250
-14.04 -8.54 -1.11 245 252 250
-14.04 -8.62 -1.11 245 252 250
-14.04 -8.69 -1.11 245 252 250
-14.04 -8.77 -1.11 245 252 250
-14.04 -8.85 -1.11 245 252 250
-14.04 -8.92 -1.11 245 252 250
-14.04 -9.00 -1.11 245 252 250
-14.04 -9.08 -1.10 245 252 250
-14.04 -9.15 -1.10 245 252 250
-14.03 -9.23 -1.11 245 252 250
-14.03 -9.31 -1.11 245 252 250
-14.04 -9.39 -1.11 245 252 250
-14.03 -9.46 -1.11 245 252 250
-14.04 -9.54 -1.10 245 252 250
-14.04 -9.62 -1.10 245 252 250
-14.04 -9.69 -1.10 245 252 250
-14.05 -9.77 -1.08 245 252 250
-14.05 -9.84 -1.08 247 252 251
-14.06 -9.92 -1.07 247 252 251
-14.07 -10.00 -1.06 247 252 251
-14.08 -10.07 -1.05 247 252 251
-14.09 -10.15 -1.03 247 252 251
-14.10 -10.22 -1.01 247 252 251
-14.11 -10.30 -1.00 247 252 251
-14.13 -10.37 -0.97 247 252 251
-14.13 -10.45 -0.97 246 251 250
-14.15 -10.52 -0.94 241 246 245
-14.16 -10.60 -0.92 252 255 255
-14.17 -10.67 -0.91 249 254 253
-14.18 -10.75 -0.89 249 254 253
-14.20 -10.82 -0.87 248 253 252
-14.21 -10.90 -0.86 247 252 251
-14.22 -10.97 -0.83 244 249 248
-14.22 -11.05 -0.83 255 254 255
-14.23 -11.13 -0.83 247 244 250
-14.23 -11.20 -0.82 247 244 250
-14.25 -11.27 -0.80 246 243 249
-14.28 -11.35 -0.75 252 249 255
-14.31 -11.42 -0.71 246 243 249
-14.43 -11.47 -0.54 251 248 254
-14.63 -11.52 -0.24 251 248 254
-14.88 -11.55 0.13 208 205 211
-15.13 -11.58 0.50 173 170 176
-15.24 -11.64 0.65 113 110 116
-15.24 -11.71 0.66 60 57 63
-15.24 -11.78 0.65 33 30 36
-15.20 -11.86 0.59 10 7 13
-15.19 -11.94 0.59 16 13 19
-15.15 -12.02 0.53 27 24 30
-15.13 -12.10 0.49 34 37 46
-15.10 -12.18 0.45 35 38 47
-15.10 -12.25 0.44 41 44 53
-15.11 -12.32 0.47 39 42 51
-15.14 -12.39 0.51 37 40 49
-15.16 -12.46 0.53 30 33 42
-15.16 -12.53 0.54 32 35 44
-15.17 -12.61 0.54 32 35 44
-15.17 -12.68 0.55 34 37 46
-15.19 -12.75 0.58 35 38 47
-15.19 -12.82 0.58 35 38 47
-15.18 -12.90 0.57 35 38 47
-15.17 -12.97 0.55 35 38 47
-15.19 -13.04 0.57 34 37 46
-15.18 -13.12 0.57 33 36 45
-15.18 -13.19 0.57 32 35 44
-15.14 -13.27 0.51 33 37 41
-15.07 -13.36 0.41 27 31 35
-14.98 -13.46 0.27 32 36 38
-14.88 -13.56 0.12 50 54 56
-14.80 -13.65 0.01 110 114 116
-14.70 -13.75 -0.13 189 193 195
-14.60 -13.85 -0.28 244 249 248
-14.50 -13.95 -0.43 242 247 246
-14.42 -14.05 -0.54 246 251 250
-14.40 -14.13 -0.58 246 251 250
-14.36 -14.22 -0.64 246 251 247
-14.33 -14.30 -0.67 246 251 247
-14.31 -14.38 -0.70 246 251 247
-14.30 -14.46 -0.72 246 251 247
-14.29 -14.54 -0.74 246 251 245
-14.28 -14.62 -0.75 246 251 245
-14.27 -14.70 -0.77 248 250 247
-14.26 -14.78 -0.78 248 250 247
-14.25 -14.86 -0.80 248 250 247
-14.23 -14.94 -0.83 248 250 247
-14.23 -15.02 -0.83 248 250 247
-14.24 -15.09 -0.80 248 250 247
-14.26 -15.16 -0.78 248 250 247
-14.27 -15.23 -0.76 248 250 247
-14.29 -15.30 -0.74 248 250 247
-14.30 -15.38 -0.73 248 250 247
-14.31 -15.45 -0.71 248 250 247
-14.31 -15.52 -0.70 248 250 247
-14.33 -15.59 -0.68 248 250 247
-14.33 -15.67 -0.68 248 250 247
-14.33 -15.75 -0.68 248 250 247
-14.34 -15.82 -0.66 248 250 247
-14.34 -15.90 -0.67 255 254 255
-14.32 -15.98 -0.69 251 250 253
-14.28 -16.07 -0.75 249 248 251
-14.20 -16.17 -0.87 242 241 244
-14.06 -16.29 -1.07 227 226 229
-13.94 -16.41 -1.25 208 207 210
-13.84 -16.53 -1.40 193 192 195
-13.79 -16.62 -1.47 188 187 190
-13.76 -16.71 -1.52 190 189 192
-13.77 -16.78 -1.50 193 192 195
-13.77 -16.86 -1.50 195 194 197
-13.78 -16.94 -1.48 196 195 198
-13.79 -17.01 -1.47 195 194 197
-13.79 -17.09 -1.47 194 193 196
-13.80 -17.16 -1.46 195 194 197
-13.80 -17.24 -1.46 196 195 198
-13.79 -17.32 -1.46 194 192 200
-13.79 -17.40 -1.47 194 192 200
-13.77 -17.48 -1.49 194 192 200
-13.76 -17.56 -1.51 194 192 200
-13.76 -17.64 -1.51 194 192 200
-13.77 -17.72 -1.50 194 192 200
-13.77 -17.79 -1.50 194 192 200
-13.76 -17.87 -1.51 194 192 200
-13.76 -17.95 -1.51 194 192 200
-13.75 -18.03 -1.52 194 192 200
-13.75 -18.11 -1.53 194 192 200
-13.74 -18.19 -1.53 194 192 200
-13.74 -18.27 -1.54 194 192 200
-13.74 -18.35 -1.54 194 192 200
-13.73 -18.43 -1.55 194 192 200
-13.73 -18.51 -1.55 194 192 200
-13.72 -18.59 -1.56 195 194 199
-13.73 -18.67 -1.56 195 194 199
-13.72 -18.74 -1.56 195 194 199
-13.72 -18.82 -1.57 195 194 199
-13.73 -18.90 -1.56 195 194 199
-13.73 -18.98 -1.56 195 194 199
-13.73 -19.05 -1.55 195 194 199
-13.73 -19.13 -1.55 195 194 199
-13.74 -19.20 -1.54 195 194 199
-13.74 -19.28 -1.54 193 192 197
-13.75 -19.35 -1.52 189 188 193
-13.76 -19.43 -1.51 188 187 192
-13.77 -19.50 -1.49 187 186 191
-13.79 -19.57 -1.47 183 182 187
-13.80 -19.64 -1.45 178 177 182
-13.82 -19.71 -1.42 173 172 177
-13.82 -19.79 -1.42 174 171 177
-13.82 -19.86 -1.42 164 161 167
-13.83 -19.94 -1.41 168 165 171
-13.85 -20.01 -1.39 166 163 169
-13.87 -20.08 -1.36 155 152 158
-13.87 -20.15 -1.34 129 126 132
-13.87 -20.23 -1.36 37 34 40
-13.84 -20.32 -1.39 35 32 38
-13.72 -20.46 -1.56 45 42 48
-13.63 -20.58 -1.70 47 44 50
-13.59 -20.68 -1.76 49 46 52
-13.61 -20.75 -1.72 53 50 56
-13.77 -20.74 -1.49 54 51 57
-14.01 -20.70 -1.14 54 51 57
-14.61 -20.46 -0.26 52 49 55
-15.01 -20.33 0.31 51 48 54
-15.07 -20.37 0.41 48 48 58
-15.05 -20.46 0.37 42 42 52
-15.13 -20.49 0.50 24 26 53
-15.10 -20.58 0.45 6 8 35
-15.09 -20.66 0.43 10 14 70
-15.05 -20.75 0.38 54 58 114
-15.03 -20.83 0.35 50 59 129
-15.01 -20.92 0.32 37 46 116
-15.00 -21.00 0.30 37 46 125
-14.99 -21.08 0.28 32 41 120
-14.98 -21.16 0.28 29 39 102
-14.96 -21.25 0.24 19 29 92
-14.95 -21.32 0.23 5 14 68
-14.95 -21.40 0.23 14 23 77
-14.94 -21.48 0.21 46 55 96
-14.93 -21.56 0.19 38 47 88
-14.86 -21.67 0.10 36 42 70
-14.80 -21.78 0.01 35 41 69
-14.72 -21.90 -0.11 26 32 60
-14.64 -22.02 -0.22 22 28 56
-14.64 -22.10 -0.23 26 30 59
-14.64 -22.18 -0.23 27 31 60
-14.62 -22.26 -0.25 34 35 58
-14.52 -22.40 -0.40 44 45 68
-14.23 -22.64 -0.82 65 64 79
-13.85 -22.95 -1.38 112 111 126
-13.72 -23.11 -1.58 159 157 165
-13.70 -23.19 -1.59 158 156 164
-13.69 -23.27 -1.61 158 155 159
-13.69 -23.36 -1.62 159 156 160
-13.66 -23.45 -1.66 163 157 162
-13.67 -23.52 -1.65 171 165 170
-13.68 -23.60 -1.63 174 167 177
-13.69 -23.67 -1.61 175 168 178
-13.72 -23.73 -1.58 176 169 179
-13.72 -23.80 -1.56 174 167 177
-13.72 -23.88 -1.57 167 160 170
-13.71 -23.96 -1.58 154 147 157
-13.71 -24.04 -1.58 141 134 144
-13.71 -24.12 -1.58 133 126 136
-13.70 -24.20 -1.59 140 133 143
-13.70 -24.28 -1.60 146 139 149
-13.69 -24.37 -1.61 150 143 153
-13.69 -24.45 -1.62 148 141 151
-13.69 -24.52 -1.61 134 127 137
-13.72 -24.59 -1.58 115 108 118
-13.75 -24.64 -1.52 94 87 97
-13.79 -24.69 -1.47 78 71 81
-13.82 -24.75 -1.42 62 53 64
-13.85 -24.81 -1.38 59 50 61
-13.87 -24.87 -1.34 59 50 61
-13.92 -24.92 -1.28 59 50 61
-13.98 -24.95 -1.18 66 57 68
-14.06 -24.97 -1.07 71 62 73
-14.13 -25.00 -0.97 79 70 81
-14.18 -25.04 -0.90 75 66 77
-14.23 -25.08 -0.82 78 69 80
-14.26 -25.14 -0.78 69 60 71
-14.29 -25.20 -0.74 64 55 66
-14.29 -25.27 -0.73 49 40 51
-14.31 -25.34 -0.71 41 32 43
-14.33 -25.40 -0.68 51 42 53
-14.33 -25.47 -0.68 76 67 78
-14.35 -25.53 -0.65 107 98 109
-14.36 -25.60 -0.64 143 132 141
-14.38 -25.66 -0.61 169 158 167
-14.38 -25.74 -0.60 198 187 196
-14.39 -25.81 -0.59 214 203 212
-14.40 -25.88 -0.58 222 211 220
-14.40 -25.95 -0.57 224 213 222
-14.41 -26.02 -0.56 220 209 218
-14.42 -26.09 -0.55 214 203 212
-14.42 -26.17 -0.55 214 203 212
-14.42 -26.24 -0.55 214 203 212
-14.42 -26.32 -0.54 212 201 210
-14.42 -26.39 -0.55 210 199 208
-14.42 -26.47 -0.55 212 201 210
-14.42 -26.54 -0.55 214 203 212
-14.42 -26.62 -0.55 213 202 211
-14.42 -26.70 -0.55 209 198 207
-14.42 -26.77 -0.55 212 201 208
-14.41 -26.85 -0.56 215 204 211
-14.42 -26.92 -0.55 214 207 210
-14.41 -27.01 -0.56 213 206 209
-14.41 -27.08 -0.56 212 205 208
-14.41 -27.15 -0.56 213 206 209
-14.41 -27.23 -0.56 212 205 208
-14.41 -27.31 -0.56 211 204 207
-14.41 -27.38 -0.56 213 206 209
-14.41 -27.46 -0.56 214 207 210
-14.40 -27.54 -0.57 214 207 210
-14.40 -27.62 -0.58 214 207 210
-14.39 -27.70 -0.59 214 207 210
-14.39 -27.78 -0.59 214 207 210
-14.38 -27.87 -0.61 214 206 212
-14.37 -27.94 -0.61 214 206 212
-14.36 -28.03 -0.63 213 205 211
-14.36 -28.11 -0.63 213 205 211
-14.36 -28.19 -0.64 213 205 211
-14.36 -28.26 -0.64 213 205 211
-14.36 -28.33 -0.63 213 205 211
-14.36 -28.41 -0.63 213 205 211
-14.36 -28.48 -0.63 213 205 211
-14.37 -28.56 -0.63 214 206 212
-14.37 -28.63 -0.63 214 206 212
-14.37 -28.71 -0.63 214 206 212
-14.37 -28.78 -0.62 214 206 212
-14.37 -28.85 -0.61 214 206 212
-14.37 -28.93 -0.61 214 206 212
-14.38 -29.00 -0.61 214 206 212
-14.38 -29.08 -0.61 214 206 212
-14.38 -29.15 -0.61 215 207 213
-14.37 -29.24 -0.63 215 207 213
-14.36 -29.32 -0.64 215 207 213
-14.35 -29.41 -0.66 215 207 213
-14.35 -29.49 -0.66 215 207 213
-14.35 -29.56 -0.65 215 207 213
-14.37 -29.62 -0.62 215 207 213
-14.38 -29.68 -0.61 215 207 213
-14.40 -29.74 -0.58 215 207 213
-14.40 -29.81 -0.57 215 207 213
-14.41 -29.88 -0.56 215 207 213
-14.42 -29.95 -0.54 215 207 213
-14.43 -30.02 -0.53 215 207 213
-14.44 -30.09 -0.52 215 207 213
-14.45 -30.15 -0.51 215 207 213
-14.46 -30.22 -0.49 215 207 213
-14.46 -30.29 -0.49 215 207 213
-14.47 -30.36 -0.47 221 211 215
-14.48 -30.43 -0.46 220 210 214
-14.49 -30.49 -0.44 218 211 214
-14.52 -30.54 -0.40 219 212 215
-14.55 -30.59 -0.36 212 207 209
-14.58 -30.64 -0.31 206 201 203
-14.62 -30.68 -0.26 233 228 230
-14.66 -30.71 -0.19 242 237 239
-14.74 -30.71 -0.07 207 207 207
-14.87 -30.67 0.11 199 199 199
-14.98 -30.64 0.27 180 180 180
-15.05 -30.65 0.38 249 249 249
-15.09 -30.68 0.43 243 245 245
-15.13 -30.72 0.49 250 252 252
-15.16 -30.76 0.54 233 238 237
-15.14 -30.86 0.50 206 211 210
-13.84 17.43 -1.52 122 122 117
-13.85 17.35 -1.50 124 124 119
-13.90 17.23 -1.43 126 126 121
-13.89 17.16 -1.45 128 128 123
-13.91 17.05 -1.41 129 127 123
-13.92 16.97 -1.40 127 125 121
-13.90 16.91 -1.42 124 122 118
-13.90 16.83 -1.43 123 121 117
-13.87 16.78 -1.47 128 124 118
-13.85 16.73 -1.50 126 122 116
-13.83 16.67 -1.53 135 129 124
-13.82 16.60 -1.55 134 128 123
-13.77 16.57 -1.62 130 124 119
-13.74 16.51 -1.66 132 126 121
-13.73 16.45 -1.68 130 124 119
-13.70 16.40 -1.73 141 135 130
-13.67 16.34 -1.76 127 125 123
-13.65 16.29 -1.80 129 127 125
-13.62 16.24 -1.84 133 127 132
-13.61 16.17 -1.85 134 128 133
-13.58 16.11 -1.89 135 129 134
-13.58 16.04 -1.90 134 128 133
-13.63 15.91 -1.82 134 129 131
-13.69 15.78 -1.74 133 128 130
-13.74 15.66 -1.66 133 131 132
-13.80 15.53 -1.58 132 130 131
-14.34 14.98 -0.78 133 133 141
-15.34 14.02 0.69 124 124 132
-15.92 13.45 1.52 97 99 124
-15.99 13.32 1.63 57 59 84
-15.87 13.35 1.46 34 36 77
-15.85 13.29 1.43 53 55 96
-15.68 13.37 1.18 122 118 150
-14.91 13.95 0.06 129 125 157
-13.87 14.77 -1.47 132 130 138
-13.56 14.96 -1.92 130 128 136
-13.52 14.91 -1.98 134 133 126
-13.47 14.88 -2.07 138 137 130
-13.43 14.83 -2.12 140 135 134
-13.43 14.75 -2.11 140 135 134
-13.43 14.67 -2.11 142 135 138
-13.44 14.59 -2.11 143 136 139
-13.44 14.51 -2.10 145 136 130
-13.44 14.43 -2.10 146 137 131
-13.44 14.35 -2.11 146 137 131
-13.43 14.28 -2.12 148 139 133
-13.42 14.21 -2.13 149 136 144
-13.42 14.13 -2.13 150 137 145
-13.42 14.05 -2.14 150 137 145
-13.41 13.98 -2.15 150 137 145
-13.41 13.90 -2.14 149 139 140
-13.41 13.83 -2.15 149 139 140
-13.41 13.74 -2.15 147 140 140
-13.40 13.67 -2.15 147 140 140
-13.40 13.59 -2.16 147 140 140
-13.40 13.52 -2.16 148 141 141
-13.39 13.44 -2.17 148 141 141
-13.39 13.37 -2.18 149 142 142
-13.38 13.29 -2.19 149 142 142
-13.38 13.21 -2.19 150 143 143
-13.38 13.14 -2.19 150 143 143
-13.38 13.06 -2.19 151 144 144
-13.38 12.98 -2.19 153 146 146
-13.38 12.90 -2.19 153 146 146
-13.38 12.82 -2.19 153 145 151
-13.39 12.74 -2.18 153 145 151
-13.40 12.65 -2.17 153 145 151
-13.40 12.57 -2.17 153 145 151
-13.40 12.49 -2.16 154 146 152
-13.40 12.42 -2.17 155 147 153
-13.40 12.34 -2.17 155 147 153
-13.39 12.26 -2.18 155 147 153
-13.39 12.19 -2.18 155 147 153
-13.38 12.11 -2.19 155 147 153
-13.37 12.04 -2.20 155 147 153
-13.37 11.96 -2.20 155 147 153
-13.37 11.88 -2.20 156 149 152
-13.37 11.80 -2.20 156 149 152
-13.37 11.72 -2.20 156 151 153
-13.38 11.64 -2.20 157 152 154
-13.38 11.56 -2.20 156 151 153
-13.38 11.48 -2.19 157 152 154
-13.39 11.39 -2.18 157 152 154
-13.39 11.31 -2.17 159 154 156
-13.39 11.23 -2.17 159 154 156
-13.39 11.16 -2.18 160 155 157
-13.39 11.08 -2.18 160 155 157
-13.39 11.00 -2.18 161 156 158
-13.38 10.93 -2.19 160 155 157
-13.38 10.85 -2.19 161 156 158
-13.37 10.78 -2.20 161 156 158
-13.37 10.70 -2.20 162 157 159
-13.37 10.62 -2.21 162 157 159
-13.37 10.54 -2.21 163 158 160
-13.36 10.47 -2.22 163 158 160
-13.36 10.39 -2.22 164 159 161
-13.36 10.31 -2.22 162 157 156
-13.36 10.23 -2.22 163 158 157
-13.36 10.15 -2.22 163 158 157
-13.37 10.07 -2.21 164 159 158
-13.37 9.99 -2.21 164 159 158
-13.36 9.91 -2.22 166 161 160
-13.36 9.83 -2.22 166 161 160
-13.36 9.75 -2.21 167 162 161
-13.36 9.68 -2.22 167 162 161
-13.35 9.60 -2.23 167 162 161
-13.35 9.52 -2.23 167 162 161
-13.35 9.45 -2.24 167 162 161
-13.35 9.37 -2.24 167 162 161
-13.34 9.29 -2.25 167 162 161
-13.34 9.22 -2.25 167 162 161
-13.33 9.14 -2.26 167 162 161
-13.34 9.06 -2.25 168 163 165
-13.33 8.98 -2.26 168 163 165
-13.34 8.90 -2.25 168 163 165
-13.34 8.82 -2.25 168 163 165
-13.34 8.74 -2.25 168 163 165
-13.34 8.66 -2.25 168 163 165
-13.35 8.58 -2.24 168 163 165
-13.35 8.50 -2.24 168 163 165
-13.35 8.42 -2.24 168 163 165
-13.35 8.34 -2.24 168 163 165
-13.35 8.26 -2.23 168 163 165
-13.35 8.18 -2.23 168 163 165
-13.35 8.10 -2.24 168 163 165
-13.35 8.02 -2.24 168 163 165
-13.34 7.95 -2.24 168 163 165
-13.35 7.87 -2.24 168 163 165
-13.34 7.79 -2.24 164 160 169
-13.34 7.71 -2.24 165 161 170
-13.34 7.63 -2.24 165 162 166
-13.34 7.55 -2.24 165 162 166
-13.35 7.47 -2.24 165 162 166
-13.35 7.39 -2.24 165 162 166
-13.35 7.31 -2.24 166 164 165
-13.35 7.24 -2.24 167 165 166
-13.34 7.16 -2.24 169 163 170
-13.34 7.08 -2.24 169 163 170
-13.34 7.00 -2.25 168 165 169
-13.34 6.92 -2.24 172 169 173
-13.34 6.85 -2.25 173 170 174
-13.33 6.77 -2.26 175 172 176
-13.33 6.69 -2.26 175 172 178
-13.33 6.61 -2.26 176 173 179
-13.33 6.53 -2.27 177 174 178
-13.33 6.45 -2.26 180 177 181
-13.33 6.37 -2.26 180 177 183
-13.33 6.29 -2.26 180 177 183
-13.33 6.22 -2.26 181 178 184
-13.34 6.13 -2.25 181 178 184
-13.34 6.05 -2.25 181 178 184
-13.34 5.98 -2.25 182 179 185
-13.35 5.89 -2.24 183 182 187
-13.34 5.81 -2.24 183 182 187
-13.35 5.73 -2.24 186 183 189
-13.34 5.66 -2.24 187 184 190
-13.34 5.58 -2.25 187 184 190
-13.34 5.50 -2.25 187 184 190
-13.34 5.42 -2.25 186 183 189
-13.33 5.35 -2.26 187 184 190
-13.33 5.27 -2.26 185 184 187
-13.33 5.19 -2.26 186 185 188
-13.34 5.11 -2.25 185 184 187
-13.34 5.02 -2.24 185 184 187
-13.35 4.94 -2.24 185 184 187
-13.35 4.86 -2.24 185 184 187
-13.35 4.78 -2.24 185 184 187
-13.35 4.71 -2.24 185 184 187
-13.35 4.63 -2.24 183 182 185
-13.35 4.55 -2.24 183 182 185
-13.34 4.47 -2.24 183 182 185
-13.34 4.39 -2.25 182 181 184
-13.34 4.32 -2.25 181 180 183
-13.33 4.24 -2.26 181 180 183
-13.33 4.16 -2.26 180 179 182
-13.32 4.08 -2.27 180 179 182
-13.32 4.01 -2.28 180 179 182
-13.32 3.93 -2.28 180 179 182
-13.32 3.85 -2.28 180 179 182
-13.32 3.77 -2.28 180 179 182
-13.32 3.69 -2.27 179 178 181
-13.32 3.61 -2.28 179 178 181
-13.32 3.53 -2.28 178 177 180
-13.32 3.45 -2.28 178 177 180
-13.32 3.37 -2.27 176 175 178
-13.32 3.29 -2.28 175 174 177
-13.32 3.21 -2.27 175 174 177
-13.33 3.13 -2.26 175 174 177
-13.34 3.05 -2.25 175 174 177
-13.34 2.97 -2.25 175 174 177
-13.34 2.89 -2.25 175 174 177
-13.34 2.81 -2.24 175 174 177
-13.35 2.73 -2.24 174 173 178
-13.35 2.65 -2.24 174 173 178
-13.35 2.57 -2.24 173 172 177
-13.35 2.49 -2.24 173 172 177
-13.35 2.41 -2.24 173 172 177
-13.35 2.33 -2.24 173 172 177
-13.35 2.26 -2.24 173 172 177
-13.35 2.17 -2.23 173 172 177
-13.36 2.09 -2.22 173 172 177
-13.36 2.02 -2.23 172 171 176
-13.36 1.94 -2.22 171 170 175
-13.36 1.86 -2.22 171 170 175
-13.37 1.77 -2.21 171 170 175
-13.36 1.70 -2.22 171 170 175
-13.36 1.62 -2.21 171 170 175
-13.36 1.54 -2.22 171 170 175
-13.36 1.46 -2.22 171 170 173
-13.36 1.38 -2.22 171 170 173
-13.36 1.30 -2.22 171 170 173
-13.36 1.22 -2.21 171 170 173
-13.37 1.14 -2.20 171 170 173
-13.37 1.06 -2.20 171 170 173
-13.37 0.98 -2.20 171 170 173
-13.37 0.90 -2.20 171 170 173
-13.38 0.82 -2.19 170 169 172
-13.38 0.74 -2.19 170 169 172
-13.39 0.66 -2.18 170 169 172
-13.40 0.58 -2.16 170 169 172
-13.40 0.50 -2.16 170 169 172
-13.40 0.42 -2.16 170 169 172
-13.41 0.34 -2.15 170 169 172
-13.41 0.26 -2.15 170 169 172
-13.41 0.18 -2.15 170 169 172
-13.41 0.10 -2.14 170 169 172
-13.42 0.02 -2.14 170 169 172
-13.42 -0.06 -2.14 170 169 172
-13.42 -0.14 -2.13 170 169 172
-13.43 -0.22 -2.12 170 169 172
-13.43 -0.30 -2.12 170 169 172
-13.43 -0.38 -2.11 170 169 172
-13.44 -0.46 -2.10 170 169 172
-13.45 -0.54 -2.09 170 169 172
-13.46 -0.62 -2.08 170 169 172
-13.46 -0.70 -2.07 170 169 172
-13.46 -0.78 -2.07 170 169 172
-13.46 -0.86 -2.07 170 169 172
-13.47 -0.93 -2.07 170 169 172
-13.47 -1.01 -2.06 170 169 172
-13.47 -1.09 -2.06 168 169 174
-13.48 -1.17 -2.05 168 169 174
-13.48 -1.25 -2.04 168 169 174
-13.49 -1.33 -2.03 168 169 174
-13.49 -1.41 -2.03 168 169 174
-13.49 -1.49 -2.03 168 169 174
-13.50 -1.57 -2.02 168 169 174
-13.50 -1.65 -2.02 168 169 174
-13.50 -1.73 -2.01 168 169 174
-13.51 -1.81 -2.00 168 169 174
-13.51 -1.89 -2.00 168 169 174
-13.52 -1.97 -1.99 168 169 174
-13.52 -2.05 -1.98 168 169 174
-13.52 -2.13 -1.99 168 169 174
-13.53 -2.21 -1.98 168 169 174
-13.53 -2.28 -1.98 169 170 175
-13.53 -2.36 -1.98 168 169 172
-13.52 -2.44 -1.98 168 169 172
-13.52 -2.52 -1.99 168 169 172
-13.51 -2.60 -1.99 168 169 172
-13.52 -2.67 -1.99 168 169 172
-13.51 -2.75 -2.00 168 169 172
-13.51 -2.83 -2.00 168 169 172
-13.50 -2.91 -2.01 168 169 172
-13.51 -2.99 -2.00 169 170 173
-13.51 -3.07 -2.00 169 170 173
-13.51 -3.14 -2.00 169 170 173
-13.51 -3.22 -2.00 169 170 173
-13.51 -3.30 -1.99 169 170 173
-13.52 -3.38 -1.99 169 170 173
-13.52 -3.46 -1.99 169 170 173
-13.52 -3.54 -1.98 169 170 173
-13.52 -3.62 -1.98 172 170 178
-13.52 -3.70 -1.98 172 170 178
-13.52 -3.77 -1.98 172 170 178
-13.52 -3.85 -1.99 172 170 178
-13.52 -3.93 -1.99 172 170 178
-13.52 -4.01 -1.99 172 170 178
-13.52 -4.09 -1.98 172 170 178
-13.53 -4.17 -1.98 172 170 178
-13.52 -4.25 -1.99 173 171 179
-13.52 -4.32 -1.99 173 171 179
-13.52 -4.40 -1.99 173 171 179
-13.51 -4.48 -2.00 173 171 179
-13.50 -4.56 -2.01 173 171 179
-13.50 -4.64 -2.02 173 171 179
-13.50 -4.72 -2.01 173 171 179
-13.50 -4.79 -2.01 173 171 179
-13.50 -4.87 -2.02 169 172 179
-13.50 -4.95 -2.01 169 172 179
-13.51 -5.03 -2.00 169 172 179
-13.52 -5.11 -1.99 169 172 179
-13.52 -5.19 -1.99 169 172 179
-13.53 -5.27 -1.97 169 172 179
-13.53 -5.35 -1.97 169 172 179
-13.54 -5.43 -1.95 169 172 179
-13.55 -5.50 -1.95 175 178 185
-13.56 -5.58 -1.93 167 170 177
-13.54 -5.66 -1.96 167 170 177
-13.59 -5.74 -1.89 162 165 172
-13.79 -5.83 -1.59 171 174 181
-14.08 -5.93 -1.17 230 233 240
-14.19 -6.01 -1.00 248 251 255
-14.19 -6.09 -1.01 242 245 252
-14.17 -6.16 -1.03 250 250 250
-14.17 -6.24 -1.03 250 250 250
-14.20 -6.32 -0.99 248 250 250
-14.20 -6.39 -0.99 248 250 250
-14.20 -6.47 -0.99 248 250 250
-14.20 -6.55 -0.99 248 250 250
-14.20 -6.62 -0.98 246 251 250
-14.21 -6.70 -0.98 246 251 250
-14.20 -6.77 -0.99 247 252 251
-14.19 -6.85 -1.00 247 252 251
