ply
format ascii 1.0
element vertex 1540
property float x
property float y
property float z
property uchar red
property uchar green
property uchar blue
end_header
-11.31 -26.48 -1.84 216 211 213
-11.32 -26.56 -1.83 216 211 213
-11.32 -26.64 -1.83 216 211 213
-11.31 -26.73 -1.84 216 211 213
-11.32 -26.80 -1.83 216 211 213
-11.32 -26.89 -1.83 216 211 213
-11.31 -26.97 -1.84 216 211 213
-11.31 -27.05 -1.84 217 212 209
-11.31 -27.14 -1.84 217 212 209
-11.31 -27.22 -1.84 217 212 209
-11.31 -27.30 -1.84 217 212 209
-11.31 -27.38 -1.84 217 212 209
-11.31 -27.46 -1.84 217 212 209
-11.32 -27.54 -1.83 217 212 209
-11.31 -27.63 -1.84 218 213 210
-11.31 -27.71 -1.84 218 213 210
-11.30 -27.80 -1.86 218 213 210
-11.31 -27.88 -1.84 218 213 210
-11.31 -27.96 -1.84 218 213 210
-11.31 -28.04 -1.84 218 213 210
-11.31 -28.12 -1.84 218 213 210
-11.32 -28.20 -1.83 218 213 210
-11.32 -28.28 -1.83 218 213 210
-11.32 -28.36 -1.83 218 213 212
-11.32 -28.44 -1.82 218 213 212
-11.32 -28.52 -1.82 218 213 212
-11.32 -28.61 -1.83 220 215 214
-11.32 -28.69 -1.83 220 215 214
-11.32 -28.77 -1.82 220 215 214
-11.32 -28.85 -1.82 220 215 214
-11.33 -28.93 -1.82 220 215 214
-11.32 -29.01 -1.82 220 215 214
-11.32 -29.10 -1.83 220 215 214
-11.33 -29.17 -1.81 220 215 214
-11.33 -29.26 -1.82 221 216 215
-11.33 -29.34 -1.82 222 215 213
-11.33 -29.42 -1.82 222 215 213
-11.33 -29.50 -1.82 222 215 213
-11.33 -29.58 -1.82 222 215 213
-11.33 -29.67 -1.82 222 216 211
-11.32 -29.75 -1.82 222 216 211
-11.32 -29.84 -1.83 222 216 211
-11.32 -29.92 -1.83 222 216 211
-11.32 -30.00 -1.82 222 216 211
-11.32 -30.08 -1.82 224 218 213
-11.32 -30.16 -1.82 224 218 213
-11.32 -30.24 -1.82 224 218 213
-11.31 -30.33 -1.84 224 218 213
-11.31 -30.42 -1.84 224 218 213
-11.31 -30.50 -1.85 224 218 213
-11.31 -30.58 -1.85 224 218 213
-11.31 -30.66 -1.84 224 217 215
-11.32 -30.74 -1.83 225 218 216
-11.32 -30.82 -1.82 224 219 218
-11.32 -30.90 -1.83 224 219 218
-11.32 -30.99 -1.83 224 219 218
-11.32 -31.06 -1.82 225 220 219
-11.32 -31.15 -1.83 225 220 219
-11.33 -31.22 -1.82 225 220 219
-11.33 -31.30 -1.82 225 220 219
-11.33 -31.39 -1.82 225 220 219
-11.34 -31.45 -1.80 225 220 219
-11.35 -31.53 -1.79 225 220 219
-11.36 -31.61 -1.78 224 219 218
-11.36 -31.68 -1.77 224 219 218
-11.38 -31.75 -1.74 224 219 218
-11.40 -31.82 -1.72 225 220 219
-11.40 -31.89 -1.71 225 220 219
-11.41 -31.97 -1.70 226 221 220
-11.42 -32.04 -1.69 226 221 220
-11.45 -32.10 -1.65 227 222 221
-11.47 -32.16 -1.62 232 227 226
-11.49 -32.23 -1.60 231 226 225
-11.52 -32.28 -1.56 254 252 250
-11.56 -32.32 -1.50 252 250 248
-11.82 -32.18 -1.15 250 248 246
-12.26 -31.87 -0.57 251 249 247
-12.48 -31.75 -0.26 249 249 246
-12.57 -31.75 -0.14 248 248 245
-12.57 -31.83 -0.15 249 249 246
-12.52 -31.95 -0.21 250 250 247
-12.25 -32.28 -0.58 250 252 249
-12.10 -32.49 -0.78 247 249 246
-11.85 -32.80 -1.12 246 248 245
-12.00 -32.74 -0.92 250 252 249
-12.02 -32.80 -0.88 206 211 207
-11.03 19.13 -2.34 137 131 122
-11.00 19.08 -2.38 137 131 122
-11.00 19.00 -2.39 137 131 122
-10.95 18.96 -2.45 137 131 122
-10.95 18.87 -2.45 137 131 122
-10.96 18.79 -2.44 137 131 122
-10.93 18.73 -2.48 137 131 122
-10.92 18.65 -2.49 137 131 122
-10.92 18.57 -2.49 139 133 124
-10.91 18.50 -2.50 139 133 124
-10.90 18.43 -2.52 139 133 124
-10.89 18.35 -2.53 139 133 124
-10.89 18.27 -2.53 139 133 124
-10.89 18.18 -2.54 139 133 124
-10.88 18.11 -2.55 139 133 124
-10.87 18.03 -2.56 139 133 124
-10.86 17.96 -2.58 139 133 124
-10.85 17.88 -2.59 139 133 124
-10.85 17.80 -2.59 141 132 124
-10.85 17.72 -2.59 143 134 126
-10.85 17.63 -2.59 144 133 126
-10.85 17.55 -2.59 144 133 126
-10.85 17.47 -2.59 144 133 126
-10.84 17.39 -2.60 144 133 126
-10.84 17.31 -2.60 144 133 126
-10.84 17.22 -2.60 144 133 126
-10.83 17.15 -2.61 145 134 127
-10.84 17.06 -2.60 145 134 127
-10.83 16.98 -2.61 146 135 128
-10.82 16.91 -2.63 146 135 128
-10.81 16.83 -2.64 147 136 129
-10.81 16.75 -2.65 147 136 129
-10.80 16.68 -2.66 148 140 129
-10.79 16.60 -2.67 148 140 129
-10.78 16.52 -2.68 148 139 131
-10.77 16.45 -2.70 148 139 131
-10.77 16.37 -2.70 148 139 131
-10.75 16.29 -2.72 148 139 131
-10.75 16.21 -2.72 148 139 133
-10.74 16.14 -2.73 149 140 134
-10.74 16.06 -2.74 149 140 134
-10.73 15.98 -2.75 149 140 134
-10.72 15.90 -2.77 149 140 136
-10.72 15.82 -2.77 149 140 136
-10.71 15.74 -2.77 147 141 136
-10.71 15.66 -2.78 147 141 136
-10.70 15.58 -2.79 147 141 134
-10.69 15.51 -2.80 148 142 135
-10.69 15.43 -2.81 149 143 136
-10.68 15.35 -2.82 149 143 136
-10.67 15.27 -2.83 150 144 137
-10.67 15.19 -2.84 150 144 137
-10.67 15.11 -2.84 151 145 138
-10.66 15.03 -2.84 151 145 138
-10.66 14.94 -2.84 153 147 140
-10.66 14.86 -2.84 151 145 138
-10.65 14.78 -2.85 151 145 138
-10.65 14.70 -2.86 151 145 138
-10.65 14.62 -2.86 151 145 138
-10.65 14.54 -2.86 151 145 138
-10.64 14.46 -2.87 151 145 138
-10.64 14.37 -2.88 151 145 138
-10.63 14.29 -2.88 151 145 138
-10.63 14.21 -2.89 153 147 140
-10.63 14.13 -2.89 154 151 138
-10.63 14.04 -2.88 154 151 138
-10.63 13.96 -2.88 154 151 138
-10.63 13.88 -2.89 154 151 138
-10.62 13.80 -2.90 154 151 138
-10.63 13.71 -2.89 154 151 138
-10.62 13.63 -2.90 154 151 138
-10.62 13.54 -2.89 154 151 138
-10.62 13.46 -2.90 155 152 139
-10.61 13.38 -2.91 156 153 140
-10.61 13.30 -2.91 156 153 140
-10.61 13.22 -2.92 157 154 141
-10.61 13.14 -2.92 157 154 141
-10.60 13.06 -2.93 159 156 143
-10.59 12.98 -2.93 159 156 143
-10.58 12.90 -2.95 160 157 144
-10.58 12.81 -2.95 156 153 140
-10.58 12.73 -2.95 157 154 141
-10.58 12.65 -2.96 157 153 143
-10.57 12.57 -2.97 159 155 145
-10.56 12.49 -2.98 159 155 145
-10.57 12.40 -2.97 160 156 146
-10.56 12.32 -2.98 160 156 148
-10.56 12.24 -2.98 161 157 149
-10.56 12.15 -2.98 160 156 148
-10.56 12.08 -2.99 160 156 148
-10.55 11.99 -2.99 160 156 150
-10.55 11.91 -3.00 160 156 150
-10.54 11.83 -3.00 160 156 150
-10.54 11.75 -3.01 160 156 150
-10.53 11.67 -3.02 160 155 152
-10.53 11.58 -3.02 160 155 152
-10.52 11.51 -3.04 160 156 148
-10.51 11.43 -3.04 160 156 148
-10.51 11.35 -3.05 160 156 148
-10.51 11.26 -3.05 160 156 148
-10.51 11.18 -3.05 160 156 148
-10.51 11.09 -3.05 160 156 148
-10.51 11.01 -3.05 160 156 148
-10.51 10.93 -3.05 160 156 148
-10.51 10.84 -3.05 157 153 145
-10.51 10.76 -3.05 157 153 145
-10.50 10.68 -3.06 157 153 145
-10.51 10.59 -3.05 157 153 145
-10.50 10.51 -3.06 157 153 145
-10.50 10.42 -3.06 157 153 145
-10.50 10.34 -3.06 157 153 145
-10.50 10.26 -3.06 157 153 145
-10.50 10.17 -3.06 157 156 147
-10.49 10.09 -3.07 158 157 148
-10.49 10.01 -3.07 158 157 148
-10.49 9.92 -3.07 159 158 149
-10.50 9.83 -3.06 160 159 150
-10.50 9.75 -3.07 161 160 151
-10.50 9.67 -3.07 162 161 152
-10.50 9.58 -3.07 162 161 152
-10.49 9.50 -3.08 164 163 154
-10.48 9.42 -3.08 165 164 155
-10.48 9.34 -3.09 166 165 156
-10.48 9.26 -3.09 167 166 157
-10.48 9.17 -3.09 169 168 159
-10.47 9.09 -3.10 171 170 161
-10.47 9.00 -3.10 172 171 162
-10.47 8.92 -3.10 172 171 162
-10.47 8.84 -3.11 172 171 160
-10.46 8.76 -3.12 172 171 160
-10.46 8.67 -3.11 175 169 162
-10.46 8.59 -3.12 175 169 162
-10.46 8.50 -3.12 175 169 162
-10.46 8.42 -3.11 175 169 162
-10.46 8.33 -3.11 175 169 162
-10.46 8.25 -3.12 175 169 162
-10.46 8.17 -3.12 175 171 163
-10.46 8.08 -3.11 175 171 163
-10.46 8.00 -3.12 176 172 164
-10.46 7.91 -3.11 176 172 164
-10.46 7.83 -3.11 176 172 164
-10.46 7.75 -3.12 176 172 164
-10.46 7.66 -3.12 176 172 164
-10.45 7.58 -3.12 176 172 164
-10.45 7.49 -3.13 176 175 166
-10.45 7.41 -3.13 176 175 166
-10.44 7.33 -3.14 177 176 167
-10.44 7.25 -3.14 179 178 169
-10.44 7.16 -3.14 179 178 169
-10.44 7.08 -3.15 179 178 169
-10.43 7.00 -3.15 179 178 169
-10.43 6.91 -3.15 179 178 169
-10.42 6.83 -3.16 179 178 171
-10.43 6.74 -3.16 179 178 171
-10.43 6.66 -3.16 178 179 171
-10.43 6.57 -3.16 179 180 172
-10.43 6.49 -3.16 179 180 172
-10.44 6.40 -3.15 179 180 172
-10.44 6.32 -3.14 179 180 172
-10.44 6.23 -3.15 179 180 172
-10.44 6.15 -3.14 179 180 172
-10.43 6.07 -3.15 179 180 172
-10.43 5.98 -3.15 179 180 172
-10.43 5.90 -3.15 179 180 172
-10.44 5.81 -3.15 179 180 172
-10.43 5.73 -3.15 179 180 172
-10.44 5.64 -3.15 179 180 172
-10.44 5.55 -3.14 179 180 172
-10.43 5.47 -3.15 179 180 172
-10.44 5.39 -3.15 178 179 171
-10.44 5.30 -3.14 178 179 171
-10.44 5.22 -3.14 178 179 171
-10.44 5.13 -3.15 178 179 171
-10.44 5.05 -3.15 178 179 171
-10.44 4.96 -3.14 178 179 171
-10.44 4.88 -3.14 178 179 171
-10.44 4.80 -3.15 178 179 171
-10.44 4.71 -3.14 178 179 171
-10.44 4.62 -3.14 178 179 171
-10.44 4.54 -3.14 178 179 171
-10.44 4.46 -3.14 178 179 171
-10.44 4.37 -3.14 178 179 171
-10.45 4.28 -3.13 178 179 171
-10.45 4.20 -3.13 178 179 171
-10.45 4.11 -3.13 178 179 171
-10.46 4.03 -3.12 178 179 171
-10.46 3.94 -3.12 178 179 171
-10.47 3.85 -3.11 178 179 171
-10.46 3.77 -3.11 178 179 171
-10.47 3.68 -3.10 178 179 171
-10.47 3.60 -3.10 176 177 169
-10.48 3.51 -3.09 176 177 169
-10.48 3.43 -3.09 176 176 173
-10.48 3.34 -3.08 176 176 173
-10.48 3.26 -3.09 176 176 173
-10.48 3.17 -3.08 174 174 171
-10.48 3.09 -3.08 174 174 169
-10.49 3.00 -3.08 174 174 169
-10.48 2.92 -3.08 174 174 169
-10.49 2.83 -3.08 174 174 169
-10.49 2.75 -3.07 174 174 169
-10.49 2.66 -3.08 174 174 169
-10.49 2.58 -3.08 174 174 169
-10.49 2.49 -3.08 173 173 168
-10.49 2.41 -3.08 173 173 168
-10.49 2.33 -3.08 173 173 168
-10.49 2.24 -3.08 173 173 168
-10.49 2.16 -3.08 173 173 168
-10.49 2.07 -3.08 173 173 168
-10.49 1.99 -3.07 173 173 168
-10.50 1.90 -3.06 173 173 168
-10.49 1.82 -3.07 173 173 168
-10.50 1.73 -3.06 173 173 168
-10.51 1.64 -3.05 173 173 168
-10.50 1.56 -3.06 173 173 168
-10.50 1.48 -3.05 173 173 168
-10.51 1.39 -3.05 172 172 167
-10.51 1.31 -3.05 172 172 167
-10.51 1.22 -3.05 172 172 167
-10.51 1.14 -3.04 172 172 167
-10.52 1.05 -3.03 172 172 167
-10.52 0.96 -3.03 172 172 167
-10.53 0.88 -3.02 172 172 167
-10.52 0.79 -3.03 172 172 167
-10.53 0.71 -3.02 173 174 166
-10.54 0.62 -3.01 173 174 166
-10.54 0.54 -3.01 173 174 166
-10.54 0.45 -3.00 173 174 166
-10.55 0.37 -3.00 173 174 166
-10.55 0.28 -2.99 173 174 166
-10.55 0.20 -3.00 173 174 166
-10.55 0.11 -2.99 173 174 166
-10.55 0.03 -2.99 172 173 165
-10.55 -0.06 -2.99 172 173 165
-10.56 -0.14 -2.98 172 173 165
-10.56 -0.23 -2.98 172 173 165
-10.56 -0.31 -2.98 172 173 165
-10.56 -0.39 -2.98 172 173 165
-10.56 -0.48 -2.98 172 173 165
-10.56 -0.56 -2.99 172 173 165
-10.56 -0.65 -2.99 168 174 165
-10.56 -0.73 -2.99 168 174 165
-10.55 -0.81 -2.99 168 174 165
-10.56 -0.90 -2.98 168 174 165
-10.57 -0.99 -2.97 168 174 165
-10.56 -1.07 -2.97 168 174 165
-10.57 -1.15 -2.97 168 174 165
-10.58 -1.24 -2.96 169 175 166
-10.56 -1.32 -2.97 169 175 166
-10.57 -1.41 -2.97 169 175 166
-10.57 -1.49 -2.97 169 175 166
-10.57 -1.58 -2.96 169 175 166
-10.57 -1.66 -2.96 169 175 166
-10.57 -1.74 -2.96 169 175 166
-10.57 -1.83 -2.97 168 176 166
-10.57 -1.91 -2.96 168 176 166
-10.57 -2.00 -2.97 171 173 170
-10.58 -2.08 -2.96 171 173 170
-10.58 -2.17 -2.95 171 173 170
-10.58 -2.25 -2.96 171 173 170
-10.58 -2.34 -2.95 171 173 170
-10.58 -2.42 -2.96 171 173 170
-10.58 -2.50 -2.96 171 173 170
-10.58 -2.59 -2.95 171 173 170
-10.58 -2.67 -2.95 171 173 170
-10.58 -2.76 -2.95 171 173 170
-10.58 -2.84 -2.95 171 173 170
-10.58 -2.92 -2.95 171 173 170
-10.58 -3.01 -2.96 171 173 170
-10.58 -3.09 -2.95 171 173 170
-10.58 -3.18 -2.95 171 173 170
-10.59 -3.26 -2.94 171 173 170
-10.58 -3.35 -2.95 171 176 172
-10.58 -3.43 -2.95 171 176 172
-10.58 -3.51 -2.95 171 176 172
-10.59 -3.60 -2.94 171 176 172
-10.59 -3.68 -2.94 171 176 172
-10.59 -3.77 -2.94 171 176 172
-10.59 -3.85 -2.94 171 176 172
-10.58 -3.94 -2.95 171 176 172
-10.58 -4.02 -2.95 172 177 173
-10.59 -4.10 -2.94 172 177 173
-10.59 -4.19 -2.94 172 177 173
-10.59 -4.27 -2.94 172 177 173
-10.60 -4.36 -2.93 172 177 173
-10.60 -4.44 -2.93 172 177 173
-10.61 -4.53 -2.92 172 177 173
-10.60 -4.61 -2.92 172 177 173
-10.61 -4.69 -2.92 171 181 178
-10.61 -4.78 -2.92 171 181 178
-10.61 -4.86 -2.92 171 181 178
-10.61 -4.95 -2.91 171 181 178
-10.61 -5.03 -2.91 171 181 178
-10.61 -5.12 -2.91 171 181 178
-10.62 -5.20 -2.91 171 181 178
-10.62 -5.28 -2.90 171 181 178
-10.62 -5.37 -2.90 171 181 178
-10.62 -5.45 -2.90 171 181 178
-10.62 -5.54 -2.89 171 181 178
-10.62 -5.62 -2.90 171 181 178
-10.61 -5.70 -2.91 171 181 178
-10.61 -5.79 -2.91 171 181 178
-10.61 -5.87 -2.91 171 181 178
-10.60 -5.96 -2.92 171 181 178
-10.60 -6.04 -2.93 176 179 171
-10.59 -6.12 -2.94 176 179 171
-10.58 -6.21 -2.95 176 178 173
-10.58 -6.29 -2.96 176 178 173
-10.57 -6.38 -2.97 176 178 173
-10.56 -6.46 -2.98 176 178 173
-10.55 -6.54 -2.99 176 178 175
-10.55 -6.63 -3.00 176 178 175
-10.53 -6.71 -3.02 177 179 176
-10.53 -6.80 -3.03 173 175 172
-10.52 -6.88 -3.03 176 178 178
-10.51 -6.96 -3.04 177 179 179
-10.51 -7.05 -3.05 172 174 174
-10.48 -7.13 -3.09 176 178 178
-10.45 -7.22 -3.13 180 181 184
-10.43 -7.30 -3.15 166 167 170
-10.70 -7.39 -2.79 184 191 186
-11.20 -7.47 -2.12 239 246 241
-11.34 -7.55 -1.93 247 254 249
-11.33 -7.63 -1.94 244 251 246
-11.32 -7.71 -1.95 239 246 241
-11.33 -7.80 -1.94 245 252 247
-11.34 -7.88 -1.93 246 253 248
-11.34 -7.96 -1.93 245 252 247
-11.32 -8.04 -1.95 246 253 248
-11.32 -8.12 -1.95 246 253 248
-11.32 -8.21 -1.96 246 253 248
-11.31 -8.29 -1.97 246 253 248
-11.30 -8.37 -1.98 246 253 248
-11.29 -8.45 -2.00 246 253 248
-11.28 -8.54 -2.01 246 253 248
-11.28 -8.62 -2.01 246 253 248
-11.26 -8.70 -2.03 246 253 251
-11.25 -8.78 -2.05 246 253 251
-11.24 -8.87 -2.06 246 253 251
-11.23 -8.95 -2.08 246 253 251
-11.22 -9.03 -2.08 246 253 251
-11.22 -9.12 -2.09 246 253 251
-11.21 -9.20 -2.11 246 253 251
-11.21 -9.28 -2.10 246 253 251
-11.21 -9.36 -2.11 246 253 251
-11.20 -9.45 -2.11 246 253 251
-11.20 -9.53 -2.11 246 253 251
-11.20 -9.61 -2.11 246 253 251
-11.20 -9.69 -2.11 246 253 251
-11.20 -9.78 -2.11 246 253 251
-11.21 -9.86 -2.11 246 253 251
-11.20 -9.94 -2.11 246 253 251
-11.20 -10.02 -2.12 246 253 251
-11.20 -10.11 -2.12 246 253 251
-11.20 -10.19 -2.12 246 253 251
-11.20 -10.27 -2.11 246 253 251
-11.20 -10.35 -2.11 246 253 251
-11.20 -10.43 -2.11 246 253 251
-11.21 -10.52 -2.11 246 253 251
-11.21 -10.60 -2.10 246 253 251
-11.21 -10.68 -2.10 246 253 251
-11.21 -10.76 -2.10 246 253 251
-11.22 -10.84 -2.09 246 253 251
-11.22 -10.93 -2.09 246 253 251
-11.22 -11.01 -2.09 246 253 251
-11.23 -11.09 -2.08 246 253 251
-11.23 -11.17 -2.08 246 253 251
-11.23 -11.25 -2.07 246 253 251
-11.23 -11.34 -2.07 246 253 251
-11.23 -11.42 -2.08 246 253 251
-11.23 -11.50 -2.07 246 253 251
-11.23 -11.58 -2.08 246 253 251
-11.23 -11.67 -2.07 246 253 251
-11.23 -11.75 -2.08 246 253 251
-11.23 -11.83 -2.08 246 253 251
-11.23 -11.91 -2.08 246 253 251
-11.23 -12.00 -2.08 246 253 251
-11.23 -12.08 -2.08 246 253 251
-11.23 -12.16 -2.08 246 253 251
-11.23 -12.24 -2.07 246 253 251
-11.24 -12.32 -2.06 246 253 251
-11.24 -12.40 -2.06 246 253 251
-11.24 -12.49 -2.07 246 253 251
-11.24 -12.57 -2.07 246 253 251
-11.23 -12.65 -2.07 240 247 245
-11.23 -12.74 -2.08 243 250 248
-11.22 -12.82 -2.08 247 254 252
-11.21 -12.90 -2.10 251 255 255
-11.20 -12.99 -2.11 250 255 255
-11.18 -13.07 -2.14 246 253 251
-11.16 -13.16 -2.17 241 248 246
-11.07 -13.26 -2.29 238 245 243
-10.90 -13.38 -2.52 229 236 234
-10.75 -13.49 -2.72 208 215 213
-10.63 -13.60 -2.89 185 192 190
-10.57 -13.70 -2.96 177 184 182
-10.55 -13.79 -2.99 181 188 186
-10.58 -13.87 -2.95 190 197 195
-10.60 -13.95 -2.93 192 199 197
-10.60 -14.03 -2.93 187 194 192
-10.62 -14.11 -2.91 185 192 185
-10.61 -14.20 -2.92 188 195 188
-10.62 -14.28 -2.90 191 196 190
-10.62 -14.36 -2.90 190 195 189
-10.62 -14.45 -2.90 188 193 187
-10.62 -14.53 -2.89 188 193 187
-10.63 -14.61 -2.89 192 194 189
-10.63 -14.70 -2.88 195 197 192
-10.63 -14.78 -2.89 193 195 190
-10.63 -14.87 -2.89 193 195 190
-10.62 -14.95 -2.90 195 195 190
-10.62 -15.04 -2.90 195 195 190
-10.62 -15.12 -2.90 195 195 190
-10.62 -15.21 -2.91 195 195 190
-10.62 -15.29 -2.91 196 194 190
-10.62 -15.37 -2.91 196 194 190
-10.61 -15.46 -2.91 193 195 192
-10.61 -15.54 -2.91 194 196 193
-10.60 -15.63 -2.93 194 196 193
-10.59 -15.72 -2.93 195 197 194
-10.60 -15.80 -2.93 195 197 194
-10.59 -15.89 -2.94 197 199 196
-10.58 -15.97 -2.95 197 199 196
-10.58 -16.06 -2.95 198 200 197
-10.57 -16.14 -2.96 199 201 198
-10.56 -16.23 -2.98 198 200 197
-10.55 -16.32 -2.99 198 200 197
-10.55 -16.40 -3.00 198 200 197
-10.54 -16.49 -3.01 197 199 196
-10.53 -16.58 -3.02 197 199 196
-10.53 -16.66 -3.02 197 199 196
-10.52 -16.75 -3.04 197 199 196
-10.50 -16.84 -3.06 191 193 190
-10.50 -16.92 -3.06 187 189 186
-10.50 -17.01 -3.07 181 183 180
-10.49 -17.10 -3.08 176 178 175
-10.49 -17.18 -3.08 171 173 170
-10.48 -17.27 -3.09 168 170 167
-10.48 -17.35 -3.09 165 167 164
-10.47 -17.44 -3.10 165 167 164
-10.46 -17.53 -3.12 168 170 167
-10.46 -17.61 -3.12 169 171 168
-10.44 -17.70 -3.14 170 172 169
-10.44 -17.79 -3.14 171 173 170
-10.43 -17.88 -3.16 170 172 169
-10.42 -17.96 -3.16 168 170 167
-10.41 -18.05 -3.18 165 167 164
-10.41 -18.14 -3.18 163 165 162
-10.40 -18.23 -3.19 166 166 161
-10.39 -18.31 -3.21 163 163 158
-10.38 -18.40 -3.22 159 159 154
-10.38 -18.49 -3.23 159 159 154
-10.37 -18.58 -3.23 163 163 158
-10.37 -18.66 -3.23 171 171 166
-10.36 -18.75 -3.24 180 180 175
-10.37 -18.83 -3.24 186 186 181
-10.36 -18.92 -3.25 186 186 181
-10.36 -19.01 -3.25 186 186 181
-10.34 -19.10 -3.27 176 176 171
-10.36 -19.17 -3.25 171 171 166
-10.36 -19.26 -3.25 157 157 152
-10.36 -19.34 -3.25 139 139 134
-10.36 -19.43 -3.24 140 140 135
-10.38 -19.51 -3.23 138 138 133
-10.36 -19.60 -3.24 137 136 139
-10.36 -19.68 -3.24 154 153 156
-10.38 -19.76 -3.23 165 164 167
-10.40 -19.84 -3.20 165 164 167
-10.43 -19.91 -3.16 159 158 161
-10.47 -19.98 -3.10 135 134 137
-10.51 -20.04 -3.05 81 80 83
-10.57 -20.10 -2.97 27 26 29
-10.60 -20.17 -2.92 8 7 10
-10.65 -20.23 -2.86 32 31 34
-10.72 -20.29 -2.77 48 47 50
-10.78 -20.34 -2.68 54 53 56
-10.84 -20.40 -2.60 64 63 66
-10.89 -20.46 -2.54 65 64 67
-10.94 -20.52 -2.47 62 61 64
-10.98 -20.59 -2.41 72 71 74
-11.03 -20.65 -2.35 66 64 65
-11.10 -20.70 -2.25 49 47 48
-11.18 -20.74 -2.14 47 45 55
-11.24 -20.80 -2.06 54 52 62
-11.36 -20.82 -1.90 69 67 77
-11.59 -20.79 -1.58 67 65 75
-11.91 -20.73 -1.16 60 61 64
-12.34 -20.60 -0.58 49 50 53
-12.65 -20.53 -0.15 27 27 39
-12.86 -20.50 0.13 13 13 25
-13.04 -20.50 0.36 48 47 78
-13.12 -20.53 0.48 64 63 94
-13.15 -20.59 0.52 44 43 76
-13.14 -20.68 0.50 26 25 58
-13.11 -20.77 0.47 45 48 68
-13.08 -20.86 0.42 53 56 76
-13.07 -20.94 0.41 57 53 75
-13.09 -21.01 0.44 34 30 52
-13.14 -21.06 0.51 96 93 108
-13.18 -21.11 0.56 133 130 145
-13.23 -21.17 0.62 95 96 99
-13.24 -21.24 0.64 46 47 50
-13.27 -21.30 0.68 16 16 11
-13.29 -21.36 0.71 8 8 3
-13.30 -21.43 0.72 16 15 20
-13.31 -21.50 0.74 34 33 38
-13.34 -21.57 0.77 39 33 56
-13.34 -21.64 0.78 38 32 55
-13.33 -21.72 0.77 41 30 66
-13.11 -21.92 0.46 32 21 57
-12.72 -22.21 -0.07 34 21 60
-12.25 -22.55 -0.70 100 87 126
-11.78 -22.89 -1.34 193 184 210
-11.56 -23.09 -1.62 238 229 255
-11.48 -23.21 -1.73 245 240 255
-11.49 -23.29 -1.72 229 224 242
-11.46 -23.39 -1.77 211 207 216
-11.44 -23.48 -1.79 207 203 212
-11.43 -23.57 -1.80 207 206 209
-11.42 -23.65 -1.81 203 202 205
-11.43 -23.73 -1.80 209 209 209
-11.42 -23.82 -1.81 209 209 209
-11.42 -23.90 -1.81 210 210 210
-11.44 -23.97 -1.79 210 210 210
-11.46 -24.04 -1.77 211 209 210
-11.46 -24.12 -1.77 210 208 209
-11.46 -24.21 -1.77 210 208 206
-11.46 -24.29 -1.77 210 208 206
-11.45 -24.37 -1.77 213 208 210
-11.46 -24.45 -1.76 213 208 210
-11.46 -24.53 -1.77 213 208 210
-11.45 -24.62 -1.77 213 208 210
-11.46 -24.70 -1.77 213 208 210
-11.46 -24.78 -1.77 213 208 210
-11.46 -24.86 -1.77 213 208 210
-11.45 -24.95 -1.78 214 209 211
-11.44 -25.03 -1.79 216 211 213
-11.43 -25.12 -1.80 216 211 213
-11.43 -25.20 -1.80 216 211 213
-11.43 -25.28 -1.80 216 211 213
-11.43 -25.37 -1.80 216 211 213
-11.42 -25.45 -1.81 216 211 213
-11.42 -25.53 -1.81 216 211 213
-11.43 -25.61 -1.80 216 211 213
-11.43 -25.69 -1.80 216 211 213
-11.43 -25.77 -1.80 217 212 214
-11.43 -25.85 -1.80 217 212 214
-11.43 -25.94 -1.80 217 212 214
-11.43 -26.02 -1.80 217 212 214
-11.43 -26.10 -1.81 217 212 214
-11.43 -26.18 -1.80 217 212 214
-11.43 -26.26 -1.80 217 212 214
-11.44 -26.34 -1.79 216 211 213
-11.43 -26.43 -1.80 216 211 213
-11.43 -26.51 -1.80 216 211 213
-11.44 -26.58 -1.79 216 211 213
-11.45 -26.66 -1.78 216 211 213
-11.44 -26.75 -1.79 216 211 213
-11.44 -26.83 -1.79 216 211 210
-11.45 -26.91 -1.78 216 211 210
-11.43 -27.00 -1.80 217 212 209
-11.44 -27.08 -1.79 217 212 209
-11.43 -27.16 -1.80 217 212 209
-11.43 -27.24 -1.80 217 212 209
-11.44 -27.32 -1.79 217 212 209
-11.43 -27.41 -1.80 217 212 209
-11.44 -27.48 -1.79 217 212 209
-11.43 -27.57 -1.80 218 213 210
-11.43 -27.65 -1.80 218 213 210
-11.43 -27.74 -1.80 218 213 210
-11.43 -27.82 -1.80 218 213 210
-11.43 -27.90 -1.80 218 213 210
-11.44 -27.98 -1.79 218 213 210
-11.43 -28.06 -1.80 218 213 210
-11.44 -28.14 -1.79 218 213 210
-11.44 -28.22 -1.79 218 213 210
-11.45 -28.30 -1.78 218 213 212
-11.45 -28.38 -1.78 218 213 212
-11.45 -28.46 -1.78 218 213 212
-11.44 -28.55 -1.79 220 215 214
-11.45 -28.62 -1.78 220 215 214
-11.45 -28.70 -1.78 220 215 214
-11.45 -28.79 -1.78 220 215 214
-11.45 -28.86 -1.77 220 215 214
-11.45 -28.95 -1.78 220 215 214
-11.45 -29.03 -1.78 220 215 214
-11.45 -29.11 -1.78 220 215 214
-11.45 -29.19 -1.78 221 216 215
-11.45 -29.27 -1.77 222 215 213
-11.45 -29.36 -1.78 222 215 213
-11.45 -29.44 -1.77 222 215 213
-11.45 -29.52 -1.77 222 215 213
-11.45 -29.60 -1.78 222 215 213
-11.45 -29.68 -1.77 222 215 213
-11.45 -29.77 -1.78 222 215 213
-11.45 -29.85 -1.78 222 215 213
-11.45 -29.93 -1.78 222 215 213
-11.45 -30.01 -1.77 224 217 215
-11.45 -30.09 -1.77 224 217 215
-11.45 -30.17 -1.78 224 217 215
-11.45 -30.26 -1.78 224 217 215
-11.44 -30.34 -1.79 224 217 215
-11.45 -30.42 -1.78 224 217 215
-11.44 -30.51 -1.79 224 217 215
-11.45 -30.59 -1.78 224 217 217
-11.45 -30.66 -1.78 225 218 218
-11.45 -30.75 -1.78 224 219 218
-11.45 -30.83 -1.78 224 219 218
-11.45 -30.91 -1.78 224 219 218
-11.45 -30.99 -1.78 224 219 218
-11.45 -31.07 -1.78 224 219 218
-11.45 -31.15 -1.78 224 219 218
-11.45 -31.23 -1.77 224 219 218
-11.46 -31.31 -1.77 224 219 218
-11.47 -31.38 -1.76 224 219 218
-11.47 -31.47 -1.76 224 219 218
-11.47 -31.54 -1.75 224 219 218
-11.49 -31.61 -1.73 224 219 218
-11.50 -31.68 -1.71 224 219 218
-11.51 -31.75 -1.69 224 219 218
-11.52 -31.83 -1.68 225 220 219
-11.53 -31.90 -1.67 226 221 220
-11.54 -31.97 -1.65 226 221 220
-11.57 -32.03 -1.61 227 222 221
-11.60 -32.08 -1.57 226 221 220
-11.62 -32.15 -1.55 225 220 219
-11.66 -32.20 -1.50 247 245 243
-11.69 -32.24 -1.45 252 250 248
-11.97 -32.08 -1.08 251 249 247
-12.39 -31.78 -0.50 254 252 250
-12.63 -31.66 -0.19 252 252 249
-12.70 -31.66 -0.08 253 253 250
-12.74 -31.71 -0.03 244 244 241
-12.71 -31.82 -0.08 255 255 252
-12.51 -32.08 -0.35 251 253 250
-12.12 -32.51 -0.87 249 251 248
-11.91 -32.78 -1.16 249 251 248
-12.11 -32.68 -0.89 250 252 249
-12.05 -32.81 -0.97 231 236 232
-11.16 19.05 -2.29 137 131 122
-11.13 19.00 -2.34 137 131 122
-11.12 18.92 -2.35 137 131 122
-11.08 18.88 -2.40 137 131 122
-11.08 18.79 -2.40 137 131 122
-11.08 18.71 -2.40 137 131 122
-11.04 18.66 -2.45 137 131 122
-11.03 18.59 -2.47 137 131 122
-11.03 18.51 -2.47 139 133 124
-11.01 18.44 -2.50 139 133 124
-11.00 18.37 -2.51 139 133 124
-11.00 18.29 -2.51 139 133 124
-11.00 18.21 -2.52 139 133 124
-11.00 18.13 -2.52 139 133 124
-10.99 18.05 -2.53 139 133 124
-10.98 17.97 -2.54 139 133 124
-10.96 17.90 -2.56 139 133 124
-10.96 17.83 -2.57 139 133 124
-10.95 17.75 -2.58 141 132 124
-10.95 17.66 -2.58 143 134 126
-10.95 17.58 -2.58 144 133 126
-10.95 17.50 -2.58 144 133 126
-10.95 17.42 -2.58 144 133 126
-10.94 17.34 -2.59 144 133 126
-10.94 17.26 -2.59 144 133 126
-10.95 17.17 -2.59 144 133 126
-10.94 17.09 -2.59 145 134 127
-10.94 17.01 -2.59 145 134 127
-10.94 16.93 -2.59 146 135 128
-10.93 16.85 -2.61 146 135 128
-10.92 16.78 -2.62 147 136 129
-10.91 16.70 -2.63 147 136 129
-10.91 16.62 -2.64 148 140 129
-10.90 16.54 -2.65 148 140 129
-10.89 16.47 -2.66 148 139 131
-10.88 16.39 -2.68 148 139 131
-10.87 16.32 -2.69 148 139 131
-10.87 16.24 -2.70 148 139 131
-10.86 16.16 -2.71 148 139 133
-10.85 16.08 -2.71 149 140 134
-10.85 16.00 -2.72 149 140 134
-10.84 15.93 -2.73 149 140 134
-10.84 15.84 -2.73 149 140 136
-10.83 15.77 -2.74 149 140 136
-10.83 15.68 -2.75 147 141 136
-10.82 15.60 -2.75 147 141 136
-10.82 15.52 -2.76 147 141 134
-10.81 15.45 -2.77 148 142 135
-10.80 15.37 -2.79 149 143 136
-10.79 15.29 -2.79 149 143 136
-10.78 15.22 -2.81 150 144 137
-10.78 15.13 -2.81 150 144 137
-10.78 15.05 -2.82 151 145 138
-10.77 14.97 -2.82 151 145 138
-10.77 14.89 -2.82 153 147 140
-10.77 14.81 -2.82 151 145 138
-10.77 14.73 -2.83 151 145 138
-10.76 14.64 -2.83 151 145 138
-10.76 14.56 -2.84 151 145 138
-10.76 14.48 -2.84 151 145 138
-10.76 14.40 -2.84 151 145 138
-10.76 14.32 -2.84 151 145 138
-10.75 14.24 -2.85 151 145 138
-10.75 14.15 -2.85 153 147 140
-10.75 14.07 -2.85 154 151 138
-10.75 13.99 -2.86 154 151 138
-10.75 13.90 -2.85 154 151 138
-10.75 13.82 -2.86 154 151 138
-10.75 13.74 -2.86 154 151 138
-10.75 13.65 -2.86 154 151 138
-10.74 13.58 -2.87 154 151 138
-10.74 13.49 -2.87 154 151 138
-10.73 13.41 -2.88 155 152 139
-10.73 13.33 -2.88 156 153 140
-10.72 13.25 -2.89 156 153 140
-10.72 13.17 -2.89 157 154 141
-10.72 13.09 -2.90 157 154 141
-10.71 13.00 -2.90 159 156 143
-10.71 12.92 -2.91 159 156 143
-10.70 12.85 -2.92 160 157 144
-10.69 12.77 -2.93 156 153 140
-10.69 12.68 -2.93 157 154 141
-10.69 12.60 -2.94 157 153 143
-10.68 12.52 -2.95 159 155 145
-10.68 12.44 -2.94 159 155 145
-10.68 12.36 -2.95 160 156 146
-10.68 12.27 -2.95 160 156 148
-10.68 12.19 -2.95 161 157 149
-10.67 12.11 -2.96 160 156 148
-10.67 12.03 -2.96 160 156 148
-10.67 11.94 -2.96 160 156 150
-10.67 11.86 -2.97 160 156 150
-10.66 11.78 -2.97 160 156 150
-10.66 11.70 -2.98 160 156 150
-10.65 11.62 -2.98 160 155 152
-10.65 11.53 -2.98 160 155 152
-10.64 11.46 -3.00 160 156 148
-10.64 11.37 -3.00 160 156 148
-10.64 11.29 -3.00 160 156 148
-10.63 11.21 -3.01 160 156 148
-10.64 11.12 -3.00 160 156 148
-10.64 11.04 -3.00 160 156 148
-10.64 10.96 -3.01 160 156 148
-10.63 10.87 -3.01 160 156 148
-10.63 10.79 -3.02 157 153 145
-10.63 10.71 -3.02 157 153 145
-10.63 10.62 -3.01 157 153 145
-10.63 10.54 -3.01 157 153 145
-10.62 10.46 -3.02 157 153 145
-10.62 10.38 -3.03 157 153 145
-10.62 10.29 -3.03 157 153 145
-10.61 10.21 -3.04 157 153 145
-10.61 10.13 -3.04 157 156 147
-10.61 10.05 -3.04 157 156 147
-10.61 9.96 -3.04 158 157 148
-10.61 9.88 -3.04 159 158 149
-10.61 9.79 -3.04 160 159 150
-10.61 9.71 -3.04 161 160 151
-10.60 9.63 -3.05 162 161 152
-10.62 9.54 -3.03 162 161 152
-10.61 9.46 -3.05 164 163 154
-10.61 9.37 -3.04 164 163 154
-10.60 9.29 -3.05 165 164 155
-10.59 9.21 -3.06 167 166 157
-10.60 9.13 -3.06 168 167 158
-10.59 9.05 -3.07 169 168 159
-10.59 8.96 -3.07 171 170 161
-10.58 8.88 -3.08 172 171 162
-10.58 8.80 -3.08 172 171 160
-10.58 8.72 -3.09 172 171 160
-10.58 8.63 -3.09 175 169 162
-10.58 8.55 -3.09 175 169 162
-10.58 8.46 -3.09 175 169 162
-10.58 8.38 -3.08 175 169 162
-10.58 8.29 -3.08 175 169 162
-10.58 8.21 -3.08 175 169 162
-10.58 8.12 -3.08 175 171 163
-10.58 8.04 -3.08 175 171 163
-10.58 7.96 -3.09 176 172 164
-10.58 7.87 -3.08 176 172 164
-10.58 7.79 -3.09 176 172 164
-10.57 7.71 -3.10 176 172 164
-10.57 7.62 -3.10 176 172 164
-10.57 7.54 -3.10 176 172 164
-10.57 7.46 -3.10 177 176 167
-10.56 7.37 -3.10 177 176 167
-10.56 7.29 -3.11 177 176 167
-10.56 7.21 -3.11 179 178 169
-10.55 7.13 -3.12 179 178 169
-10.55 7.04 -3.12 179 178 169
-10.55 6.96 -3.12 179 178 169
-10.55 6.87 -3.12 179 178 169
-10.55 6.79 -3.12 179 178 171
-10.55 6.70 -3.12 179 178 171
-10.55 6.62 -3.12 178 179 171
-10.55 6.54 -3.12 179 180 172
-10.56 6.45 -3.11 179 180 172
-10.55 6.37 -3.12 179 180 172
-10.56 6.28 -3.11 179 180 172
-10.56 6.19 -3.11 179 180 172
-10.56 6.11 -3.11 179 180 172
-10.55 6.03 -3.12 179 180 172
-10.55 5.95 -3.12 179 180 172
-10.55 5.86 -3.13 179 180 172
-10.56 5.78 -3.11 179 180 172
-10.55 5.69 -3.12 179 180 172
-10.55 5.61 -3.12 179 180 172
-10.56 5.52 -3.11 179 180 172
-10.56 5.44 -3.11 179 180 172
-10.56 5.35 -3.11 178 179 171
-10.56 5.27 -3.11 178 179 171
-10.55 5.19 -3.12 178 179 171
-10.55 5.10 -3.12 178 179 171
-10.56 5.01 -3.11 178 179 171
-10.56 4.93 -3.11 178 179 171
-10.56 4.85 -3.11 178 179 171
-10.55 4.76 -3.12 178 179 171
-10.55 4.68 -3.12 178 179 171
-10.56 4.59 -3.11 178 179 171
-10.56 4.51 -3.11 178 179 171
-10.56 4.42 -3.10 178 179 171
-10.56 4.34 -3.10 178 179 171
-10.56 4.25 -3.11 178 179 171
-10.56 4.17 -3.10 178 179 171
-10.57 4.08 -3.10 178 179 171
-10.58 4.00 -3.09 178 179 171
-10.58 3.91 -3.08 178 179 171
-10.58 3.82 -3.08 178 179 171
-10.59 3.74 -3.07 178 179 171
-10.59 3.65 -3.07 178 179 171
-10.60 3.57 -3.06 176 177 169
-10.60 3.48 -3.06 176 177 169
-10.59 3.40 -3.07 176 176 173
-10.60 3.31 -3.06 176 176 173
-10.60 3.23 -3.05 176 176 173
-10.60 3.15 -3.06 174 174 171
-10.60 3.06 -3.05 174 174 169
-10.60 2.98 -3.06 174 174 169
-10.60 2.89 -3.05 174 174 169
-10.61 2.80 -3.04 174 174 169
-10.60 2.72 -3.05 174 174 169
-10.61 2.64 -3.05 174 174 169
-10.61 2.55 -3.04 174 174 169
-10.61 2.47 -3.04 173 173 168
-10.61 2.38 -3.04 173 173 168
-10.61 2.30 -3.04 173 173 168
-10.61 2.21 -3.04 173 173 168
-10.61 2.13 -3.04 173 173 168
-10.61 2.05 -3.04 173 173 168
-10.62 1.96 -3.03 173 173 168
-10.62 1.87 -3.03 173 173 168
-10.62 1.79 -3.02 173 173 168
-10.62 1.70 -3.02 173 173 168
-10.63 1.62 -3.01 173 173 168
-10.63 1.53 -3.01 173 173 168
-10.63 1.45 -3.01 173 173 168
-10.63 1.37 -3.01 172 172 167
-10.63 1.28 -3.02 172 172 167
-10.63 1.20 -3.01 172 172 167
-10.64 1.11 -3.01 172 172 167
-10.64 1.03 -3.00 172 172 167
-10.64 0.94 -3.00 172 172 167
-10.65 0.86 -2.99 172 172 167
-10.65 0.77 -2.99 172 172 167
-10.65 0.69 -2.98 173 174 166
-10.66 0.60 -2.98 173 174 166
-10.67 0.51 -2.97 173 174 166
-10.66 0.43 -2.97 173 174 166
-10.67 0.35 -2.97 173 174 166
-10.67 0.26 -2.97 173 174 166
-10.67 0.18 -2.96 173 174 166
-10.67 0.09 -2.96 173 174 166
-10.67 0.01 -2.97 172 173 165
-10.68 -0.08 -2.95 172 173 165
-10.67 -0.16 -2.96 172 173 165
-10.68 -0.25 -2.95 172 173 165
-10.68 -0.33 -2.95 172 173 165
-10.68 -0.41 -2.94 172 173 165
-10.68 -0.50 -2.94 172 173 165
-10.68 -0.58 -2.95 172 173 165
-10.68 -0.66 -2.95 168 174 165
-10.68 -0.75 -2.95 168 174 165
-10.68 -0.83 -2.95 168 174 165
-10.67 -0.92 -2.95 168 174 165
-10.68 -1.00 -2.95 168 174 165
-10.69 -1.09 -2.94 168 174 165
-10.69 -1.17 -2.94 168 174 165
-10.69 -1.25 -2.94 169 175 166
-10.69 -1.34 -2.93 169 175 166
-10.69 -1.42 -2.93 169 175 166
-10.69 -1.51 -2.93 169 175 166
-10.69 -1.59 -2.93 169 175 166
-10.70 -1.68 -2.92 169 175 166
-10.69 -1.76 -2.93 169 175 166
-10.69 -1.84 -2.93 168 176 166
-10.69 -1.93 -2.93 168 176 166
-10.69 -2.01 -2.93 171 173 170
-10.70 -2.10 -2.92 171 173 170
-10.70 -2.18 -2.92 171 173 170
-10.70 -2.27 -2.92 171 173 170
-10.71 -2.35 -2.91 171 173 170
-10.70 -2.43 -2.92 171 173 170
-10.70 -2.52 -2.92 171 173 170
-10.70 -2.60 -2.92 171 173 170
-10.71 -2.69 -2.91 171 173 170
-10.70 -2.77 -2.91 171 173 170
-10.71 -2.85 -2.91 171 173 170
-10.70 -2.94 -2.91 171 173 170
-10.71 -3.02 -2.91 171 173 170
-10.70 -3.10 -2.92 171 173 170
-10.71 -3.19 -2.91 171 173 170
-10.70 -3.27 -2.91 171 173 170
-10.70 -3.36 -2.91 171 176 172
-10.71 -3.44 -2.91 171 176 172
-10.71 -3.53 -2.91 171 176 172
-10.71 -3.61 -2.91 171 176 172
-10.70 -3.69 -2.92 171 176 172
-10.71 -3.78 -2.91 171 176 172
-10.70 -3.86 -2.91 171 176 172
-10.71 -3.94 -2.91 171 176 172
-10.71 -4.03 -2.91 172 177 173
-10.71 -4.11 -2.91 172 177 173
-10.71 -4.20 -2.90 172 177 173
-10.71 -4.28 -2.90 172 177 173
-10.72 -4.37 -2.89 172 177 173
-10.72 -4.45 -2.89 172 177 173
-10.73 -4.53 -2.88 172 177 173
-10.72 -4.62 -2.89 172 177 173
-10.73 -4.70 -2.88 171 181 178
-10.73 -4.79 -2.88 171 181 178
-10.73 -4.87 -2.88 171 181 178
-10.74 -4.95 -2.87 171 181 178
-10.74 -5.04 -2.86 171 181 178
-10.74 -5.12 -2.86 171 181 178
-10.74 -5.21 -2.86 171 181 178
-10.74 -5.29 -2.87 171 181 178
-10.74 -5.37 -2.87 171 181 178
-10.74 -5.46 -2.86 171 181 178
-10.74 -5.54 -2.87 171 181 178
-10.74 -5.63 -2.87 171 181 178
-10.73 -5.71 -2.88 171 181 178
-10.74 -5.79 -2.87 171 181 178
-10.73 -5.88 -2.88 171 181 178
-10.72 -5.96 -2.89 171 181 178
-10.72 -6.04 -2.90 176 179 171
-10.71 -6.13 -2.91 176 179 171
-10.70 -6.21 -2.92 176 178 173
-10.70 -6.29 -2.92 176 178 173
-10.69 -6.38 -2.94 176 178 173
-10.68 -6.46 -2.95 176 178 173
-10.67 -6.55 -2.96 176 178 175
-10.67 -6.63 -2.97 176 178 175
-10.66 -6.71 -2.98 180 182 179
-10.67 -6.80 -2.97 173 175 172
-10.65 -6.88 -2.99 173 175 175
-10.65 -6.97 -2.99 178 180 180
-10.62 -7.05 -3.02 180 182 182
-10.58 -7.13 -3.08 176 178 178
-10.57 -7.22 -3.09 171 172 175
-10.81 -7.30 -2.77 179 180 183
-11.22 -7.39 -2.21 223 230 225
-11.43 -7.47 -1.92 245 252 247
-11.43 -7.55 -1.92 244 251 246
-11.47 -7.63 -1.88 250 255 252
-11.47 -7.71 -1.88 245 252 247
-11.46 -7.79 -1.89 240 247 242
-11.47 -7.88 -1.88 245 252 247
-11.46 -7.96 -1.90 246 253 248
-11.45 -8.04 -1.90 246 253 248
-11.44 -8.12 -1.91 246 253 248
-11.43 -8.20 -1.92 246 253 248
-11.42 -8.29 -1.94 246 253 248
-11.42 -8.37 -1.95 246 253 248
-11.40 -8.45 -1.96 246 253 248
-11.39 -8.53 -1.98 246 253 248
-11.38 -8.62 -1.99 246 253 248
-11.38 -8.70 -2.00 246 253 251
-11.36 -8.78 -2.03 246 253 251
-11.35 -8.86 -2.04 246 253 251
-11.34 -8.95 -2.05 246 253 251
-11.34 -9.03 -2.05 246 253 251
-11.34 -9.11 -2.05 246 253 251
-11.34 -9.19 -2.06 246 253 251
-11.33 -9.28 -2.07 246 253 251
-11.33 -9.36 -2.07 246 253 251
-11.33 -9.44 -2.07 246 253 251
-11.33 -9.52 -2.07 246 253 251
-11.32 -9.60 -2.08 246 253 251
-11.32 -9.69 -2.08 246 253 251
-11.32 -9.77 -2.08 246 253 251
-11.32 -9.85 -2.08 246 253 251
-11.32 -9.93 -2.08 246 253 251
-11.32 -10.02 -2.08 246 253 251
-11.33 -10.10 -2.07 246 253 251
-11.32 -10.18 -2.08 246 253 251
-11.33 -10.26 -2.07 246 253 251
-11.33 -10.34 -2.07 246 253 251
-11.33 -10.43 -2.07 246 253 251
-11.33 -10.51 -2.07 246 253 251
-11.33 -10.59 -2.07 246 253 251
-11.33 -10.67 -2.07 246 253 251
-11.33 -10.75 -2.06 246 253 251
-11.34 -10.83 -2.05 246 253 251
-11.34 -10.92 -2.05 246 253 251
-11.35 -11.00 -2.04 246 253 251
-11.35 -11.08 -2.04 246 253 251
-11.35 -11.16 -2.03 246 253 251
-11.35 -11.24 -2.03 246 253 251
-11.36 -11.33 -2.03 246 253 251
-11.36 -11.41 -2.03 246 253 251
-11.36 -11.49 -2.03 246 253 251
-11.36 -11.57 -2.03 246 253 251
-11.36 -11.65 -2.03 246 253 251
-11.36 -11.73 -2.03 246 253 251
-11.36 -11.82 -2.03 246 253 251
-11.36 -11.90 -2.02 246 253 251
-11.36 -11.98 -2.02 246 253 251
-11.36 -12.06 -2.02 246 253 251
-11.37 -12.14 -2.01 246 253 251
-11.37 -12.22 -2.01 246 253 251
-11.38 -12.31 -2.00 246 253 251
-11.38 -12.39 -2.00 246 253 251
-11.38 -12.47 -2.00 246 253 251
-11.38 -12.55 -2.00 246 253 251
-11.37 -12.63 -2.01 246 253 251
-11.37 -12.72 -2.01 247 254 252
-11.37 -12.80 -2.01 247 254 252
-11.36 -12.88 -2.02 247 254 252
-11.36 -12.97 -2.03 247 254 252
-11.34 -13.05 -2.05 246 253 251
-11.33 -13.14 -2.06 244 251 249
-11.32 -13.22 -2.08 244 251 249
-11.27 -13.31 -2.15 243 250 248
-11.17 -13.42 -2.29 241 248 246
-11.03 -13.53 -2.48 233 240 238
-10.86 -13.65 -2.71 208 215 213
-10.74 -13.76 -2.87 178 185 183
-10.70 -13.85 -2.91 173 180 178
-10.69 -13.94 -2.93 185 192 190
-10.71 -14.02 -2.91 192 199 197
-10.71 -14.10 -2.90 189 196 189
-10.72 -14.18 -2.90 188 195 188
-10.73 -14.26 -2.88 188 193 187
-10.74 -14.34 -2.86 190 195 189
-10.76 -14.42 -2.84 192 197 191
-10.77 -14.51 -2.83 193 198 192
-10.77 -14.59 -2.82 194 196 191
-10.78 -14.67 -2.81 192 194 189
-10.78 -14.75 -2.81 193 195 190
-10.77 -14.84 -2.82 193 195 190
-10.77 -14.92 -2.82 195 195 190
-10.77 -15.01 -2.83 195 195 190
-10.76 -15.09 -2.84 195 195 190
-10.76 -15.18 -2.84 195 195 190
-10.76 -15.26 -2.84 196 194 190
-10.76 -15.35 -2.84 196 194 190
-10.75 -15.43 -2.85 193 195 192
-10.75 -15.51 -2.85 194 196 193
-10.75 -15.60 -2.85 194 196 193
-10.75 -15.68 -2.85 195 197 194
-10.74 -15.77 -2.86 195 197 194
-10.74 -15.85 -2.87 197 199 196
-10.73 -15.94 -2.88 197 199 196
-10.73 -16.02 -2.88 198 200 197
-10.72 -16.11 -2.89 194 196 193
-10.72 -16.20 -2.90 194 196 193
-10.71 -16.28 -2.91 195 197 194
-10.70 -16.37 -2.92 197 199 196
-10.69 -16.46 -2.93 197 199 196
-10.68 -16.54 -2.94 198 200 197
-10.68 -16.63 -2.95 199 201 198
-10.67 -16.71 -2.96 199 201 198
-10.66 -16.80 -2.97 199 201 198
-10.65 -16.89 -2.98 198 200 197
-10.65 -16.97 -2.99 194 196 193
-10.64 -17.06 -3.00 190 192 189
-10.64 -17.15 -3.01 185 187 184
-10.64 -17.23 -3.00 179 181 178
-10.63 -17.32 -3.01 174 176 173
-10.63 -17.40 -3.02 172 174 171
-10.62 -17.49 -3.03 170 172 169
-10.61 -17.57 -3.04 170 172 169
-10.61 -17.66 -3.04 171 173 170
-10.61 -17.75 -3.05 172 174 171
-10.60 -17.83 -3.05 171 173 170
-10.59 -17.92 -3.07 171 173 170
-10.59 -18.01 -3.07 170 172 169
-10.57 -18.09 -3.09 169 171 168
-10.57 -18.18 -3.10 173 173 168
-10.56 -18.27 -3.10 170 170 165
-10.56 -18.35 -3.11 165 165 160
-10.56 -18.44 -3.11 160 160 155
-10.55 -18.53 -3.13 158 158 153
-10.54 -18.61 -3.13 159 159 154
-10.53 -18.70 -3.14 161 161 156
-10.53 -18.79 -3.15 164 164 159
-10.53 -18.87 -3.15 167 167 162
-10.53 -18.95 -3.15 178 178 173
-10.53 -19.04 -3.16 174 174 169
-10.53 -19.12 -3.15 180 180 175
-10.53 -19.21 -3.15 181 181 176
-10.53 -19.29 -3.15 174 174 169
-10.53 -19.38 -3.15 176 176 171
-10.53 -19.46 -3.15 164 164 159
-10.52 -19.55 -3.17 150 149 152
-10.51 -19.64 -3.18 142 141 144
-10.51 -19.72 -3.17 135 134 137
-10.52 -19.80 -3.17 138 137 140
-10.53 -19.88 -3.15 150 149 152
-10.56 -19.96 -3.11 159 158 161
-10.59 -20.03 -3.07 153 152 155
-10.62 -20.10 -3.03 143 142 145
-10.64 -20.17 -3.00 121 120 123
-10.68 -20.24 -2.95 83 82 85
-10.74 -20.29 -2.86 44 43 46
-10.81 -20.35 -2.78 20 19 22
-10.86 -20.41 -2.70 31 30 33
-10.90 -20.47 -2.64 47 46 49
-10.96 -20.53 -2.57 51 50 53
-11.03 -20.59 -2.48 62 61 64
-11.07 -20.65 -2.42 73 71 72
-11.14 -20.70 -2.33 70 68 69
-11.20 -20.75 -2.24 62 60 70
-11.28 -20.80 -2.13 53 51 61
-11.43 -20.81 -1.93 58 56 66
-11.68 -20.77 -1.58 45 43 53
-12.02 -20.69 -1.13 35 36 39
-12.46 -20.56 -0.53 34 35 38
-12.76 -20.49 -0.12 31 31 43
-13.01 -20.45 0.21 30 30 42
-13.14 -20.46 0.39 61 60 91
-13.25 -20.49 0.54 71 70 101
-13.30 -20.54 0.61 32 31 64
-13.31 -20.61 0.61 29 28 61
-13.31 -20.69 0.61 50 53 73
-13.29 -20.77 0.59 48 51 71
-13.28 -20.85 0.57 51 47 69
-13.30 -20.92 0.60 27 23 45
-13.34 -20.98 0.66 136 133 148
-13.38 -21.03 0.72 225 222 237
-13.42 -21.09 0.76 202 203 206
-13.44 -21.15 0.79 198 199 202
-13.45 -21.23 0.80 160 160 155
-13.47 -21.29 0.83 118 118 113
-13.50 -21.35 0.87 53 52 57
-13.51 -21.42 0.89 23 22 27
-13.53 -21.48 0.92 12 6 29
-13.52 -21.56 0.91 27 21 44
-13.54 -21.63 0.93 42 31 67
-13.59 -21.68 0.99 44 33 69
-13.56 -21.77 0.96 30 17 56
-13.40 -21.93 0.74 31 18 57
-13.04 -22.21 0.25 56 47 73
-12.62 -22.52 -0.32 124 115 141
-12.21 -22.83 -0.87 181 176 194
-11.82 -23.13 -1.40 238 233 251
-11.59 -23.34 -1.71 233 229 238
-11.56 -23.44 -1.75 216 212 221
-11.54 -23.53 -1.78 204 203 206
-11.58 -23.59 -1.73 217 216 219
-11.56 -23.68 -1.76 206 206 206
-11.56 -23.76 -1.75 208 208 208
-11.57 -23.84 -1.74 210 210 210
-11.58 -23.91 -1.73 210 210 210
-11.59 -23.99 -1.71 211 209 210
-11.60 -24.07 -1.70 210 208 209
-11.59 -24.15 -1.71 211 209 207
-11.59 -24.23 -1.71 211 209 207
-11.59 -24.32 -1.72 213 208 210
-11.60 -24.39 -1.70 213 208 210
-11.59 -24.48 -1.71 213 208 210
-11.59 -24.56 -1.72 213 208 210
-11.58 -24.65 -1.73 213 208 210
-11.58 -24.73 -1.73 213 208 210
-11.58 -24.81 -1.73 213 208 210
-11.57 -24.90 -1.74 214 209 211
-11.57 -24.98 -1.74 216 211 213
-11.57 -25.06 -1.74 216 211 213
-11.56 -25.15 -1.75 216 211 213
-11.56 -25.23 -1.75 216 211 213
-11.56 -25.31 -1.76 216 211 213
-11.56 -25.39 -1.76 216 211 213
-11.56 -25.48 -1.76 216 211 213
-11.55 -25.56 -1.76 216 211 213
-11.55 -25.64 -1.76 216 211 213
-11.55 -25.72 -1.76 217 212 214
-11.55 -25.80 -1.76 217 212 214
-11.55 -25.88 -1.76 217 212 214
-11.55 -25.97 -1.77 217 212 214
-11.55 -26.05 -1.77 217 212 214
-11.55 -26.13 -1.77 217 212 214
-11.55 -26.21 -1.76 217 212 214
-11.56 -26.29 -1.76 216 211 213
-11.56 -26.37 -1.76 216 211 213
-11.56 -26.45 -1.75 216 211 213
-11.57 -26.53 -1.74 216 211 213
-11.57 -26.61 -1.74 216 211 213
-11.57 -26.69 -1.74 216 211 213
-11.57 -26.77 -1.74 216 211 210
-11.56 -26.86 -1.75 216 211 210
-11.56 -26.94 -1.76 217 212 209
-11.55 -27.03 -1.76 217 212 209
-11.55 -27.11 -1.76 217 212 209
-11.55 -27.19 -1.77 217 212 209
-11.56 -27.27 -1.76 217 212 209
-11.55 -27.35 -1.76 217 212 209
-11.56 -27.43 -1.76 217 212 209
-11.55 -27.51 -1.76 218 213 210
-11.56 -27.59 -1.76 218 213 210
-11.55 -27.68 -1.77 218 213 210
-11.56 -27.76 -1.76 218 213 210
-11.55 -27.84 -1.76 218 213 210
-11.55 -27.92 -1.76 218 213 210
-11.55 -28.00 -1.76 218 213 210
-11.56 -28.08 -1.76 218 213 210
-11.56 -28.16 -1.75 218 213 210
-11.56 -28.24 -1.75 218 213 212
-11.57 -28.32 -1.74 218 213 212
-11.56 -28.40 -1.75 218 213 212
-11.56 -28.49 -1.75 219 214 213
-11.57 -28.56 -1.74 219 214 213
-11.56 -28.65 -1.75 219 214 213
-11.56 -28.73 -1.75 219 214 213
-11.56 -28.81 -1.75 219 214 213
-11.57 -28.89 -1.74 219 214 213
-11.57 -28.97 -1.74 219 214 213
-11.57 -29.05 -1.74 219 214 213
-11.57 -29.13 -1.74 220 215 214
-11.57 -29.21 -1.74 221 214 212
-11.57 -29.29 -1.74 221 214 212
-11.57 -29.37 -1.74 221 214 212
-11.57 -29.46 -1.74 221 214 212
-11.57 -29.54 -1.74 221 214 212
-11.58 -29.61 -1.73 221 214 212
-11.57 -29.70 -1.74 221 214 212
-11.58 -29.78 -1.73 221 214 212
-11.57 -29.86 -1.74 221 214 212
-11.57 -29.94 -1.74 222 215 213
-11.57 -30.02 -1.74 222 215 213
-11.57 -30.11 -1.74 222 215 213
-11.57 -30.19 -1.74 222 215 213
-11.56 -30.28 -1.75 222 215 213
-11.56 -30.36 -1.75 222 215 213
-11.57 -30.43 -1.74 222 215 213
-11.56 -30.52 -1.75 222 215 215
-11.57 -30.60 -1.74 224 217 217
-11.57 -30.68 -1.74 223 218 217
-11.58 -30.75 -1.73 223 218 217
-11.57 -30.84 -1.74 223 218 217
-11.57 -30.92 -1.74 224 219 218
-11.57 -31.00 -1.74 224 219 218
-11.57 -31.09 -1.74 224 219 218
-11.57 -31.16 -1.74 224 219 218
-11.58 -31.24 -1.73 224 219 218
-11.59 -31.32 -1.72 224 219 218
-11.59 -31.39 -1.71 224 219 218
-11.59 -31.47 -1.71 223 218 217
-11.61 -31.54 -1.68 223 218 217
-11.63 -31.61 -1.66 224 219 218
-11.64 -31.67 -1.64 224 219 218
-11.65 -31.75 -1.63 225 220 219
-11.67 -31.81 -1.60 225 220 219
-11.68 -31.88 -1.58 226 221 220
-11.71 -31.94 -1.55 226 221 220
-11.74 -31.99 -1.50 221 216 215
-11.77 -32.05 -1.47 220 215 214
-11.82 -32.09 -1.40 240 238 236
-11.86 -32.13 -1.35 250 248 246
-12.10 -32.00 -1.02 249 247 245
-12.50 -31.72 -0.48 252 250 248
-12.75 -31.58 -0.14 251 251 248
-12.84 -31.57 -0.01 252 252 249
-12.90 -31.60 0.06 248 248 245
-12.88 -31.69 0.04 252 252 249
-12.74 -31.90 -0.16 247 249 246
-12.35 -32.34 -0.69 244 246 243
-12.02 -32.71 -1.12 248 250 247
-12.20 -32.63 -0.89 249 251 248
-12.24 -32.67 -0.83 245 250 246
-9.98 -34.83 -3.89 141 146 142
-11.30 18.96 -2.23 137 131 122
-11.26 18.91 -2.28 137 131 122
-11.28 18.82 -2.26 137 131 122
-11.24 18.77 -2.32 137 131 122
-11.24 18.69 -2.32 137 131 122
-11.24 18.61 -2.32 137 131 122
-11.19 18.57 -2.38 137 131 122
-11.17 18.50 -2.40 137 131 122
-11.17 18.42 -2.40 139 133 124
-11.17 18.34 -2.41 139 133 124
-11.15 18.27 -2.43 139 133 124
-11.15 18.19 -2.44 139 133 124
-11.14 18.12 -2.45 139 133 124
-11.13 18.05 -2.47 139 133 124
-11.12 17.97 -2.48 139 133 124
-11.12 17.89 -2.48 139 133 124
-11.11 17.81 -2.49 139 133 124
-11.09 17.74 -2.51 139 133 124
-11.09 17.66 -2.52 141 132 124
-11.09 17.58 -2.52 143 134 126
-11.08 17.50 -2.53 144 133 128
-11.08 17.42 -2.53 144 133 128
-11.08 17.34 -2.53 144 133 128
-11.08 17.26 -2.53 144 133 128
-11.08 17.18 -2.54 144 133 128
-11.08 17.10 -2.54 144 133 128
-11.07 17.02 -2.54 145 134 129
-11.07 16.94 -2.55 145 134 129
-11.07 16.85 -2.55 146 135 130
-11.07 16.77 -2.55 146 135 130
-11.05 16.70 -2.57 146 137 129
-11.04 16.62 -2.58 146 137 129
-11.04 16.54 -2.58 148 140 129
-11.03 16.47 -2.60 148 140 129
-11.03 16.39 -2.60 148 139 131
-11.02 16.31 -2.61 148 139 131
-11.00 16.24 -2.64 148 139 131
-11.00 16.16 -2.64 148 139 131
-11.00 16.08 -2.65 148 139 133
-10.99 16.00 -2.65 149 140 134
-10.98 15.93 -2.66 149 140 134
-10.98 15.84 -2.66 149 140 134
-10.97 15.77 -2.68 149 140 136
-10.97 15.68 -2.68 149 140 136
-10.97 15.61 -2.69 147 141 136
-10.96 15.53 -2.70 147 141 136
-10.96 15.45 -2.70 147 141 134
-10.95 15.37 -2.71 148 142 135
-10.94 15.30 -2.73 149 143 136
-10.94 15.21 -2.73 149 143 136
-10.93 15.14 -2.74 150 144 137
-10.93 15.05 -2.74 150 144 137
-10.92 14.98 -2.75 151 145 138
-10.91 14.90 -2.76 151 145 138
-10.92 14.81 -2.75 153 147 140
-10.91 14.73 -2.76 151 145 138
-10.91 14.65 -2.77 151 145 138
-10.90 14.58 -2.78 151 145 138
-10.90 14.49 -2.78 151 145 138
-10.89 14.42 -2.79 151 145 138
-10.88 14.34 -2.80 151 145 138
-10.88 14.25 -2.80 151 145 138
-10.88 14.17 -2.80 151 145 138
-10.88 14.09 -2.81 153 147 140
-10.88 14.00 -2.81 154 151 138
-10.88 13.92 -2.81 154 151 138
-10.88 13.84 -2.80 154 151 138
-10.87 13.76 -2.82 154 151 138
-10.88 13.67 -2.81 154 151 138
-10.88 13.59 -2.80 154 151 138
-10.87 13.51 -2.81 154 151 138
-10.87 13.42 -2.81 154 151 138
-10.87 13.34 -2.81 155 152 139
-10.86 13.26 -2.82 156 153 140
-10.86 13.18 -2.83 156 153 140
-10.86 13.10 -2.83 157 154 141
-10.86 13.02 -2.84 157 154 141
-10.86 12.93 -2.84 159 156 143
-10.85 12.86 -2.85 159 156 143
-10.84 12.78 -2.86 160 157 144
-10.84 12.70 -2.86 156 153 140
-10.83 12.61 -2.87 157 154 141
-10.83 12.53 -2.87 157 153 143
-10.83 12.45 -2.88 159 155 145
-10.83 12.37 -2.88 159 155 145
-10.82 12.29 -2.88 160 156 146
-10.82 12.21 -2.89 160 156 148
-10.82 12.12 -2.89 161 157 149
-10.81 12.04 -2.89 160 156 148
-10.81 11.96 -2.90 160 156 148
-10.81 11.88 -2.90 160 156 150
-10.80 11.80 -2.91 160 156 150
-10.80 11.72 -2.91 160 156 150
-10.80 11.64 -2.92 160 156 150
-10.80 11.55 -2.92 160 155 152
-10.79 11.47 -2.93 160 155 152
-10.79 11.39 -2.93 160 156 148
-10.79 11.31 -2.93 160 156 148
-10.79 11.22 -2.93 160 156 148
-10.78 11.14 -2.94 160 156 148
-10.77 11.06 -2.95 160 156 148
-10.77 10.98 -2.95 160 156 148
-10.77 10.90 -2.95 160 156 148
-10.77 10.82 -2.96 160 156 148
-10.77 10.73 -2.96 157 153 145
-10.77 10.65 -2.96 157 153 145
-10.76 10.57 -2.97 157 153 145
-10.76 10.48 -2.97 157 153 145
-10.76 10.40 -2.97 157 153 145
-10.75 10.32 -2.98 157 153 145
-10.76 10.23 -2.97 157 153 145
-10.75 10.15 -2.98 157 153 145
-10.75 10.07 -2.98 155 154 145
-10.75 9.99 -2.98 155 154 145
-10.75 9.90 -2.98 157 156 147
-10.75 9.82 -2.98 158 157 148
-10.75 9.74 -2.98 159 158 149
-10.75 9.65 -2.98 160 159 150
-10.75 9.57 -2.98 161 160 151
-10.75 9.48 -2.98 161 160 151
-10.75 9.40 -2.98 162 161 152
-10.74 9.32 -2.99 164 163 154
-10.74 9.24 -2.99 165 164 155
-10.74 9.16 -3.00 166 165 156
-10.73 9.07 -3.00 167 166 157
-10.73 8.99 -3.01 169 168 159
-10.73 8.91 -3.01 171 170 161
-10.73 8.82 -3.01 171 170 161
-10.73 8.74 -3.01 171 173 158
-10.73 8.66 -3.01 171 173 158
-10.72 8.58 -3.02 174 170 160
-10.73 8.49 -3.01 174 170 160
-10.73 8.41 -3.01 175 169 160
-10.73 8.32 -3.01 175 169 160
-10.72 8.24 -3.02 175 169 160
-10.72 8.15 -3.02 175 169 160
-10.72 8.07 -3.02 175 171 161
-10.72 7.99 -3.02 175 171 161
-10.72 7.91 -3.03 174 173 162
-10.71 7.82 -3.03 174 173 162
-10.71 7.74 -3.03 175 174 163
-10.71 7.66 -3.04 175 174 163
-10.71 7.58 -3.04 175 174 163
-10.71 7.49 -3.04 175 174 163
-10.71 7.41 -3.04 177 176 167
-10.69 7.33 -3.06 177 176 167
-10.69 7.25 -3.06 177 176 169
-10.69 7.16 -3.06 179 178 171
-10.69 7.08 -3.06 179 178 171
-10.69 6.99 -3.06 179 178 171
-10.69 6.91 -3.06 179 178 171
-10.69 6.83 -3.06 179 178 171
-10.69 6.74 -3.06 179 178 171
-10.69 6.66 -3.06 179 178 171
-10.69 6.58 -3.06 179 177 173
-10.69 6.49 -3.06 180 178 174
-10.69 6.41 -3.06 179 179 174
-10.69 6.32 -3.06 179 179 174
-10.69 6.24 -3.06 179 179 174
-10.69 6.15 -3.06 179 179 174
-10.70 6.07 -3.05 179 180 172
-10.70 5.98 -3.05 179 180 172
-10.69 5.90 -3.06 179 179 174
-10.69 5.82 -3.06 179 179 174
-10.70 5.73 -3.05 179 179 174
-10.69 5.65 -3.06 179 179 174
-10.70 5.56 -3.05 179 179 174
-10.69 5.48 -3.06 179 179 174
-10.69 5.40 -3.06 179 179 174
-10.69 5.32 -3.07 178 178 173
-10.69 5.23 -3.06 178 178 173
-10.69 5.14 -3.06 178 178 173
-10.70 5.06 -3.05 178 178 173
-10.69 4.97 -3.06 178 178 173
-10.70 4.89 -3.05 178 179 171
