ply
format ascii 1.0
element vertex 1582
property float x
property float y
property float z
property uchar red
property uchar green
property uchar blue
end_header
-4.29 -15.30 -5.25 195 198 190
-4.32 -15.39 -5.21 195 198 190
-4.34 -15.48 -5.19 197 204 199
-4.35 -15.57 -5.18 192 199 194
-4.38 -15.66 -5.15 189 199 203
-4.37 -15.76 -5.15 209 219 223
-4.37 -15.86 -5.15 215 223 239
-4.43 -15.94 -5.08 191 199 215
-4.74 -15.96 -4.72 139 145 173
-5.27 -15.92 -4.09 94 100 128
-5.61 -15.93 -3.70 53 56 92
-5.61 -16.03 -3.70 20 23 59
-5.64 -16.11 -3.66 15 15 54
-5.63 -16.21 -3.68 8 8 47
-5.91 -16.23 -3.34 0 0 4
-6.10 -16.27 -3.12 53 57 61
-6.15 -16.35 -3.06 255 245 205
-6.47 -16.35 -2.68 242 232 192
-6.46 -16.44 -2.69 237 211 157
-6.69 -16.47 -2.42 241 215 161
-6.77 -16.54 -2.33 255 229 171
-6.86 -16.61 -2.23 203 173 115
-6.88 -16.69 -2.20 188 160 102
-6.92 -16.77 -2.16 213 185 127
-6.96 -16.84 -2.11 183 155 99
-7.01 -16.92 -2.04 178 150 94
-7.05 -17.00 -2.00 174 152 87
-7.08 -17.08 -1.96 178 156 91
-7.12 -17.16 -1.92 170 156 90
-7.15 -17.23 -1.88 164 150 84
-7.17 -17.32 -1.85 165 155 88
-7.22 -17.39 -1.80 172 162 95
-7.26 -17.47 -1.75 191 183 131
-7.31 -17.54 -1.69 197 189 137
-7.37 -17.61 -1.63 173 166 137
-7.41 -17.68 -1.58 245 238 209
-7.46 -17.76 -1.52 252 247 233
-7.50 -17.83 -1.47 245 240 226
-7.57 -17.90 -1.39 218 213 199
-7.64 -17.96 -1.31 220 215 201
-7.70 -18.03 -1.24 157 149 125
-7.75 -18.10 -1.18 121 113 89
-7.80 -18.17 -1.12 174 164 122
-7.85 -18.24 -1.06 190 180 138
-7.90 -18.31 -1.00 158 145 93
-7.95 -18.38 -0.94 174 161 109
-8.00 -18.45 -0.89 221 214 155
-8.03 -18.52 -0.84 199 192 133
-8.07 -18.59 -0.80 167 155 100
-8.10 -18.67 -0.76 172 160 105
-8.14 -18.74 -0.72 180 159 116
-8.17 -18.82 -0.68 161 140 97
-8.21 -18.89 -0.64 151 124 90
-8.24 -18.96 -0.60 129 102 68
-8.26 -19.04 -0.58 139 111 82
-8.29 -19.12 -0.54 143 115 86
-8.31 -19.20 -0.52 152 128 102
-8.34 -19.27 -0.48 186 162 136
-8.36 -19.35 -0.45 138 117 104
-8.35 -19.44 -0.47 165 144 131
-8.28 -19.55 -0.56 191 172 174
-7.74 -19.84 -1.18 49 30 32
-7.30 -20.10 -1.70 55 57 54
-7.27 -20.21 -1.75 53 55 52
-7.27 -20.29 -1.74 42 44 41
-7.25 -20.39 -1.77 50 52 49
-7.23 -20.48 -1.79 78 80 77
-6.87 -20.72 -2.21 120 122 119
-6.41 -20.99 -2.75 168 170 167
-5.80 -21.34 -3.48 188 190 187
-5.26 -21.65 -4.10 222 224 221
-5.13 -21.80 -4.26 235 237 234
-5.13 -21.89 -4.26 237 239 236
-5.13 -21.99 -4.26 229 231 228
-5.21 -22.05 -4.17 222 224 221
-5.16 -22.16 -4.22 219 221 218
-5.14 -22.27 -4.25 216 218 215
-5.11 -22.37 -4.28 219 221 218
-5.07 -22.49 -4.33 219 221 218
-5.03 -22.60 -4.38 223 225 222
-5.05 -22.68 -4.35 218 220 217
-5.05 -22.78 -4.35 222 224 221
-5.06 -22.87 -4.35 226 228 225
-5.07 -22.96 -4.33 220 222 219
-5.07 -23.05 -4.33 225 227 224
-5.07 -23.15 -4.33 226 228 225
-5.06 -23.25 -4.34 223 225 222
-5.07 -23.34 -4.33 223 225 222
-5.09 -23.42 -4.31 223 225 222
-5.10 -23.51 -4.29 223 225 222
-5.09 -23.61 -4.30 223 225 222
-5.09 -23.70 -4.30 223 225 222
-5.08 -23.80 -4.32 223 225 222
-5.07 -23.90 -4.33 223 225 222
-5.07 -24.00 -4.33 227 229 226
-5.06 -24.09 -4.34 227 229 226
-5.06 -24.19 -4.35 227 229 226
-5.06 -24.28 -4.34 227 229 226
-5.06 -24.38 -4.35 227 229 226
-5.05 -24.48 -4.35 227 229 226
-5.05 -24.57 -4.36 227 229 226
-5.05 -24.67 -4.36 227 229 226
-5.05 -24.76 -4.35 228 230 227
-5.05 -24.85 -4.35 228 230 227
-5.05 -24.95 -4.36 228 230 227
-5.05 -25.04 -4.36 228 230 227
-5.04 -25.14 -4.36 228 230 227
-5.04 -25.24 -4.37 228 230 227
-5.05 -25.33 -4.35 228 230 227
-5.04 -25.42 -4.36 228 230 227
-5.04 -25.52 -4.36 228 230 227
-5.04 -25.61 -4.36 228 230 227
-5.05 -25.70 -4.35 228 230 227
-5.05 -25.80 -4.35 228 230 227
-5.06 -25.89 -4.34 228 230 227
-5.06 -25.98 -4.34 228 230 227
-5.07 -26.07 -4.33 228 230 227
-5.06 -26.17 -4.34 228 230 227
-5.07 -26.26 -4.33 228 230 227
-5.07 -26.35 -4.33 228 230 227
-5.07 -26.45 -4.33 228 230 227
-5.08 -26.54 -4.31 228 230 227
-5.09 -26.63 -4.31 228 230 227
-5.09 -26.72 -4.30 228 230 227
-5.11 -26.81 -4.29 228 230 227
-5.12 -26.89 -4.28 228 230 227
-5.11 -26.99 -4.28 229 231 228
-5.12 -27.08 -4.27 229 231 228
-5.12 -27.17 -4.27 229 231 228
-5.13 -27.26 -4.26 229 231 228
-5.14 -27.35 -4.25 229 231 228
-5.14 -27.45 -4.25 229 231 228
-5.15 -27.54 -4.24 229 231 228
-5.16 -27.63 -4.23 229 231 228
-5.15 -27.72 -4.23 230 232 229
-5.16 -27.81 -4.22 230 232 229
-5.17 -27.90 -4.21 230 232 229
-5.17 -27.99 -4.21 230 232 229
-5.18 -28.08 -4.20 230 232 229
-5.18 -28.18 -4.20 230 232 229
-5.18 -28.27 -4.20 230 232 229
-5.18 -28.36 -4.20 230 232 229
-5.19 -28.45 -4.19 227 229 226
-5.18 -28.55 -4.20 227 229 226
-5.19 -28.64 -4.19 227 229 226
-5.19 -28.74 -4.19 227 229 226
-5.19 -28.83 -4.19 227 229 226
-5.19 -28.92 -4.19 227 229 226
-5.19 -29.02 -4.19 227 229 226
-5.19 -29.11 -4.19 227 229 226
-5.20 -29.20 -4.18 230 232 229
-5.19 -29.30 -4.19 230 232 229
-5.20 -29.39 -4.18 230 232 229
-5.20 -29.48 -4.17 230 232 229
-5.20 -29.57 -4.18 230 232 229
-5.20 -29.67 -4.17 230 232 229
-5.21 -29.76 -4.17 230 232 229
-5.21 -29.85 -4.17 230 232 229
-5.21 -29.95 -4.17 229 231 228
-5.21 -30.04 -4.17 229 231 228
-5.21 -30.13 -4.17 229 231 228
-5.21 -30.22 -4.16 229 231 228
-5.22 -30.31 -4.15 229 231 228
-5.23 -30.40 -4.15 229 231 228
-5.23 -30.50 -4.15 229 231 228
-5.24 -30.58 -4.13 229 231 228
-5.24 -30.68 -4.13 230 232 229
-5.24 -30.77 -4.13 230 232 229
-5.26 -30.85 -4.11 230 232 229
-5.27 -30.94 -4.10 230 232 229
-5.28 -31.03 -4.09 230 232 229
-5.28 -31.12 -4.08 230 232 229
-5.29 -31.20 -4.07 230 232 229
-5.30 -31.29 -4.06 230 232 229
-5.29 -31.39 -4.07 235 235 232
-5.30 -31.48 -4.06 235 235 232
-5.30 -31.57 -4.06 235 235 232
-5.31 -31.66 -4.05 235 235 232
-5.31 -31.75 -4.04 235 235 232
-5.31 -31.84 -4.04 235 235 232
-5.31 -31.94 -4.04 235 235 232
-5.31 -32.04 -4.05 235 235 232
-5.31 -32.13 -4.05 235 235 232
-5.31 -32.23 -4.05 235 235 232
-5.31 -32.32 -4.05 235 235 232
-5.32 -32.40 -4.04 235 235 232
-5.31 -32.50 -4.05 235 235 232
-5.31 -32.60 -4.05 235 235 232
-5.31 -32.69 -4.04 235 235 232
-5.31 -32.78 -4.05 235 235 232
-5.31 -32.88 -4.05 237 237 234
-5.31 -32.97 -4.05 237 237 234
-5.31 -33.07 -4.05 238 238 235
-5.31 -33.16 -4.05 238 238 235
-5.31 -33.25 -4.05 239 239 236
-5.31 -33.35 -4.05 239 239 236
-5.31 -33.44 -4.04 241 241 238
-5.32 -33.53 -4.03 241 241 238
-5.32 -33.62 -4.03 243 243 240
-5.32 -33.71 -4.03 243 243 240
-5.33 -33.80 -4.02 243 243 240
-5.33 -33.89 -4.02 243 243 240
-5.34 -33.98 -4.01 243 243 240
-5.35 -34.06 -4.00 243 243 240
-5.36 -34.15 -3.98 243 243 240
-5.38 -34.23 -3.96 243 243 240
-5.38 -34.32 -3.96 242 244 241
-5.40 -34.40 -3.95 242 244 241
-5.40 -34.50 -3.95 242 244 241
-5.40 -34.59 -3.94 242 244 241
-5.40 -34.68 -3.94 242 244 241
-5.40 -34.78 -3.94 242 244 241
-5.40 -34.86 -3.94 242 244 241
-5.40 -34.96 -3.94 242 244 241
-5.38 -35.07 -3.96 242 244 241
-5.40 -35.15 -3.95 242 244 241
-5.40 -35.24 -3.94 242 244 241
-5.40 -35.34 -3.94 242 244 241
-5.40 -35.43 -3.94 242 244 241
-5.41 -35.51 -3.93 242 244 241
-5.44 -35.58 -3.89 242 244 241
-5.49 -35.63 -3.83 242 244 241
-5.54 -35.69 -3.78 243 243 240
-5.61 -35.73 -3.70 241 241 238
-5.61 -35.81 -3.69 239 237 235
-5.57 -35.94 -3.74 243 241 239
-5.56 -36.04 -3.75 244 239 238
-5.57 -36.13 -3.74 247 242 241
-5.65 -36.16 -3.65 235 230 229
-5.25 22.70 -4.25 142 133 125
-5.23 22.62 -4.28 142 133 125
-5.24 22.52 -4.26 142 133 125
-5.23 22.44 -4.28 142 133 125
-5.24 22.33 -4.26 142 133 125
-5.26 22.22 -4.24 142 133 125
-5.23 22.15 -4.27 142 133 125
-5.22 22.06 -4.29 142 133 125
-5.23 21.97 -4.28 143 134 126
-5.21 21.88 -4.30 143 134 126
-5.21 21.79 -4.30 143 134 126
-5.21 21.70 -4.30 143 134 126
-5.20 21.61 -4.31 143 134 126
-5.20 21.52 -4.31 143 134 126
-5.20 21.43 -4.31 143 134 126
-5.19 21.34 -4.33 143 134 126
-5.18 21.25 -4.33 143 137 128
-5.18 21.16 -4.33 143 137 128
-5.17 21.07 -4.35 143 137 128
-5.17 20.98 -4.34 143 137 128
-5.17 20.88 -4.34 143 137 128
-5.16 20.80 -4.36 143 137 128
-5.16 20.71 -4.36 143 137 128
-5.15 20.62 -4.37 143 137 128
-5.14 20.53 -4.38 146 140 131
-5.14 20.44 -4.38 146 140 131
-5.13 20.35 -4.39 146 140 131
-5.13 20.26 -4.40 146 140 131
-5.13 20.16 -4.40 146 140 131
-5.12 20.07 -4.40 146 140 131
-5.11 19.99 -4.42 146 140 131
-5.11 19.89 -4.42 146 140 131
-5.11 19.80 -4.42 147 143 133
-5.10 19.71 -4.43 147 143 133
-5.10 19.62 -4.43 147 143 133
-5.10 19.53 -4.44 147 143 133
-5.09 19.44 -4.45 147 143 133
-5.08 19.35 -4.45 147 143 133
-5.07 19.26 -4.46 147 143 133
-5.07 19.17 -4.46 147 143 133
-5.06 19.08 -4.48 147 143 133
-5.06 18.99 -4.48 147 143 133
-5.06 18.90 -4.48 147 143 133
-5.05 18.81 -4.49 147 143 133
-5.04 18.72 -4.50 147 143 133
-5.04 18.63 -4.50 147 143 133
-5.04 18.53 -4.51 147 143 133
-5.03 18.45 -4.52 147 143 133
-5.02 18.36 -4.53 148 144 136
-5.01 18.27 -4.53 147 143 135
-5.01 18.17 -4.53 146 142 134
-5.01 18.08 -4.53 143 139 131
-5.01 17.98 -4.53 141 137 129
-5.01 17.89 -4.53 139 135 127
-5.01 17.80 -4.53 136 132 124
-5.00 17.71 -4.55 135 131 123
-4.99 17.62 -4.56 131 127 119
-5.00 17.52 -4.55 129 125 117
-4.98 17.44 -4.57 128 124 116
-5.00 17.33 -4.55 127 123 115
-4.99 17.24 -4.56 126 122 114
-4.98 17.15 -4.57 124 120 112
-4.99 17.06 -4.57 122 118 110
-4.98 16.97 -4.57 122 118 110
-4.98 16.87 -4.57 123 122 115
-4.97 16.79 -4.59 123 122 115
-4.96 16.70 -4.60 124 123 116
-4.95 16.61 -4.61 125 124 117
-4.94 16.52 -4.62 126 125 118
-4.93 16.43 -4.63 127 126 119
-4.92 16.35 -4.65 129 128 121
-4.90 16.26 -4.66 129 128 121
-4.90 16.17 -4.67 127 126 119
-4.88 16.09 -4.69 129 128 121
-4.88 15.99 -4.70 130 129 122
-4.87 15.90 -4.71 131 130 123
-4.87 15.81 -4.70 132 131 124
-4.87 15.71 -4.70 133 132 125
-4.87 15.62 -4.71 134 133 126
-4.86 15.53 -4.71 136 135 128
-4.85 15.44 -4.72 137 136 127
-4.86 15.34 -4.72 137 136 127
-4.85 15.25 -4.72 138 137 128
-4.85 15.15 -4.72 140 139 130
-4.84 15.06 -4.73 141 140 131
-4.85 14.96 -4.73 143 142 133
-4.85 14.87 -4.73 144 143 134
-4.84 14.78 -4.74 145 144 135
-4.84 14.69 -4.74 144 143 134
-4.83 14.59 -4.75 144 143 134
-4.83 14.50 -4.76 145 144 135
-4.83 14.41 -4.76 147 146 137
-4.83 14.31 -4.75 150 149 140
-4.83 14.22 -4.75 153 152 143
-4.83 14.12 -4.75 157 156 147
-4.83 14.03 -4.75 159 158 149
-4.83 13.93 -4.75 160 156 148
-4.83 13.84 -4.75 160 156 148
-4.83 13.74 -4.75 160 156 148
-4.83 13.65 -4.76 161 157 149
-4.82 13.55 -4.76 162 158 150
-4.83 13.46 -4.76 162 158 150
-4.82 13.37 -4.76 163 159 151
-4.81 13.27 -4.77 163 159 151
-4.81 13.18 -4.77 161 157 149
-4.80 13.09 -4.78 162 158 150
-4.80 13.00 -4.79 162 158 150
-4.80 12.90 -4.79 163 159 151
-4.80 12.80 -4.78 163 159 151
-4.80 12.71 -4.79 164 160 152
-4.80 12.62 -4.79 164 160 152
-4.79 12.53 -4.80 166 162 154
-4.78 12.44 -4.81 167 163 155
-4.79 12.33 -4.80 167 163 155
-4.78 12.25 -4.81 167 163 155
-4.79 12.15 -4.80 167 163 155
-4.79 12.05 -4.80 167 163 155
-4.79 11.95 -4.80 167 163 155
-4.79 11.86 -4.80 167 163 155
-4.78 11.77 -4.81 167 163 155
-4.79 11.67 -4.80 168 164 156
-4.78 11.58 -4.81 168 164 156
-4.78 11.48 -4.81 168 164 156
-4.78 11.39 -4.81 168 164 156
-4.77 11.30 -4.82 168 164 156
-4.77 11.20 -4.82 168 164 156
-4.76 11.11 -4.83 168 164 156
-4.76 11.02 -4.83 168 164 156
-4.75 10.93 -4.84 166 165 156
-4.74 10.83 -4.85 166 165 156
-4.74 10.74 -4.86 166 165 156
-4.73 10.65 -4.86 166 165 156
-4.74 10.55 -4.86 166 165 156
-4.74 10.46 -4.86 166 165 156
-4.74 10.36 -4.86 166 165 156
-4.73 10.27 -4.87 166 165 156
-4.72 10.18 -4.88 166 165 156
-4.73 10.08 -4.87 167 166 157
-4.72 9.99 -4.88 167 166 157
-4.73 9.89 -4.86 168 167 158
-4.73 9.79 -4.87 168 167 158
-4.73 9.70 -4.87 169 168 159
-4.73 9.60 -4.86 169 168 159
-4.73 9.50 -4.86 171 170 161
-4.73 9.41 -4.87 167 168 158
-4.73 9.31 -4.86 167 168 158
-4.73 9.22 -4.87 167 168 158
-4.73 9.12 -4.87 167 168 158
-4.73 9.03 -4.87 167 168 158
-4.73 8.93 -4.87 167 168 158
-4.73 8.84 -4.86 167 168 158
-4.73 8.74 -4.87 167 168 158
-4.73 8.65 -4.87 170 171 161
-4.73 8.55 -4.87 170 171 161
-4.72 8.46 -4.88 170 171 161
-4.73 8.36 -4.87 170 171 161
-4.72 8.27 -4.88 170 171 161
-4.73 8.17 -4.87 170 171 161
-4.72 8.08 -4.88 170 171 161
-4.72 7.98 -4.88 170 171 161
-4.71 7.89 -4.89 171 172 162
-4.71 7.80 -4.90 171 172 162
-4.71 7.70 -4.89 171 172 162
-4.70 7.61 -4.90 171 172 162
-4.70 7.52 -4.91 171 172 162
-4.70 7.42 -4.91 171 172 162
-4.69 7.33 -4.91 171 172 162
-4.68 7.24 -4.92 171 172 162
-4.68 7.14 -4.93 172 173 163
-4.67 7.05 -4.94 172 173 163
-4.66 6.96 -4.96 172 173 163
-4.66 6.86 -4.95 172 173 163
-4.65 6.77 -4.96 172 173 163
-4.67 6.67 -4.94 172 173 163
-4.66 6.58 -4.95 172 173 163
-4.66 6.48 -4.96 172 173 163
-4.65 6.39 -4.97 172 172 167
-4.64 6.30 -4.97 172 172 167
-4.65 6.20 -4.96 172 172 167
-4.65 6.10 -4.97 172 172 167
-4.65 6.01 -4.97 172 172 167
-4.64 5.91 -4.98 172 172 167
-4.64 5.82 -4.97 172 172 167
-4.64 5.72 -4.97 172 172 167
-4.64 5.63 -4.98 172 172 167
-4.64 5.53 -4.98 172 172 167
-4.63 5.44 -4.98 172 172 167
-4.64 5.34 -4.98 172 172 167
-4.63 5.25 -4.98 172 172 167
-4.63 5.15 -4.98 172 172 167
-4.63 5.06 -4.98 172 172 167
-4.63 4.96 -4.99 172 172 167
-4.63 4.87 -4.99 173 173 168
-4.63 4.77 -4.99 173 173 168
-4.63 4.67 -4.98 173 173 168
-4.64 4.57 -4.98 173 173 168
-4.64 4.48 -4.98 173 173 168
-4.65 4.38 -4.96 173 173 168
-4.65 4.28 -4.96 173 173 168
-4.65 4.19 -4.96 173 173 168
-4.67 4.09 -4.94 173 173 168
-4.65 4.00 -4.96 173 173 168
-4.66 3.90 -4.95 173 173 168
-4.66 3.80 -4.96 173 173 168
-4.66 3.71 -4.95 173 173 168
-4.66 3.61 -4.95 173 173 168
-4.66 3.52 -4.95 173 173 168
-4.66 3.42 -4.96 173 173 168
-4.65 3.33 -4.96 171 174 166
-4.65 3.23 -4.96 171 174 166
-4.66 3.13 -4.96 171 174 166
-4.65 3.04 -4.96 171 174 166
-4.65 2.95 -4.97 171 174 166
-4.65 2.85 -4.97 171 174 166
-4.65 2.75 -4.97 171 174 166
-4.63 2.66 -4.98 171 174 166
-4.63 2.57 -4.98 171 174 166
-4.62 2.48 -5.00 171 174 166
-4.61 2.38 -5.01 171 174 166
-4.61 2.29 -5.01 171 174 166
-4.60 2.19 -5.02 171 174 166
-4.60 2.10 -5.02 171 174 166
-4.59 2.00 -5.03 171 174 166
-4.58 1.91 -5.04 171 174 166
-4.58 1.81 -5.04 169 174 168
-4.59 1.72 -5.04 169 174 168
-4.58 1.62 -5.05 169 174 168
-4.59 1.53 -5.04 169 174 168
-4.59 1.43 -5.03 169 174 168
-4.59 1.33 -5.03 169 174 168
-4.61 1.23 -5.01 169 174 168
-4.61 1.14 -5.01 169 174 168
-4.61 1.04 -5.00 169 174 168
-4.61 0.95 -5.01 169 174 168
-4.62 0.85 -4.99 169 174 168
-4.63 0.75 -4.99 169 174 168
-4.63 0.65 -4.98 169 174 168
-4.64 0.56 -4.97 169 174 168
-4.63 0.46 -4.98 169 174 168
-4.63 0.37 -4.99 169 174 168
-4.62 0.27 -5.00 170 175 169
-4.62 0.18 -5.00 170 175 169
-4.61 0.08 -5.00 170 175 169
-4.62 -0.01 -4.99 170 175 169
-4.63 -0.11 -4.99 170 175 169
-4.62 -0.21 -5.00 170 175 169
-4.62 -0.30 -4.99 170 175 169
-4.63 -0.40 -4.99 170 175 169
-4.63 -0.49 -4.98 171 176 170
-4.63 -0.59 -4.98 171 176 170
-4.64 -0.69 -4.97 171 176 170
-4.65 -0.78 -4.97 171 176 170
-4.65 -0.88 -4.97 171 176 170
-4.65 -0.98 -4.96 171 176 170
-4.65 -1.07 -4.97 171 176 170
-4.65 -1.17 -4.97 171 176 170
-4.64 -1.26 -4.97 171 178 171
-4.63 -1.36 -4.99 171 178 171
-4.62 -1.45 -4.99 171 178 171
-4.63 -1.55 -4.99 171 178 171
-4.63 -1.64 -4.99 171 178 171
-4.63 -1.74 -4.99 171 178 171
-4.63 -1.83 -4.99 171 178 171
-4.62 -1.93 -5.00 171 178 171
-4.63 -2.02 -4.99 173 180 173
-4.62 -2.12 -5.00 173 180 173
-4.61 -2.21 -5.00 173 180 173
-4.61 -2.31 -5.00 173 180 173
-4.62 -2.41 -5.00 173 180 173
-4.62 -2.50 -5.00 173 180 173
-4.61 -2.60 -5.01 173 180 173
-4.61 -2.69 -5.00 173 180 173
-4.61 -2.79 -5.01 173 180 175
-4.61 -2.88 -5.01 173 180 175
-4.61 -2.98 -5.01 173 180 175
-4.62 -3.08 -5.00 173 180 175
-4.61 -3.17 -5.00 173 180 175
-4.62 -3.27 -5.00 173 180 175
-4.62 -3.36 -5.00 173 180 175
-4.61 -3.46 -5.01 173 180 175
-4.61 -3.56 -5.00 175 182 177
-4.61 -3.65 -5.01 175 182 177
-4.61 -3.75 -5.01 175 182 177
-4.61 -3.84 -5.01 175 182 177
-4.62 -3.94 -5.00 175 182 177
-4.63 -4.04 -4.99 175 182 177
-4.63 -4.13 -4.99 175 182 177
-4.63 -4.23 -4.99 175 182 177
-4.63 -4.32 -4.99 175 182 177
-4.62 -4.42 -5.00 175 182 177
-4.62 -4.51 -5.00 175 182 177
-4.62 -4.61 -5.00 175 182 177
-4.62 -4.70 -5.00 175 182 177
-4.62 -4.80 -5.00 175 182 177
-4.61 -4.90 -5.01 175 182 177
-4.60 -4.99 -5.02 175 182 177
-4.60 -5.09 -5.03 175 182 177
-4.59 -5.18 -5.04 175 182 177
-4.58 -5.28 -5.04 175 182 177
-4.58 -5.37 -5.05 175 182 177
-4.58 -5.47 -5.05 175 182 177
-4.58 -5.56 -5.04 175 182 177
-4.57 -5.66 -5.05 175 182 177
-4.57 -5.76 -5.06 175 182 177
-4.57 -5.85 -5.06 177 184 179
-4.58 -5.95 -5.05 177 184 179
-4.58 -6.04 -5.05 177 184 179
-4.59 -6.14 -5.03 177 184 179
-4.59 -6.24 -5.03 177 184 179
-4.58 -6.33 -5.05 177 184 179
-4.58 -6.43 -5.04 177 184 179
-4.58 -6.52 -5.05 177 184 179
-4.58 -6.62 -5.05 178 185 180
-4.57 -6.71 -5.06 178 185 180
-4.56 -6.81 -5.06 178 185 180
-4.56 -6.91 -5.07 178 185 180
-4.56 -7.00 -5.07 178 185 180
-4.56 -7.10 -5.07 178 185 180
-4.55 -7.19 -5.08 178 185 180
-4.55 -7.29 -5.09 178 185 180
-4.54 -7.38 -5.10 178 185 180
-4.53 -7.48 -5.10 178 185 180
-4.53 -7.58 -5.11 178 185 180
-4.53 -7.67 -5.11 178 185 180
-4.53 -7.77 -5.11 178 185 180
-4.53 -7.86 -5.11 178 185 180
-4.53 -7.96 -5.10 178 185 180
-4.53 -8.06 -5.10 178 185 180
-4.53 -8.15 -5.10 180 187 182
-4.53 -8.25 -5.10 180 187 182
-4.52 -8.34 -5.11 180 187 182
-4.53 -8.44 -5.11 180 187 182
-4.53 -8.54 -5.10 180 187 182
-4.53 -8.63 -5.10 180 187 182
-4.53 -8.73 -5.10 180 187 182
-4.54 -8.82 -5.10 180 187 182
-4.53 -8.92 -5.10 183 190 188
-4.53 -9.02 -5.11 183 190 188
-4.53 -9.11 -5.11 183 190 188
-4.54 -9.21 -5.10 183 190 188
-4.54 -9.30 -5.09 183 190 188
-4.54 -9.40 -5.09 183 190 188
-4.55 -9.50 -5.09 183 190 188
-4.55 -9.59 -5.08 183 190 188
-4.55 -9.69 -5.08 182 189 187
-4.55 -9.78 -5.08 183 190 188
-4.55 -9.88 -5.08 183 190 188
-4.55 -9.97 -5.09 184 191 189
-4.55 -10.07 -5.08 184 191 189
-4.56 -10.17 -5.07 185 192 190
-4.56 -10.26 -5.07 185 192 190
-4.56 -10.36 -5.07 187 194 192
-4.56 -10.45 -5.07 187 194 189
-4.55 -10.55 -5.08 187 194 189
-4.55 -10.65 -5.08 187 194 189
-4.55 -10.74 -5.09 187 194 189
-4.55 -10.84 -5.08 187 194 189
-4.54 -10.93 -5.09 187 194 189
-4.54 -11.03 -5.09 187 194 189
-4.54 -11.13 -5.10 187 194 189
-4.54 -11.22 -5.10 187 194 189
-4.53 -11.32 -5.10 187 194 189
-4.53 -11.42 -5.11 187 194 189
-4.53 -11.51 -5.10 187 194 189
-4.52 -11.61 -5.12 187 194 189
-4.52 -11.70 -5.12 187 194 189
-4.51 -11.80 -5.12 187 194 189
-4.50 -11.90 -5.14 187 194 189
-4.49 -12.00 -5.15 187 194 192
-4.48 -12.09 -5.17 188 195 193
-4.47 -12.19 -5.17 188 195 193
-4.47 -12.29 -5.18 189 196 194
-4.46 -12.38 -5.18 189 196 194
-4.46 -12.48 -5.19 190 197 195
-4.45 -12.58 -5.20 190 197 195
-4.45 -12.68 -5.20 191 198 196
-4.44 -12.77 -5.22 192 199 197
-4.44 -12.87 -5.21 192 199 197
-4.43 -12.97 -5.22 192 199 197
-4.43 -13.06 -5.22 192 199 197
-4.44 -13.16 -5.21 192 199 197
-4.43 -13.26 -5.22 192 199 197
-4.44 -13.35 -5.21 192 199 197
-4.43 -13.45 -5.22 192 199 197
-4.42 -13.55 -5.23 196 203 201
-4.41 -13.64 -5.24 196 203 201
-4.41 -13.74 -5.25 196 203 201
-4.41 -13.84 -5.25 196 203 201
-4.41 -13.93 -5.25 196 203 201
-4.42 -14.03 -5.24 196 203 201
-4.40 -14.13 -5.25 196 203 201
-4.41 -14.22 -5.24 196 203 201
-4.42 -14.32 -5.24 196 203 201
-4.42 -14.41 -5.23 196 203 201
-4.43 -14.51 -5.23 196 203 201
-4.42 -14.61 -5.23 196 203 201
-4.43 -14.70 -5.23 196 203 201
-4.43 -14.80 -5.22 196 203 201
-4.43 -14.89 -5.22 196 203 201
-4.44 -14.99 -5.21 196 203 201
-4.45 -15.08 -5.20 199 200 192
-4.48 -15.17 -5.16 201 202 194
-4.51 -15.26 -5.13 198 201 193
-4.53 -15.35 -5.11 198 201 193
-4.52 -15.45 -5.12 194 201 196
-4.47 -15.56 -5.17 203 210 205
-4.46 -15.66 -5.19 210 220 224
-4.69 -15.70 -4.91 206 216 220
-5.14 -15.68 -4.38 166 174 190
-5.43 -15.71 -4.04 108 116 132
-5.66 -15.75 -3.77 45 51 79
-5.77 -15.81 -3.64 24 30 58
-5.84 -15.89 -3.56 15 18 54
-5.83 -15.98 -3.57 13 16 52
-5.86 -16.07 -3.53 25 25 64
-5.90 -16.15 -3.49 17 17 56
-6.22 -16.16 -3.10 0 3 7
-6.45 -16.19 -2.83 149 153 157
-6.28 -16.33 -3.04 255 246 206
-6.60 -16.33 -2.66 232 222 182
-6.70 -16.39 -2.54 239 213 159
-6.90 -16.43 -2.31 247 221 167
-6.94 -16.51 -2.26 242 212 154
-6.97 -16.59 -2.22 186 156 98
-6.99 -16.67 -2.20 193 165 107
-7.01 -16.76 -2.18 205 177 119
-7.04 -16.83 -2.14 175 147 91
-7.08 -16.91 -2.09 172 144 88
-7.12 -16.99 -2.05 194 172 107
-7.16 -17.07 -2.01 188 166 101
-7.18 -17.15 -1.97 180 166 100
-7.21 -17.23 -1.94 173 159 93
-7.23 -17.31 -1.92 167 157 90
-7.27 -17.39 -1.87 166 156 89
-7.31 -17.46 -1.82 154 146 94
-7.35 -17.54 -1.77 144 136 84
-7.40 -17.61 -1.72 131 124 95
-7.45 -17.69 -1.66 186 179 150
-7.50 -17.76 -1.60 198 193 179
-7.53 -17.83 -1.56 214 209 195
-7.59 -17.90 -1.49 243 238 224
-7.65 -17.97 -1.42 253 248 234
-7.73 -18.03 -1.33 201 193 169
-7.79 -18.10 -1.25 164 156 132
-7.85 -18.17 -1.18 165 155 113
-7.90 -18.23 -1.12 167 157 115
-7.95 -18.31 -1.06 157 144 92
-8.01 -18.37 -0.99 153 140 88
-8.05 -18.44 -0.95 179 172 113
-8.09 -18.52 -0.90 172 165 106
-8.14 -18.58 -0.84 128 116 61
-8.18 -18.66 -0.80 128 116 61
-8.21 -18.73 -0.76 138 117 74
-8.25 -18.81 -0.71 156 135 92
-8.28 -18.88 -0.68 145 118 84
-8.31 -18.95 -0.64 133 106 72
-8.34 -19.03 -0.60 150 122 93
-8.37 -19.10 -0.57 140 112 83
-8.38 -19.18 -0.55 156 132 106
-8.42 -19.26 -0.51 165 141 115
-8.44 -19.33 -0.49 126 105 92
-8.45 -19.41 -0.48 188 167 154
-8.30 -19.56 -0.65 140 121 123
-7.77 -19.85 -1.27 31 12 14
-7.59 -20.01 -1.50 51 53 50
-7.58 -20.10 -1.50 59 61 58
-7.54 -20.20 -1.55 52 54 51
-7.47 -20.32 -1.63 41 43 40
-7.45 -20.42 -1.66 32 34 31
-7.52 -20.47 -1.57 39 41 38
-7.53 -20.56 -1.57 66 68 65
-7.30 -20.74 -1.83 81 83 80
-6.91 -20.99 -2.30 123 125 122
-6.46 -21.27 -2.83 161 163 160
-6.09 -21.51 -3.26 200 202 199
-5.68 -21.78 -3.75 225 227 224
-5.50 -21.94 -3.95 234 236 233
-5.23 -22.15 -4.28 232 234 231
-5.19 -22.26 -4.32 230 232 229
-5.22 -22.35 -4.29 236 238 235
-5.24 -22.43 -4.26 219 221 218
-5.22 -22.54 -4.29 222 224 221
-5.22 -22.63 -4.29 222 224 221
-5.24 -22.71 -4.26 223 225 222
-5.22 -22.82 -4.29 225 227 224
-5.26 -22.89 -4.24 222 224 221
-5.28 -22.98 -4.22 223 225 222
-5.28 -23.07 -4.22 225 227 224
-5.27 -23.17 -4.23 225 227 224
-5.27 -23.26 -4.23 225 227 224
-5.28 -23.35 -4.22 225 227 224
-5.30 -23.44 -4.20 225 227 224
-5.31 -23.53 -4.18 225 227 224
-5.30 -23.62 -4.19 225 227 224
-5.29 -23.72 -4.20 225 227 224
-5.29 -23.82 -4.21 225 227 224
-5.28 -23.92 -4.22 226 228 225
-5.27 -24.02 -4.23 226 228 225
-5.26 -24.12 -4.24 226 228 225
-5.26 -24.21 -4.24 226 228 225
-5.25 -24.31 -4.25 226 228 225
-5.26 -24.40 -4.24 226 228 225
-5.26 -24.49 -4.25 226 228 225
-5.25 -24.59 -4.25 226 228 225
-5.24 -24.69 -4.26 227 229 226
-5.24 -24.78 -4.27 227 229 226
-5.23 -24.88 -4.28 227 229 226
-5.23 -24.98 -4.28 227 229 226
-5.24 -25.07 -4.27 227 229 226
-5.24 -25.16 -4.26 227 229 226
-5.24 -25.25 -4.27 227 229 226
-5.24 -25.34 -4.26 227 229 226
-5.24 -25.44 -4.27 227 229 226
-5.24 -25.54 -4.27 227 229 226
-5.24 -25.63 -4.26 227 229 226
-5.25 -25.72 -4.25 227 229 226
-5.26 -25.81 -4.25 227 229 226
-5.26 -25.90 -4.25 227 229 226
-5.26 -26.00 -4.25 227 229 226
-5.26 -26.09 -4.24 227 229 226
-5.26 -26.18 -4.24 227 229 226
-5.27 -26.27 -4.24 227 229 226
-5.27 -26.37 -4.24 227 229 226
-5.28 -26.45 -4.22 227 229 226
-5.28 -26.55 -4.22 227 229 226
-5.29 -26.63 -4.20 227 229 226
-5.30 -26.72 -4.19 227 229 226
-5.31 -26.81 -4.18 227 229 226
-5.31 -26.91 -4.18 228 230 227
-5.31 -27.00 -4.18 228 230 227
-5.32 -27.09 -4.17 228 230 227
-5.32 -27.18 -4.17 228 230 227
-5.34 -27.27 -4.15 228 230 227
-5.34 -27.36 -4.14 228 230 227
-5.34 -27.45 -4.14 228 230 227
-5.34 -27.54 -4.14 228 230 227
-5.35 -27.64 -4.14 229 231 228
-5.35 -27.73 -4.13 229 231 228
-5.35 -27.82 -4.13 229 231 228
-5.36 -27.91 -4.12 229 231 228
-5.37 -28.00 -4.11 229 231 228
-5.36 -28.10 -4.12 229 231 228
-5.37 -28.19 -4.12 229 231 228
-5.37 -28.28 -4.11 229 231 228
-5.37 -28.37 -4.11 227 229 226
-5.37 -28.47 -4.12 227 229 226
-5.37 -28.56 -4.11 227 229 226
-5.37 -28.65 -4.11 227 229 226
-5.37 -28.74 -4.11 227 229 226
-5.38 -28.83 -4.10 227 229 226
-5.38 -28.93 -4.10 227 229 226
-5.38 -29.02 -4.10 227 229 226
-5.38 -29.11 -4.10 229 231 228
-5.38 -29.21 -4.10 229 231 228
-5.38 -29.30 -4.10 229 231 228
-5.40 -29.38 -4.08 229 231 228
-5.39 -29.48 -4.08 229 231 228
-5.40 -29.57 -4.08 229 231 228
-5.40 -29.66 -4.08 229 231 228
-5.40 -29.76 -4.08 229 231 228
-5.40 -29.85 -4.08 229 231 228
-5.40 -29.95 -4.08 229 231 228
-5.40 -30.04 -4.07 229 231 228
-5.41 -30.13 -4.07 229 231 228
-5.41 -30.22 -4.07 229 231 228
-5.42 -30.31 -4.05 229 231 228
-5.42 -30.40 -4.05 229 231 228
-5.43 -30.48 -4.04 229 231 228
-5.42 -30.58 -4.05 230 232 229
-5.42 -30.68 -4.05 230 232 229
-5.44 -30.76 -4.03 230 232 229
-5.45 -30.85 -4.02 230 232 229
-5.46 -30.93 -4.00 230 232 229
-5.47 -31.02 -4.00 230 232 229
-5.48 -31.11 -3.99 230 232 229
-5.48 -31.20 -3.98 230 232 229
-5.48 -31.29 -3.99 234 234 231
-5.49 -31.38 -3.97 234 234 231
-5.49 -31.47 -3.97 234 234 231
-5.50 -31.56 -3.96 234 234 231
-5.50 -31.66 -3.96 234 234 231
-5.50 -31.75 -3.96 234 234 231
-5.50 -31.84 -3.96 234 234 231
-5.49 -31.94 -3.97 234 234 231
-5.49 -32.03 -3.97 235 235 232
-5.49 -32.12 -3.97 235 235 232
-5.48 -32.22 -3.98 235 235 232
-5.49 -32.31 -3.97 235 235 232
-5.50 -32.40 -3.96 235 235 232
-5.50 -32.50 -3.96 235 235 232
-5.49 -32.59 -3.97 235 235 232
-5.49 -32.69 -3.97 235 235 232
-5.50 -32.77 -3.96 237 237 234
-5.49 -32.87 -3.97 237 237 234
-5.49 -32.97 -3.97 237 237 234
-5.49 -33.06 -3.97 238 238 235
-5.49 -33.15 -3.97 239 239 236
-5.50 -33.24 -3.96 239 239 236
-5.50 -33.33 -3.95 241 241 238
-5.51 -33.42 -3.95 241 241 238
-5.50 -33.52 -3.95 242 242 239
-5.50 -33.61 -3.95 242 242 239
-5.51 -33.70 -3.95 242 242 239
-5.51 -33.79 -3.95 242 242 239
-5.52 -33.87 -3.93 242 242 239
-5.54 -33.95 -3.91 242 242 239
-5.54 -34.04 -3.91 242 242 239
-5.56 -34.13 -3.89 242 242 239
-5.56 -34.22 -3.89 241 243 240
-5.58 -34.30 -3.87 241 243 240
-5.58 -34.39 -3.87 241 243 240
-5.58 -34.48 -3.86 241 243 240
-5.58 -34.58 -3.87 241 243 240
-5.58 -34.66 -3.86 241 243 240
-5.58 -34.76 -3.86 241 243 240
-5.59 -34.85 -3.85 241 243 240
-5.57 -34.95 -3.87 241 243 240
-5.57 -35.05 -3.88 241 243 240
-5.58 -35.13 -3.87 241 243 240
-5.59 -35.22 -3.85 241 243 240
-5.60 -35.30 -3.84 241 243 240
-5.61 -35.39 -3.83 241 243 240
-5.64 -35.46 -3.80 241 243 240
-5.68 -35.52 -3.75 241 243 240
-5.70 -35.60 -3.73 242 242 239
-5.73 -35.66 -3.69 241 241 238
-5.74 -35.75 -3.68 240 238 236
-5.74 -35.84 -3.68 243 241 239
-5.76 -35.91 -3.65 244 239 238
-5.73 -36.03 -3.68 247 242 241
-6.16 -35.76 -3.18 239 234 233
-5.40 22.61 -4.21 142 133 125
-5.37 22.54 -4.25 142 133 125
-5.40 22.42 -4.21 142 133 125
-5.38 22.35 -4.24 142 133 125
-5.40 22.23 -4.21 142 133 125
-5.42 22.13 -4.19 142 133 125
-5.38 22.06 -4.23 142 133 125
-5.37 21.98 -4.25 142 133 125
-5.37 21.88 -4.24 143 134 126
-5.36 21.80 -4.26 143 134 126
-5.36 21.71 -4.26 143 134 126
-5.36 21.62 -4.27 143 134 126
-5.34 21.53 -4.28 143 134 126
-5.34 21.44 -4.28 143 134 126
-5.34 21.35 -4.28 143 134 126
-5.34 21.26 -4.29 143 134 126
-5.32 21.17 -4.30 143 137 128
-5.32 21.08 -4.30 143 137 128
-5.32 20.99 -4.31 143 137 128
-5.31 20.90 -4.32 143 137 128
-5.31 20.81 -4.32 143 137 128
-5.30 20.73 -4.34 143 137 128
-5.30 20.63 -4.33 143 137 128
-5.30 20.54 -4.34 143 137 128
-5.28 20.46 -4.35 146 140 131
-5.27 20.37 -4.36 146 140 131
-5.27 20.27 -4.36 146 140 131
-5.26 20.19 -4.38 146 140 131
-5.26 20.10 -4.38 146 140 131
-5.26 20.00 -4.38 146 140 131
-5.26 19.91 -4.38 146 140 131
-5.25 19.82 -4.39 146 140 131
-5.25 19.73 -4.39 147 143 133
-5.24 19.64 -4.40 147 143 133
-5.24 19.55 -4.40 147 143 133
-5.24 19.46 -4.41 147 143 133
-5.23 19.37 -4.41 147 143 133
-5.22 19.28 -4.42 147 143 133
-5.22 19.19 -4.43 147 143 133
-5.21 19.10 -4.44 147 143 133
-5.21 19.01 -4.44 147 143 133
-5.20 18.92 -4.45 147 143 133
-5.19 18.83 -4.46 147 143 133
-5.19 18.74 -4.47 147 143 133
-5.17 18.65 -4.48 147 143 133
-5.17 18.56 -4.48 147 143 133
-5.16 18.48 -4.49 147 143 133
-5.16 18.38 -4.49 147 143 133
-5.16 18.29 -4.50 148 144 136
-5.15 18.20 -4.51 147 143 135
-5.15 18.11 -4.51 146 142 134
-5.14 18.02 -4.52 143 139 131
-5.14 17.92 -4.52 141 137 129
-5.15 17.83 -4.51 139 135 127
-5.14 17.74 -4.52 138 134 126
-5.14 17.64 -4.52 136 132 124
-5.13 17.56 -4.54 132 128 120
-5.13 17.46 -4.53 132 128 120
-5.13 17.37 -4.53 131 127 119
-5.13 17.27 -4.53 129 125 117
-5.12 17.18 -4.54 128 124 116
-5.12 17.09 -4.55 127 123 115
-5.12 17.00 -4.55 126 122 114
-5.11 16.91 -4.55 125 121 113
-5.11 16.81 -4.56 125 124 115
-5.09 16.73 -4.58 126 125 116
-5.09 16.64 -4.58 126 125 116
-5.08 16.55 -4.59 127 126 117
-5.07 16.46 -4.60 129 128 119
-5.07 16.37 -4.61 130 129 120
-5.05 16.28 -4.62 131 130 121
-5.04 16.20 -4.64 132 131 122
-5.04 16.11 -4.64 131 130 121
-5.02 16.02 -4.66 132 131 122
-5.02 15.93 -4.66 132 131 122
-5.01 15.84 -4.68 133 132 123
-5.01 15.75 -4.68 136 135 126
-5.00 15.65 -4.68 137 136 127
-5.01 15.56 -4.68 137 136 127
-5.00 15.47 -4.68 138 137 128
-5.00 15.37 -4.69 140 139 130
-5.00 15.28 -4.69 141 140 131
-4.99 15.19 -4.69 141 140 131
-4.99 15.09 -4.70 143 142 133
-4.98 15.00 -4.71 144 143 134
-4.98 14.91 -4.71 145 144 135
-4.98 14.82 -4.71 146 145 136
-4.97 14.72 -4.72 147 146 137
-4.97 14.63 -4.72 144 143 134
-4.97 14.54 -4.72 144 143 134
-4.97 14.44 -4.72 145 144 135
-4.97 14.35 -4.72 146 145 136
-4.97 14.25 -4.72 150 149 140
-4.97 14.16 -4.72 153 152 143
-4.97 14.06 -4.72 155 154 145
-4.97 13.97 -4.72 158 157 148
-4.97 13.87 -4.72 159 155 147
-4.97 13.78 -4.72 160 156 148
-4.97 13.69 -4.73 160 156 148
-4.97 13.59 -4.73 161 157 149
-4.97 13.50 -4.73 161 157 149
-4.96 13.41 -4.74 162 158 150
-4.96 13.31 -4.73 162 158 150
-4.95 13.22 -4.74 162 158 150
-4.95 13.12 -4.74 161 157 149
-4.95 13.03 -4.75 162 158 150
-4.94 12.94 -4.76 162 158 150
-4.93 12.85 -4.77 163 159 151
-4.93 12.76 -4.77 163 159 151
-4.94 12.66 -4.76 164 160 152
-4.93 12.57 -4.77 164 160 152
-4.93 12.47 -4.77 166 162 154
-4.91 12.39 -4.79 167 163 155
-4.92 12.29 -4.78 167 163 155
-4.91 12.20 -4.79 167 163 155
-4.92 12.10 -4.78 167 163 155
-4.92 12.00 -4.78 167 163 155
-4.92 11.91 -4.79 167 163 155
-4.93 11.81 -4.77 167 163 155
-4.92 11.72 -4.78 167 163 155
-4.93 11.62 -4.77 168 164 156
-4.92 11.53 -4.78 168 164 156
-4.91 11.44 -4.79 168 164 156
-4.91 11.34 -4.79 168 164 156
-4.91 11.25 -4.79 168 164 156
-4.91 11.15 -4.79 168 164 156
-4.90 11.07 -4.81 168 164 156
-4.90 10.97 -4.81 168 164 156
-4.90 10.88 -4.81 166 165 156
-4.89 10.78 -4.82 166 165 156
-4.88 10.69 -4.82 166 165 156
-4.87 10.60 -4.84 166 165 156
-4.87 10.51 -4.84 166 165 156
-4.87 10.41 -4.84 166 165 156
-4.87 10.32 -4.84 166 165 156
-4.87 10.23 -4.85 166 165 156
-4.86 10.13 -4.85 166 165 156
-4.86 10.04 -4.85 167 166 157
-4.86 9.94 -4.85 167 166 157
-4.86 9.85 -4.85 168 167 158
-4.87 9.75 -4.85 168 167 158
-4.87 9.65 -4.84 169 168 159
-4.87 9.56 -4.84 169 168 159
-4.88 9.46 -4.83 171 170 161
-4.88 9.36 -4.83 167 168 158
-4.88 9.27 -4.83 167 168 158
-4.87 9.17 -4.84 167 168 158
-4.87 9.08 -4.84 167 168 158
-4.87 8.99 -4.84 167 168 158
-4.87 8.89 -4.84 167 168 158
-4.88 8.79 -4.83 167 168 158
-4.87 8.70 -4.84 167 168 158
-4.87 8.60 -4.84 170 171 161
-4.87 8.51 -4.85 170 171 161
-4.87 8.42 -4.84 170 171 161
-4.87 8.32 -4.84 170 171 161
-4.87 8.23 -4.84 170 171 161
-4.87 8.13 -4.84 170 171 161
-4.87 8.03 -4.84 170 171 161
-4.87 7.94 -4.85 170 171 161
-4.87 7.85 -4.85 171 172 162
-4.86 7.75 -4.85 171 172 162
-4.86 7.66 -4.86 171 172 162
-4.86 7.56 -4.85 171 172 162
-4.85 7.47 -4.87 171 172 162
-4.84 7.38 -4.87 171 172 162
-4.84 7.29 -4.88 171 172 162
-4.83 7.19 -4.88 171 172 162
-4.82 7.10 -4.90 172 173 163
-4.82 7.01 -4.90 172 173 163
-4.82 6.91 -4.90 172 173 163
-4.81 6.82 -4.91 172 173 163
-4.80 6.73 -4.92 172 173 163
-4.81 6.63 -4.91 172 173 163
-4.80 6.54 -4.92 172 173 163
-4.81 6.44 -4.91 172 173 163
-4.80 6.35 -4.93 172 172 167
-4.79 6.26 -4.93 172 172 167
-4.79 6.16 -4.94 172 172 167
-4.78 6.07 -4.94 172 172 167
-4.79 5.97 -4.93 172 172 167
-4.79 5.88 -4.94 172 172 167
-4.79 5.78 -4.94 172 172 167
-4.78 5.69 -4.94 172 172 167
-4.78 5.59 -4.94 172 172 167
-4.78 5.50 -4.94 172 172 167
-4.78 5.40 -4.95 172 172 167
-4.77 5.31 -4.96 172 172 167
-4.78 5.21 -4.95 172 172 167
-4.77 5.12 -4.96 172 172 167
-4.78 5.02 -4.95 172 172 167
-4.78 4.93 -4.95 172 172 167
-4.78 4.83 -4.95 173 173 168
-4.78 4.74 -4.95 173 173 168
-4.77 4.64 -4.96 173 173 168
-4.78 4.54 -4.95 173 173 168
-4.78 4.45 -4.94 173 173 168
-4.79 4.35 -4.94 173 173 168
-4.79 4.25 -4.94 173 173 168
-4.79 4.16 -4.93 173 173 168
-4.80 4.06 -4.92 173 173 168
-4.80 3.96 -4.93 173 173 168
-4.80 3.87 -4.92 173 173 168
-4.80 3.77 -4.93 173 173 168
-4.80 3.68 -4.92 173 173 168
-4.80 3.58 -4.92 173 173 168
-4.80 3.49 -4.93 173 173 168
-4.80 3.39 -4.92 173 173 168
-4.80 3.30 -4.92 171 174 166
-4.80 3.20 -4.92 171 174 166
-4.80 3.11 -4.92 171 174 166
-4.80 3.01 -4.92 171 174 166
-4.80 2.92 -4.93 171 174 166
-4.79 2.82 -4.93 171 174 166
-4.79 2.73 -4.94 171 174 166
-4.78 2.63 -4.94 171 174 166
-4.77 2.54 -4.96 171 174 166
-4.77 2.45 -4.96 171 174 166
-4.77 2.35 -4.96 171 174 166
-4.76 2.26 -4.98 171 174 166
-4.75 2.16 -4.98 171 174 166
-4.75 2.07 -4.98 171 174 166
-4.74 1.98 -4.99 171 174 166
-4.74 1.88 -5.00 171 174 166
-4.74 1.79 -5.00 169 174 168
-4.74 1.69 -5.00 169 174 168
-4.73 1.60 -5.01 169 174 168
-4.73 1.50 -5.00 169 174 168
-4.74 1.40 -4.99 169 174 168
-4.75 1.31 -4.99 169 174 168
-4.76 1.21 -4.97 169 174 168
-4.77 1.11 -4.96 169 174 168
-4.77 1.02 -4.96 169 174 168
-4.77 0.92 -4.96 169 174 168
-4.77 0.82 -4.96 169 174 168
-4.77 0.73 -4.96 169 174 168
-4.78 0.63 -4.95 169 174 168
-4.78 0.54 -4.95 169 174 168
-4.77 0.44 -4.96 169 174 168
-4.77 0.35 -4.96 169 174 168
-4.77 0.25 -4.96 170 175 169
-4.76 0.16 -4.97 170 175 169
-4.76 0.06 -4.98 170 175 169
-4.76 -0.03 -4.97 170 175 169
-4.76 -0.13 -4.97 170 175 169
-4.76 -0.22 -4.97 170 175 169
-4.77 -0.32 -4.96 170 175 169
-4.78 -0.42 -4.95 170 175 169
-4.78 -0.51 -4.94 171 176 170
-4.78 -0.61 -4.94 171 176 170
-4.79 -0.71 -4.93 171 176 170
-4.79 -0.80 -4.93 171 176 170
-4.79 -0.90 -4.93 171 176 170
-4.80 -1.00 -4.92 171 176 170
-4.80 -1.09 -4.92 171 176 170
-4.79 -1.18 -4.93 171 176 170
-4.79 -1.28 -4.93 171 178 171
-4.79 -1.38 -4.93 171 178 171
-4.78 -1.47 -4.94 171 178 171
-4.79 -1.57 -4.94 171 178 171
-4.78 -1.66 -4.95 171 178 171
-4.79 -1.76 -4.94 171 178 171
-4.79 -1.85 -4.94 171 178 171
-4.78 -1.95 -4.95 171 178 171
-4.78 -2.04 -4.95 173 180 173
-4.78 -2.14 -4.95 173 180 173
-4.78 -2.23 -4.95 173 180 173
-4.77 -2.33 -4.96 173 180 173
-4.77 -2.42 -4.96 173 180 173
-4.76 -2.52 -4.97 173 180 173
-4.76 -2.61 -4.97 173 180 173
-4.77 -2.71 -4.96 173 180 173
-4.76 -2.80 -4.98 173 180 175
-4.76 -2.90 -4.98 173 180 175
-4.75 -2.99 -4.98 173 180 175
-4.75 -3.09 -4.99 173 180 175
-4.76 -3.18 -4.98 173 180 175
-4.76 -3.28 -4.97 173 180 175
-4.76 -3.38 -4.97 173 180 175
-4.76 -3.47 -4.97 173 180 175
-4.76 -3.57 -4.97 175 182 177
-4.76 -3.66 -4.97 175 182 177
-4.76 -3.76 -4.97 175 182 177
-4.76 -3.85 -4.97 175 182 177
-4.76 -3.95 -4.97 175 182 177
-4.77 -4.04 -4.96 175 182 177
-4.76 -4.14 -4.97 175 182 177
-4.76 -4.23 -4.97 175 182 177
-4.77 -4.33 -4.96 175 182 177
-4.76 -4.43 -4.97 175 182 177
-4.76 -4.52 -4.97 175 182 177
-4.76 -4.62 -4.97 175 182 177
-4.76 -4.71 -4.97 175 182 177
-4.76 -4.81 -4.97 175 182 177
-4.76 -4.90 -4.97 175 182 177
-4.75 -5.00 -4.98 175 182 177
-4.75 -5.09 -4.99 175 182 177
-4.74 -5.19 -4.99 175 182 177
-4.73 -5.28 -5.01 175 182 177
-4.72 -5.38 -5.01 175 182 177
-4.73 -5.47 -5.01 175 182 177
-4.73 -5.57 -5.01 175 182 177
-4.73 -5.66 -5.00 175 182 177
-4.73 -5.76 -5.01 175 182 177
-4.73 -5.86 -5.01 177 184 179
-4.73 -5.95 -5.01 177 184 179
-4.73 -6.05 -5.01 177 184 179
-4.74 -6.14 -5.00 177 184 179
-4.73 -6.24 -5.00 177 184 179
-4.73 -6.33 -5.01 177 184 179
-4.74 -6.43 -5.00 177 184 179
-4.73 -6.52 -5.01 177 184 179
-4.73 -6.62 -5.01 178 185 180
-4.72 -6.72 -5.02 178 185 180
-4.72 -6.81 -5.02 178 185 180
-4.72 -6.91 -5.02 178 185 180
-4.71 -7.00 -5.03 178 185 180
-4.71 -7.10 -5.03 178 185 180
-4.71 -7.19 -5.03 178 185 180
-4.70 -7.29 -5.04 178 185 180
-4.70 -7.38 -5.05 179 184 180
-4.69 -7.48 -5.05 179 184 180
-4.69 -7.58 -5.05 179 184 180
-4.67 -7.67 -5.07 179 184 180
-4.68 -7.77 -5.07 179 184 180
-4.67 -7.86 -5.07 179 184 180
-4.68 -7.96 -5.07 179 184 180
-4.68 -8.05 -5.06 179 184 180
-4.68 -8.15 -5.07 181 186 182
-4.68 -8.25 -5.06 181 186 182
-4.67 -8.34 -5.08 181 186 182
-4.67 -8.44 -5.08 181 186 182
-4.67 -8.53 -5.08 181 186 182
-4.68 -8.63 -5.07 181 186 182
-4.68 -8.72 -5.07 181 186 182
-4.67 -8.82 -5.08 181 186 182
-4.67 -8.92 -5.08 183 190 188
-4.67 -9.01 -5.08 183 190 188
-4.67 -9.11 -5.07 183 190 188
-4.68 -9.20 -5.07 183 190 188
-4.69 -9.30 -5.06 183 190 188
-4.68 -9.39 -5.06 183 190 188
-4.69 -9.49 -5.05 183 190 188
-4.70 -9.58 -5.05 183 190 188
-4.70 -9.68 -5.05 182 189 187
-4.70 -9.78 -5.05 183 190 188
-4.70 -9.87 -5.05 183 190 188
-4.70 -9.97 -5.05 184 191 189
-4.70 -10.06 -5.05 184 191 189
-4.70 -10.16 -5.04 185 192 190
-4.70 -10.25 -5.04 185 192 190
-4.70 -10.35 -5.04 187 194 192
-4.71 -10.44 -5.03 187 194 189
-4.70 -10.54 -5.04 187 194 189
-4.70 -10.64 -5.04 187 194 189
-4.71 -10.73 -5.03 187 194 189
-4.71 -10.83 -5.03 187 194 189
-4.70 -10.92 -5.04 187 194 189
-4.71 -11.02 -5.03 187 194 189
-4.71 -11.11 -5.03 187 194 189
-4.70 -11.21 -5.04 187 194 189
-4.70 -11.31 -5.04 187 194 189
-4.69 -11.40 -5.05 187 194 189
-4.69 -11.50 -5.06 187 194 189
-4.68 -11.60 -5.07 187 194 189
-4.67 -11.69 -5.08 187 194 189
-4.66 -11.79 -5.08 187 194 189
-4.66 -11.88 -5.09 187 194 189
-4.65 -11.98 -5.10 187 194 192
-4.63 -12.08 -5.12 188 195 193
-4.62 -12.18 -5.13 188 195 193
-4.62 -12.27 -5.14 189 196 194
-4.62 -12.37 -5.14 189 196 194
-4.61 -12.47 -5.15 190 197 195
-4.60 -12.56 -5.16 190 197 195
-4.60 -12.66 -5.17 191 198 196
-4.58 -12.76 -5.19 192 199 197
-4.58 -12.85 -5.18 192 199 197
-4.57 -12.95 -5.19 192 199 197
-4.58 -13.05 -5.19 192 199 197
-4.58 -13.14 -5.19 192 199 197
-4.58 -13.24 -5.19 192 199 197
-4.58 -13.34 -5.19 192 199 197
-4.57 -13.43 -5.20 192 199 197
-4.57 -13.53 -5.20 196 203 201
-4.56 -13.63 -5.20 196 203 201
-4.56 -13.72 -5.21 196 203 201
-4.55 -13.82 -5.22 196 203 201
-4.54 -13.92 -5.23 196 203 201
-4.55 -14.01 -5.22 196 203 201
-4.56 -14.11 -5.20 196 203 201
-4.56 -14.20 -5.20 196 203 201
-4.58 -14.29 -5.19 196 203 201
-4.58 -14.39 -5.19 196 203 201
-4.59 -14.48 -5.17 196 203 201
-4.60 -14.58 -5.16 196 203 201
-4.60 -14.67 -5.16 196 203 201
-4.62 -14.77 -5.14 196 203 201
-4.62 -14.86 -5.14 196 203 201
-4.63 -14.96 -5.13 196 203 201
-4.64 -15.05 -5.11 198 201 193
-4.65 -15.14 -5.10 197 200 192
-4.66 -15.24 -5.08 199 204 200
-4.65 -15.33 -5.10 195 200 196
-4.66 -15.43 -5.08 194 204 212
-4.63 -15.53 -5.13 212 222 230
-4.84 -15.58 -4.88 192 203 230
-5.52 -15.51 -4.07 146 157 184
-6.01 -15.49 -3.49 69 79 126
-6.07 -15.57 -3.42 27 37 84
-6.07 -15.66 -3.42 6 12 70
-5.97 -15.77 -3.54 20 26 84
-6.00 -15.86 -3.50 29 31 87
-6.00 -15.95 -3.50 32 34 90
-6.07 -16.03 -3.42 36 37 87
-6.19 -16.09 -3.28 9 10 60
-6.54 -16.09 -2.87 18 15 0
-6.72 -16.13 -2.65 224 221 206
-6.54 -16.27 -2.86 255 237 180
-6.71 -16.31 -2.66 235 216 159
-6.89 -16.35 -2.45 245 210 145
-7.03 -16.40 -2.28 255 223 158
-7.06 -16.49 -2.25 223 186 131
-7.08 -16.57 -2.22 181 144 89
-7.09 -16.65 -2.21 179 149 103
-7.11 -16.74 -2.19 189 159 113
-7.13 -16.82 -2.16 169 143 104
-7.16 -16.90 -2.12 169 143 104
-7.19 -16.98 -2.09 223 201 152
-7.22 -17.06 -2.05 222 200 151
-7.24 -17.14 -2.03 215 195 145
-7.28 -17.22 -1.99 194 174 124
-7.30 -17.30 -1.96 178 171 112
-7.34 -17.38 -1.92 179 172 113
-7.37 -17.46 -1.88 175 168 111
-7.40 -17.54 -1.84 175 168 111
-7.44 -17.61 -1.80 155 150 95
-7.48 -17.69 -1.75 142 137 82
-7.53 -17.76 -1.70 130 127 72
-7.57 -17.84 -1.64 151 148 93
-7.62 -17.91 -1.58 182 179 124
-7.68 -17.97 -1.51 208 205 150
-7.75 -18.04 -1.42 213 207 159
-7.82 -18.10 -1.35 226 220 172
-7.88 -18.17 -1.27 205 195 157
-7.94 -18.24 -1.20 177 167 129
-8.00 -18.30 -1.13 165 153 123
-8.06 -18.37 -1.06 147 135 105
-8.09 -18.44 -1.02 143 139 93
-8.15 -18.51 -0.95 130 126 80
-8.20 -18.58 -0.89 100 89 43
-8.24 -18.65 -0.85 112 101 55
-8.28 -18.72 -0.80 136 113 71
-8.32 -18.79 -0.75 163 140 98
-8.35 -18.87 -0.72 158 124 92
-8.38 -18.94 -0.68 162 128 96
-8.42 -19.02 -0.64 158 122 91
-8.45 -19.09 -0.60 149 113 82
-8.47 -19.17 -0.58 183 151 119
-8.50 -19.24 -0.55 150 118 86
-8.51 -19.32 -0.53 123 96 80
-8.47 -19.42 -0.57 208 181 165
-8.23 -19.60 -0.86 78 52 56
-7.90 -19.82 -1.25 21 0 0
-7.89 -19.91 -1.27 21 23 20
-7.86 -20.00 -1.30 30 32 29
-7.84 -20.10 -1.32 36 38 35
-7.83 -20.19 -1.33 46 48 45
-7.79 -20.29 -1.38 53 55 52
-7.79 -20.38 -1.38 53 55 52
-7.79 -20.47 -1.39 48 50 47
-7.78 -20.56 -1.39 36 38 35
-7.81 -20.64 -1.36 35 37 34
-7.77 -20.74 -1.40 56 58 55
-7.81 -20.81 -1.36 88 90 87
-7.51 -21.02 -1.71 130 132 129
-7.01 -21.32 -2.31 176 178 175
-6.31 -21.71 -3.14 208 210 207
-5.85 -22.00 -3.68 229 231 228
-5.44 -22.27 -4.17 244 246 243
-5.33 -22.41 -4.29 236 238 235
-5.28 -22.53 -4.36 232 234 231
-5.32 -22.60 -4.30 228 230 227
-5.40 -22.67 -4.22 225 227 224
-5.40 -22.76 -4.21 225 227 224
-5.43 -22.84 -4.18 223 225 222
-5.46 -22.92 -4.14 220 222 219
-5.47 -23.01 -4.13 222 224 221
-5.48 -23.09 -4.11 225 227 224
-5.48 -23.19 -4.12 225 227 224
-5.47 -23.29 -4.13 225 227 224
-5.48 -23.38 -4.12 225 227 224
-5.48 -23.47 -4.12 225 227 224
-5.45 -23.58 -4.15 225 227 224
-5.44 -23.68 -4.16 225 227 224
-5.44 -23.77 -4.17 225 227 224
-5.44 -23.86 -4.17 226 228 225
-5.43 -23.96 -4.18 226 228 225
-5.41 -24.06 -4.20 226 228 225
-5.41 -24.16 -4.20 226 228 225
-5.40 -24.26 -4.21 226 228 225
-5.42 -24.34 -4.19 226 228 225
-5.42 -24.44 -4.19 226 228 225
-5.41 -24.53 -4.20 226 228 225
-5.41 -24.62 -4.20 227 229 226
-5.40 -24.72 -4.21 227 229 226
-5.40 -24.82 -4.21 227 229 226
-5.40 -24.92 -4.22 227 229 226
-5.40 -25.01 -4.21 227 229 226
-5.40 -25.10 -4.22 227 229 226
-5.39 -25.20 -4.22 227 229 226
-5.40 -25.29 -4.21 227 229 226
-5.40 -25.38 -4.22 227 229 226
-5.40 -25.48 -4.21 227 229 226
-5.40 -25.57 -4.21 227 229 226
-5.41 -25.66 -4.20 227 229 226
-5.41 -25.75 -4.20 227 229 226
-5.41 -25.84 -4.20 227 229 226
-5.42 -25.93 -4.19 227 229 226
-5.41 -26.03 -4.20 227 229 226
-5.42 -26.12 -4.19 227 229 226
-5.42 -26.22 -4.19 227 229 226
-5.42 -26.31 -4.19 227 229 226
-5.43 -26.40 -4.18 227 229 226
-5.44 -26.49 -4.17 227 229 226
-5.44 -26.58 -4.16 227 229 226
-5.45 -26.66 -4.15 227 229 226
-5.47 -26.75 -4.13 227 229 226
-5.47 -26.84 -4.13 228 230 227
-5.47 -26.94 -4.13 228 230 227
-5.47 -27.03 -4.13 228 230 227
-5.47 -27.12 -4.13 228 230 227
-5.48 -27.21 -4.11 228 230 227
-5.49 -27.30 -4.11 228 230 227
-5.50 -27.39 -4.10 228 230 227
-5.51 -27.47 -4.08 228 230 227
-5.50 -27.57 -4.09 228 230 227
-5.51 -27.66 -4.08 228 230 227
-5.51 -27.75 -4.08 228 230 227
-5.52 -27.84 -4.07 228 230 227
-5.53 -27.93 -4.06 228 230 227
-5.52 -28.03 -4.07 228 230 227
-5.53 -28.12 -4.06 228 230 227
-5.53 -28.21 -4.06 228 230 227
-5.53 -28.30 -4.06 227 229 226
-5.53 -28.40 -4.06 227 229 226
-5.53 -28.49 -4.06 227 229 226
-5.53 -28.58 -4.06 227 229 226
-5.53 -28.67 -4.06 227 229 226
-5.53 -28.77 -4.05 227 229 226
-5.53 -28.86 -4.05 227 229 226
-5.53 -28.95 -4.05 227 229 226
-5.54 -29.04 -4.04 229 231 228
-5.55 -29.13 -4.04 229 231 228
-5.55 -29.23 -4.04 229 231 228
-5.55 -29.32 -4.04 229 231 228
-5.55 -29.41 -4.04 229 231 228
-5.54 -29.51 -4.04 229 231 228
-5.56 -29.59 -4.03 229 231 228
-5.55 -29.69 -4.03 229 231 228
-5.56 -29.78 -4.03 229 231 228
-5.55 -29.87 -4.03 229 231 228
-5.56 -29.97 -4.03 229 231 228
-5.56 -30.06 -4.03 229 231 228
-5.56 -30.15 -4.02 229 231 228
-5.57 -30.24 -4.01 229 231 228
-5.57 -30.33 -4.01 229 231 228
-5.58 -30.42 -4.00 229 231 228
-5.58 -30.51 -4.00 230 232 229
-5.58 -30.60 -4.00 230 232 229
-5.59 -30.69 -3.98 230 232 229
-5.59 -30.78 -3.99 230 232 229
-5.60 -30.87 -3.97 230 232 229
-5.61 -30.96 -3.97 230 232 229
-5.62 -31.04 -3.95 230 232 229
-5.62 -31.13 -3.95 230 232 229
-5.62 -31.23 -3.95 235 233 231
-5.63 -31.31 -3.94 235 233 231
-5.62 -31.41 -3.95 235 233 231
-5.63 -31.50 -3.95 235 233 231
-5.64 -31.59 -3.93 235 233 231
-5.64 -31.68 -3.93 235 233 231
-5.64 -31.77 -3.93 235 233 231
-5.63 -31.87 -3.94 235 233 231
-5.64 -31.96 -3.93 236 234 232
-5.63 -32.06 -3.94 236 234 232
-5.64 -32.15 -3.93 236 234 232
-5.64 -32.23 -3.92 236 234 232
-5.65 -32.33 -3.92 236 234 232
-5.64 -32.42 -3.93 236 234 232
-5.65 -32.51 -3.92 236 234 232
-5.64 -32.61 -3.93 236 234 232
-5.64 -32.70 -3.93 236 236 233
-5.64 -32.80 -3.93 237 237 234
-5.64 -32.89 -3.93 237 237 234
-5.64 -32.98 -3.93 238 238 235
-5.64 -33.08 -3.93 238 238 235
-5.64 -33.17 -3.93 239 239 236
-5.65 -33.25 -3.91 239 239 236
-5.66 -33.34 -3.91 239 239 236
-5.65 -33.44 -3.91 242 242 239
-5.66 -33.52 -3.90 242 242 239
-5.67 -33.61 -3.89 242 242 239
-5.67 -33.71 -3.90 242 242 239
-5.68 -33.79 -3.88 242 242 239
-5.69 -33.88 -3.87 242 242 239
-5.69 -33.97 -3.87 242 242 239
-5.71 -34.04 -3.84 242 242 239
-5.71 -34.14 -3.85 241 243 240
-5.72 -34.22 -3.83 241 243 240
-5.72 -34.31 -3.83 241 243 240
-5.73 -34.40 -3.82 241 243 240
-5.74 -34.49 -3.81 241 243 240
-5.74 -34.58 -3.81 241 243 240
-5.74 -34.67 -3.82 241 243 240
-5.74 -34.76 -3.80 241 243 240
-5.74 -34.85 -3.80 241 243 240
-5.74 -34.95 -3.81 241 243 240
-5.74 -35.04 -3.81 241 243 240
-5.75 -35.13 -3.80 241 243 240
-5.76 -35.21 -3.78 241 243 240
-5.79 -35.28 -3.75 241 243 240
-5.82 -35.35 -3.72 241 243 240
-5.85 -35.41 -3.68 241 243 240
-5.87 -35.49 -3.65 242 242 239
-5.90 -35.56 -3.62 242 242 239
-5.90 -35.65 -3.62 243 241 239
-5.88 -35.76 -3.64 243 241 239
-5.93 -35.81 -3.59 242 237 236
-5.88 -35.95 -3.65 246 241 240
-6.36 -35.64 -3.08 245 240 239
-5.54 22.53 -4.18 142 133 125
-5.51 22.46 -4.22 142 133 125
-5.53 22.35 -4.19 142 133 125
-5.51 22.27 -4.22 142 133 125
-5.53 22.17 -4.20 142 133 125
-5.54 22.06 -4.18 142 133 125
-5.51 21.99 -4.22 142 133 125
-5.50 21.90 -4.23 142 133 125
-5.50 21.81 -4.23 143 134 126
-5.49 21.73 -4.24 143 134 126
-5.50 21.63 -4.23 143 134 126
-5.50 21.54 -4.23 143 134 126
-5.49 21.44 -4.24 143 134 126
-5.49 21.36 -4.24 143 134 126
-5.49 21.26 -4.25 143 134 126
-5.48 21.18 -4.26 143 134 126
-5.47 21.09 -4.27 143 137 128
-5.46 21.00 -4.27 143 137 128
-5.45 20.92 -4.29 143 137 128
-5.45 20.82 -4.29 143 137 128
-5.44 20.74 -4.30 143 137 128
-5.44 20.65 -4.31 143 137 128
-5.43 20.56 -4.32 143 137 128
-5.43 20.47 -4.31 143 137 128
-5.42 20.38 -4.33 146 140 131
-5.41 20.29 -4.33 146 140 131
-5.41 20.20 -4.34 146 140 131
-5.40 20.12 -4.35 146 140 131
-5.40 20.02 -4.35 146 140 131
-5.39 19.93 -4.36 146 140 131
-5.39 19.84 -4.36 146 140 131
-5.39 19.75 -4.37 146 140 131
-5.38 19.66 -4.37 147 143 133
-5.37 19.57 -4.38 147 143 133
-5.37 19.48 -4.38 147 143 133
-5.37 19.39 -4.39 147 143 133
-5.37 19.29 -4.38 147 143 133
-5.36 19.21 -4.39 147 143 133
-5.36 19.12 -4.40 147 143 133
-5.35 19.02 -4.40 147 143 133
-5.35 18.94 -4.41 147 143 133
-5.34 18.85 -4.42 147 143 133
-5.34 18.75 -4.42 147 143 133
-5.33 18.66 -4.43 147 143 133
-5.32 18.58 -4.44 147 143 133
-5.32 18.48 -4.44 147 143 133
-5.31 18.40 -4.46 147 143 133
-5.31 18.30 -4.45 147 143 133
-5.31 18.21 -4.46 148 144 136
-5.31 18.12 -4.46 147 143 135
-5.30 18.03 -4.47 146 142 134
-5.29 17.94 -4.48 143 139 131
-5.30 17.84 -4.47 142 138 130
-5.30 17.75 -4.47 140 136 128
-5.29 17.66 -4.48 139 135 127
-5.29 17.57 -4.48 139 135 127
-5.28 17.48 -4.49 134 130 122
-5.28 17.39 -4.49 133 129 121
-5.28 17.29 -4.49 133 129 121
-5.28 17.20 -4.49 132 128 120
-5.28 17.11 -4.50 131 127 119
-5.26 17.02 -4.51 131 127 119
-5.27 16.92 -4.51 129 125 117
-5.26 16.84 -4.52 129 125 117
-5.25 16.75 -4.53 130 129 120
-5.25 16.66 -4.53 130 129 120
-5.24 16.57 -4.54 131 130 121
-5.23 16.48 -4.55 132 131 122
-5.21 16.40 -4.57 133 132 123
-5.21 16.31 -4.58 134 133 124
-5.20 16.22 -4.59 134 133 124
-5.18 16.14 -4.61 136 135 126
-5.17 16.05 -4.62 136 135 126
-5.16 15.96 -4.63 137 136 127
-5.16 15.86 -4.63 137 136 127
-5.16 15.77 -4.63 138 137 128
-5.16 15.67 -4.63 139 138 129
-5.16 15.58 -4.64 139 138 129
-5.16 15.49 -4.64 140 139 130
-5.16 15.39 -4.63 140 139 130
-5.15 15.30 -4.64 143 142 133
-5.15 15.21 -4.65 143 142 133
-5.15 15.12 -4.65 144 143 134
-5.14 15.03 -4.65 145 144 135
-5.14 14.93 -4.65 145 144 135
-5.14 14.84 -4.66 146 145 136
-5.13 14.75 -4.67 147 146 137
-5.12 14.66 -4.68 147 146 137
-5.12 14.57 -4.68 145 144 135
-5.12 14.47 -4.68 145 144 135
-5.11 14.38 -4.69 145 144 135
