ply
format ascii 1.0
element vertex 1574
property float x
property float y
property float z
property uchar red
property uchar green
property uchar blue
end_header
-3.24 -31.43 -4.79 235 237 234
-3.25 -31.53 -4.78 235 237 234
-3.26 -31.62 -4.77 237 239 236
-3.26 -31.72 -4.77 237 239 236
-3.27 -31.81 -4.76 237 239 236
-3.27 -31.90 -4.76 237 239 236
-3.28 -32.00 -4.75 237 239 236
-3.28 -32.09 -4.74 237 239 236
-3.29 -32.18 -4.73 237 239 236
-3.30 -32.27 -4.72 237 239 236
-3.31 -32.36 -4.71 241 243 240
-3.31 -32.46 -4.71 241 243 240
-3.32 -32.55 -4.70 241 243 240
-3.31 -32.66 -4.71 241 243 240
-3.32 -32.75 -4.70 241 243 240
-3.33 -32.84 -4.69 241 243 240
-3.34 -32.93 -4.68 241 243 240
-3.34 -33.03 -4.68 241 243 240
-3.34 -33.13 -4.68 242 244 241
-3.34 -33.22 -4.67 242 244 241
-3.33 -33.32 -4.68 242 244 241
-3.34 -33.42 -4.67 242 244 241
-3.34 -33.52 -4.68 242 244 241
-3.33 -33.62 -4.69 242 244 241
-3.34 -33.71 -4.68 242 244 241
-3.33 -33.82 -4.69 242 244 241
-3.33 -33.91 -4.69 244 246 243
-3.33 -34.01 -4.69 244 246 243
-3.33 -34.11 -4.69 244 246 243
-3.34 -34.20 -4.68 244 246 243
-3.34 -34.30 -4.68 244 246 243
-3.33 -34.40 -4.69 244 246 243
-3.33 -34.50 -4.69 244 246 243
-3.32 -34.60 -4.70 244 246 243
-3.33 -34.69 -4.69 244 246 243
-3.34 -34.78 -4.68 244 246 243
-3.34 -34.88 -4.67 244 246 243
-3.35 -34.97 -4.67 244 246 243
-3.36 -35.06 -4.65 244 246 243
-3.38 -35.14 -4.64 244 246 243
-3.38 -35.24 -4.63 244 246 243
-3.40 -35.32 -4.61 244 246 243
-3.40 -35.42 -4.60 248 250 247
-3.41 -35.51 -4.60 248 250 247
-3.41 -35.60 -4.59 248 250 247
-3.42 -35.69 -4.58 248 250 247
-3.43 -35.78 -4.57 248 250 247
-3.43 -35.88 -4.57 248 250 247
-3.45 -35.97 -4.56 248 250 247
-3.46 -36.06 -4.55 248 250 247
-3.45 -36.16 -4.55 248 250 247
-3.45 -36.26 -4.55 248 250 247
-3.45 -36.35 -4.55 248 250 247
-3.47 -36.43 -4.53 248 250 247
-3.47 -36.53 -4.53 248 250 247
-3.48 -36.62 -4.52 248 250 247
-3.47 -36.73 -4.53 248 250 247
-3.47 -36.82 -4.53 248 250 247
-3.43 -36.95 -4.57 249 250 242
-3.42 -37.05 -4.58 245 246 238
-3.38 -37.19 -4.63 247 245 241
-3.60 -37.11 -4.39 251 249 245
-3.50 23.72 -4.63 142 133 125
-3.46 23.66 -4.68 142 133 125
-3.48 23.54 -4.65 142 133 125
-3.50 23.43 -4.64 142 133 125
-3.49 23.34 -4.64 142 133 125
-3.50 23.24 -4.64 142 133 125
-3.46 23.17 -4.68 142 133 125
-3.44 23.09 -4.70 142 133 125
-3.44 22.99 -4.70 142 133 125
-3.44 22.90 -4.70 142 133 125
-3.45 22.79 -4.69 143 134 126
-3.43 22.71 -4.71 143 134 126
-3.43 22.61 -4.72 143 134 126
-3.42 22.52 -4.73 143 134 126
-3.42 22.43 -4.73 143 134 126
-3.41 22.34 -4.74 143 134 126
-3.41 22.24 -4.74 143 137 130
-3.40 22.15 -4.74 143 137 130
-3.39 22.06 -4.76 144 138 131
-3.39 21.96 -4.76 144 138 131
-3.38 21.87 -4.76 146 140 133
-3.37 21.78 -4.78 146 140 133
-3.36 21.69 -4.79 147 141 134
-3.36 21.59 -4.79 146 140 133
-3.35 21.50 -4.80 146 140 133
-3.34 21.42 -4.82 146 140 133
-3.33 21.33 -4.83 146 140 133
-3.32 21.24 -4.84 146 140 133
-3.30 21.15 -4.86 146 140 133
-3.30 21.06 -4.86 146 140 133
-3.29 20.96 -4.87 146 140 133
-3.28 20.88 -4.89 147 141 134
-3.27 20.79 -4.89 145 141 131
-3.26 20.70 -4.91 146 142 132
-3.25 20.61 -4.92 146 142 132
-3.24 20.52 -4.93 146 142 132
-3.24 20.42 -4.93 146 142 132
-3.23 20.33 -4.94 146 142 132
-3.24 20.23 -4.93 146 142 132
-3.23 20.13 -4.94 146 142 132
-3.22 20.04 -4.95 146 142 132
-3.22 19.95 -4.95 147 143 133
-3.22 19.85 -4.95 147 143 133
-3.20 19.76 -4.97 147 143 133
-3.20 19.67 -4.98 147 143 133
-3.19 19.57 -4.99 147 143 133
-3.18 19.48 -4.99 147 143 133
-3.17 19.39 -5.00 147 143 133
-3.16 19.30 -5.01 148 142 135
-3.16 19.20 -5.01 148 142 135
-3.15 19.11 -5.03 148 144 136
-3.15 19.02 -5.03 149 145 137
-3.14 18.93 -5.05 149 145 137
-3.14 18.83 -5.05 149 145 137
-3.14 18.73 -5.05 149 145 137
-3.13 18.63 -5.05 149 145 137
-3.13 18.54 -5.05 152 148 140
-3.13 18.44 -5.06 152 148 140
-3.13 18.34 -5.06 153 149 141
-3.12 18.25 -5.06 150 146 138
-3.12 18.15 -5.06 149 145 137
-3.11 18.06 -5.08 147 143 135
-3.11 17.96 -5.07 143 139 131
-3.11 17.86 -5.07 142 138 130
-3.10 17.77 -5.09 136 132 124
-3.10 17.68 -5.09 134 130 122
-3.09 17.58 -5.09 132 128 120
-3.08 17.49 -5.11 128 124 116
-3.07 17.40 -5.12 124 123 116
-3.07 17.30 -5.12 123 122 115
-3.06 17.21 -5.13 124 122 118
-3.05 17.12 -5.14 124 122 118
-3.04 17.02 -5.15 124 122 118
-3.04 16.93 -5.15 124 122 118
-3.04 16.83 -5.15 124 122 118
-3.04 16.73 -5.16 124 122 118
-3.04 16.64 -5.16 124 122 118
-3.02 16.55 -5.18 124 122 118
-3.02 16.45 -5.17 125 123 119
-3.02 16.35 -5.18 125 123 119
-3.02 16.25 -5.18 124 122 118
-3.02 16.16 -5.18 124 122 118
-3.02 16.06 -5.18 124 122 118
-3.01 15.96 -5.19 125 123 119
-3.01 15.86 -5.19 125 123 119
-3.01 15.77 -5.19 125 123 119
-3.00 15.67 -5.20 125 123 119
-3.00 15.57 -5.20 125 123 119
-2.99 15.48 -5.21 125 123 119
-2.98 15.39 -5.22 125 123 119
-2.97 15.30 -5.23 127 125 121
-2.97 15.20 -5.24 130 128 124
-2.97 15.10 -5.24 130 128 124
-2.95 15.01 -5.25 130 128 124
-2.96 14.91 -5.25 132 130 126
-2.95 14.82 -5.26 136 134 130
-2.96 14.71 -5.25 138 137 130
-2.96 14.62 -5.25 140 139 132
-2.95 14.52 -5.26 145 144 137
-2.95 14.42 -5.26 150 149 142
-2.94 14.33 -5.27 151 150 143
-2.94 14.23 -5.26 152 151 144
-2.94 14.13 -5.27 154 153 146
-2.94 14.04 -5.27 155 154 147
-2.93 13.94 -5.28 158 157 150
-2.93 13.84 -5.28 159 158 151
-2.93 13.75 -5.28 160 159 150
-2.92 13.65 -5.29 160 159 150
-2.92 13.55 -5.29 162 158 148
-2.92 13.45 -5.30 162 158 148
-2.91 13.36 -5.31 162 158 148
-2.91 13.26 -5.31 162 158 148
-2.90 13.17 -5.31 162 161 152
-2.91 13.06 -5.30 164 163 154
-2.90 12.97 -5.31 164 163 156
-2.90 12.87 -5.32 164 163 156
-2.89 12.78 -5.33 164 163 156
-2.88 12.68 -5.33 164 163 156
-2.89 12.58 -5.33 164 163 156
-2.89 12.48 -5.33 164 163 156
-2.89 12.38 -5.32 164 163 156
-2.88 12.29 -5.34 165 164 157
-2.88 12.19 -5.34 165 164 157
-2.88 12.09 -5.34 165 164 157
-2.88 11.99 -5.34 165 164 157
-2.88 11.89 -5.34 165 164 157
-2.87 11.80 -5.35 165 164 157
-2.87 11.70 -5.35 165 164 157
-2.87 11.60 -5.35 164 165 155
-2.86 11.51 -5.35 164 165 155
-2.86 11.41 -5.36 164 165 155
-2.85 11.31 -5.37 164 165 155
-2.85 11.22 -5.37 164 165 155
-2.83 11.13 -5.39 164 165 155
-2.83 11.03 -5.40 164 165 155
-2.82 10.93 -5.40 165 166 156
-2.82 10.83 -5.40 165 166 156
-2.82 10.74 -5.41 165 166 156
-2.81 10.64 -5.42 165 166 156
-2.80 10.55 -5.43 165 166 156
-2.80 10.45 -5.43 165 166 156
-2.80 10.35 -5.42 165 166 156
-2.80 10.25 -5.43 165 166 154
-2.79 10.16 -5.44 166 167 155
-2.78 10.06 -5.45 166 167 155
-2.79 9.96 -5.44 166 167 155
-2.79 9.86 -5.44 166 167 155
-2.78 -17.10 -5.45 249 248 251
-4.13 -16.84 -3.92 153 152 155
-4.68 -16.79 -3.29 29 29 29
-4.37 -16.97 -3.65 90 90 90
-4.04 -17.15 -4.02 147 147 142
-3.43 -17.41 -4.71 211 211 206
-2.84 -17.68 -5.38 244 245 237
-3.04 -17.82 -5.15 214 215 203
-4.93 -17.37 -3.01 202 203 191
-6.02 -17.16 -1.78 187 189 174
-6.25 -17.18 -1.52 194 196 181
-6.24 -17.27 -1.53 194 196 179
-6.31 -17.34 -1.44 160 162 145
-6.34 -17.42 -1.41 228 228 228
-6.38 -17.50 -1.37 243 243 243
-6.40 -17.58 -1.35 246 246 246
-6.40 -17.67 -1.35 222 222 222
-6.43 -17.75 -1.32 187 187 187
-6.51 -17.82 -1.22 172 172 172
-6.52 -17.90 -1.21 179 179 179
-6.20 -18.09 -1.57 189 189 189
-5.37 -18.45 -2.51 195 195 195
-4.06 -18.96 -4.00 207 207 207
-3.19 -19.34 -4.98 220 220 220
-2.80 -19.97 -5.43 220 220 220
-2.80 -20.06 -5.42 225 227 227
-2.79 -20.17 -5.44 225 227 227
-2.79 -20.27 -5.43 225 227 227
-2.82 -20.36 -5.41 225 227 227
-2.85 -20.45 -5.37 225 227 227
-2.86 -20.54 -5.36 225 227 227
-2.89 -20.63 -5.33 225 227 227
-2.89 -20.73 -5.32 225 227 227
-2.91 -20.82 -5.30 227 229 229
-2.93 -20.91 -5.28 227 229 229
-2.94 -21.01 -5.27 227 229 229
-2.97 -21.09 -5.24 227 229 229
-2.97 -21.19 -5.23 227 229 229
-3.00 -21.28 -5.20 227 229 229
-3.01 -21.37 -5.19 227 229 229
-3.03 -21.46 -5.16 227 229 229
-3.06 -21.55 -5.13 228 230 227
-3.09 -21.64 -5.10 228 230 227
-3.11 -21.73 -5.08 228 230 227
-3.12 -21.82 -5.07 228 230 227
-3.11 -21.92 -5.07 228 230 227
-3.12 -22.02 -5.07 228 230 227
-3.13 -22.11 -5.06 228 230 227
-3.14 -22.21 -5.04 228 230 227
-3.16 -22.30 -5.02 229 231 228
-3.17 -22.39 -5.01 229 231 228
-3.16 -22.49 -5.02 229 231 228
-3.15 -22.59 -5.03 229 231 228
-3.14 -22.70 -5.04 229 231 228
-3.14 -22.79 -5.04 229 231 228
-3.14 -22.90 -5.05 229 231 228
-3.13 -23.00 -5.05 229 231 228
-3.13 -23.10 -5.06 232 234 231
-3.11 -23.20 -5.07 232 234 231
-3.11 -23.30 -5.08 232 234 231
-3.11 -23.40 -5.08 232 234 231
-3.11 -23.50 -5.08 232 234 231
-3.11 -23.59 -5.07 232 234 231
-3.13 -23.69 -5.06 232 234 231
-3.13 -23.78 -5.05 232 234 231
-3.14 -23.88 -5.05 234 236 233
-3.14 -23.97 -5.04 234 236 233
-3.14 -24.07 -5.04 234 236 233
-3.14 -24.17 -5.04 234 236 233
-3.15 -24.27 -5.03 234 236 233
-3.15 -24.36 -5.03 234 236 233
-3.14 -24.46 -5.04 234 236 233
-3.14 -24.56 -5.04 234 236 233
-3.15 -24.66 -5.03 234 236 233
-3.15 -24.75 -5.03 234 236 233
-3.15 -24.85 -5.03 234 236 233
-3.15 -24.95 -5.03 234 236 233
-3.16 -25.05 -5.02 234 236 233
-3.16 -25.14 -5.01 234 236 233
-3.16 -25.24 -5.02 234 236 233
-3.17 -25.33 -5.01 234 236 233
-3.17 -25.43 -5.01 234 236 233
-3.18 -25.53 -5.00 234 236 233
-3.19 -25.62 -4.99 234 236 233
-3.19 -25.71 -4.98 234 236 233
-3.20 -25.81 -4.97 234 236 233
-3.20 -25.91 -4.98 234 236 233
-3.21 -26.00 -4.96 234 236 233
-3.21 -26.10 -4.96 234 236 233
-3.22 -26.19 -4.95 234 236 233
-3.23 -26.29 -4.95 234 236 233
-3.23 -26.38 -4.94 234 236 233
-3.24 -26.48 -4.93 234 236 233
-3.24 -26.57 -4.93 234 236 233
-3.24 -26.67 -4.93 234 236 233
-3.24 -26.77 -4.93 234 236 233
-3.24 -26.87 -4.93 234 236 233
-3.25 -26.96 -4.92 235 237 234
-3.27 -27.04 -4.89 235 237 234
-3.27 -27.14 -4.89 235 237 234
-3.28 -27.23 -4.88 235 237 234
-3.29 -27.33 -4.87 235 237 234
-3.30 -27.42 -4.87 235 237 234
-3.30 -27.52 -4.86 235 237 234
-3.31 -27.61 -4.85 235 237 234
-3.31 -27.71 -4.84 234 236 233
-3.31 -27.81 -4.85 234 236 233
-3.31 -27.90 -4.85 234 236 233
-3.30 -28.01 -4.86 234 236 233
-3.31 -28.10 -4.85 234 236 233
-3.30 -28.20 -4.86 234 236 233
-3.30 -28.30 -4.86 234 236 233
-3.30 -28.40 -4.86 234 236 233
-3.30 -28.50 -4.87 235 237 234
-3.30 -28.59 -4.86 235 237 234
-3.30 -28.69 -4.86 235 237 234
-3.31 -28.78 -4.84 235 237 234
-3.31 -28.88 -4.85 235 237 234
-3.31 -28.98 -4.84 235 237 234
-3.32 -29.07 -4.84 235 237 234
-3.32 -29.16 -4.83 235 237 234
-3.32 -29.26 -4.83 235 237 234
-3.32 -29.36 -4.83 235 237 234
-3.34 -29.45 -4.82 235 237 234
-3.34 -29.55 -4.81 235 237 234
-3.34 -29.64 -4.81 235 237 234
-3.34 -29.74 -4.81 235 237 234
-3.34 -29.84 -4.81 235 237 234
-3.36 -29.93 -4.80 235 237 234
-3.36 -30.02 -4.79 234 236 233
-3.37 -30.12 -4.79 234 236 233
-3.37 -30.21 -4.78 234 236 233
-3.38 -30.30 -4.76 234 236 233
-3.38 -30.40 -4.76 234 236 233
-3.39 -30.49 -4.76 234 236 233
-3.40 -30.59 -4.75 234 236 233
-3.40 -30.68 -4.75 234 236 233
-3.40 -30.78 -4.75 235 237 234
-3.41 -30.87 -4.74 235 237 234
-3.41 -30.96 -4.73 235 237 234
-3.42 -31.06 -4.72 235 237 234
-3.43 -31.15 -4.72 235 237 234
-3.43 -31.24 -4.71 235 237 234
-3.44 -31.34 -4.70 235 237 234
-3.44 -31.43 -4.70 235 237 234
-3.45 -31.52 -4.69 236 238 235
-3.45 -31.62 -4.69 236 238 235
-3.46 -31.71 -4.68 236 238 235
-3.47 -31.81 -4.67 236 238 235
-3.47 -31.90 -4.67 236 238 235
-3.48 -31.99 -4.66 236 238 235
-3.48 -32.09 -4.66 236 238 235
-3.49 -32.18 -4.64 236 238 235
-3.50 -32.27 -4.63 240 242 239
-3.50 -32.36 -4.63 240 242 239
-3.51 -32.45 -4.62 240 242 239
-3.51 -32.55 -4.62 240 242 239
-3.51 -32.65 -4.62 240 242 239
-3.53 -32.73 -4.60 240 242 239
-3.52 -32.84 -4.61 240 242 239
-3.53 -32.93 -4.60 240 242 239
-3.53 -33.02 -4.60 242 244 241
-3.53 -33.12 -4.60 242 244 241
-3.53 -33.21 -4.59 242 244 241
-3.53 -33.31 -4.59 242 244 241
-3.53 -33.41 -4.59 242 244 241
-3.52 -33.52 -4.61 242 244 241
-3.53 -33.61 -4.60 242 244 241
-3.52 -33.71 -4.61 242 244 241
-3.53 -33.80 -4.60 244 246 243
-3.53 -33.90 -4.60 244 246 243
-3.53 -34.00 -4.60 244 246 243
-3.53 -34.09 -4.59 244 246 243
-3.53 -34.19 -4.60 244 246 243
-3.52 -34.29 -4.61 244 246 243
-3.52 -34.39 -4.61 244 246 243
-3.52 -34.49 -4.61 244 246 243
-3.51 -34.59 -4.62 244 246 243
-3.52 -34.68 -4.61 244 246 243
-3.53 -34.77 -4.60 244 246 243
-3.53 -34.87 -4.60 244 246 243
-3.55 -34.95 -4.58 244 246 243
-3.57 -35.04 -4.56 244 246 243
-3.58 -35.13 -4.55 244 246 243
-3.59 -35.21 -4.53 244 246 243
-3.59 -35.31 -4.53 247 249 246
-3.60 -35.39 -4.52 247 249 246
-3.60 -35.50 -4.52 247 249 246
-3.61 -35.59 -4.51 247 249 246
-3.61 -35.68 -4.50 247 249 246
-3.62 -35.77 -4.49 247 249 246
-3.63 -35.86 -4.49 247 249 246
-3.64 -35.95 -4.47 247 249 246
-3.64 -36.05 -4.48 248 250 247
-3.64 -36.15 -4.48 248 250 247
-3.63 -36.24 -4.48 248 250 247
-3.64 -36.33 -4.47 248 250 247
-3.66 -36.42 -4.46 248 250 247
-3.66 -36.51 -4.45 248 250 247
-3.66 -36.61 -4.45 248 250 247
-3.66 -36.71 -4.46 248 250 247
-3.63 -36.83 -4.49 251 252 244
-3.64 -36.92 -4.48 243 244 236
-3.64 -37.01 -4.47 243 241 237
-3.58 -37.16 -4.55 252 250 246
-3.80 -37.07 -4.29 231 224 222
-3.64 23.64 -4.61 142 133 125
-3.62 23.56 -4.64 142 133 125
-3.62 23.46 -4.64 142 133 125
-3.62 23.37 -4.64 142 133 125
-3.63 23.26 -4.62 142 133 125
-3.63 23.16 -4.62 142 133 125
-3.60 23.09 -4.66 142 133 125
-3.59 23.00 -4.67 142 133 125
-3.59 22.91 -4.67 142 133 125
-3.58 22.82 -4.68 142 133 125
-3.59 22.71 -4.67 143 134 126
-3.58 22.62 -4.68 143 134 126
-3.58 22.53 -4.68 143 134 126
-3.57 22.44 -4.69 143 134 126
-3.57 22.34 -4.69 143 134 126
-3.56 22.25 -4.70 143 134 126
-3.56 22.16 -4.71 142 136 127
-3.55 22.06 -4.71 142 136 127
-3.55 21.97 -4.72 143 137 128
-3.54 21.88 -4.72 143 137 128
-3.53 21.79 -4.74 144 138 129
-3.53 21.70 -4.74 144 138 129
-3.52 21.60 -4.75 146 140 131
-3.51 21.51 -4.76 146 140 131
-3.50 21.43 -4.77 146 140 131
-3.48 21.34 -4.79 146 140 131
-3.47 21.25 -4.80 146 140 131
-3.47 21.15 -4.80 146 140 131
-3.46 21.07 -4.82 146 140 131
-3.45 20.98 -4.83 146 140 131
-3.43 20.89 -4.85 145 141 131
-3.42 20.81 -4.87 146 142 132
-3.41 20.71 -4.87 145 141 131
-3.40 20.63 -4.89 146 142 132
-3.39 20.53 -4.90 146 142 132
-3.38 20.44 -4.90 146 142 132
-3.39 20.34 -4.90 146 142 132
-3.38 20.25 -4.91 146 142 132
-3.38 20.15 -4.91 146 142 132
-3.38 20.06 -4.91 146 142 132
-3.37 19.96 -4.92 146 142 132
-3.37 19.87 -4.92 147 143 133
-3.37 19.77 -4.92 147 143 133
-3.36 19.68 -4.93 147 143 133
-3.36 19.58 -4.93 147 143 133
-3.34 19.50 -4.95 147 143 133
-3.34 19.40 -4.95 147 143 133
-3.33 19.31 -4.97 147 143 133
-3.33 19.22 -4.97 148 142 135
-3.32 19.12 -4.98 148 142 135
-3.30 19.04 -5.00 148 144 136
-3.31 18.94 -4.99 149 145 137
-3.30 18.85 -5.00 149 145 137
-3.30 18.75 -5.00 149 145 137
-3.29 18.65 -5.01 149 145 137
-3.29 18.56 -5.01 149 145 137
-3.29 18.46 -5.01 152 148 140
-3.28 18.37 -5.02 152 148 140
-3.29 18.27 -5.01 152 148 140
-3.28 18.17 -5.02 149 145 137
-3.28 18.08 -5.03 148 144 136
-3.27 17.99 -5.04 146 142 134
-3.26 17.89 -5.04 141 137 129
-3.26 17.80 -5.05 140 136 128
-3.25 17.70 -5.05 136 132 124
-3.24 17.61 -5.06 134 130 122
-3.24 17.52 -5.07 132 128 120
-3.23 17.42 -5.08 128 124 116
-3.22 17.33 -5.09 124 123 116
-3.21 17.24 -5.10 123 122 115
-3.21 17.15 -5.11 124 122 118
-3.20 17.05 -5.11 124 122 118
-3.20 16.95 -5.12 124 122 118
-3.20 16.85 -5.11 124 122 118
-3.20 16.76 -5.12 124 122 118
-3.20 16.66 -5.12 124 122 118
-3.19 16.57 -5.13 124 122 118
-3.18 16.47 -5.13 124 122 118
-3.18 16.38 -5.13 125 123 119
-3.17 16.28 -5.14 125 123 119
-3.17 16.18 -5.14 124 122 118
-3.17 16.09 -5.15 124 122 118
-3.17 15.99 -5.15 124 122 118
-3.17 15.89 -5.15 125 123 119
-3.16 15.80 -5.16 125 123 119
-3.16 15.70 -5.16 125 123 119
-3.16 15.61 -5.16 125 123 119
-3.15 15.51 -5.17 125 123 119
-3.14 15.42 -5.18 125 123 119
-3.14 15.32 -5.18 125 123 119
-3.13 15.23 -5.19 127 125 121
-3.12 15.14 -5.20 130 128 124
-3.12 15.04 -5.20 130 129 122
-3.11 14.95 -5.22 130 129 122
-3.12 14.84 -5.21 132 131 124
-3.12 14.75 -5.21 136 135 128
-3.11 14.65 -5.22 138 137 128
-3.12 14.55 -5.21 140 139 130
-3.11 14.45 -5.22 145 144 135
-3.11 14.36 -5.22 150 149 140
-3.10 14.26 -5.23 151 150 141
-3.10 14.17 -5.23 152 151 142
-3.09 14.07 -5.23 154 153 144
-3.09 13.98 -5.24 155 154 145
-3.08 13.88 -5.25 158 157 148
-3.08 13.78 -5.25 159 158 149
-3.08 13.69 -5.25 160 159 148
-3.08 13.59 -5.25 160 159 148
-3.08 13.49 -5.25 162 158 148
-3.07 13.39 -5.26 162 158 148
-3.07 13.30 -5.27 162 158 148
-3.06 13.20 -5.27 162 158 148
-3.06 13.11 -5.28 162 161 152
-3.06 13.01 -5.27 164 163 154
-3.05 12.91 -5.28 164 163 156
-3.06 12.81 -5.28 164 163 156
-3.05 12.72 -5.28 164 163 156
-3.04 12.62 -5.29 164 163 156
-3.05 12.52 -5.28 164 163 156
-3.04 12.43 -5.29 164 163 156
-3.05 12.32 -5.29 164 163 156
-3.04 12.23 -5.30 165 164 157
-3.04 12.13 -5.30 165 164 157
-3.03 12.04 -5.31 165 164 157
-3.03 11.94 -5.31 165 164 157
-3.03 11.84 -5.30 165 164 157
-3.02 11.75 -5.31 165 164 157
-3.03 11.65 -5.31 165 164 157
-3.02 11.55 -5.32 164 165 155
-3.02 11.45 -5.32 164 165 155
-3.02 11.36 -5.32 164 165 155
-3.01 11.26 -5.33 164 165 155
-3.01 11.16 -5.33 164 165 155
-2.99 11.07 -5.35 164 165 155
-2.99 10.97 -5.35 164 165 155
-2.98 10.88 -5.37 165 166 156
-2.97 10.78 -5.37 165 166 156
-2.97 10.69 -5.37 165 166 156
-2.97 10.59 -5.38 165 166 156
-2.96 10.49 -5.38 165 166 156
-2.95 10.40 -5.39 165 166 156
-2.95 10.30 -5.39 165 166 156
-2.95 10.20 -5.39 165 166 154
-2.95 10.11 -5.40 166 167 155
-2.94 10.01 -5.41 166 167 155
-2.94 9.91 -5.41 166 167 155
-2.94 9.81 -5.41 166 167 155
-2.94 9.71 -5.41 166 167 155
-2.94 9.61 -5.41 166 167 155
-2.94 9.52 -5.41 166 167 155
-2.93 9.42 -5.42 167 168 156
-2.93 9.32 -5.42 168 169 157
-2.94 9.22 -5.41 168 169 157
-2.93 9.12 -5.42 168 169 157
-2.93 9.03 -5.42 168 169 157
-2.94 8.92 -5.41 168 169 157
-2.94 8.83 -5.41 168 169 157
-2.94 8.73 -5.41 168 169 157
-2.93 8.63 -5.42 168 169 159
-2.93 8.53 -5.42 170 171 161
-2.92 8.44 -5.43 170 171 163
-2.93 8.34 -5.42 170 171 163
-2.91 8.24 -5.44 170 171 163
-2.91 8.15 -5.45 170 171 163
-2.91 8.05 -5.45 170 171 163
-3.10 -17.03 -5.22 242 240 241
-4.51 -16.75 -3.63 118 116 117
-5.00 -16.72 -3.07 54 52 48
-4.78 -16.87 -3.31 109 107 103
-4.60 -17.01 -3.53 95 94 85
-3.98 -17.28 -4.22 134 133 124
-3.28 -17.57 -5.02 209 209 193
-3.34 -17.65 -4.96 215 215 199
-4.59 -17.39 -3.53 214 215 194
-5.95 -17.10 -1.99 200 201 180
-6.34 -17.07 -1.54 190 191 168
-6.38 -17.15 -1.49 184 185 162
-6.38 -17.24 -1.49 177 179 153
-6.42 -17.32 -1.45 183 185 159
-6.49 -17.39 -1.37 186 184 185
-6.50 -17.47 -1.35 216 214 215
-6.54 -17.55 -1.32 249 247 248
-6.59 -17.63 -1.26 253 251 252
-6.59 -17.72 -1.26 242 240 241
-6.58 -17.81 -1.27 244 242 243
-6.62 -17.88 -1.22 243 241 242
-6.62 -17.97 -1.22 229 227 228
-6.59 -18.07 -1.26 194 192 193
-6.23 -18.28 -1.66 189 187 188
-5.61 -18.57 -2.37 189 187 188
-4.56 -19.01 -3.56 201 199 200
-3.83 -19.34 -4.40 217 215 216
-3.19 -19.65 -5.12 226 224 225
-2.94 -19.84 -5.41 226 224 225
-2.96 -19.93 -5.38 221 219 220
-3.09 -19.98 -5.24 227 229 229
-3.09 -20.08 -5.24 227 229 229
-3.08 -20.18 -5.25 226 228 228
-3.06 -20.29 -5.28 225 227 227
-3.05 -20.39 -5.28 223 225 225
-3.04 -20.49 -5.30 222 224 224
-3.04 -20.59 -5.30 221 223 223
-3.04 -20.69 -5.30 221 223 223
-3.07 -20.78 -5.26 227 229 229
-3.08 -20.87 -5.25 227 229 229
-3.12 -20.96 -5.21 227 229 229
-3.13 -21.05 -5.19 227 229 229
-3.14 -21.14 -5.18 227 229 229
-3.17 -21.23 -5.15 227 229 229
-3.20 -21.32 -5.11 227 229 229
-3.23 -21.41 -5.08 227 229 229
-3.26 -21.49 -5.04 228 230 227
-3.28 -21.58 -5.02 228 230 227
-3.31 -21.67 -4.99 228 230 227
-3.31 -21.77 -4.98 228 230 227
-3.32 -21.86 -4.97 228 230 227
-3.33 -21.95 -4.96 228 230 227
-3.33 -22.05 -4.96 228 230 227
-3.34 -22.14 -4.95 228 230 227
-3.35 -22.24 -4.94 229 231 228
-3.36 -22.33 -4.93 229 231 228
-3.35 -22.44 -4.94 229 231 228
-3.34 -22.54 -4.95 229 231 228
-3.33 -22.64 -4.96 229 231 228
-3.33 -22.74 -4.96 229 231 228
-3.32 -22.84 -4.97 229 231 228
-3.31 -22.94 -4.99 229 231 228
-3.30 -23.04 -5.00 232 234 231
-3.30 -23.14 -5.00 232 234 231
-3.29 -23.24 -5.01 232 234 231
-3.28 -23.34 -5.02 232 234 231
-3.28 -23.44 -5.02 232 234 231
-3.30 -23.53 -5.00 232 234 231
-3.31 -23.63 -4.99 232 234 231
-3.31 -23.72 -4.99 232 234 231
-3.31 -23.82 -4.99 234 236 233
-3.31 -23.92 -4.98 234 236 233
-3.32 -24.01 -4.98 234 236 233
-3.32 -24.11 -4.98 234 236 233
-3.32 -24.21 -4.98 234 236 233
-3.32 -24.31 -4.98 234 236 233
-3.32 -24.41 -4.98 234 236 233
-3.31 -24.50 -4.98 234 236 233
-3.31 -24.60 -4.98 234 236 233
-3.32 -24.70 -4.98 234 236 233
-3.31 -24.80 -4.99 234 236 233
-3.32 -24.89 -4.98 234 236 233
-3.33 -24.99 -4.96 234 236 233
-3.33 -25.08 -4.96 234 236 233
-3.34 -25.18 -4.96 234 236 233
-3.34 -25.27 -4.95 234 236 233
-3.34 -25.37 -4.96 233 235 232
-3.35 -25.47 -4.94 233 235 232
-3.35 -25.56 -4.94 233 235 232
-3.37 -25.65 -4.93 233 235 232
-3.38 -25.75 -4.91 233 235 232
-3.37 -25.84 -4.92 233 235 232
-3.39 -25.94 -4.90 233 235 232
-3.38 -26.03 -4.90 233 235 232
-3.39 -26.13 -4.90 234 236 233
-3.39 -26.22 -4.89 234 236 233
-3.40 -26.32 -4.89 234 236 233
-3.41 -26.41 -4.88 234 236 233
-3.41 -26.51 -4.87 234 236 233
-3.41 -26.60 -4.87 234 236 233
-3.42 -26.70 -4.87 234 236 233
-3.42 -26.80 -4.86 234 236 233
-3.42 -26.89 -4.86 234 236 233
-3.43 -26.98 -4.85 234 236 233
-3.44 -27.08 -4.84 234 236 233
-3.45 -27.17 -4.83 234 236 233
-3.46 -27.26 -4.82 234 236 233
-3.46 -27.36 -4.81 234 236 233
-3.46 -27.45 -4.81 234 236 233
-3.46 -27.55 -4.81 234 236 233
-3.47 -27.64 -4.80 234 236 233
-3.47 -27.75 -4.81 234 236 233
-3.48 -27.84 -4.80 234 236 233
-3.47 -27.94 -4.81 234 236 233
-3.47 -28.03 -4.80 234 236 233
-3.47 -28.13 -4.81 234 236 233
-3.47 -28.23 -4.81 234 236 233
-3.47 -28.33 -4.81 234 236 233
-3.46 -28.43 -4.81 235 237 234
-3.47 -28.52 -4.81 235 237 234
-3.47 -28.62 -4.80 235 237 234
-3.48 -28.71 -4.79 235 237 234
-3.49 -28.80 -4.78 235 237 234
-3.49 -28.90 -4.78 235 237 234
-3.50 -28.99 -4.77 235 237 234
-3.49 -29.09 -4.78 235 237 234
-3.50 -29.19 -4.77 235 237 234
-3.50 -29.29 -4.78 235 237 234
-3.51 -29.38 -4.77 235 237 234
-3.51 -29.47 -4.76 235 237 234
-3.51 -29.57 -4.76 235 237 234
-3.51 -29.66 -4.76 235 237 234
-3.52 -29.76 -4.75 235 237 234
-3.52 -29.85 -4.75 235 237 234
-3.53 -29.95 -4.74 234 236 233
-3.54 -30.04 -4.73 234 236 233
-3.54 -30.14 -4.73 234 236 233
-3.55 -30.22 -4.71 234 236 233
-3.56 -30.32 -4.70 234 236 233
-3.56 -30.41 -4.70 234 236 233
-3.57 -30.51 -4.70 234 236 233
-3.57 -30.60 -4.70 234 236 233
-3.57 -30.70 -4.70 235 237 234
-3.58 -30.79 -4.69 235 237 234
-3.58 -30.88 -4.68 235 237 234
-3.59 -30.97 -4.67 235 237 234
-3.60 -31.07 -4.66 235 237 234
-3.60 -31.16 -4.65 235 237 234
-3.61 -31.26 -4.65 235 237 234
-3.62 -31.35 -4.64 235 237 234
-3.62 -31.44 -4.64 236 238 235
-3.62 -31.54 -4.63 236 238 235
-3.63 -31.63 -4.62 236 238 235
-3.63 -31.73 -4.62 236 238 235
-3.64 -31.82 -4.61 236 238 235
-3.65 -31.91 -4.60 236 238 235
-3.66 -32.00 -4.60 236 238 235
-3.67 -32.09 -4.58 236 238 235
-3.67 -32.18 -4.58 240 242 239
-3.67 -32.28 -4.58 240 242 239
-3.68 -32.37 -4.57 240 242 239
-3.68 -32.47 -4.56 240 242 239
-3.68 -32.56 -4.57 240 242 239
-3.69 -32.65 -4.55 240 242 239
-3.69 -32.75 -4.56 240 242 239
-3.70 -32.84 -4.55 240 242 239
-3.70 -32.94 -4.54 242 244 241
-3.70 -33.03 -4.54 242 244 241
-3.70 -33.13 -4.54 242 244 241
-3.71 -33.22 -4.53 242 244 241
-3.70 -33.32 -4.54 242 244 241
-3.69 -33.43 -4.55 242 244 241
-3.70 -33.52 -4.54 242 244 241
-3.69 -33.62 -4.55 242 244 241
-3.69 -33.72 -4.55 244 246 243
-3.70 -33.81 -4.55 244 246 243
-3.69 -33.91 -4.55 244 246 243
-3.70 -34.00 -4.54 244 246 243
-3.70 -34.10 -4.54 244 246 243
-3.70 -34.20 -4.55 244 246 243
-3.69 -34.30 -4.55 244 246 243
-3.70 -34.39 -4.55 244 246 243
-3.69 -34.49 -4.55 243 245 242
-3.70 -34.58 -4.54 243 245 242
-3.72 -34.67 -4.53 243 245 242
-3.72 -34.76 -4.52 243 245 242
-3.73 -34.85 -4.51 243 245 242
-3.74 -34.94 -4.50 243 245 242
-3.76 -35.02 -4.48 243 245 242
-3.77 -35.11 -4.47 243 245 242
-3.77 -35.20 -4.46 247 249 246
-3.78 -35.29 -4.45 247 249 246
-3.79 -35.39 -4.45 247 249 246
-3.79 -35.48 -4.44 247 249 246
-3.81 -35.57 -4.42 247 249 246
-3.81 -35.66 -4.42 247 249 246
-3.82 -35.75 -4.41 247 249 246
-3.82 -35.84 -4.41 247 249 246
-3.81 -35.95 -4.42 248 250 247
-3.81 -36.04 -4.42 248 250 247
-3.81 -36.14 -4.42 248 250 247
-3.82 -36.23 -4.41 248 250 247
-3.82 -36.33 -4.41 248 250 247
-3.82 -36.42 -4.41 248 250 247
-3.83 -36.51 -4.40 248 250 247
-3.84 -36.60 -4.38 248 250 247
-3.83 -36.70 -4.39 251 252 244
-3.79 -36.83 -4.44 244 245 237
-3.79 -36.93 -4.44 245 243 239
-3.73 -37.08 -4.51 252 250 246
-4.12 -36.85 -4.06 248 241 239
-3.81 23.54 -4.56 142 133 125
-3.77 23.47 -4.60 142 133 125
-3.77 23.37 -4.60 142 133 125
-3.75 23.30 -4.63 142 133 125
-3.77 23.19 -4.61 142 133 125
-3.78 23.08 -4.59 142 133 125
-3.75 23.01 -4.63 142 133 125
-3.74 22.91 -4.63 142 133 125
-3.74 22.82 -4.63 142 133 125
-3.74 22.73 -4.64 142 133 125
-3.74 22.63 -4.64 143 134 126
-3.73 22.54 -4.65 143 134 126
-3.72 22.45 -4.66 143 134 126
-3.72 22.36 -4.66 143 134 126
-3.71 22.26 -4.67 143 134 126
-3.70 22.18 -4.68 143 134 126
-3.70 22.08 -4.68 142 136 127
-3.69 21.99 -4.69 142 136 127
-3.68 21.90 -4.71 143 137 128
-3.68 21.80 -4.71 143 137 128
-3.67 21.72 -4.72 144 138 129
-3.66 21.63 -4.73 144 138 129
-3.66 21.53 -4.73 146 140 131
-3.66 21.44 -4.73 146 140 131
-3.64 21.35 -4.75 146 140 131
-3.64 21.26 -4.76 146 140 131
-3.63 21.17 -4.77 146 140 131
-3.62 21.08 -4.78 146 140 131
-3.61 20.99 -4.79 146 140 131
-3.60 20.90 -4.80 146 140 131
-3.58 20.82 -4.82 145 141 131
-3.57 20.73 -4.83 146 142 132
-3.55 20.64 -4.85 145 141 131
-3.54 20.55 -4.86 146 142 132
-3.54 20.46 -4.87 146 142 132
-3.53 20.37 -4.88 146 142 132
-3.52 20.28 -4.88 146 142 132
-3.52 20.18 -4.89 146 142 132
-3.53 20.08 -4.88 146 142 132
-3.52 19.98 -4.88 146 142 132
-3.52 19.89 -4.88 146 142 132
-3.52 19.79 -4.89 147 143 133
-3.52 19.70 -4.89 147 143 133
-3.50 19.61 -4.91 147 143 133
-3.50 19.51 -4.91 147 143 133
-3.49 19.42 -4.92 147 143 133
-3.49 19.33 -4.92 147 143 133
-3.48 19.24 -4.93 147 143 133
-3.47 19.14 -4.94 148 142 135
-3.47 19.05 -4.94 148 142 135
-3.46 18.96 -4.96 148 144 136
-3.46 18.86 -4.96 149 145 137
-3.46 18.77 -4.96 149 145 137
-3.45 18.67 -4.97 148 144 136
-3.45 18.58 -4.97 148 144 136
-3.44 18.48 -4.98 148 144 136
-3.43 18.39 -4.99 150 146 138
-3.43 18.30 -4.99 150 146 138
-3.43 18.20 -4.99 150 146 138
-3.43 18.10 -4.99 148 144 136
-3.43 18.01 -4.99 147 143 135
-3.42 17.91 -5.00 143 139 131
-3.41 17.82 -5.01 139 135 127
-3.41 17.72 -5.01 136 132 124
-3.41 17.63 -5.02 136 132 124
-3.40 17.54 -5.02 134 130 122
-3.39 17.44 -5.03 132 128 120
-3.38 17.35 -5.05 128 124 116
-3.37 17.26 -5.05 124 123 116
-3.37 17.17 -5.06 123 122 115
-3.37 17.07 -5.06 124 122 118
-3.36 16.98 -5.07 124 122 118
-3.35 16.89 -5.08 124 122 118
-3.35 16.79 -5.08 124 122 118
-3.34 16.70 -5.09 124 122 118
-3.34 16.60 -5.09 124 122 118
-3.34 16.50 -5.09 124 122 118
-3.33 16.41 -5.10 124 122 118
-3.34 16.31 -5.10 125 123 119
-3.33 16.22 -5.11 125 123 119
-3.33 16.12 -5.11 124 122 118
-3.32 16.02 -5.11 124 122 118
-3.31 15.93 -5.12 123 121 117
-3.32 15.83 -5.12 122 120 116
-3.32 15.73 -5.12 122 120 116
-3.31 15.64 -5.12 123 121 117
-3.30 15.54 -5.13 123 121 117
-3.30 15.45 -5.14 124 122 118
-3.30 15.35 -5.14 125 123 119
-3.29 15.26 -5.15 126 124 120
-3.29 15.16 -5.16 127 125 121
-3.27 15.08 -5.18 130 128 124
-3.28 14.97 -5.17 132 131 124
-3.26 14.88 -5.18 134 133 126
-3.27 14.78 -5.18 137 136 129
-3.27 14.68 -5.17 139 138 131
-3.27 14.59 -5.18 140 139 130
-3.27 14.49 -5.18 141 140 131
-3.26 14.39 -5.19 145 144 135
-3.26 14.30 -5.18 148 147 138
-3.25 14.20 -5.19 151 150 141
-3.25 14.11 -5.19 154 153 144
-3.25 14.01 -5.20 157 156 147
-3.24 13.92 -5.21 158 157 148
-3.24 13.82 -5.21 159 158 149
-3.23 13.72 -5.22 159 158 149
-3.23 13.62 -5.22 159 158 147
-3.23 13.53 -5.22 160 159 148
-3.23 13.43 -5.22 162 158 148
-3.22 13.34 -5.23 162 158 148
-3.22 13.24 -5.23 162 158 148
-3.21 13.14 -5.24 162 158 148
-3.21 13.05 -5.24 162 161 152
-3.21 12.95 -5.24 164 163 154
-3.20 12.86 -5.25 164 163 156
-3.20 12.76 -5.25 164 163 156
-3.20 12.66 -5.25 164 163 156
-3.19 12.57 -5.26 164 163 156
-3.20 12.46 -5.25 164 163 156
-3.19 12.37 -5.26 164 163 156
-3.19 12.27 -5.26 164 163 156
-3.19 12.17 -5.26 165 164 157
-3.19 12.08 -5.27 165 164 157
-3.19 11.98 -5.26 165 164 157
-3.19 11.88 -5.27 165 164 157
-3.19 11.78 -5.27 165 164 157
-3.18 11.69 -5.28 165 164 157
-3.18 11.59 -5.28 165 164 157
-3.18 11.49 -5.28 164 165 155
-3.17 11.40 -5.28 164 165 155
-3.16 11.30 -5.29 164 165 155
-3.15 11.21 -5.31 164 165 155
-3.15 11.11 -5.31 164 165 155
-3.14 11.02 -5.32 164 165 155
-3.14 10.92 -5.32 164 165 155
-3.13 10.83 -5.33 165 166 156
-3.12 10.73 -5.34 165 166 156
-3.12 10.63 -5.34 165 166 156
-3.12 10.54 -5.35 165 166 156
-3.13 10.44 -5.34 165 166 156
-3.12 10.34 -5.35 165 166 156
-3.11 10.25 -5.35 165 166 156
-3.11 10.15 -5.36 165 166 154
-3.10 10.06 -5.37 166 167 155
-3.09 9.96 -5.38 166 167 155
-3.10 9.86 -5.37 166 167 155
-3.09 9.76 -5.38 166 167 155
-3.08 9.67 -5.39 166 167 155
-3.09 9.57 -5.38 166 167 155
-3.09 9.47 -5.38 166 167 155
-3.09 9.37 -5.38 167 168 156
-3.09 9.27 -5.38 168 169 157
-3.09 9.17 -5.38 168 169 157
-3.08 9.08 -5.39 168 169 157
-3.09 8.98 -5.38 168 169 157
-3.09 8.88 -5.38 168 169 157
-3.09 8.78 -5.38 168 169 157
-3.09 8.68 -5.38 168 169 157
-3.09 8.58 -5.38 168 169 159
-3.09 8.49 -5.38 170 171 161
-3.08 8.39 -5.39 170 171 163
-3.09 8.29 -5.38 170 171 163
-3.07 8.19 -5.40 170 171 163
-3.07 8.10 -5.40 170 171 163
-3.07 8.00 -5.41 170 171 163
-3.05 7.91 -5.42 170 171 163
-3.05 7.81 -5.43 170 171 163
-3.03 7.72 -5.44 170 171 163
-3.03 7.62 -5.45 171 172 164
-3.03 -0.08 -5.45 169 179 171
-3.03 -0.18 -5.45 169 179 171
-3.03 -0.28 -5.44 171 181 173
-3.04 -0.38 -5.44 171 181 173
-3.03 -0.47 -5.45 171 181 173
-3.04 -0.57 -5.44 171 181 173
-3.03 -0.67 -5.45 171 181 173
-3.41 -16.96 -5.01 214 212 213
-4.73 -16.71 -3.50 70 68 69
-5.00 -16.73 -3.20 84 82 78
-4.98 -16.83 -3.22 136 134 130
-5.02 -16.91 -3.18 115 114 105
-4.41 -17.17 -3.88 160 159 150
-3.88 -17.41 -4.47 166 166 150
-4.48 -17.34 -3.80 188 188 172
-5.81 -17.06 -2.27 190 191 170
-6.37 -16.99 -1.63 180 181 160
-6.41 -17.07 -1.58 196 197 174
-6.46 -17.14 -1.53 196 197 174
-6.50 -17.22 -1.49 183 185 159
-6.55 -17.29 -1.43 205 207 181
-6.59 -17.37 -1.38 219 217 218
-6.63 -17.45 -1.34 201 199 200
-6.67 -17.52 -1.29 218 216 217
-6.72 -17.60 -1.24 252 250 251
-6.74 -17.68 -1.21 253 251 252
-6.77 -17.76 -1.18 243 241 242
-6.80 -17.84 -1.14 249 247 248
-6.76 -17.94 -1.19 255 255 255
-6.72 -18.04 -1.23 255 255 255
-6.85 -18.09 -1.09 231 229 230
-6.87 -18.17 -1.07 189 187 188
-6.61 -18.35 -1.36 160 158 159
-6.14 -18.59 -1.89 159 157 158
-5.20 -19.00 -2.96 180 178 179
-4.32 -19.39 -3.98 207 205 206
-3.54 -19.75 -4.86 224 222 223
-3.27 -19.94 -5.18 229 231 231
-3.12 -20.09 -5.34 228 230 230
-3.16 -20.17 -5.29 227 229 229
-3.19 -20.26 -5.27 225 227 227
-3.28 -20.33 -5.16 223 225 225
-3.33 -20.41 -5.11 221 223 223
-3.30 -20.52 -5.14 220 222 222
-3.32 -20.61 -5.11 219 221 221
-3.32 -20.70 -5.11 226 228 228
-3.32 -20.80 -5.12 226 228 228
-3.33 -20.90 -5.10 226 228 228
-3.33 -20.99 -5.10 226 228 228
-3.35 -21.08 -5.08 226 228 228
-3.36 -21.18 -5.07 226 228 228
-3.40 -21.26 -5.03 226 228 228
-3.43 -21.35 -4.99 226 228 228
-3.45 -21.44 -4.97 227 229 226
-3.47 -21.53 -4.95 227 229 226
-3.47 -21.63 -4.95 227 229 226
-3.48 -21.72 -4.93 227 229 226
-3.50 -21.81 -4.91 227 229 226
-3.51 -21.90 -4.90 227 229 226
-3.52 -22.00 -4.89 227 229 226
-3.51 -22.10 -4.90 227 229 226
-3.52 -22.19 -4.89 228 230 227
-3.52 -22.29 -4.89 228 230 227
-3.53 -22.38 -4.88 228 230 227
-3.52 -22.48 -4.88 228 230 227
-3.51 -22.59 -4.90 228 230 227
-3.50 -22.68 -4.91 228 230 227
-3.50 -22.78 -4.91 228 230 227
-3.49 -22.89 -4.92 228 230 227
-3.48 -22.99 -4.94 230 232 229
-3.47 -23.09 -4.94 230 232 229
-3.47 -23.18 -4.94 230 232 229
-3.46 -23.29 -4.96 230 232 229
-3.46 -23.39 -4.96 230 232 229
-3.47 -23.48 -4.95 230 232 229
-3.48 -23.57 -4.94 230 232 229
-3.48 -23.67 -4.93 230 232 229
-3.48 -23.77 -4.94 234 236 233
-3.48 -23.87 -4.94 234 236 233
-3.48 -23.96 -4.94 234 236 233
-3.48 -24.06 -4.94 234 236 233
-3.48 -24.15 -4.93 234 236 233
-3.48 -24.25 -4.94 234 236 233
-3.48 -24.35 -4.94 234 236 233
-3.47 -24.45 -4.94 234 236 233
-3.48 -24.55 -4.94 233 235 232
-3.49 -24.64 -4.92 233 235 232
-3.48 -24.74 -4.93 233 235 232
-3.49 -24.83 -4.92 233 235 232
-3.49 -24.93 -4.92 233 235 232
-3.50 -25.02 -4.91 233 235 232
-3.50 -25.12 -4.91 233 235 232
-3.51 -25.21 -4.90 233 235 232
-3.51 -25.31 -4.90 232 234 231
-3.52 -25.41 -4.89 232 234 231
-3.52 -25.50 -4.89 232 234 231
-3.52 -25.60 -4.89 232 234 231
-3.53 -25.69 -4.87 232 234 231
-3.53 -25.79 -4.88 232 234 231
-3.55 -25.88 -4.86 232 234 231
-3.55 -25.97 -4.85 232 234 231
-3.55 -26.07 -4.85 233 235 232
-3.56 -26.16 -4.84 233 235 232
-3.56 -26.26 -4.84 233 235 232
-3.58 -26.35 -4.82 233 235 232
-3.58 -26.45 -4.82 233 235 232
-3.58 -26.54 -4.82 233 235 232
-3.58 -26.64 -4.82 233 235 232
-3.58 -26.73 -4.81 233 235 232
-3.59 -26.83 -4.81 233 235 232
-3.59 -26.92 -4.81 233 235 232
-3.60 -27.02 -4.80 233 235 232
-3.62 -27.10 -4.78 233 235 232
-3.63 -27.20 -4.77 233 235 232
-3.62 -27.30 -4.77 233 235 232
-3.63 -27.39 -4.76 233 235 232
-3.63 -27.49 -4.76 233 235 232
-3.64 -27.58 -4.76 233 235 232
-3.63 -27.68 -4.76 233 235 232
-3.64 -27.77 -4.75 233 235 232
-3.63 -27.87 -4.76 233 235 232
-3.63 -27.97 -4.76 233 235 232
-3.63 -28.07 -4.76 233 235 232
-3.64 -28.16 -4.76 233 235 232
-3.64 -28.26 -4.76 233 235 232
-3.64 -28.36 -4.76 234 236 233
-3.64 -28.45 -4.75 234 236 233
-3.63 -28.55 -4.76 234 236 233
-3.65 -28.64 -4.74 234 236 233
-3.65 -28.74 -4.74 234 236 233
-3.65 -28.83 -4.74 234 236 233
-3.66 -28.93 -4.73 234 236 233
-3.65 -29.03 -4.74 234 236 233
-3.66 -29.12 -4.72 235 237 234
-3.66 -29.22 -4.73 235 237 234
-3.66 -29.31 -4.72 235 237 234
-3.67 -29.41 -4.72 235 237 234
-3.67 -29.50 -4.71 235 237 234
-3.68 -29.60 -4.71 235 237 234
-3.68 -29.69 -4.70 235 237 234
-3.69 -29.78 -4.70 235 237 234
-3.69 -29.87 -4.69 234 236 233
-3.71 -29.96 -4.68 234 236 233
-3.71 -30.06 -4.67 234 236 233
-3.71 -30.15 -4.67 234 236 233
-3.72 -30.25 -4.66 234 236 233
-3.72 -30.34 -4.66 234 236 233
-3.73 -30.43 -4.65 234 236 233
-3.72 -30.53 -4.66 234 236 233
-3.73 -30.63 -4.65 235 237 234
-3.74 -30.72 -4.64 235 237 234
-3.74 -30.81 -4.63 235 237 234
-3.75 -30.90 -4.62 235 237 234
-3.76 -30.99 -4.61 235 237 234
-3.77 -31.09 -4.61 235 237 234
-3.77 -31.18 -4.60 235 237 234
-3.78 -31.27 -4.59 235 237 234
-3.79 -31.36 -4.58 235 237 234
-3.79 -31.46 -4.58 235 237 234
-3.79 -31.55 -4.58 235 237 234
-3.80 -31.65 -4.57 235 237 234
-3.80 -31.74 -4.56 235 237 234
-3.81 -31.83 -4.56 235 237 234
-3.82 -31.92 -4.54 235 237 234
-3.83 -32.01 -4.54 235 237 234
-3.83 -32.11 -4.54 239 241 238
-3.84 -32.20 -4.53 239 241 238
-3.84 -32.29 -4.52 239 241 238
-3.85 -32.39 -4.52 239 241 238
-3.84 -32.49 -4.52 239 241 238
-3.86 -32.57 -4.50 239 241 238
-3.85 -32.67 -4.51 239 241 238
-3.85 -32.77 -4.51 239 241 238
-3.87 -32.85 -4.49 242 244 241
-3.87 -32.95 -4.49 242 244 241
-3.86 -33.05 -4.50 242 244 241
-3.86 -33.15 -4.50 242 244 241
-3.86 -33.25 -4.50 242 244 241
-3.85 -33.35 -4.51 242 244 241
-3.86 -33.44 -4.50 242 244 241
-3.86 -33.53 -4.50 242 244 241
-3.86 -33.63 -4.50 244 246 243
-3.87 -33.72 -4.49 244 246 243
-3.86 -33.83 -4.50 244 246 243
-3.87 -33.92 -4.49 244 246 243
-3.87 -34.01 -4.49 244 246 243
-3.87 -34.11 -4.49 244 246 243
-3.87 -34.20 -4.49 244 246 243
-3.86 -34.31 -4.50 244 246 243
-3.86 -34.40 -4.50 242 244 241
-3.87 -34.49 -4.49 242 244 241
-3.87 -34.58 -4.48 242 244 241
-3.88 -34.67 -4.47 242 244 241
-3.89 -34.76 -4.46 242 244 241
-3.90 -34.85 -4.45 242 244 241
-3.91 -34.94 -4.44 242 244 241
-3.93 -35.02 -4.42 242 244 241
-3.94 -35.12 -4.41 246 248 245
-3.94 -35.21 -4.41 246 248 245
-3.94 -35.30 -4.41 246 248 245
-3.95 -35.39 -4.39 246 248 245
-3.95 -35.49 -4.39 246 248 245
-3.97 -35.57 -4.38 246 248 245
-3.97 -35.67 -4.37 246 248 245
-3.98 -35.75 -4.36 246 248 245
-3.99 -35.85 -4.36 248 250 247
-3.98 -35.95 -4.36 248 250 247
-3.98 -36.04 -4.36 248 250 247
-3.98 -36.14 -4.37 248 250 247
-3.98 -36.24 -4.37 248 250 247
-4.00 -36.32 -4.34 248 250 247
-4.00 -36.41 -4.34 248 250 247
-4.01 -36.50 -4.33 248 250 247
-4.01 -36.60 -4.33 248 249 241
-3.98 -36.71 -4.36 249 250 242
-3.97 -36.82 -4.38 251 249 245
-3.86 -37.01 -4.50 250 248 244
-4.43 -36.63 -3.85 255 248 246
-3.98 23.43 -4.50 142 133 125
-3.94 23.37 -4.55 142 133 125
-3.96 23.26 -4.53 142 133 125
-3.94 23.18 -4.55 142 133 125
-3.95 23.07 -4.54 142 133 125
-3.97 22.96 -4.52 142 133 125
-3.94 22.89 -4.55 142 133 125
-3.93 22.80 -4.56 142 133 125
-3.93 22.70 -4.56 142 133 125
-3.91 22.62 -4.58 143 134 126
-3.91 22.52 -4.58 143 134 126
-3.90 22.44 -4.59 143 134 126
-3.89 22.35 -4.60 143 134 126
-3.89 22.26 -4.61 143 134 126
-3.89 22.15 -4.60 143 134 126
-3.88 22.07 -4.62 143 134 126
-3.88 21.97 -4.62 142 136 127
-3.87 21.88 -4.63 142 136 127
-3.86 21.80 -4.64 143 137 128
-3.86 21.70 -4.64 143 137 128
-3.85 21.61 -4.65 144 138 129
-3.85 21.52 -4.65 144 138 129
-3.84 21.42 -4.66 146 140 131
-3.84 21.33 -4.66 146 140 131
-3.83 21.24 -4.67 146 140 131
-3.82 21.15 -4.69 146 140 131
-3.81 21.06 -4.69 146 140 131
-3.81 20.96 -4.69 146 140 131
-3.79 20.88 -4.72 146 140 131
-3.79 20.79 -4.72 146 140 131
-3.77 20.70 -4.74 146 140 131
-3.76 20.62 -4.75 146 140 131
-3.75 20.53 -4.77 148 142 133
-3.74 20.44 -4.78 148 142 133
-3.74 20.34 -4.78 148 142 133
-3.73 20.25 -4.79 148 142 133
-3.72 20.16 -4.79 148 142 133
-3.72 20.07 -4.80 148 142 133
-3.72 19.97 -4.80 148 142 133
-3.71 19.88 -4.81 148 142 133
-3.72 19.77 -4.80 149 143 134
-3.71 19.68 -4.81 149 143 134
-3.71 19.59 -4.81 149 143 134
-3.71 19.49 -4.81 149 143 134
-3.70 19.40 -4.82 149 143 134
-3.69 19.31 -4.83 149 143 134
-3.68 19.22 -4.84 149 143 134
-3.68 19.13 -4.84 149 143 134
-3.67 19.04 -4.86 149 143 136
-3.66 18.94 -4.86 150 144 137
-3.66 18.85 -4.87 150 144 137
-3.65 18.76 -4.87 151 145 138
-3.65 18.66 -4.88 151 145 138
-3.64 18.57 -4.89 153 147 140
-3.64 18.47 -4.89 153 147 140
-3.63 18.38 -4.90 154 148 141
-3.63 18.28 -4.90 154 148 141
-3.63 18.19 -4.90 154 148 141
-3.62 18.10 -4.91 153 147 140
-3.62 18.00 -4.91 151 145 138
-3.62 17.91 -4.92 149 143 136
-3.61 17.81 -4.92 146 140 133
-3.60 17.72 -4.93 142 136 129
-3.60 17.62 -4.93 140 134 127
-3.60 17.53 -4.94 138 134 126
-3.58 17.44 -4.95 134 130 122
-3.58 17.35 -4.96 132 128 120
-3.57 17.26 -4.97 129 125 117
-3.57 17.16 -4.97 128 124 116
-3.56 17.07 -4.98 127 123 115
-3.56 16.98 -4.99 126 122 114
-3.55 16.88 -5.00 126 122 114
-3.54 16.79 -5.00 127 123 115
-3.54 16.69 -5.00 127 123 115
-3.54 16.60 -5.01 126 122 114
-3.53 16.50 -5.01 126 122 114
-3.53 16.41 -5.01 123 122 115
-3.53 16.31 -5.02 124 123 116
-3.53 16.21 -5.02 124 122 118
-3.52 16.12 -5.03 124 122 118
-3.51 16.03 -5.03 122 120 116
-3.52 15.93 -5.03 120 118 114
-3.51 15.84 -5.04 120 118 114
-3.51 15.73 -5.03 122 120 116
-3.51 15.64 -5.04 122 120 116
-3.52 15.54 -5.03 123 121 117
-3.51 15.45 -5.04 124 122 118
-3.49 15.36 -5.06 124 122 118
-3.49 15.26 -5.07 124 123 116
-3.48 15.17 -5.08 126 125 118
-3.48 15.07 -5.07 129 128 119
-3.47 14.98 -5.08 131 130 121
-3.47 14.88 -5.08 133 132 123
-3.46 14.79 -5.10 136 135 126
-3.45 14.70 -5.10 138 137 128
-3.46 14.60 -5.10 139 138 129
-3.46 14.50 -5.10 140 138 134
-3.46 14.40 -5.10 148 146 142
-3.45 14.31 -5.11 150 148 144
-3.45 14.21 -5.11 151 149 145
-3.45 14.12 -5.11 152 150 146
-3.45 14.02 -5.11 154 152 148
-3.44 13.92 -5.11 155 153 149
-3.44 13.83 -5.12 157 155 151
-3.44 13.73 -5.12 160 159 152
-3.43 13.64 -5.13 160 159 152
-3.43 13.54 -5.13 162 158 152
-3.42 13.45 -5.14 162 158 152
-3.42 13.35 -5.14 162 158 152
-3.42 13.25 -5.14 162 158 152
-3.41 13.16 -5.15 162 158 152
-3.41 13.06 -5.15 162 158 152
-3.41 12.97 -5.16 163 159 151
-3.40 12.87 -5.16 164 160 152
-3.40 12.77 -5.17 166 162 154
-3.40 12.68 -5.17 166 162 154
-3.40 12.58 -5.17 166 162 154
-3.39 12.49 -5.18 166 162 154
-3.38 12.39 -5.18 166 162 154
-3.38 12.29 -5.19 166 162 154
-3.38 12.20 -5.18 166 162 154
-3.39 12.10 -5.18 166 162 154
-3.38 12.00 -5.19 167 163 155
-3.38 11.90 -5.18 167 163 155
-3.38 11.81 -5.19 167 163 155
-3.38 11.71 -5.19 167 163 155
-3.37 11.61 -5.20 167 163 155
-3.37 11.52 -5.20 167 163 155
-3.36 11.42 -5.21 164 165 155
-3.35 11.33 -5.22 164 165 155
-3.35 11.23 -5.22 164 165 155
-3.34 11.14 -5.23 164 165 155
-3.34 11.04 -5.24 164 165 155
-3.33 10.95 -5.25 164 165 155
-3.32 10.86 -5.25 164 165 155
-3.32 10.76 -5.25 165 166 156
-3.31 10.67 -5.27 165 166 156
-3.32 10.56 -5.26 165 166 156
-3.30 10.47 -5.28 165 166 156
-3.32 10.37 -5.25 165 166 156
-3.31 10.27 -5.26 165 166 156
-3.31 10.17 -5.27 165 166 156
-3.31 10.08 -5.26 165 166 156
-3.30 9.98 -5.28 165 166 156
-3.30 9.89 -5.28 166 167 157
-3.30 9.79 -5.28 166 167 157
-3.30 9.69 -5.28 166 167 157
-3.28 9.60 -5.30 166 167 157
-3.29 9.50 -5.29 166 167 157
-3.30 9.40 -5.28 166 167 157
-3.29 9.30 -5.29 165 166 156
-3.30 9.20 -5.28 165 166 156
-3.31 9.10 -5.27 166 167 157
-3.29 9.01 -5.29 166 167 157
-3.30 8.91 -5.28 167 168 158
-3.30 8.81 -5.28 167 168 158
-3.30 8.71 -5.28 168 169 159
-3.30 8.61 -5.28 168 169 159
-3.29 8.52 -5.29 170 171 161
-3.29 8.42 -5.29 171 172 162
-3.28 8.33 -5.31 171 172 162
-3.27 8.23 -5.31 171 172 162
-3.27 8.13 -5.31 171 172 162
-3.27 8.03 -5.32 171 172 162
-3.26 7.94 -5.32 171 172 162
-3.25 7.84 -5.33 171 172 162
-3.25 7.75 -5.33 171 172 162
-3.25 7.65 -5.34 172 173 163
-3.23 7.56 -5.36 172 173 163
-3.23 7.46 -5.35 172 173 163
-3.22 7.37 -5.37 172 173 163
-3.22 7.27 -5.37 172 173 163
-3.21 7.17 -5.38 172 173 163
-3.22 7.07 -5.37 172 173 163
-3.21 6.98 -5.39 171 172 164
-3.21 6.88 -5.39 171 172 164
-3.21 6.78 -5.38 171 171 166
-3.19 6.69 -5.40 171 171 166
-3.20 6.59 -5.39 171 171 166
-3.19 6.49 -5.41 171 171 166
-3.20 6.39 -5.39 171 171 166
-3.20 6.29 -5.39 171 171 166
-3.20 6.19 -5.39 171 171 166
-3.20 6.09 -5.39 172 172 167
-3.19 6.00 -5.40 172 172 167
-3.21 5.90 -5.38 172 172 167
-3.20 5.80 -5.40 172 172 167
-3.22 5.69 -5.37 172 172 167
-3.22 5.60 -5.37 172 172 167
-3.21 5.50 -5.38 172 172 167
-3.22 5.40 -5.37 172 172 167
-3.21 5.31 -5.38 173 173 168
-3.21 5.21 -5.38 173 173 168
-3.21 5.11 -5.39 173 173 168
-3.20 5.01 -5.39 173 173 168
-3.21 4.91 -5.38 173 173 168
-3.20 4.82 -5.40 173 173 168
-3.20 4.72 -5.39 173 173 168
-3.19 4.62 -5.40 173 173 168
-3.19 4.52 -5.41 173 173 168
-3.19 4.43 -5.40 174 174 169
-3.18 4.33 -5.41 174 174 169
-3.18 4.23 -5.42 174 174 169
-3.17 4.14 -5.43 174 174 169
-3.18 4.04 -5.42 174 174 169
-3.17 3.94 -5.42 174 174 169
-3.17 3.84 -5.43 172 175 167
-3.17 3.74 -5.43 171 174 166
-3.17 3.65 -5.43 171 173 168
-3.17 3.55 -5.43 171 173 168
-3.17 3.45 -5.43 171 173 168
-3.17 3.35 -5.43 171 173 168
-3.17 3.25 -5.43 171 173 168
-3.17 3.15 -5.43 171 173 168
-3.17 3.05 -5.43 171 173 168
-3.16 2.96 -5.44 171 173 168
-3.16 2.86 -5.44 171 173 168
-3.16 2.76 -5.44 172 174 169
-3.17 2.66 -5.43 172 174 169
-3.17 2.56 -5.43 172 174 169
-3.17 2.46 -5.43 172 174 169
-3.17 2.36 -5.42 172 174 169
-3.17 2.27 -5.43 172 174 169
-3.17 2.17 -5.42 172 174 169
-3.17 2.07 -5.43 170 175 169
-3.16 1.97 -5.44 170 175 169
-3.17 1.87 -5.43 171 176 170
-3.17 1.77 -5.43 171 176 170
-3.18 1.67 -5.42 171 176 170
-3.17 1.58 -5.43 171 176 170
-3.17 1.48 -5.42 171 176 170
-3.18 1.38 -5.42 171 176 170
-3.17 1.28 -5.43 171 176 170
-3.19 1.18 -5.41 171 176 170
-3.19 1.08 -5.41 172 177 171
-3.20 0.98 -5.39 172 177 171
-3.20 0.88 -5.39 172 177 171
-3.21 0.78 -5.39 172 177 171
-3.22 0.68 -5.38 172 177 171
-3.21 0.58 -5.38 172 177 171
-3.22 0.48 -5.37 171 178 171
-3.21 0.39 -5.39 171 178 171
-3.22 0.29 -5.37 171 178 171
-3.21 0.19 -5.38 171 178 171
-3.22 0.09 -5.38 171 178 171
-3.22 -0.01 -5.37 171 178 171
-3.23 -0.11 -5.36 171 178 171
-3.22 -0.21 -5.37 173 180 173
-3.22 -0.30 -5.37 173 180 173
-3.22 -0.40 -5.37 173 180 173
-3.22 -0.50 -5.37 173 180 173
-3.23 -0.60 -5.36 173 180 173
-3.22 -0.70 -5.37 173 180 173
-3.22 -0.79 -5.38 173 180 173
-3.22 -0.89 -5.38 173 180 173
-3.21 -0.99 -5.38 173 180 173
-3.21 -1.09 -5.38 173 180 173
-3.20 -1.19 -5.39 173 180 173
-3.20 -1.28 -5.39 173 180 173
-3.20 -1.38 -5.39 173 180 173
-3.19 -1.48 -5.40 173 180 173
-3.20 -1.58 -5.39 173 180 173
-3.20 -1.68 -5.40 173 180 173
-3.19 -1.77 -5.40 173 180 173
-3.19 -1.87 -5.41 173 180 173
-3.19 -1.97 -5.41 173 180 173
-3.19 -2.07 -5.41 173 180 173
-3.19 -2.17 -5.40 173 180 173
-3.20 -2.27 -5.39 173 180 173
-3.19 -2.36 -5.41 173 180 173
-3.19 -2.46 -5.40 173 180 173
-3.19 -2.56 -5.41 173 180 173
-3.19 -2.66 -5.41 174 181 176
-3.18 -2.76 -5.41 174 181 176
-3.17 -2.86 -5.42 174 181 176
-3.18 -2.95 -5.41 174 181 176
-3.17 -3.05 -5.43 174 181 176
-3.18 -3.15 -5.42 174 181 176
-3.17 -3.25 -5.43 174 181 176
-3.16 -3.35 -5.44 174 181 176
-3.16 -3.44 -5.44 175 182 177
-3.15 -3.54 -5.45 175 182 177
-3.16 -3.64 -5.44 175 182 177
-3.16 -3.84 -5.45 175 182 177
-3.15 -4.03 -5.45 175 182 177
-3.16 -4.13 -5.44 175 182 177
-3.16 -4.23 -5.44 174 184 178
-3.16 -4.33 -5.44 174 184 178
-3.16 -4.53 -5.45 174 184 178
-3.15 -4.63 -5.45 174 184 178
-3.15 -4.82 -5.45 174 184 178
-3.87 -16.85 -4.63 141 138 125
-5.20 -16.59 -3.10 14 11 0
-5.33 -16.65 -2.95 11 8 0
-5.09 -16.81 -3.23 30 27 14
-5.00 -16.93 -3.33 89 86 62
-4.96 -17.03 -3.38 177 174 150
-5.52 -16.97 -2.74 187 175 138
-6.18 -16.87 -1.97 180 168 131
-6.38 -16.91 -1.75 189 162 130
-6.47 -16.97 -1.65 211 184 152
-6.53 -17.05 -1.58 210 183 147
-6.57 -17.12 -1.53 216 189 153
-6.60 -17.20 -1.50 206 187 150
-6.63 -17.29 -1.47 230 211 174
-6.68 -17.36 -1.41 232 228 220
-6.72 -17.43 -1.36 231 227 219
-6.77 -17.51 -1.30 223 222 211
-6.81 -17.59 -1.26 233 232 221
-6.85 -17.66 -1.22 201 204 194
-6.87 -17.74 -1.19 208 211 201
-6.91 -17.82 -1.15 212 217 211
-6.96 -17.89 -1.09 241 246 240
-6.98 -17.97 -1.07 246 250 252
-7.00 -18.05 -1.04 245 249 251
-7.00 -18.15 -1.05 230 231 234
-7.01 -18.23 -1.02 246 247 250
-7.00 -18.32 -1.05 253 252 245
-6.97 -18.42 -1.08 201 200 193
-6.97 -18.51 -1.08 170 167 154
-6.84 -18.64 -1.23 152 149 136
-6.50 -18.84 -1.61 167 166 128
-5.79 -19.18 -2.43 183 182 144
-4.93 -19.57 -3.41 234 232 201
-4.19 -19.93 -4.26 241 239 208
-3.92 -20.12 -4.57 241 234 216
-3.62 -20.32 -4.91 242 235 217
-3.43 -20.49 -5.14 229 223 218
-3.49 -20.56 -5.07 226 220 215
-3.59 -20.62 -4.94 232 228 222
-3.60 -20.72 -4.94 230 226 220
-3.65 -20.79 -4.87 225 226 214
-3.68 -20.88 -4.85 228 229 217
-3.63 -21.00 -4.90 221 226 220
-3.62 -21.10 -4.92 225 230 224
-3.65 -21.18 -4.87 224 229 237
-3.65 -21.28 -4.87 223 228 236
-3.67 -21.37 -4.85 221 223 220
-3.68 -21.47 -4.85 225 227 224
-3.68 -21.56 -4.84 225 227 224
-3.70 -21.65 -4.82 226 228 225
-3.72 -21.74 -4.80 229 231 228
-3.73 -21.83 -4.78 228 230 227
-3.73 -21.93 -4.78 225 227 224
-3.73 -22.03 -4.79 226 228 225
-3.73 -22.13 -4.79 228 230 227
-3.73 -22.22 -4.79 228 230 227
-3.73 -22.32 -4.79 228 230 227
-3.73 -22.42 -4.79 228 230 227
-3.73 -22.51 -4.79 228 230 227
-3.72 -22.62 -4.80 228 230 227
-3.71 -22.71 -4.81 228 230 227
-3.71 -22.81 -4.81 228 230 227
-3.71 -22.91 -4.82 223 225 222
-3.70 -23.01 -4.83 225 227 224
-3.70 -23.11 -4.83 225 227 224
-3.69 -23.21 -4.83 226 228 225
-3.69 -23.30 -4.83 226 228 225
-3.70 -23.40 -4.82 227 229 226
-3.70 -23.49 -4.82 227 229 226
-3.71 -23.59 -4.81 228 230 227
-3.71 -23.69 -4.81 232 234 231
-3.71 -23.78 -4.82 232 234 231
-3.70 -23.88 -4.82 232 234 231
-3.70 -23.98 -4.82 232 234 231
-3.70 -24.08 -4.82 232 234 231
-3.71 -24.17 -4.82 232 234 231
-3.70 -24.27 -4.82 232 234 231
-3.70 -24.37 -4.82 232 234 231
-3.71 -24.46 -4.81 232 234 231
-3.72 -24.56 -4.80 232 234 231
-3.72 -24.65 -4.80 232 234 231
-3.72 -24.75 -4.79 232 234 231
-3.72 -24.84 -4.79 232 234 231
-3.73 -24.93 -4.78 232 234 231
-3.74 -25.03 -4.78 232 234 231
-3.74 -25.12 -4.77 232 234 231
-3.74 -25.22 -4.78 233 235 232
-3.74 -25.32 -4.78 233 235 232
-3.74 -25.41 -4.77 233 235 232
-3.75 -25.51 -4.77 233 235 232
-3.76 -25.60 -4.76 233 235 232
-3.75 -25.70 -4.76 233 235 232
-3.76 -25.79 -4.75 233 235 232
-3.77 -25.89 -4.74 233 235 232
-3.77 -25.98 -4.74 233 235 232
-3.77 -26.08 -4.74 233 235 232
-3.78 -26.17 -4.73 233 235 232
-3.79 -26.26 -4.72 233 235 232
-3.80 -26.36 -4.71 233 235 232
-3.80 -26.45 -4.71 233 235 232
-3.80 -26.55 -4.71 233 235 232
-3.80 -26.64 -4.70 233 235 232
-3.80 -26.74 -4.70 233 235 232
-3.81 -26.83 -4.70 233 235 232
-3.81 -26.93 -4.70 233 235 232
