ply
format ascii 1.0
element vertex 1542
property float x
property float y
property float z
property uchar red
property uchar green
property uchar blue
end_header
-11.15 10.57 -2.82 164 160 154
-11.16 10.48 -2.81 166 162 156
-11.15 10.40 -2.82 166 162 156
-11.15 10.32 -2.81 167 163 157
-11.16 10.23 -2.81 167 163 157
-11.15 10.15 -2.81 168 164 158
-11.16 10.07 -2.81 168 164 158
-11.16 9.98 -2.81 169 165 159
-11.16 9.90 -2.81 169 165 157
-11.16 9.82 -2.81 169 165 157
-11.16 9.73 -2.81 169 165 157
-11.16 9.65 -2.81 169 165 157
-11.15 9.57 -2.81 169 165 157
-11.15 9.49 -2.81 169 165 157
-11.15 9.40 -2.81 169 165 157
-11.15 9.32 -2.82 169 165 157
-11.15 9.24 -2.83 173 169 161
-11.15 9.16 -2.82 173 169 161
-11.14 9.08 -2.83 173 169 161
-11.15 8.99 -2.82 173 169 161
-11.15 8.91 -2.83 173 169 161
-11.15 8.83 -2.83 173 169 161
-11.15 8.74 -2.83 173 169 161
-11.15 8.66 -2.83 173 169 161
-11.14 8.58 -2.83 175 171 163
-11.14 8.50 -2.83 175 171 163
-11.14 8.41 -2.83 174 170 162
-11.13 8.33 -2.84 174 170 162
-11.14 8.25 -2.83 174 170 162
-11.13 8.17 -2.84 174 170 162
-11.13 8.09 -2.84 172 171 164
-11.13 8.00 -2.85 172 171 164
-11.13 7.92 -2.85 170 170 165
-11.13 7.84 -2.85 168 168 163
-11.12 7.76 -2.86 168 168 163
-11.12 7.68 -2.86 167 167 162
-11.12 7.59 -2.86 167 167 162
-11.12 7.51 -2.86 166 166 161
-11.12 7.43 -2.86 166 166 161
-11.11 7.35 -2.87 165 165 160
-11.11 7.26 -2.87 164 164 159
-11.11 7.18 -2.88 165 165 160
-11.11 7.10 -2.87 165 165 160
-11.11 7.02 -2.88 165 165 160
-11.11 6.93 -2.88 166 166 161
-11.10 6.85 -2.88 166 166 161
-11.11 6.77 -2.88 166 166 161
-11.11 6.68 -2.88 166 166 161
-11.11 6.60 -2.87 167 165 161
-11.11 6.52 -2.88 169 167 163
-11.11 6.43 -2.88 172 170 166
-11.11 6.35 -2.88 174 172 168
-11.11 6.27 -2.88 176 174 170
-11.11 6.18 -2.88 177 175 171
-11.10 6.10 -2.88 179 177 173
-11.10 6.02 -2.88 181 179 175
-11.10 5.94 -2.89 179 179 174
-11.11 5.85 -2.88 179 179 174
-11.10 5.77 -2.89 179 179 174
-11.10 5.69 -2.88 179 179 174
-11.10 5.60 -2.88 179 179 174
-11.10 5.52 -2.89 179 179 174
-11.10 5.44 -2.89 179 179 174
-11.10 5.36 -2.89 179 179 174
-11.10 5.27 -2.88 179 179 174
-11.10 5.19 -2.89 179 179 174
-11.10 5.10 -2.88 179 179 174
-11.09 5.02 -2.90 179 179 174
-11.10 4.94 -2.89 179 179 174
-11.10 4.86 -2.89 179 179 174
-11.10 4.77 -2.89 179 179 174
-11.10 4.69 -2.89 179 179 174
-11.10 4.61 -2.89 178 178 173
-11.10 4.52 -2.89 178 178 173
-11.09 4.44 -2.90 178 178 173
-11.10 4.35 -2.88 178 178 173
-11.10 4.27 -2.89 178 178 173
-11.10 4.19 -2.88 178 178 173
-11.11 4.10 -2.88 178 178 173
-11.10 4.02 -2.88 178 178 173
-11.11 3.94 -2.88 176 176 171
-11.11 3.85 -2.88 176 176 171
-11.11 3.77 -2.88 176 176 171
-11.11 3.69 -2.88 176 176 171
-11.12 3.60 -2.86 176 176 171
-11.12 3.52 -2.86 175 175 170
-11.12 3.43 -2.86 175 175 170
-11.12 3.35 -2.86 176 176 171
-11.12 3.26 -2.85 175 175 170
-11.13 3.18 -2.85 174 174 169
-11.13 3.10 -2.85 174 174 169
-11.13 3.01 -2.85 174 174 169
-11.13 2.93 -2.85 174 174 169
-11.13 2.84 -2.84 174 174 169
-11.13 2.76 -2.84 174 174 169
-11.14 2.68 -2.83 174 174 169
-11.14 2.59 -2.83 174 174 169
-11.14 2.51 -2.83 173 173 168
-11.15 2.42 -2.82 173 173 168
-11.15 2.34 -2.82 173 173 168
-11.15 2.26 -2.82 173 173 168
-11.15 2.17 -2.82 173 173 168
-11.16 2.09 -2.81 173 173 168
-11.16 2.01 -2.81 173 173 168
-11.16 1.92 -2.81 173 173 168
-11.16 1.84 -2.80 173 173 168
-11.16 1.76 -2.81 173 173 168
-11.16 1.67 -2.81 173 173 168
-11.16 1.59 -2.80 173 173 168
-11.16 1.50 -2.80 173 173 168
-11.17 1.42 -2.80 173 173 168
-11.17 1.34 -2.80 173 173 168
-11.16 1.26 -2.80 172 172 167
-11.17 1.17 -2.78 172 172 167
-11.17 1.09 -2.79 172 172 167
-11.18 1.00 -2.78 172 172 167
-11.18 0.92 -2.78 172 172 167
-11.18 0.83 -2.77 172 172 167
-11.19 0.75 -2.77 172 172 167
-11.19 0.67 -2.76 172 172 167
-11.19 0.58 -2.76 172 173 165
-11.19 0.50 -2.77 172 173 165
-11.19 0.42 -2.76 172 173 165
-11.20 0.33 -2.76 172 173 165
-11.20 0.25 -2.75 172 173 165
-11.21 0.16 -2.74 172 173 165
-11.20 0.08 -2.75 172 173 165
-11.20 -0.00 -2.74 172 173 165
-11.20 -0.08 -2.75 171 172 164
-11.20 -0.17 -2.75 171 172 164
-11.21 -0.25 -2.74 171 172 164
-11.21 -0.33 -2.74 171 172 164
-11.21 -0.42 -2.73 171 172 164
-11.21 -0.50 -2.73 171 172 164
-11.21 -0.58 -2.73 171 172 164
-11.21 -0.67 -2.73 171 172 164
-11.22 -0.75 -2.72 168 173 167
-11.22 -0.84 -2.72 168 173 167
-11.22 -0.92 -2.72 168 173 167
-11.23 -1.00 -2.71 168 173 167
-11.23 -1.09 -2.71 168 173 167
-11.23 -1.17 -2.71 168 173 167
-11.23 -1.25 -2.71 168 173 167
-11.23 -1.33 -2.71 168 173 167
-11.23 -1.42 -2.71 169 174 170
-11.24 -1.50 -2.70 169 174 170
-11.24 -1.58 -2.70 169 174 170
-11.24 -1.67 -2.69 169 174 170
-11.24 -1.75 -2.69 169 174 170
-11.25 -1.83 -2.69 169 174 170
-11.25 -1.92 -2.68 169 174 170
-11.25 -2.00 -2.68 169 174 170
-11.25 -2.08 -2.68 171 173 170
-11.26 -2.17 -2.67 171 173 170
-11.26 -2.25 -2.67 171 173 170
-11.26 -2.33 -2.67 171 173 170
-11.26 -2.42 -2.67 171 173 170
-11.26 -2.50 -2.67 171 173 170
-11.27 -2.58 -2.66 171 173 170
-11.26 -2.67 -2.66 172 174 171
-11.27 -2.75 -2.66 172 174 171
-11.27 -2.83 -2.66 172 174 171
-11.26 -2.91 -2.66 172 174 171
-11.27 -3.00 -2.65 172 174 171
-11.28 -3.08 -2.65 172 174 171
-11.27 -3.16 -2.65 172 174 171
-11.28 -3.25 -2.65 170 175 171
-11.27 -3.33 -2.65 172 177 173
-11.27 -3.41 -2.66 170 175 171
-11.27 -3.50 -2.65 171 176 172
-11.27 -3.58 -2.65 171 176 172
-11.28 -3.66 -2.65 171 176 172
-11.28 -3.74 -2.64 171 176 172
-11.28 -3.83 -2.65 171 176 172
-11.28 -3.91 -2.64 171 176 172
-11.28 -3.99 -2.64 171 176 172
-11.28 -4.08 -2.64 171 176 172
-11.28 -4.16 -2.64 172 177 173
-11.28 -4.24 -2.64 172 177 173
-11.28 -4.32 -2.64 172 177 173
-11.28 -4.41 -2.64 172 177 173
-11.27 -4.49 -2.65 172 177 173
-11.27 -4.57 -2.66 172 177 173
-11.26 -4.65 -2.67 172 177 173
-11.26 -4.74 -2.67 173 180 178
-11.26 -4.82 -2.67 173 180 178
-11.25 -4.90 -2.68 173 180 178
-11.26 -4.98 -2.67 173 180 178
-11.26 -5.07 -2.67 173 180 178
-11.26 -5.15 -2.67 173 180 178
-11.26 -5.23 -2.66 173 180 178
-11.26 -5.32 -2.67 173 180 178
-11.25 -5.40 -2.68 173 180 178
-11.26 -5.48 -2.67 173 180 178
-11.26 -5.56 -2.67 173 180 178
-11.25 -5.65 -2.68 173 180 178
-11.25 -5.73 -2.68 173 180 178
-11.24 -5.81 -2.69 173 180 178
-11.24 -5.89 -2.70 173 180 178
-11.24 -5.98 -2.70 173 180 178
-11.23 -6.06 -2.71 176 178 175
-11.22 -6.14 -2.73 176 178 175
-11.20 -6.22 -2.75 176 178 175
-11.20 -6.31 -2.74 176 178 175
-11.20 -6.39 -2.76 176 178 175
-11.20 -6.47 -2.75 176 178 175
-11.19 -6.56 -2.77 176 178 175
-11.19 -6.64 -2.77 176 178 175
-11.19 -6.72 -2.77 178 180 177
-11.14 -6.80 -2.83 181 183 180
-11.09 -6.89 -2.91 183 185 182
-11.10 -6.97 -2.89 170 172 169
-11.40 -7.06 -2.47 171 173 170
-11.86 -7.14 -1.85 209 211 208
-12.04 -7.23 -1.60 244 246 243
-12.05 -7.31 -1.58 248 250 247
-12.03 -7.39 -1.61 245 252 247
-12.03 -7.47 -1.61 243 250 245
-12.05 -7.55 -1.59 243 250 245
-12.03 -7.63 -1.61 250 255 252
-12.03 -7.71 -1.61 243 250 245
-12.02 -7.79 -1.62 246 253 248
-12.02 -7.87 -1.62 245 252 247
-12.01 -7.95 -1.63 245 252 247
-12.01 -8.03 -1.64 246 253 248
-12.00 -8.11 -1.66 246 253 248
-11.98 -8.19 -1.68 246 253 248
-11.97 -8.27 -1.69 246 253 248
-11.96 -8.36 -1.70 246 253 248
-11.95 -8.44 -1.71 246 253 248
-11.94 -8.52 -1.73 246 253 248
-11.93 -8.60 -1.75 246 253 248
-11.93 -8.68 -1.74 246 253 251
-11.93 -8.76 -1.75 246 253 251
-11.92 -8.84 -1.76 246 253 251
-11.92 -8.92 -1.76 246 253 251
-11.92 -9.00 -1.76 246 253 251
-11.91 -9.09 -1.78 246 253 251
-11.90 -9.17 -1.79 246 253 251
-11.90 -9.25 -1.79 246 253 251
-11.90 -9.33 -1.79 246 253 251
-11.90 -9.41 -1.80 246 253 251
-11.89 -9.49 -1.80 246 253 251
-11.90 -9.57 -1.80 246 253 251
-11.90 -9.65 -1.80 246 253 251
-11.89 -9.73 -1.80 246 253 251
-11.89 -9.82 -1.80 246 253 251
-11.89 -9.90 -1.80 246 253 251
-11.89 -9.98 -1.80 246 253 251
-11.89 -10.06 -1.80 246 253 251
-11.89 -10.14 -1.80 246 253 251
-11.89 -10.22 -1.80 246 253 251
-11.90 -10.30 -1.80 246 253 251
-11.90 -10.38 -1.79 246 253 251
-11.90 -10.46 -1.79 246 253 251
-11.90 -10.54 -1.80 246 253 251
-11.89 -10.63 -1.80 246 253 251
-11.89 -10.71 -1.80 246 253 251
-11.89 -10.79 -1.80 246 253 251
-11.89 -10.87 -1.80 246 253 251
-11.90 -10.95 -1.79 246 253 251
-11.90 -11.03 -1.79 246 253 251
-11.91 -11.11 -1.78 246 253 251
-11.91 -11.19 -1.78 246 253 251
-11.91 -11.27 -1.78 246 253 251
-11.91 -11.35 -1.78 246 253 251
-11.91 -11.43 -1.78 246 253 251
-11.92 -11.51 -1.77 246 253 251
-11.91 -11.59 -1.77 246 253 251
-11.92 -11.67 -1.76 246 253 251
-11.92 -11.75 -1.76 246 253 251
-11.93 -11.83 -1.75 246 253 251
-11.93 -11.92 -1.75 246 253 251
-11.93 -12.00 -1.75 246 253 251
-11.93 -12.08 -1.75 246 253 251
-11.93 -12.16 -1.75 246 253 251
-11.93 -12.24 -1.75 246 253 251
-11.93 -12.32 -1.74 246 253 251
-11.93 -12.40 -1.75 246 253 251
-11.93 -12.48 -1.75 246 253 251
-11.93 -12.56 -1.75 245 252 250
-11.93 -12.64 -1.75 246 253 251
-11.93 -12.72 -1.75 247 254 252
-11.92 -12.81 -1.76 248 255 253
-11.93 -12.89 -1.75 248 255 253
-11.92 -12.97 -1.76 247 254 252
-11.92 -13.05 -1.76 245 252 250
-11.92 -13.13 -1.77 244 251 249
-11.91 -13.21 -1.77 245 252 250
-11.90 -13.30 -1.79 247 254 252
-11.90 -13.38 -1.80 244 251 249
-11.89 -13.46 -1.80 243 250 248
-11.87 -13.55 -1.83 246 253 251
-11.87 -13.63 -1.83 241 248 246
-11.85 -13.71 -1.86 239 246 244
-11.78 -13.81 -1.96 245 252 250
-11.67 -13.91 -2.10 243 250 245
-11.52 -14.03 -2.31 226 233 228
-11.41 -14.14 -2.46 205 210 206
-11.34 -14.24 -2.56 190 195 191
-11.31 -14.33 -2.60 185 190 186
-11.31 -14.41 -2.59 188 193 189
-11.34 -14.49 -2.56 191 193 190
-11.34 -14.57 -2.55 191 193 190
-11.35 -14.65 -2.54 193 195 192
-11.36 -14.73 -2.53 193 195 192
-11.35 -14.82 -2.54 195 195 192
-11.35 -14.90 -2.54 195 195 192
-11.36 -14.98 -2.53 195 195 192
-11.36 -15.06 -2.53 195 195 192
-11.35 -15.14 -2.54 196 194 192
-11.35 -15.23 -2.55 196 194 192
-11.34 -15.31 -2.56 193 195 192
-11.34 -15.40 -2.56 194 196 193
-11.34 -15.48 -2.56 194 196 193
-11.33 -15.57 -2.58 195 197 194
-11.32 -15.65 -2.58 195 197 194
-11.33 -15.73 -2.58 197 199 196
-11.32 -15.81 -2.58 197 199 196
-11.32 -15.90 -2.58 198 200 197
-11.32 -15.98 -2.58 194 196 193
-11.32 -16.06 -2.58 195 197 194
-11.32 -16.15 -2.58 195 197 194
-11.31 -16.23 -2.60 197 199 196
-11.31 -16.31 -2.60 198 200 197
-11.30 -16.40 -2.61 198 200 197
-11.30 -16.48 -2.62 199 201 198
-11.29 -16.57 -2.63 199 201 198
-11.29 -16.65 -2.63 198 200 197
-11.29 -16.74 -2.63 197 199 196
-11.29 -16.82 -2.63 197 199 196
-11.29 -16.90 -2.63 197 199 196
-11.28 -16.98 -2.64 198 200 197
-11.28 -17.07 -2.64 199 201 198
-11.28 -17.15 -2.64 200 202 199
-11.28 -17.24 -2.65 201 203 200
-11.27 -17.32 -2.65 195 197 194
-11.27 -17.40 -2.65 197 199 196
-11.27 -17.49 -2.65 198 200 197
-11.27 -17.57 -2.65 198 200 197
-11.27 -17.65 -2.66 197 199 196
-11.26 -17.74 -2.66 194 196 193
-11.26 -17.82 -2.67 192 194 191
-11.25 -17.91 -2.68 190 192 189
-11.24 -17.99 -2.69 186 186 181
-11.24 -18.07 -2.69 183 183 178
-11.23 -18.16 -2.70 180 180 175
-11.23 -18.25 -2.72 176 176 171
-11.22 -18.33 -2.72 174 174 169
-11.22 -18.41 -2.72 172 172 167
-11.23 -18.50 -2.72 172 172 167
-11.22 -18.58 -2.73 172 172 167
-11.21 -18.67 -2.73 168 168 163
-11.21 -18.75 -2.73 172 172 167
-11.21 -18.83 -2.73 174 174 169
-11.21 -18.92 -2.73 168 168 163
-11.22 -19.00 -2.73 165 165 160
-11.23 -19.08 -2.71 165 165 160
-11.23 -19.16 -2.70 165 165 160
-11.24 -19.24 -2.69 164 164 159
-11.24 -19.32 -2.70 160 159 162
-11.23 -19.41 -2.71 157 156 159
-11.23 -19.49 -2.71 158 157 160
-11.23 -19.57 -2.71 164 163 166
-11.24 -19.65 -2.70 168 167 170
-11.25 -19.73 -2.69 172 171 174
-11.25 -19.81 -2.68 178 177 180
-11.23 -19.90 -2.71 183 182 185
-11.24 -19.98 -2.70 176 175 178
-11.26 -20.06 -2.67 167 166 169
-11.27 -20.13 -2.65 150 149 152
-11.30 -20.21 -2.62 143 142 145
-11.32 -20.28 -2.59 131 130 133
-11.36 -20.34 -2.53 116 115 118
-11.41 -20.40 -2.47 112 111 114
-11.45 -20.47 -2.41 107 106 109
-11.51 -20.52 -2.33 69 67 77
-11.56 -20.58 -2.26 50 48 58
-11.69 -20.60 -2.08 31 31 39
-11.77 -20.64 -1.96 35 35 43
-11.94 -20.64 -1.73 43 44 47
-12.13 -20.63 -1.47 37 38 41
-12.46 -20.55 -1.02 28 31 38
-12.89 -20.43 -0.43 29 32 39
-13.16 -20.37 -0.06 21 21 47
-13.39 -20.34 0.25 55 55 81
-13.58 -20.32 0.51 77 76 118
-13.68 -20.35 0.65 50 49 91
-13.77 -20.38 0.77 24 26 53
-13.80 -20.44 0.82 0 0 27
-13.85 -20.49 0.90 183 192 194
-13.89 -20.54 0.95 242 251 253
-13.91 -20.61 0.97 244 240 203
-13.92 -20.68 0.98 206 202 165
-13.91 -20.76 0.98 186 178 126
-13.92 -20.83 0.98 185 177 125
-13.92 -20.91 0.98 166 153 92
-13.92 -20.98 0.99 159 146 85
-13.93 -21.05 1.00 145 124 68
-13.93 -21.12 1.00 166 145 89
-13.93 -21.20 1.00 137 111 59
-13.94 -21.27 1.01 196 170 118
-13.95 -21.34 1.02 210 186 133
-13.95 -21.41 1.03 228 204 151
-13.97 -21.48 1.05 213 194 141
-13.97 -21.55 1.06 201 182 129
-13.99 -21.62 1.08 217 201 157
-14.01 -21.68 1.11 216 200 156
-14.03 -21.75 1.13 210 191 168
-14.03 -21.82 1.13 173 154 131
-14.04 -21.89 1.15 112 96 83
-14.05 -21.96 1.16 85 69 56
-14.04 -22.04 1.15 37 27 28
-14.11 -22.07 1.24 28 18 19
-14.20 -22.09 1.37 39 35 44
-13.93 -22.33 1.00 143 139 148
-12.84 -23.03 -0.49 232 233 238
-12.15 -23.51 -1.44 220 221 226
-12.15 -23.59 -1.44 209 208 211
-12.22 -23.63 -1.35 207 206 209
-12.17 -23.74 -1.42 214 209 211
-12.15 -23.83 -1.44 218 213 215
-12.15 -23.91 -1.44 217 210 213
-12.16 -23.99 -1.43 213 206 209
-12.17 -24.06 -1.42 213 208 210
-12.16 -24.15 -1.43 213 208 210
-12.15 -24.23 -1.44 213 208 210
-12.15 -24.31 -1.44 213 208 210
-12.14 -24.40 -1.45 213 208 210
-12.14 -24.48 -1.45 213 208 210
-12.14 -24.56 -1.45 213 208 210
-12.14 -24.64 -1.45 213 208 210
-12.14 -24.72 -1.45 213 208 210
-12.13 -24.81 -1.47 213 208 210
-12.13 -24.89 -1.48 213 208 210
-12.12 -24.98 -1.49 213 208 210
-12.11 -25.06 -1.50 213 208 210
-12.11 -25.14 -1.50 213 208 210
-12.11 -25.22 -1.50 213 208 210
-12.11 -25.30 -1.50 214 209 211
-12.11 -25.38 -1.50 214 209 211
-12.11 -25.47 -1.50 216 211 213
-12.10 -25.55 -1.51 216 211 213
-12.10 -25.63 -1.52 216 211 213
-12.10 -25.71 -1.52 216 211 213
-12.10 -25.79 -1.52 216 211 213
-12.10 -25.87 -1.52 216 211 213
-12.09 -25.96 -1.53 216 211 213
-12.09 -26.04 -1.53 216 211 213
-12.09 -26.12 -1.53 216 211 213
-12.09 -26.20 -1.52 216 211 213
-12.10 -26.28 -1.52 216 211 213
-12.10 -26.36 -1.52 216 211 213
-12.10 -26.44 -1.52 216 211 213
-12.10 -26.51 -1.51 216 211 213
-12.10 -26.59 -1.51 216 211 213
-12.10 -26.67 -1.51 216 210 215
-12.10 -26.76 -1.52 217 211 216
-12.10 -26.84 -1.51 217 212 214
-12.10 -26.92 -1.52 217 212 214
-12.10 -27.00 -1.52 217 212 214
-12.10 -27.08 -1.52 217 212 214
-12.10 -27.16 -1.52 217 212 214
-12.10 -27.24 -1.52 217 212 214
-12.10 -27.32 -1.52 217 212 214
-12.11 -27.40 -1.51 218 213 215
-12.10 -27.48 -1.51 218 213 215
-12.10 -27.56 -1.51 218 213 215
-12.11 -27.63 -1.50 218 213 215
-12.11 -27.72 -1.51 218 213 215
-12.11 -27.80 -1.51 218 213 215
-12.11 -27.88 -1.50 218 213 215
-12.11 -27.96 -1.50 219 214 216
-12.12 -28.03 -1.49 219 214 216
-12.11 -28.11 -1.50 219 214 216
-12.12 -28.19 -1.49 219 214 216
-12.12 -28.27 -1.49 219 214 216
-12.12 -28.35 -1.49 219 214 216
-12.12 -28.43 -1.49 219 214 216
-12.12 -28.51 -1.49 219 214 216
-12.12 -28.59 -1.49 218 213 215
-12.12 -28.67 -1.49 218 213 215
-12.12 -28.75 -1.49 218 213 215
-12.11 -28.84 -1.50 218 213 215
-12.11 -28.92 -1.50 218 213 215
-12.12 -29.00 -1.49 218 213 215
-12.11 -29.08 -1.50 218 213 215
-12.12 -29.16 -1.49 218 213 215
-12.11 -29.24 -1.50 219 212 212
-12.11 -29.32 -1.50 219 212 212
-12.11 -29.40 -1.50 219 212 212
-12.12 -29.48 -1.49 219 212 212
-12.11 -29.56 -1.50 219 212 212
-12.12 -29.64 -1.49 219 212 212
-12.12 -29.72 -1.49 219 212 212
-12.12 -29.80 -1.49 219 212 212
-12.13 -29.87 -1.48 220 213 213
-12.12 -29.95 -1.48 220 213 213
-12.12 -30.03 -1.48 220 213 213
-12.13 -30.11 -1.48 220 213 213
-12.13 -30.19 -1.47 220 213 213
-12.14 -30.26 -1.46 220 213 213
-12.13 -30.35 -1.47 219 214 211
-12.14 -30.42 -1.46 221 216 213
-12.14 -30.50 -1.46 223 218 215
-12.14 -30.58 -1.45 223 218 215
-12.14 -30.66 -1.46 223 218 215
-12.14 -30.74 -1.46 223 218 215
-12.14 -30.82 -1.46 223 218 215
-12.14 -30.90 -1.46 223 218 215
-12.15 -30.97 -1.44 223 218 215
-12.16 -31.05 -1.44 223 218 215
-12.16 -31.13 -1.43 221 216 213
-12.18 -31.19 -1.41 221 216 213
-12.18 -31.27 -1.40 223 218 215
-12.20 -31.33 -1.38 223 218 215
-12.19 -31.42 -1.39 223 218 215
-12.21 -31.49 -1.37 223 218 215
-12.22 -31.56 -1.35 224 219 216
-12.24 -31.62 -1.32 224 219 216
-12.25 -31.69 -1.31 221 216 215
-12.27 -31.75 -1.28 219 214 213
-12.30 -31.81 -1.24 226 224 222
-12.35 -31.84 -1.18 252 250 248
-12.40 -31.87 -1.10 250 248 246
-12.65 -31.73 -0.76 251 249 247
-13.06 -31.44 -0.19 250 250 247
-13.25 -31.35 0.07 250 250 247
-13.36 -31.33 0.21 246 246 243
-13.40 -31.36 0.27 246 246 243
-13.38 -31.46 0.24 248 250 247
-13.27 -31.64 0.09 208 210 207
-12.50 -32.41 -0.96 195 197 194
-12.32 -32.66 -1.21 230 232 229
-12.48 -32.60 -1.00 245 250 246
-11.99 -33.13 -1.66 195 200 196
-11.75 18.69 -2.12 133 127 118
-11.74 18.63 -2.14 134 128 119
-11.74 18.54 -2.14 134 128 119
-11.70 18.50 -2.20 135 129 120
-11.69 18.42 -2.20 135 129 120
-11.69 18.35 -2.21 136 130 121
-11.65 18.29 -2.25 136 130 121
-11.64 18.23 -2.28 137 131 122
-11.64 18.15 -2.28 139 133 124
-11.63 18.07 -2.29 139 133 124
-11.63 17.99 -2.29 139 133 124
-11.63 17.91 -2.29 139 133 124
-11.62 17.83 -2.29 139 133 124
-11.62 17.75 -2.29 139 133 124
-11.62 17.67 -2.30 139 133 124
-11.62 17.59 -2.30 139 133 124
-11.61 17.51 -2.31 139 130 122
-11.61 17.44 -2.32 139 130 122
-11.61 17.35 -2.32 141 132 124
-11.60 17.28 -2.32 141 132 124
-11.60 17.20 -2.33 142 133 125
-11.59 17.12 -2.34 142 133 125
-11.59 17.04 -2.35 143 134 126
-11.58 16.97 -2.35 143 134 126
-11.57 16.89 -2.36 143 134 126
-11.56 16.82 -2.38 143 134 126
-11.56 16.74 -2.39 143 134 126
-11.55 16.66 -2.39 143 134 126
-11.55 16.58 -2.40 143 134 126
-11.55 16.50 -2.40 143 134 126
-11.54 16.43 -2.41 143 134 128
-11.53 16.36 -2.42 144 135 129
-11.52 16.28 -2.43 145 136 130
-11.52 16.20 -2.44 146 137 131
-11.52 16.12 -2.44 146 137 131
-11.51 16.04 -2.45 146 137 131
-11.51 15.96 -2.45 148 139 133
-11.51 15.88 -2.45 148 139 133
-11.50 15.81 -2.47 149 140 134
-11.50 15.73 -2.47 149 140 134
-11.49 15.65 -2.48 149 140 134
-11.48 15.57 -2.49 149 140 134
-11.47 15.50 -2.50 149 140 134
-11.47 15.41 -2.50 149 140 134
-11.47 15.34 -2.51 149 140 134
-11.47 15.25 -2.51 149 140 134
-11.46 15.18 -2.52 149 140 134
-11.45 15.10 -2.53 150 141 135
-11.45 15.02 -2.54 148 142 135
-11.44 14.94 -2.54 149 143 136
-11.44 14.86 -2.55 149 143 136
-11.43 14.79 -2.56 150 144 137
-11.43 14.71 -2.56 150 144 137
-11.43 14.62 -2.56 151 145 138
-11.42 14.55 -2.57 151 145 138
-11.42 14.47 -2.58 153 147 140
-11.42 14.38 -2.57 153 147 140
-11.42 14.31 -2.58 153 147 140
-11.41 14.23 -2.58 153 147 140
-11.41 14.15 -2.59 153 147 140
-11.40 14.07 -2.60 153 147 140
-11.40 13.99 -2.60 153 147 140
-11.40 13.90 -2.60 153 147 140
-11.39 13.83 -2.61 153 147 140
-11.39 13.75 -2.61 155 149 140
-11.39 13.66 -2.61 155 149 140
-11.39 13.59 -2.62 155 149 140
-11.39 13.50 -2.62 155 149 140
-11.38 13.43 -2.63 155 149 140
-11.38 13.34 -2.63 155 149 140
-11.37 13.27 -2.64 155 149 140
-11.37 13.18 -2.64 155 149 140
-11.36 13.11 -2.66 155 149 140
-11.36 13.03 -2.66 156 150 141
-11.35 12.95 -2.67 156 150 141
-11.35 12.87 -2.67 157 151 142
-11.34 12.79 -2.68 157 151 142
-11.34 12.71 -2.68 158 152 143
-11.34 12.63 -2.69 157 153 145
-11.34 12.54 -2.68 159 155 147
-11.34 12.46 -2.69 159 155 147
-11.34 12.38 -2.69 159 155 147
-11.33 12.30 -2.69 157 156 147
-11.33 12.22 -2.70 157 156 147
-11.33 12.14 -2.70 157 156 147
-11.33 12.06 -2.70 157 156 147
-11.32 11.98 -2.71 157 156 147
-11.33 11.89 -2.70 157 156 147
-11.32 11.81 -2.71 157 156 147
-11.32 11.73 -2.71 158 157 148
-11.32 11.65 -2.72 159 158 149
-11.31 11.57 -2.72 159 158 149
-11.31 11.49 -2.73 159 158 149
-11.30 11.41 -2.74 159 158 149
-11.30 11.33 -2.74 159 158 149
-11.30 11.25 -2.74 159 158 149
-11.30 11.17 -2.74 161 157 151
-11.29 11.09 -2.76 162 158 152
-11.28 11.01 -2.76 162 158 152
-11.28 10.93 -2.76 163 159 153
-11.27 10.85 -2.78 163 159 153
-11.28 10.77 -2.78 164 160 154
-11.27 10.68 -2.78 164 160 154
-11.27 10.60 -2.78 166 162 156
-11.27 10.52 -2.79 167 163 157
-11.26 10.44 -2.79 167 163 157
-11.26 10.36 -2.79 167 163 157
-11.26 10.28 -2.79 167 163 157
-11.26 10.19 -2.79 167 163 157
-11.27 10.11 -2.78 167 163 157
-11.27 10.02 -2.78 167 163 157
-11.27 9.94 -2.79 167 163 157
-11.27 9.86 -2.79 167 163 155
-11.27 9.77 -2.78 168 164 156
-11.27 9.69 -2.78 168 164 156
-11.27 9.61 -2.78 169 165 157
-11.27 9.53 -2.78 169 165 157
-11.26 9.45 -2.79 170 166 158
-11.27 9.36 -2.79 170 166 158
-11.26 9.28 -2.79 171 167 159
-11.26 9.20 -2.80 174 170 162
-11.26 9.12 -2.80 174 170 162
-11.25 9.04 -2.80 174 170 162
-11.26 8.95 -2.79 174 170 162
-11.26 8.87 -2.79 174 170 162
-11.26 8.79 -2.80 174 170 162
-11.26 8.70 -2.79 174 170 162
-11.26 8.62 -2.80 174 170 162
-11.26 8.54 -2.80 174 170 162
-11.25 8.46 -2.81 174 170 162
-11.26 8.37 -2.79 172 171 162
-11.25 8.29 -2.81 172 171 162
-11.26 8.21 -2.80 171 172 164
-11.25 8.13 -2.81 172 173 165
-11.25 8.05 -2.81 172 172 167
-11.25 7.96 -2.81 171 171 166
-11.24 7.88 -2.82 170 170 165
-11.24 7.80 -2.82 170 170 165
-11.24 7.72 -2.83 168 168 163
-11.24 7.64 -2.83 168 168 163
-11.23 7.56 -2.83 168 168 163
-11.23 7.47 -2.83 165 165 160
-11.23 7.39 -2.83 165 165 160
-11.23 7.31 -2.84 165 165 160
-11.22 7.23 -2.85 165 165 162
-11.23 7.14 -2.84 165 165 162
-11.22 7.06 -2.85 165 165 162
-11.22 6.98 -2.85 165 165 162
-11.22 6.90 -2.85 166 166 163
-11.22 6.81 -2.85 166 166 163
-11.22 6.73 -2.85 166 166 163
-11.22 6.65 -2.85 166 166 163
-11.23 6.56 -2.84 165 163 159
-11.23 6.48 -2.84 166 164 160
-11.23 6.40 -2.84 168 166 162
-11.22 6.32 -2.85 171 169 165
-11.22 6.23 -2.85 172 170 166
-11.22 6.15 -2.84 173 171 167
-11.22 6.07 -2.84 176 174 170
-11.22 5.98 -2.85 177 175 171
-11.22 5.90 -2.85 179 179 174
-11.22 5.82 -2.85 179 179 174
-11.22 5.74 -2.85 180 180 175
-11.22 5.65 -2.85 180 180 175
-11.22 5.57 -2.86 181 181 176
-11.22 5.49 -2.86 181 181 176
-11.22 5.41 -2.86 182 182 177
-11.21 5.32 -2.86 182 182 177
-11.21 5.24 -2.86 180 180 175
-11.21 5.16 -2.86 180 180 175
-11.21 5.08 -2.86 180 180 175
-11.21 4.99 -2.87 180 180 175
-11.21 4.91 -2.87 180 180 175
-11.21 4.83 -2.87 180 180 175
-11.21 4.75 -2.87 180 180 175
-11.21 4.66 -2.87 180 180 175
-11.21 4.58 -2.87 179 179 174
-11.21 4.49 -2.87 179 179 174
-11.21 4.41 -2.86 179 179 174
-11.21 4.33 -2.86 179 179 174
-11.22 4.24 -2.85 179 179 174
-11.22 4.16 -2.85 179 179 174
-11.21 4.08 -2.86 179 179 174
-11.22 3.99 -2.85 178 178 173
-11.22 3.91 -2.85 176 176 171
-11.23 3.82 -2.84 175 175 170
-11.22 3.74 -2.85 175 175 170
-11.22 3.66 -2.85 175 175 170
-11.23 3.57 -2.84 174 174 169
-11.23 3.49 -2.83 174 174 169
-11.24 3.40 -2.83 173 173 168
-11.24 3.32 -2.83 175 175 170
-11.24 3.24 -2.83 175 175 170
-11.24 3.16 -2.83 174 174 169
-11.24 3.07 -2.83 174 174 169
-11.24 2.99 -2.82 174 174 169
-11.24 2.90 -2.82 174 174 169
-11.24 2.82 -2.82 174 174 169
-11.25 2.74 -2.82 174 174 169
-11.25 2.65 -2.81 174 174 169
-11.25 2.57 -2.81 174 174 169
-11.26 2.48 -2.79 173 173 168
-11.26 2.40 -2.80 173 173 168
-11.26 2.32 -2.80 173 173 168
-11.26 2.23 -2.79 173 173 168
-11.26 2.15 -2.79 173 173 168
-11.27 2.07 -2.79 173 173 168
-11.27 1.98 -2.79 173 173 168
-11.27 1.90 -2.78 173 173 168
-11.27 1.82 -2.78 173 173 168
-11.27 1.73 -2.78 173 173 168
-11.27 1.65 -2.78 173 173 168
-11.28 1.57 -2.78 173 173 168
-11.28 1.48 -2.78 173 173 168
-11.28 1.40 -2.77 173 173 168
-11.28 1.32 -2.77 173 173 168
-11.28 1.23 -2.77 172 172 167
-11.28 1.15 -2.76 172 172 167
-11.28 1.07 -2.77 172 172 167
-11.29 0.98 -2.76 172 172 167
-11.29 0.90 -2.76 172 172 167
-11.29 0.82 -2.76 172 172 167
-11.30 0.73 -2.75 172 172 167
-11.29 0.65 -2.75 172 172 167
-11.30 0.56 -2.74 172 173 165
-11.30 0.48 -2.74 172 173 165
-11.30 0.40 -2.73 172 173 165
-11.31 0.31 -2.73 172 173 165
-11.31 0.23 -2.72 172 173 165
-11.32 0.15 -2.72 172 173 165
-11.31 0.06 -2.72 172 173 165
-11.32 -0.02 -2.72 172 173 165
-11.32 -0.10 -2.71 171 172 164
-11.32 -0.19 -2.72 171 172 164
-11.32 -0.27 -2.71 171 172 164
-11.32 -0.35 -2.71 171 172 164
-11.32 -0.44 -2.71 171 172 164
-11.33 -0.52 -2.70 171 172 164
-11.33 -0.60 -2.69 171 172 164
-11.33 -0.69 -2.69 171 172 164
-11.33 -0.77 -2.69 168 173 167
-11.34 -0.85 -2.68 168 173 167
-11.33 -0.93 -2.69 168 173 167
-11.34 -1.02 -2.68 168 173 167
-11.34 -1.10 -2.68 168 173 167
-11.34 -1.18 -2.68 168 173 167
-11.35 -1.27 -2.67 168 173 167
-11.35 -1.35 -2.67 168 173 167
-11.35 -1.43 -2.67 169 174 170
-11.35 -1.52 -2.67 169 174 170
-11.35 -1.60 -2.67 169 174 170
-11.35 -1.68 -2.67 169 174 170
-11.36 -1.77 -2.66 169 174 170
-11.36 -1.85 -2.66 169 174 170
-11.36 -1.93 -2.66 169 174 170
-11.37 -2.02 -2.65 169 174 170
-11.37 -2.10 -2.64 171 173 170
-11.37 -2.18 -2.64 171 173 170
-11.37 -2.26 -2.64 171 173 170
-11.38 -2.35 -2.64 171 173 170
-11.38 -2.43 -2.64 171 173 170
-11.38 -2.51 -2.63 171 173 170
-11.39 -2.60 -2.62 171 173 170
-11.39 -2.68 -2.62 172 174 171
-11.39 -2.76 -2.62 172 174 171
-11.39 -2.85 -2.62 172 174 171
-11.39 -2.93 -2.62 172 174 171
-11.39 -3.01 -2.61 172 174 171
-11.39 -3.09 -2.61 172 174 171
-11.39 -3.18 -2.61 172 174 171
-11.40 -3.26 -2.61 170 175 171
-11.39 -3.34 -2.61 171 176 172
-11.39 -3.42 -2.61 170 175 171
-11.39 -3.51 -2.61 171 176 172
-11.39 -3.59 -2.61 171 176 172
-11.39 -3.67 -2.61 171 176 172
-11.39 -3.75 -2.61 171 176 172
-11.40 -3.84 -2.61 171 176 172
-11.40 -3.92 -2.60 171 176 172
-11.40 -4.00 -2.60 171 176 172
-11.39 -4.08 -2.61 171 176 172
-11.39 -4.17 -2.61 172 177 173
-11.39 -4.25 -2.61 172 177 173
-11.39 -4.33 -2.61 172 177 173
-11.40 -4.41 -2.61 172 177 173
-11.39 -4.50 -2.61 172 177 173
-11.39 -4.58 -2.62 172 177 173
-11.39 -4.66 -2.62 172 177 173
-11.38 -4.74 -2.63 174 179 178
-11.37 -4.83 -2.64 174 179 178
-11.37 -4.91 -2.64 174 179 178
-11.37 -4.99 -2.64 174 179 178
-11.37 -5.07 -2.65 174 179 178
-11.37 -5.16 -2.64 174 179 178
-11.38 -5.24 -2.64 174 179 178
-11.36 -5.32 -2.65 174 179 178
-11.36 -5.40 -2.66 172 177 176
-11.35 -5.48 -2.67 172 177 176
-11.36 -5.57 -2.66 172 177 176
-11.35 -5.65 -2.67 172 177 176
-11.35 -5.73 -2.67 172 177 176
-11.35 -5.82 -2.67 172 177 176
-11.35 -5.90 -2.67 172 177 176
-11.35 -5.98 -2.67 172 177 176
-11.33 -6.06 -2.69 174 176 173
-11.33 -6.15 -2.69 177 179 176
-11.32 -6.23 -2.72 176 178 175
-11.32 -6.31 -2.71 180 182 179
-11.32 -6.39 -2.71 176 178 175
-11.32 -6.48 -2.72 172 174 171
-11.31 -6.56 -2.73 180 182 179
-11.31 -6.64 -2.73 174 176 173
-11.28 -6.72 -2.77 186 188 185
-11.24 -6.81 -2.82 179 181 178
-11.24 -6.89 -2.83 169 171 168
-11.40 -6.97 -2.60 177 179 176
-11.81 -7.06 -2.04 215 217 214
-12.11 -7.14 -1.63 244 246 243
-12.16 -7.23 -1.56 244 246 243
-12.16 -7.31 -1.56 243 245 242
-12.13 -7.39 -1.59 246 253 248
-12.15 -7.47 -1.58 246 253 248
-12.16 -7.55 -1.56 246 253 248
-12.15 -7.63 -1.57 246 253 248
-12.15 -7.71 -1.57 246 253 248
-12.14 -7.79 -1.59 246 253 248
-12.14 -7.87 -1.58 246 253 248
-12.13 -7.95 -1.60 246 253 248
-12.11 -8.03 -1.62 246 253 248
-12.10 -8.11 -1.63 246 253 248
-12.09 -8.19 -1.66 246 253 248
-12.08 -8.27 -1.66 246 253 248
-12.07 -8.35 -1.68 246 253 248
-12.06 -8.43 -1.69 246 253 248
-12.06 -8.51 -1.70 246 253 248
-12.05 -8.60 -1.71 246 253 248
-12.05 -8.68 -1.71 246 253 251
-12.04 -8.76 -1.72 246 253 251
-12.03 -8.84 -1.73 246 253 251
-12.03 -8.92 -1.73 246 253 251
-12.03 -9.00 -1.73 246 253 251
-12.02 -9.08 -1.74 246 253 251
-12.02 -9.16 -1.75 246 253 251
-12.01 -9.24 -1.76 246 253 251
-12.01 -9.32 -1.77 246 253 251
-12.00 -9.41 -1.77 246 253 251
-12.00 -9.49 -1.77 246 253 251
-12.00 -9.57 -1.77 246 253 251
-12.00 -9.65 -1.77 246 253 251
-12.00 -9.73 -1.77 246 253 251
-12.01 -9.81 -1.77 246 253 251
-12.01 -9.89 -1.77 246 253 251
-12.01 -9.97 -1.76 246 253 251
-12.01 -10.05 -1.77 246 253 251
-12.01 -10.13 -1.76 246 253 251
-12.01 -10.21 -1.76 246 253 251
-12.02 -10.29 -1.75 246 253 251
-12.02 -10.37 -1.75 246 253 251
-12.01 -10.45 -1.76 246 253 251
-12.01 -10.54 -1.76 246 253 251
-12.01 -10.62 -1.76 246 253 251
-12.01 -10.70 -1.76 246 253 251
-12.02 -10.78 -1.75 246 253 251
-12.01 -10.86 -1.76 246 253 251
-12.01 -10.94 -1.76 246 253 251
-12.02 -11.02 -1.75 246 253 251
-12.02 -11.10 -1.74 246 253 251
-12.02 -11.18 -1.74 246 253 251
-12.02 -11.26 -1.74 246 253 251
-12.03 -11.34 -1.74 246 253 251
-12.03 -11.42 -1.74 246 253 251
-12.03 -11.50 -1.74 246 253 251
-12.03 -11.58 -1.73 246 253 251
-12.03 -11.66 -1.73 246 253 251
-12.03 -11.74 -1.73 246 253 251
-12.04 -11.82 -1.72 246 253 251
-12.04 -11.90 -1.72 246 253 251
-12.04 -11.98 -1.72 246 253 251
-12.04 -12.06 -1.72 246 253 251
-12.04 -12.15 -1.72 246 253 251
-12.04 -12.23 -1.72 246 253 251
-12.04 -12.31 -1.72 246 253 251
-12.04 -12.39 -1.72 246 253 251
-12.04 -12.47 -1.72 246 253 251
-12.03 -12.55 -1.73 246 253 251
-12.04 -12.63 -1.72 246 253 251
-12.03 -12.71 -1.73 246 253 251
-12.04 -12.79 -1.72 246 253 251
-12.04 -12.87 -1.72 246 253 251
-12.04 -12.95 -1.72 246 253 251
-12.04 -13.03 -1.72 246 253 251
-12.04 -13.11 -1.72 246 253 251
-12.04 -13.19 -1.72 245 252 250
-12.02 -13.28 -1.74 245 252 250
-12.02 -13.36 -1.74 245 252 250
-12.02 -13.44 -1.75 245 252 250
-12.01 -13.52 -1.76 245 252 250
-12.01 -13.60 -1.77 245 252 250
-12.01 -13.68 -1.76 245 252 250
-11.98 -13.77 -1.80 245 252 250
-11.95 -13.86 -1.85 248 255 250
-11.86 -13.96 -1.97 247 254 249
-11.70 -14.08 -2.19 240 245 241
-11.56 -14.20 -2.38 224 229 225
-11.46 -14.30 -2.51 205 210 206
-11.43 -14.39 -2.56 192 197 193
-11.43 -14.47 -2.56 188 190 187
-11.45 -14.55 -2.54 186 188 185
-11.46 -14.63 -2.52 191 193 190
-11.45 -14.72 -2.53 193 195 192
-11.46 -14.80 -2.52 196 196 193
-11.46 -14.88 -2.51 196 196 193
-11.46 -14.96 -2.51 193 193 190
-11.46 -15.04 -2.51 190 190 187
-11.46 -15.13 -2.52 194 192 190
-11.46 -15.21 -2.52 197 195 193
-11.45 -15.29 -2.53 197 199 196
-11.46 -15.37 -2.52 195 197 194
-11.45 -15.46 -2.53 195 197 194
-11.45 -15.54 -2.53 194 196 193
-11.46 -15.62 -2.52 194 196 193
-11.45 -15.71 -2.53 193 195 192
-11.46 -15.79 -2.52 193 195 192
-11.45 -15.87 -2.53 192 194 191
-11.45 -15.95 -2.54 195 197 194
-11.45 -16.04 -2.54 195 197 194
-11.45 -16.12 -2.54 195 197 194
-11.44 -16.20 -2.54 195 197 194
-11.44 -16.29 -2.54 195 197 194
-11.43 -16.37 -2.56 195 197 194
-11.43 -16.46 -2.57 195 197 194
-11.42 -16.54 -2.57 195 197 194
-11.41 -16.62 -2.58 195 197 194
-11.41 -16.71 -2.58 195 197 194
-11.41 -16.79 -2.59 195 197 194
-11.41 -16.87 -2.59 195 197 194
-11.41 -16.96 -2.59 195 197 194
-11.41 -17.04 -2.59 195 197 194
-11.41 -17.12 -2.59 195 197 194
-11.40 -17.21 -2.60 195 197 194
-11.40 -17.29 -2.60 197 199 196
-11.40 -17.37 -2.60 197 199 196
-11.41 -17.45 -2.59 197 199 196
-11.41 -17.53 -2.59 197 199 196
-11.41 -17.62 -2.59 197 199 196
-11.40 -17.70 -2.60 197 199 196
-11.39 -17.79 -2.62 197 199 196
-11.39 -17.87 -2.62 197 199 196
-11.38 -17.96 -2.63 199 199 194
-11.38 -18.04 -2.63 197 197 192
-11.37 -18.13 -2.65 194 194 189
-11.36 -18.21 -2.66 189 189 184
-11.36 -18.29 -2.66 183 183 178
-11.36 -18.38 -2.66 179 179 174
-11.35 -18.46 -2.67 175 175 170
-11.35 -18.55 -2.67 173 173 168
-11.35 -18.63 -2.67 170 170 165
-11.35 -18.71 -2.67 170 170 165
-11.35 -18.79 -2.67 171 171 166
-11.35 -18.88 -2.67 171 171 166
-11.36 -18.96 -2.66 171 171 166
-11.37 -19.04 -2.65 171 171 166
-11.37 -19.12 -2.64 171 171 166
-11.38 -19.20 -2.64 171 171 166
-11.37 -19.28 -2.64 172 171 174
-11.37 -19.36 -2.64 170 169 172
-11.37 -19.45 -2.64 166 165 168
-11.37 -19.53 -2.64 163 162 165
-11.38 -19.61 -2.63 161 160 163
-11.38 -19.69 -2.63 161 160 163
-11.39 -19.77 -2.62 164 163 166
-11.39 -19.85 -2.61 166 165 168
-11.39 -19.94 -2.62 173 172 175
-11.39 -20.02 -2.61 173 172 175
-11.41 -20.09 -2.58 174 173 176
-11.43 -20.16 -2.56 171 170 173
-11.46 -20.23 -2.52 159 158 161
-11.50 -20.30 -2.46 149 148 151
-11.55 -20.36 -2.40 135 134 137
-11.60 -20.41 -2.33 121 120 123
-11.67 -20.47 -2.23 97 95 105
-11.73 -20.52 -2.15 66 64 74
-11.85 -20.54 -1.98 44 44 52
-11.91 -20.60 -1.90 36 36 44
-12.06 -20.61 -1.70 42 43 46
-12.21 -20.61 -1.48 30 31 34
-12.51 -20.55 -1.08 12 16 20
-12.91 -20.44 -0.52 14 18 22
-13.22 -20.36 -0.09 12 13 36
-13.48 -20.31 0.26 54 55 78
-13.65 -20.31 0.50 66 66 105
-13.78 -20.32 0.68 53 53 92
-13.87 -20.35 0.81 33 35 60
-13.91 -20.40 0.86 1 3 28
-13.95 -20.46 0.91 65 75 72
-13.98 -20.52 0.95 185 195 192
-13.99 -20.59 0.97 245 239 214
-14.01 -20.65 0.99 206 200 175
-14.01 -20.73 1.00 184 175 128
-14.01 -20.80 1.00 181 172 125
-14.00 -20.88 0.98 190 176 110
-14.00 -20.96 0.98 188 174 108
-14.00 -21.03 0.98 188 165 96
-14.00 -21.11 0.98 194 171 102
-14.00 -21.18 0.98 163 137 69
-14.00 -21.26 0.98 156 130 62
-14.00 -21.33 0.98 167 141 71
-14.01 -21.40 0.99 179 153 83
-14.01 -21.48 0.99 192 170 105
-14.02 -21.55 1.00 160 138 73
-14.03 -21.62 1.02 202 181 127
-14.04 -21.68 1.04 222 201 147
-14.06 -21.75 1.07 236 212 157
-14.06 -21.82 1.06 229 205 150
-14.06 -21.90 1.07 205 186 149
-14.08 -21.96 1.10 187 168 131
-14.13 -22.01 1.15 49 34 25
-14.17 -22.06 1.21 41 26 17
-14.22 -22.11 1.28 32 25 35
-14.32 -22.12 1.42 63 56 66
-13.75 -22.52 0.64 178 176 188
-12.52 -23.32 -1.07 241 239 251
-12.20 -23.58 -1.50 216 214 222
-12.33 -23.59 -1.32 201 199 207
-12.29 -23.69 -1.37 214 212 213
-12.27 -23.79 -1.41 210 208 209
-12.26 -23.87 -1.42 211 206 205
-12.26 -23.95 -1.41 213 208 207
-12.28 -24.02 -1.39 211 206 208
-12.28 -24.10 -1.39 211 206 208
-12.27 -24.18 -1.40 212 207 209
-12.27 -24.26 -1.40 212 207 209
-12.27 -24.35 -1.41 213 208 210
-12.27 -24.42 -1.40 214 209 211
-12.26 -24.51 -1.41 214 209 211
-12.27 -24.59 -1.41 214 209 211
-12.26 -24.67 -1.42 213 208 210
-12.25 -24.76 -1.44 213 208 210
-12.24 -24.84 -1.44 213 208 210
-12.24 -24.93 -1.45 213 208 210
-12.23 -25.01 -1.45 213 208 210
-12.23 -25.09 -1.46 213 208 210
-12.23 -25.17 -1.46 213 208 210
-12.23 -25.25 -1.46 213 208 210
-12.23 -25.33 -1.46 213 208 210
-12.23 -25.41 -1.46 213 208 210
-12.22 -25.50 -1.47 213 208 210
-12.22 -25.58 -1.47 213 208 210
-12.22 -25.66 -1.48 213 208 210
-12.22 -25.74 -1.48 213 208 210
-12.22 -25.82 -1.48 213 208 210
-12.21 -25.91 -1.49 213 208 210
-12.21 -25.99 -1.49 214 209 211
-12.21 -26.07 -1.49 214 209 211
-12.20 -26.15 -1.50 214 209 211
-12.21 -26.22 -1.48 214 209 211
-12.21 -26.31 -1.49 216 211 213
-12.21 -26.38 -1.48 216 211 213
-12.22 -26.46 -1.47 216 211 213
-12.22 -26.54 -1.47 216 211 213
-12.22 -26.62 -1.48 216 210 215
-12.21 -26.71 -1.48 217 211 216
-12.22 -26.78 -1.48 217 212 214
-12.22 -26.86 -1.48 217 212 214
-12.22 -26.94 -1.47 217 212 214
-12.21 -27.03 -1.48 217 212 214
-12.22 -27.10 -1.48 217 212 214
-12.21 -27.19 -1.48 217 212 214
-12.21 -27.27 -1.49 217 212 214
-12.21 -27.35 -1.49 218 213 215
-12.21 -27.43 -1.48 218 213 215
-12.22 -27.50 -1.48 218 213 215
-12.22 -27.58 -1.48 218 213 215
-12.22 -27.66 -1.48 218 213 215
-12.23 -27.74 -1.46 218 213 215
-12.22 -27.82 -1.47 218 213 215
-12.22 -27.90 -1.47 218 213 215
-12.22 -27.98 -1.47 218 213 215
-12.22 -28.06 -1.47 218 213 215
-12.23 -28.14 -1.46 218 213 215
-12.23 -28.21 -1.45 218 213 215
-12.23 -28.30 -1.46 218 213 215
-12.23 -28.38 -1.46 218 213 215
-12.23 -28.45 -1.45 218 213 215
-12.23 -28.53 -1.45 218 213 215
-12.23 -28.62 -1.46 218 213 215
-12.24 -28.69 -1.45 218 213 215
-12.23 -28.77 -1.45 218 213 215
-12.24 -28.85 -1.45 218 213 215
-12.23 -28.93 -1.45 218 213 215
-12.23 -29.01 -1.45 218 213 215
-12.23 -29.09 -1.45 218 213 215
-12.23 -29.18 -1.46 219 212 212
-12.23 -29.26 -1.46 219 212 212
-12.23 -29.34 -1.46 219 212 212
-12.23 -29.42 -1.46 219 212 212
-12.23 -29.50 -1.46 219 212 212
-12.23 -29.58 -1.46 219 212 212
-12.24 -29.65 -1.45 219 212 212
-12.24 -29.73 -1.45 219 212 212
-12.24 -29.81 -1.45 220 213 213
-12.24 -29.89 -1.45 220 213 213
-12.24 -29.97 -1.45 220 213 213
-12.24 -30.05 -1.44 220 213 213
-12.24 -30.13 -1.44 220 213 213
-12.25 -30.20 -1.43 220 213 213
-12.25 -30.28 -1.43 219 214 211
-12.26 -30.36 -1.42 220 215 212
-12.26 -30.44 -1.42 220 215 212
-12.26 -30.52 -1.42 220 215 212
-12.26 -30.59 -1.41 220 215 212
-12.26 -30.67 -1.41 220 215 212
-12.26 -30.75 -1.41 220 215 212
-12.27 -30.83 -1.41 220 215 212
-12.26 -30.91 -1.41 220 215 212
-12.28 -30.98 -1.39 220 215 212
-12.28 -31.06 -1.39 221 216 213
-12.29 -31.13 -1.38 221 216 213
-12.30 -31.20 -1.37 221 216 213
-12.30 -31.28 -1.36 221 216 213
-12.30 -31.36 -1.36 221 216 213
-12.31 -31.43 -1.35 221 216 213
-12.32 -31.50 -1.33 221 216 213
-12.33 -31.57 -1.32 221 216 213
-12.35 -31.63 -1.29 220 215 214
-12.38 -31.69 -1.25 230 225 224
-12.41 -31.74 -1.21 219 217 215
-12.44 -31.80 -1.18 249 247 245
-12.49 -31.83 -1.11 249 247 245
-12.67 -31.75 -0.85 251 249 247
-13.06 -31.48 -0.32 253 253 250
-13.32 -31.32 0.04 255 255 252
-13.43 -31.30 0.19 249 249 246
-13.47 -31.33 0.25 249 249 246
-13.48 -31.40 0.26 244 246 243
-13.38 -31.57 0.13 235 237 234
-12.74 -32.24 -0.76 184 186 183
-12.48 -32.56 -1.12 208 210 207
-12.53 -32.59 -1.05 244 249 245
-12.21 -32.96 -1.48 214 219 215
-11.87 18.62 -2.08 133 127 118
-11.86 18.55 -2.09 134 128 119
-11.85 18.48 -2.10 134 128 119
-11.80 18.44 -2.17 135 129 120
-11.79 18.37 -2.19 135 129 120
-11.79 18.29 -2.19 136 130 121
-11.77 18.23 -2.22 136 130 121
-11.75 18.16 -2.24 137 131 122
-11.76 18.08 -2.24 139 133 124
-11.75 18.00 -2.25 139 133 124
-11.74 17.93 -2.26 139 133 124
-11.74 17.84 -2.26 139 133 124
-11.74 17.76 -2.26 139 133 124
-11.74 17.69 -2.27 139 133 124
-11.73 17.61 -2.27 139 133 124
-11.73 17.53 -2.27 139 133 124
-11.73 17.45 -2.28 139 130 122
-11.72 17.37 -2.29 139 130 122
-11.71 17.30 -2.30 141 132 124
-11.71 17.22 -2.30 141 132 124
-11.71 17.14 -2.31 142 133 125
-11.70 17.07 -2.32 142 133 125
-11.70 16.98 -2.31 143 134 126
-11.69 16.91 -2.33 143 134 126
-11.68 16.84 -2.35 143 134 126
-11.68 16.75 -2.34 143 134 126
-11.67 16.68 -2.35 143 134 126
-11.66 16.61 -2.37 143 134 126
-11.65 16.53 -2.38 143 134 126
-11.65 16.45 -2.39 143 134 126
-11.64 16.37 -2.39 143 134 128
-11.63 16.31 -2.42 144 135 129
-11.63 16.22 -2.41 144 135 129
-11.62 16.15 -2.42 145 136 130
-11.62 16.07 -2.42 146 137 131
-11.62 15.98 -2.42 146 137 131
-11.62 15.91 -2.43 148 139 133
-11.61 15.83 -2.43 148 139 133
-11.61 15.75 -2.44 149 140 134
-11.60 15.67 -2.45 149 140 134
-11.60 15.59 -2.46 149 140 134
-11.59 15.52 -2.47 149 140 134
-11.58 15.44 -2.48 149 140 134
-11.58 15.36 -2.48 149 140 134
-11.58 15.28 -2.48 149 140 134
-11.58 15.20 -2.48 149 140 134
-11.57 15.12 -2.49 149 140 134
-11.57 15.04 -2.50 150 141 135
-11.56 14.97 -2.51 148 142 135
-11.56 14.89 -2.51 149 143 136
-11.55 14.81 -2.52 149 143 136
-11.55 14.73 -2.52 150 144 137
-11.55 14.65 -2.53 150 144 137
-11.55 14.57 -2.53 151 145 138
-11.54 14.49 -2.53 151 145 138
-11.55 14.40 -2.53 153 147 140
-11.54 14.33 -2.54 153 147 140
-11.53 14.25 -2.55 153 147 140
-11.53 14.17 -2.55 153 147 140
-11.53 14.08 -2.55 153 147 140
-11.52 14.01 -2.56 153 147 140
-11.52 13.93 -2.56 153 147 140
-11.52 13.85 -2.57 153 147 140
-11.51 13.77 -2.58 153 147 140
-11.51 13.69 -2.58 155 149 140
-11.50 13.61 -2.59 155 149 140
-11.50 13.53 -2.59 155 149 140
-11.50 13.45 -2.59 155 149 140
-11.50 13.37 -2.60 155 149 140
-11.49 13.29 -2.61 155 149 140
-11.48 13.22 -2.62 155 149 140
-11.48 13.14 -2.62 155 149 140
-11.47 13.06 -2.63 155 149 140
-11.47 12.98 -2.64 156 150 141
-11.46 12.90 -2.64 156 150 141
-11.46 12.82 -2.64 157 151 142
-11.46 12.74 -2.65 157 151 142
-11.45 12.66 -2.66 158 152 143
-11.45 12.58 -2.66 157 153 145
-11.45 12.50 -2.66 159 155 147
-11.45 12.41 -2.66 159 155 147
-11.45 12.33 -2.67 159 155 147
-11.45 12.25 -2.66 157 156 147
-11.45 12.17 -2.67 157 156 147
-11.45 12.09 -2.67 157 156 147
-11.44 12.01 -2.67 157 156 147
-11.44 11.92 -2.67 157 156 147
-11.45 11.84 -2.67 157 156 147
-11.44 11.76 -2.67 157 156 147
-11.44 11.68 -2.67 158 157 148
-11.44 11.60 -2.67 159 158 149
-11.43 11.52 -2.68 159 158 149
-11.43 11.44 -2.69 159 158 149
-11.43 11.36 -2.69 159 158 149
-11.42 11.28 -2.70 159 158 149
-11.42 11.20 -2.71 159 158 149
-11.41 11.12 -2.71 161 157 151
-11.41 11.04 -2.72 162 158 152
-11.40 10.96 -2.73 162 158 152
-11.40 10.88 -2.73 163 159 153
-11.40 10.80 -2.73 163 159 153
-11.39 10.72 -2.75 164 160 154
-11.39 10.64 -2.74 164 160 154
-11.39 10.56 -2.75 166 162 156
-11.38 10.48 -2.76 167 163 157
-11.38 10.40 -2.76 167 163 157
-11.38 10.31 -2.76 167 163 157
-11.38 10.23 -2.76 167 163 157
-11.39 10.14 -2.75 167 163 157
-11.38 10.06 -2.76 167 163 157
-11.38 9.98 -2.76 167 163 157
-11.39 9.90 -2.75 167 163 157
-11.38 9.81 -2.76 167 163 155
-11.39 9.73 -2.75 168 164 156
-11.39 9.65 -2.75 168 164 156
-11.38 9.57 -2.76 169 165 157
-11.38 9.48 -2.76 169 165 157
-11.38 9.40 -2.76 170 166 158
-11.38 9.32 -2.76 170 166 158
-11.38 9.24 -2.77 171 167 159
-11.38 9.16 -2.77 174 170 162
-11.38 9.07 -2.77 174 170 162
-11.37 9.00 -2.77 174 170 162
-11.37 8.91 -2.77 174 170 162
-11.38 8.82 -2.76 174 170 162
-11.38 8.74 -2.76 174 170 162
-11.38 8.66 -2.76 174 170 162
-11.38 8.58 -2.77 174 170 162
-11.38 8.49 -2.76 175 171 163
-11.38 8.41 -2.77 175 171 163
-11.37 8.33 -2.77 173 172 163
-11.37 8.25 -2.77 173 172 163
-11.37 8.17 -2.77 172 173 165
-11.36 8.09 -2.78 172 173 165
-11.36 8.01 -2.78 172 172 167
-11.36 7.92 -2.78 171 171 166
-11.35 7.84 -2.79 171 171 166
-11.35 7.76 -2.80 170 170 165
-11.35 7.68 -2.80 170 170 165
-11.35 7.60 -2.80 168 168 163
-11.35 7.52 -2.80 168 168 163
-11.35 7.43 -2.80 165 165 160
-11.35 7.35 -2.81 165 165 160
-11.34 7.27 -2.81 165 165 160
-11.34 7.19 -2.81 166 166 163
-11.34 7.11 -2.82 165 165 162
-11.34 7.03 -2.82 165 165 162
-11.34 6.94 -2.82 165 165 162
-11.34 6.86 -2.82 166 166 163
-11.34 6.78 -2.82 166 166 163
-11.34 6.69 -2.82 166 166 163
-11.34 6.61 -2.82 166 166 163
-11.34 6.53 -2.82 167 165 161
-11.34 6.45 -2.82 168 166 162
-11.34 6.36 -2.82 169 167 163
-11.34 6.28 -2.82 172 170 166
-11.34 6.20 -2.81 172 170 166
-11.34 6.11 -2.81 173 171 167
-11.34 6.03 -2.81 175 173 169
-11.34 5.95 -2.82 177 175 171
-11.34 5.87 -2.82 179 179 174
-11.34 5.78 -2.81 179 179 174
-11.33 5.70 -2.83 179 179 174
-11.34 5.62 -2.82 180 180 175
-11.33 5.54 -2.82 181 181 176
-11.33 5.45 -2.82 181 181 176
-11.34 5.37 -2.82 182 182 177
-11.33 5.29 -2.83 182 182 177
-11.34 5.20 -2.82 180 180 175
-11.33 5.12 -2.82 180 180 175
-11.33 5.04 -2.83 180 180 175
-11.32 4.96 -2.84 180 180 175
-11.32 4.88 -2.84 180 180 175
-11.32 4.80 -2.84 180 180 175
-11.32 4.71 -2.84 180 180 175
-11.32 4.63 -2.84 180 180 175
-11.32 4.55 -2.84 179 179 174
-11.32 4.46 -2.83 179 179 174
-11.33 4.38 -2.83 179 179 174
-11.32 4.30 -2.83 179 179 174
-11.33 4.21 -2.83 179 179 174
-11.33 4.13 -2.83 179 179 174
-11.33 4.05 -2.83 179 179 174
-11.33 3.96 -2.82 179 179 174
-11.33 3.88 -2.82 176 176 171
-11.33 3.80 -2.82 175 175 170
-11.34 3.71 -2.82 175 175 170
-11.34 3.63 -2.81 174 174 169
-11.34 3.55 -2.81 174 174 169
-11.35 3.46 -2.81 173 173 168
-11.35 3.38 -2.80 173 173 168
-11.35 3.29 -2.80 174 174 169
-11.35 3.21 -2.80 174 174 169
-11.35 3.13 -2.80 174 174 169
-11.35 3.05 -2.80 174 174 169
-11.35 2.96 -2.79 174 174 169
-11.36 2.88 -2.79 174 174 169
-11.36 2.79 -2.79 174 174 169
-11.36 2.71 -2.78 174 174 169
-11.36 2.63 -2.78 174 174 169
-11.37 2.54 -2.77 174 174 169
-11.37 2.46 -2.77 173 173 168
-11.37 2.38 -2.77 173 173 168
-11.38 2.29 -2.76 173 173 168
-11.38 2.21 -2.76 173 173 168
-11.38 2.13 -2.76 173 173 168
-11.38 2.04 -2.76 173 173 168
-11.39 1.96 -2.75 173 173 168
-11.39 1.87 -2.75 173 173 168
-11.39 1.79 -2.75 173 173 168
-11.39 1.71 -2.75 173 173 168
-11.39 1.62 -2.74 173 173 168
-11.40 1.54 -2.74 173 173 168
-11.40 1.46 -2.74 173 173 168
-11.40 1.37 -2.73 173 173 168
-11.40 1.29 -2.73 173 173 168
-11.40 1.21 -2.74 172 172 167
-11.40 1.13 -2.74 172 172 167
-11.40 1.04 -2.74 172 172 167
-11.40 0.96 -2.73 172 172 167
-11.40 0.88 -2.73 172 172 167
-11.41 0.79 -2.72 172 172 167
-11.41 0.71 -2.71 172 172 167
-11.41 0.63 -2.71 172 172 167
-11.42 0.54 -2.70 172 173 165
-11.42 0.46 -2.71 172 173 165
-11.42 0.38 -2.70 172 173 165
-11.42 0.29 -2.70 172 173 165
-11.43 0.21 -2.69 172 173 165
-11.43 0.13 -2.68 172 173 165
-11.43 0.04 -2.68 172 173 165
-11.43 -0.04 -2.68 172 173 165
-11.43 -0.12 -2.68 171 172 164
-11.43 -0.20 -2.68 171 172 164
-11.43 -0.29 -2.68 171 172 164
-11.44 -0.37 -2.67 171 172 164
-11.44 -0.45 -2.67 171 172 164
-11.44 -0.54 -2.67 171 172 164
-11.45 -0.62 -2.66 171 172 164
-11.44 -0.70 -2.67 171 172 164
-11.45 -0.79 -2.67 168 173 167
-11.46 -0.87 -2.65 168 173 167
-11.46 -0.95 -2.65 168 173 167
-11.46 -1.04 -2.65 168 173 167
-11.46 -1.12 -2.65 168 173 167
-11.46 -1.20 -2.65 168 173 167
-11.46 -1.28 -2.65 168 173 167
-11.46 -1.37 -2.65 168 173 167
-11.47 -1.45 -2.63 169 174 170
-11.47 -1.53 -2.64 169 174 170
-11.47 -1.61 -2.64 169 174 170
-11.47 -1.70 -2.63 169 174 170
-11.48 -1.78 -2.62 169 174 170
-11.48 -1.86 -2.62 169 174 170
-11.49 -1.95 -2.61 169 174 170
-11.48 -2.03 -2.61 169 174 170
-11.49 -2.11 -2.61 171 173 170
-11.49 -2.20 -2.60 171 173 170
-11.50 -2.28 -2.60 171 173 170
-11.50 -2.36 -2.60 171 173 170
-11.50 -2.45 -2.59 171 173 170
-11.50 -2.53 -2.59 171 173 170
-11.51 -2.61 -2.58 171 173 170
-11.51 -2.69 -2.58 172 174 171
-11.51 -2.78 -2.58 172 174 171
-11.51 -2.86 -2.58 172 174 171
-11.51 -2.94 -2.58 172 174 171
-11.51 -3.02 -2.58 172 174 171
-11.52 -3.11 -2.57 172 174 171
-11.52 -3.19 -2.57 172 174 171
-11.52 -3.27 -2.57 170 175 171
-11.51 -3.35 -2.58 171 176 172
-11.51 -3.43 -2.58 171 176 172
-11.51 -3.52 -2.58 172 177 173
-11.51 -3.60 -2.58 172 177 173
-11.52 -3.68 -2.57 172 177 173
-11.52 -3.76 -2.57 172 177 173
-11.52 -3.85 -2.57 172 177 173
-11.52 -3.93 -2.57 172 177 173
-11.52 -4.01 -2.57 172 177 173
-11.52 -4.09 -2.57 171 176 172
-11.52 -4.18 -2.57 171 176 172
-11.52 -4.26 -2.57 171 176 172
-11.51 -4.34 -2.58 171 176 172
-11.52 -4.42 -2.57 171 176 172
-11.51 -4.50 -2.58 171 176 172
-11.51 -4.59 -2.58 171 176 172
-11.51 -4.67 -2.58 171 176 172
-11.50 -4.75 -2.60 174 179 178
-11.49 -4.83 -2.60 174 179 178
-11.48 -4.91 -2.61 174 179 178
-11.48 -5.00 -2.61 174 179 178
-11.49 -5.08 -2.60 174 179 178
-11.48 -5.16 -2.62 174 179 178
-11.48 -5.24 -2.62 174 179 178
-11.48 -5.33 -2.62 174 179 178
-11.48 -5.41 -2.62 172 177 176
-11.47 -5.49 -2.64 172 177 176
-11.47 -5.57 -2.64 172 177 176
-11.46 -5.65 -2.64 172 177 176
-11.46 -5.74 -2.64 172 177 176
-11.46 -5.82 -2.65 172 177 176
-11.46 -5.90 -2.65 172 177 176
-11.46 -5.98 -2.65 172 177 176
-11.45 -6.07 -2.66 179 181 178
-11.45 -6.15 -2.66 178 180 177
-11.45 -6.23 -2.66 177 179 176
-11.44 -6.31 -2.67 181 183 180
-11.44 -6.40 -2.67 177 179 176
-11.45 -6.48 -2.66 176 178 175
-11.46 -6.56 -2.65 179 181 178
-11.45 -6.64 -2.66 169 171 168
-11.41 -6.73 -2.72 174 176 173
-11.36 -6.81 -2.78 180 182 179
-11.50 -6.89 -2.60 170 172 169
-11.88 -6.98 -2.06 199 201 198
-12.19 -7.06 -1.64 242 244 241
-12.30 -7.15 -1.49 248 250 247
-12.27 -7.23 -1.53 246 248 245
-12.27 -7.31 -1.53 243 245 242
-12.26 -7.39 -1.54 246 253 248
-12.27 -7.47 -1.52 246 253 248
-12.27 -7.55 -1.52 246 253 248
-12.28 -7.63 -1.52 246 253 248
-12.27 -7.71 -1.52 246 253 248
-12.26 -7.79 -1.54 246 253 248
-12.24 -7.87 -1.56 246 253 248
-12.24 -7.95 -1.57 246 253 248
-12.22 -8.03 -1.59 246 253 248
-12.22 -8.11 -1.60 246 253 248
-12.20 -8.19 -1.62 246 253 248
-12.20 -8.27 -1.63 246 253 248
-12.19 -8.35 -1.64 246 253 248
-12.19 -8.43 -1.64 246 253 248
-12.18 -8.51 -1.66 246 253 248
-12.17 -8.59 -1.67 246 253 248
-12.17 -8.67 -1.66 246 253 251
-12.16 -8.75 -1.69 246 253 251
-12.16 -8.83 -1.69 246 253 251
-12.16 -8.91 -1.69 246 253 251
-12.15 -9.00 -1.69 246 253 251
-12.15 -9.08 -1.69 246 253 251
-12.15 -9.16 -1.70 246 253 251
-12.14 -9.24 -1.71 246 253 251
-12.13 -9.32 -1.72 246 253 251
-12.13 -9.40 -1.72 246 253 251
-12.13 -9.48 -1.72 246 253 251
-12.13 -9.56 -1.72 246 253 251
-12.13 -9.64 -1.72 246 253 251
-12.13 -9.72 -1.72 246 253 251
-12.13 -9.80 -1.72 246 253 251
-12.13 -9.88 -1.72 246 253 251
-12.13 -9.96 -1.72 246 253 251
-12.13 -10.04 -1.72 246 253 251
-12.13 -10.12 -1.73 246 253 251
-12.14 -10.20 -1.71 246 253 251
-12.14 -10.28 -1.71 246 253 251
-12.15 -10.36 -1.70 246 253 251
-12.14 -10.44 -1.70 246 253 251
-12.14 -10.53 -1.71 246 253 251
-12.14 -10.61 -1.70 246 253 251
-12.14 -10.69 -1.71 246 253 251
-12.15 -10.77 -1.70 246 253 251
-12.15 -10.85 -1.70 246 253 251
-12.16 -10.93 -1.69 246 253 251
-12.15 -11.01 -1.69 246 253 251
