ply
format ascii 1.0
element vertex 1590
property float x
property float y
property float z
property uchar red
property uchar green
property uchar blue
end_header
-5.52 -31.88 -3.80 235 235 232
-5.53 -31.97 -3.79 235 235 232
-5.52 -32.07 -3.80 235 235 232
-5.52 -32.16 -3.80 235 235 232
-5.52 -32.26 -3.80 235 235 232
-5.52 -32.35 -3.80 235 235 232
-5.52 -32.44 -3.80 235 235 232
-5.52 -32.54 -3.80 235 235 232
-5.53 -32.63 -3.79 235 235 232
-5.54 -32.71 -3.78 237 237 234
-5.54 -32.80 -3.78 237 237 234
-5.54 -32.90 -3.78 238 238 235
-5.54 -32.99 -3.78 238 238 235
-5.55 -33.08 -3.77 239 239 236
-5.54 -33.17 -3.77 239 239 236
-5.56 -33.25 -3.76 241 241 238
-5.55 -33.35 -3.76 241 241 238
-5.55 -33.44 -3.76 243 243 240
-5.55 -33.54 -3.77 243 243 240
-5.56 -33.63 -3.76 243 243 240
-5.56 -33.72 -3.76 243 243 240
-5.56 -33.81 -3.75 243 243 240
-5.56 -33.90 -3.75 243 243 240
-5.56 -33.99 -3.75 243 243 240
-5.57 -34.08 -3.74 243 243 240
-5.57 -34.17 -3.74 242 244 241
-5.57 -34.27 -3.74 242 244 241
-5.57 -34.36 -3.74 242 244 241
-5.57 -34.45 -3.74 242 244 241
-5.58 -34.54 -3.74 242 244 241
-5.59 -34.63 -3.72 242 244 241
-5.59 -34.72 -3.72 242 244 241
-5.59 -34.81 -3.72 242 244 241
-5.57 -34.92 -3.74 242 244 241
-5.58 -35.01 -3.74 242 244 241
-5.58 -35.10 -3.73 242 244 241
-5.58 -35.19 -3.73 242 244 241
-5.59 -35.28 -3.72 242 244 241
-5.60 -35.36 -3.71 242 244 241
-5.62 -35.44 -3.69 242 244 241
-5.67 -35.49 -3.63 242 244 241
-5.68 -35.57 -3.61 243 243 240
-5.73 -35.62 -3.55 241 241 238
-5.74 -35.71 -3.54 239 237 235
-5.73 -35.81 -3.56 243 241 239
-5.71 -35.92 -3.58 244 239 238
-5.75 -35.98 -3.53 247 242 241
-5.66 -36.14 -3.63 235 230 229
-5.48 22.50 -3.99 142 133 125
-5.44 22.44 -4.03 142 133 125
-5.46 22.33 -4.01 142 133 125
-5.46 22.23 -4.00 142 133 125
-5.46 22.14 -4.00 142 133 125
-5.47 22.04 -4.00 142 133 125
-5.43 21.98 -4.04 142 133 125
-5.44 21.88 -4.03 142 133 125
-5.44 21.79 -4.03 142 133 125
-5.43 21.70 -4.05 143 134 126
-5.42 21.61 -4.05 143 134 126
-5.42 21.52 -4.05 143 134 126
-5.42 21.43 -4.06 143 134 126
-5.42 21.34 -4.06 143 134 126
-5.42 21.25 -4.06 143 134 126
-5.41 21.15 -4.06 143 134 126
-5.42 21.06 -4.06 143 137 128
-5.42 20.97 -4.06 143 137 128
-5.42 20.87 -4.05 143 137 128
-5.41 20.78 -4.06 143 137 128
-5.41 20.69 -4.06 143 137 128
-5.40 20.60 -4.08 143 137 128
-5.39 20.52 -4.09 143 137 128
-5.38 20.43 -4.10 144 138 129
-5.37 20.35 -4.11 146 140 131
-5.36 20.26 -4.13 146 140 131
-5.35 20.18 -4.14 146 140 131
-5.34 20.09 -4.15 146 140 131
-5.33 20.00 -4.16 146 140 131
-5.33 19.91 -4.16 146 140 131
-5.33 19.82 -4.17 145 141 131
-5.31 19.74 -4.18 146 142 132
-5.31 19.64 -4.18 147 141 132
-5.29 19.56 -4.20 148 142 133
-5.29 19.47 -4.20 148 142 133
-5.29 19.38 -4.21 148 142 133
-5.28 19.29 -4.22 148 142 133
-5.28 19.20 -4.22 148 142 133
-5.28 19.11 -4.22 148 142 133
-5.27 19.02 -4.24 148 142 133
-5.25 18.94 -4.25 148 142 133
-5.25 18.84 -4.25 148 142 133
-5.24 18.76 -4.26 148 142 133
-5.25 18.66 -4.26 148 142 133
-5.24 18.57 -4.26 148 142 133
-5.23 18.49 -4.28 148 142 133
-5.23 18.39 -4.28 148 142 133
-5.21 18.31 -4.30 148 142 133
-5.21 18.22 -4.30 150 144 137
-5.19 18.14 -4.33 150 144 137
-5.18 18.05 -4.33 150 144 137
-5.18 17.95 -4.33 150 144 137
-5.18 17.87 -4.34 150 144 137
-5.18 17.77 -4.34 150 144 137
-5.17 17.68 -4.35 150 144 137
-5.16 17.59 -4.36 150 144 137
-5.15 17.51 -4.37 153 147 140
-5.14 17.42 -4.38 153 147 140
-5.14 17.33 -4.38 153 147 140
-5.14 17.23 -4.39 153 147 140
-5.14 17.14 -4.39 153 147 140
-5.14 17.05 -4.39 153 147 140
-5.14 16.95 -4.39 153 147 140
-5.13 16.86 -4.40 153 147 140
-5.13 16.77 -4.40 153 149 141
-5.12 16.68 -4.41 153 149 141
-5.12 16.58 -4.40 153 149 141
-5.11 16.50 -4.42 153 149 141
-5.12 16.40 -4.41 153 149 141
-5.12 16.30 -4.41 153 149 141
-5.11 16.21 -4.42 153 149 141
-5.11 16.12 -4.42 153 149 141
-5.11 16.02 -4.42 154 150 142
-5.11 15.93 -4.42 154 150 142
-5.10 15.85 -4.44 154 150 142
-5.11 15.74 -4.42 154 150 142
-5.10 15.66 -4.44 154 150 142
-5.10 15.56 -4.44 154 150 142
-5.10 15.47 -4.44 154 150 142
-5.08 15.38 -4.46 154 150 142
-5.08 15.29 -4.46 153 149 143
-5.07 15.20 -4.47 152 148 142
-5.07 15.11 -4.47 150 146 140
-5.06 15.02 -4.48 148 144 138
-5.06 14.93 -4.48 146 142 136
-5.05 14.83 -4.49 143 139 133
-5.05 14.74 -4.49 142 138 132
-5.05 14.65 -4.49 141 137 131
-5.05 14.55 -4.49 138 134 128
-5.06 14.45 -4.48 138 134 128
-5.06 14.36 -4.48 138 134 128
-5.07 14.26 -4.47 138 134 128
-5.06 14.17 -4.48 138 134 128
-5.06 14.08 -4.48 138 134 128
-5.07 13.97 -4.47 138 134 128
-5.06 13.89 -4.48 138 134 128
-5.06 13.79 -4.48 133 132 123
-5.06 13.70 -4.48 132 131 122
-5.05 13.61 -4.49 133 132 123
-5.05 13.51 -4.49 134 133 124
-5.04 13.42 -4.50 136 135 126
-5.05 13.32 -4.49 136 135 126
-5.04 13.23 -4.50 138 137 128
-5.04 13.14 -4.50 139 138 129
-5.03 13.05 -4.51 139 138 129
-5.03 12.96 -4.52 140 139 130
-5.03 12.86 -4.52 141 140 131
-5.03 12.77 -4.52 144 143 134
-5.01 12.68 -4.53 145 144 135
-5.02 12.59 -4.53 146 145 136
-5.02 12.49 -4.53 147 146 139
-5.02 12.40 -4.53 148 147 140
-5.01 12.30 -4.53 151 150 143
-5.01 12.21 -4.53 154 153 146
-5.00 12.12 -4.55 155 154 147
-5.01 12.02 -4.54 157 156 149
-5.00 11.93 -4.55 159 158 151
-5.00 11.84 -4.55 160 159 152
-4.99 11.75 -4.56 163 159 153
-4.99 11.66 -4.57 163 159 153
-4.99 11.56 -4.57 164 160 154
-4.98 11.47 -4.57 163 159 153
-4.98 11.38 -4.57 163 159 153
-4.97 11.29 -4.59 163 159 153
-4.98 11.19 -4.57 164 160 152
-4.98 11.09 -4.58 166 162 154
-4.98 11.00 -4.58 166 162 154
-4.96 10.91 -4.59 164 160 152
-4.95 10.82 -4.60 168 164 156
-4.95 10.73 -4.61 168 164 156
-4.95 10.63 -4.61 168 164 156
-4.95 10.54 -4.61 168 164 156
-4.94 10.45 -4.62 166 165 156
-4.94 10.35 -4.62 166 165 156
-4.94 10.26 -4.62 166 165 156
-4.93 10.17 -4.63 166 165 156
-4.93 10.07 -4.63 166 165 156
-4.93 9.98 -4.63 166 165 156
-4.92 9.89 -4.64 166 165 156
-4.92 9.79 -4.64 166 165 156
-4.92 9.70 -4.64 166 165 156
-4.93 9.60 -4.64 167 166 157
-4.92 9.51 -4.64 167 166 157
-4.92 9.41 -4.64 167 166 157
-4.93 9.32 -4.64 168 169 159
-4.92 9.23 -4.65 167 168 158
-4.92 9.13 -4.64 167 168 158
-4.92 9.04 -4.65 167 168 158
-4.93 8.94 -4.63 167 168 158
-4.93 8.84 -4.63 167 168 158
-4.92 8.75 -4.65 168 169 159
-4.92 8.66 -4.65 170 171 161
-4.92 8.56 -4.64 170 171 161
-4.92 8.47 -4.65 170 171 161
-4.91 8.37 -4.65 170 171 161
-4.93 8.27 -4.64 170 171 161
-4.92 8.18 -4.65 170 171 161
-4.91 8.09 -4.65 170 171 161
-4.92 7.99 -4.65 170 171 161
-4.91 7.90 -4.65 171 172 162
-4.90 7.81 -4.67 171 172 162
-4.90 7.72 -4.67 171 172 162
-4.90 7.62 -4.67 171 172 162
-4.89 7.53 -4.68 171 172 162
-4.89 7.43 -4.68 171 172 162
-4.89 7.34 -4.68 171 172 162
-4.88 7.25 -4.69 172 173 163
-4.88 7.15 -4.69 172 173 163
-4.88 7.06 -4.70 172 173 163
-4.88 6.96 -4.70 172 173 163
-4.87 6.87 -4.70 172 173 163
-4.87 6.78 -4.70 172 173 163
-4.87 6.68 -4.70 172 173 165
-4.87 6.59 -4.70 172 173 165
-4.87 6.49 -4.70 172 172 167
-4.87 6.40 -4.71 172 172 167
-4.87 6.30 -4.71 172 172 167
-4.86 6.21 -4.71 172 172 167
-4.86 6.12 -4.72 172 172 167
-4.86 6.02 -4.72 172 172 167
-4.86 5.93 -4.71 172 172 167
-4.86 5.83 -4.71 172 172 167
-4.86 5.73 -4.71 172 172 167
-4.87 5.64 -4.71 172 172 167
-4.86 5.54 -4.71 172 172 167
-4.86 5.45 -4.71 172 172 167
-4.86 5.35 -4.71 172 172 167
-4.86 5.26 -4.71 172 172 167
-4.87 5.16 -4.71 172 172 167
-4.87 5.07 -4.71 172 172 167
-4.86 4.97 -4.71 172 172 167
-4.86 4.88 -4.71 173 173 168
-4.86 4.78 -4.71 173 173 168
-4.86 4.69 -4.72 173 173 168
-4.86 4.59 -4.72 173 173 168
-4.86 4.50 -4.72 173 173 168
-4.85 4.41 -4.72 173 173 168
-4.86 4.31 -4.71 173 173 168
-4.86 4.21 -4.72 173 173 168
-4.86 4.12 -4.72 173 173 168
-4.85 4.03 -4.72 173 173 168
-4.84 3.93 -4.73 173 173 168
-4.85 3.84 -4.72 173 173 168
-4.84 3.74 -4.74 173 173 168
-4.85 3.65 -4.73 173 173 168
-4.84 3.56 -4.74 173 173 168
-4.85 3.46 -4.73 171 174 166
-4.84 3.36 -4.74 171 174 166
-4.84 3.27 -4.73 172 175 167
-4.85 3.17 -4.72 171 174 166
-4.84 3.08 -4.74 171 174 166
-4.85 2.98 -4.73 171 174 166
-4.84 2.89 -4.74 171 174 166
-4.85 2.79 -4.73 171 174 166
-4.85 2.70 -4.73 171 174 166
-4.85 2.60 -4.73 171 174 166
-4.84 2.51 -4.73 171 174 166
-4.84 2.41 -4.73 172 175 167
-4.84 2.32 -4.74 172 175 167
-4.85 2.22 -4.72 172 175 167
-4.85 2.12 -4.72 172 175 167
-4.86 2.03 -4.72 172 175 167
-4.86 1.93 -4.72 172 175 167
-4.85 1.84 -4.72 172 175 167
-4.86 1.74 -4.71 169 175 166
-4.86 1.65 -4.72 169 175 166
-4.86 1.55 -4.71 169 174 168
-4.86 1.46 -4.72 169 174 168
-4.86 1.36 -4.71 169 174 168
-4.87 1.27 -4.71 169 174 168
-4.85 1.17 -4.72 169 174 168
-4.86 1.08 -4.71 169 174 168
-4.86 0.98 -4.71 169 174 168
-4.86 0.89 -4.71 169 174 168
-4.86 0.79 -4.71 169 174 168
-4.87 0.69 -4.70 169 174 168
-4.87 0.60 -4.70 169 174 168
-4.88 0.50 -4.70 169 174 168
-4.87 0.41 -4.70 169 174 168
-4.87 0.31 -4.70 169 174 168
-4.88 0.22 -4.70 170 175 169
-4.87 0.12 -4.71 170 175 169
-4.87 0.03 -4.70 170 175 169
-4.87 -0.07 -4.70 170 175 169
-4.87 -0.16 -4.71 170 175 169
-4.87 -0.26 -4.70 170 175 169
-4.86 -0.35 -4.72 170 175 169
-4.86 -0.44 -4.72 171 176 170
-4.85 -0.54 -4.72 171 176 170
-4.85 -0.63 -4.73 171 176 170
-4.84 -0.73 -4.74 171 176 170
-4.84 -0.82 -4.73 171 176 170
-4.84 -0.92 -4.74 171 176 170
-4.84 -1.01 -4.74 171 176 170
-4.84 -1.11 -4.74 170 177 170
-4.84 -1.20 -4.74 171 178 171
-4.83 -1.30 -4.75 171 178 171
-4.83 -1.39 -4.75 171 178 171
-4.82 -1.48 -4.76 171 178 171
-4.81 -1.58 -4.77 171 178 171
-4.81 -1.67 -4.77 171 178 171
-4.81 -1.77 -4.78 171 178 171
-4.80 -1.86 -4.78 171 178 171
-4.80 -1.96 -4.79 171 178 171
-4.79 -2.05 -4.79 173 180 173
-4.79 -2.14 -4.80 173 180 173
-4.78 -2.24 -4.81 173 180 173
-4.79 -2.34 -4.80 173 180 173
-4.79 -2.43 -4.80 173 180 173
-4.80 -2.53 -4.79 173 180 173
-4.79 -2.62 -4.79 173 180 173
-4.80 -2.72 -4.78 173 180 173
-4.81 -2.81 -4.78 173 180 175
-4.81 -2.91 -4.78 173 180 175
-4.81 -3.00 -4.78 173 180 175
-4.81 -3.10 -4.78 173 180 175
-4.82 -3.20 -4.76 173 180 175
-4.81 -3.29 -4.77 173 180 175
-4.82 -3.39 -4.77 173 180 175
-4.82 -3.48 -4.76 173 180 175
-4.83 -3.58 -4.76 174 181 176
-4.82 -3.67 -4.76 174 181 176
-4.82 -3.77 -4.76 174 181 176
-4.82 -3.86 -4.76 174 181 176
-4.82 -3.96 -4.76 174 181 176
-4.81 -4.05 -4.77 174 181 176
-4.81 -4.15 -4.77 174 181 176
-4.81 -4.24 -4.77 174 181 176
-4.81 -4.34 -4.78 175 182 177
-4.81 -4.43 -4.78 175 182 177
-4.80 -4.53 -4.79 175 182 177
-4.80 -4.62 -4.79 175 182 177
-4.80 -4.72 -4.78 175 182 177
-4.80 -4.81 -4.78 175 182 177
-4.80 -4.91 -4.79 175 182 177
-4.79 -5.00 -4.80 175 182 177
-4.78 -5.10 -4.81 175 182 177
-4.78 -5.19 -4.81 175 182 177
-4.77 -5.29 -4.82 175 182 177
-4.78 -5.38 -4.81 175 182 177
-4.78 -5.48 -4.81 175 182 177
-4.78 -5.57 -4.81 175 182 177
-4.78 -5.67 -4.81 175 182 177
-4.77 -5.76 -4.82 175 182 177
-4.78 -5.86 -4.81 177 184 182
-4.77 -5.96 -4.82 177 184 182
-4.78 -6.05 -4.81 177 184 182
-4.78 -6.15 -4.81 177 184 182
-4.78 -6.24 -4.81 177 184 182
-4.78 -6.34 -4.81 177 184 182
-4.78 -6.43 -4.81 177 184 182
-4.77 -6.53 -4.82 177 184 182
-4.76 -6.62 -4.83 178 185 183
-4.77 -6.72 -4.82 178 185 183
-4.76 -6.81 -4.83 178 185 183
-4.76 -6.91 -4.83 178 185 183
-4.76 -7.00 -4.83 178 185 183
-4.75 -7.10 -4.84 178 185 183
-4.75 -7.19 -4.84 178 185 183
-4.74 -7.29 -4.85 178 185 183
-4.74 -7.38 -4.86 178 185 180
-4.73 -7.48 -4.86 178 185 180
-4.73 -7.58 -4.87 178 185 180
-4.72 -7.67 -4.88 178 185 180
-4.71 -7.77 -4.90 178 185 180
-4.71 -7.86 -4.90 178 185 180
-4.70 -7.96 -4.90 178 185 180
-4.70 -8.05 -4.90 178 185 180
-4.70 -8.15 -4.91 180 187 182
-4.70 -8.24 -4.91 180 187 182
-4.69 -8.34 -4.91 180 187 182
-4.69 -8.44 -4.91 180 187 182
-4.70 -8.53 -4.91 180 187 182
-4.70 -8.63 -4.90 180 187 182
-4.70 -8.72 -4.91 180 187 182
-4.70 -8.82 -4.91 180 187 182
-4.69 -8.91 -4.91 183 190 188
-4.70 -9.01 -4.90 183 190 188
-4.70 -9.10 -4.91 183 190 188
-4.69 -9.20 -4.91 183 190 188
-4.70 -9.30 -4.91 183 190 188
-4.70 -9.39 -4.90 183 190 188
-4.70 -9.49 -4.90 183 190 188
-4.69 -9.58 -4.91 183 190 188
-4.70 -9.68 -4.91 182 189 187
-4.69 -9.77 -4.92 183 190 188
-4.68 -9.87 -4.92 183 190 188
-4.68 -9.96 -4.92 184 191 189
-4.69 -10.06 -4.92 184 191 189
-4.69 -10.16 -4.92 185 192 190
-4.69 -10.25 -4.92 185 192 190
-4.68 -10.35 -4.92 187 194 192
-4.68 -10.44 -4.93 187 194 189
-4.67 -10.54 -4.93 187 194 189
-4.67 -10.63 -4.93 187 194 189
-4.68 -10.73 -4.93 187 194 189
-4.68 -10.83 -4.93 187 194 189
-4.67 -10.92 -4.94 187 194 189
-4.67 -11.02 -4.94 187 194 189
-4.67 -11.11 -4.94 187 194 189
-4.66 -11.21 -4.95 187 194 189
-4.65 -11.31 -4.96 187 194 189
-4.65 -11.40 -4.96 187 194 189
-4.65 -11.50 -4.96 187 194 189
-4.64 -11.59 -4.98 187 194 189
-4.63 -11.69 -4.98 187 194 189
-4.62 -11.79 -4.99 187 194 189
-4.62 -11.88 -5.00 187 194 189
-4.61 -11.98 -5.01 187 194 192
-4.60 -12.08 -5.03 188 195 193
-4.59 -12.17 -5.03 188 195 193
-4.59 -12.27 -5.04 189 196 194
-4.58 -12.37 -5.04 189 196 194
-4.58 -12.46 -5.05 190 197 195
-4.58 -12.56 -5.05 190 197 195
-4.58 -12.66 -5.05 191 198 196
-4.57 -12.75 -5.05 192 199 197
-4.58 -12.85 -5.05 192 199 197
-4.57 -12.94 -5.05 192 199 197
-4.58 -13.04 -5.05 192 199 197
-4.58 -13.13 -5.04 192 199 197
-4.58 -13.23 -5.05 192 199 197
-4.58 -13.33 -5.05 192 199 197
-4.57 -13.42 -5.05 192 199 197
-4.57 -13.52 -5.05 194 201 199
-4.56 -13.62 -5.07 196 203 201
-4.56 -13.71 -5.07 196 203 201
-4.56 -13.81 -5.07 196 203 201
-4.55 -13.91 -5.08 196 203 201
-4.56 -14.00 -5.07 196 203 201
-4.55 -14.10 -5.08 196 203 201
-4.56 -14.19 -5.07 196 203 201
-4.56 -14.29 -5.07 196 203 201
-4.56 -14.38 -5.07 196 203 201
-4.56 -14.48 -5.07 196 203 201
-4.56 -14.58 -5.07 196 203 201
-4.56 -14.67 -5.07 196 203 201
-4.57 -14.77 -5.06 196 203 201
-4.58 -14.86 -5.04 196 203 201
-4.59 -14.95 -5.03 196 203 201
-4.60 -15.05 -5.02 199 200 192
-4.63 -15.14 -4.98 201 202 194
-4.67 -15.22 -4.94 198 201 193
-4.68 -15.32 -4.92 198 201 193
-4.68 -15.41 -4.93 194 201 196
-4.63 -15.52 -4.98 203 210 205
-4.61 -15.62 -5.01 210 220 224
-4.82 -15.67 -4.76 206 216 220
-5.26 -15.66 -4.24 166 174 190
-5.54 -15.68 -3.91 108 116 132
-5.77 -15.72 -3.64 45 51 79
-5.88 -15.78 -3.51 24 30 58
-5.97 -15.86 -3.41 15 18 54
-5.97 -15.95 -3.41 13 16 52
-6.00 -16.03 -3.37 25 25 64
-6.00 -16.12 -3.37 17 17 56
-6.30 -16.14 -3.01 0 3 7
-6.37 -16.21 -2.93 149 153 157
-6.51 -16.26 -2.77 255 246 206
-6.72 -16.30 -2.51 232 222 182
-6.76 -16.38 -2.47 239 213 159
-7.00 -16.40 -2.18 247 221 167
-7.04 -16.48 -2.14 242 212 154
-7.07 -16.56 -2.10 186 156 98
-7.09 -16.64 -2.08 193 165 107
-7.13 -16.72 -2.04 205 177 119
-7.17 -16.80 -1.99 175 147 91
-7.20 -16.88 -1.96 172 144 88
-7.24 -16.96 -1.91 194 172 107
-7.27 -17.03 -1.87 188 166 101
-7.29 -17.12 -1.85 180 166 100
-7.32 -17.20 -1.81 173 159 93
-7.34 -17.28 -1.79 167 157 90
-7.37 -17.36 -1.75 166 156 89
-7.41 -17.43 -1.71 154 146 94
-7.45 -17.51 -1.65 144 136 84
-7.50 -17.58 -1.60 131 124 95
-7.55 -17.65 -1.54 186 179 150
-7.59 -17.73 -1.49 198 193 179
-7.63 -17.80 -1.44 214 209 195
-7.69 -17.87 -1.37 243 238 224
-7.74 -17.94 -1.31 253 248 234
-7.82 -18.00 -1.22 201 193 169
-7.88 -18.07 -1.14 164 156 132
-7.96 -18.13 -1.06 165 155 113
-8.00 -18.20 -1.01 167 157 115
-8.05 -18.27 -0.95 157 144 92
-8.09 -18.34 -0.90 153 140 88
-8.14 -18.41 -0.84 179 172 113
-8.19 -18.48 -0.79 172 165 106
-8.23 -18.55 -0.74 128 116 61
-8.27 -18.63 -0.69 128 116 61
-8.29 -18.70 -0.66 138 117 74
-8.33 -18.78 -0.62 156 135 92
-8.37 -18.85 -0.57 145 118 84
-8.39 -18.92 -0.54 133 106 72
-8.43 -19.00 -0.51 150 122 93
-8.46 -19.07 -0.47 140 112 83
-8.48 -19.15 -0.44 156 132 106
-8.52 -19.22 -0.39 165 141 115
-8.53 -19.30 -0.38 126 105 92
-8.55 -19.38 -0.36 188 167 154
-8.42 -19.51 -0.52 140 121 123
-7.89 -19.80 -1.13 31 12 14
-7.69 -19.97 -1.37 51 53 50
-7.68 -20.06 -1.39 59 61 58
-7.64 -20.16 -1.43 52 54 51
-7.61 -20.26 -1.47 41 43 40
-7.62 -20.35 -1.46 32 34 31
-7.67 -20.41 -1.40 39 41 38
-7.68 -20.50 -1.39 66 68 65
-7.39 -20.70 -1.73 81 83 80
-7.04 -20.94 -2.14 123 125 122
-6.59 -21.21 -2.68 161 163 160
-6.26 -21.44 -3.06 200 202 199
-5.86 -21.70 -3.54 225 227 224
-5.73 -21.85 -3.69 234 236 233
-5.47 -22.05 -3.99 232 234 231
-5.42 -22.17 -4.06 230 232 229
-5.42 -22.26 -4.05 236 238 235
-5.46 -22.33 -4.00 219 221 218
-5.45 -22.44 -4.02 222 224 221
-5.43 -22.54 -4.04 222 224 221
-5.47 -22.61 -4.00 223 225 222
-5.42 -22.73 -4.05 225 227 224
-5.46 -22.80 -4.00 222 224 221
-5.48 -22.89 -3.98 223 225 222
-5.49 -22.98 -3.97 225 227 224
-5.49 -23.07 -3.97 225 227 224
-5.50 -23.16 -3.96 225 227 224
-5.50 -23.25 -3.96 225 227 224
-5.52 -23.34 -3.93 225 227 224
-5.52 -23.43 -3.93 225 227 224
-5.53 -23.52 -3.93 225 227 224
-5.52 -23.62 -3.93 225 227 224
-5.50 -23.72 -3.95 225 227 224
-5.50 -23.81 -3.96 226 228 225
-5.50 -23.90 -3.95 226 228 225
-5.50 -24.00 -3.95 226 228 225
-5.50 -24.09 -3.96 226 228 225
-5.49 -24.19 -3.97 226 228 225
-5.50 -24.28 -3.96 226 228 225
-5.50 -24.37 -3.96 226 228 225
-5.50 -24.47 -3.96 226 228 225
-5.49 -24.56 -3.97 227 229 226
-5.48 -24.66 -3.98 227 229 226
-5.47 -24.76 -4.00 227 229 226
-5.48 -24.85 -3.98 227 229 226
-5.49 -24.94 -3.97 227 229 226
-5.49 -25.03 -3.97 227 229 226
-5.49 -25.12 -3.97 227 229 226
-5.49 -25.22 -3.97 227 229 226
-5.49 -25.31 -3.97 227 229 226
-5.48 -25.41 -3.98 227 229 226
-5.49 -25.50 -3.98 227 229 226
-5.48 -25.60 -3.98 227 229 226
-5.49 -25.69 -3.98 227 229 226
-5.49 -25.78 -3.98 227 229 226
-5.49 -25.87 -3.97 227 229 226
-5.50 -25.96 -3.96 227 229 226
-5.49 -26.06 -3.97 227 229 226
-5.49 -26.15 -3.97 227 229 226
-5.50 -26.24 -3.96 227 229 226
-5.50 -26.33 -3.95 227 229 226
-5.50 -26.42 -3.95 227 229 226
-5.51 -26.51 -3.95 227 229 226
-5.52 -26.60 -3.94 227 229 226
-5.52 -26.70 -3.94 227 229 226
-5.52 -26.79 -3.94 228 230 227
-5.53 -26.88 -3.93 228 230 227
-5.53 -26.97 -3.92 228 230 227
-5.53 -27.06 -3.92 228 230 227
-5.54 -27.15 -3.91 228 230 227
-5.54 -27.24 -3.91 228 230 227
-5.55 -27.33 -3.90 228 230 227
-5.54 -27.43 -3.91 228 230 227
-5.54 -27.52 -3.91 229 231 228
-5.54 -27.62 -3.92 229 231 228
-5.54 -27.71 -3.91 229 231 228
-5.54 -27.80 -3.91 229 231 228
-5.54 -27.89 -3.91 229 231 228
-5.54 -27.99 -3.91 229 231 228
-5.54 -28.08 -3.91 229 231 228
-5.54 -28.18 -3.91 229 231 228
-5.54 -28.27 -3.92 227 229 226
-5.54 -28.36 -3.91 227 229 226
-5.54 -28.46 -3.92 227 229 226
-5.54 -28.55 -3.91 227 229 226
-5.54 -28.64 -3.91 227 229 226
-5.55 -28.73 -3.90 227 229 226
-5.55 -28.82 -3.90 227 229 226
-5.54 -28.92 -3.91 227 229 226
-5.56 -29.00 -3.89 229 231 228
-5.56 -29.09 -3.89 229 231 228
-5.56 -29.19 -3.89 229 231 228
-5.57 -29.28 -3.88 229 231 228
-5.58 -29.36 -3.87 229 231 228
-5.59 -29.45 -3.85 229 231 228
-5.60 -29.54 -3.84 229 231 228
-5.61 -29.62 -3.83 229 231 228
-5.61 -29.72 -3.83 229 231 228
-5.62 -29.80 -3.82 229 231 228
-5.63 -29.89 -3.80 229 231 228
-5.64 -29.97 -3.79 229 231 228
-5.65 -30.06 -3.79 229 231 228
-5.66 -30.15 -3.77 229 231 228
-5.66 -30.24 -3.77 229 231 228
-5.67 -30.33 -3.76 229 231 228
-5.67 -30.42 -3.76 230 232 229
-5.67 -30.51 -3.76 230 232 229
-5.67 -30.60 -3.76 230 232 229
-5.68 -30.69 -3.75 230 232 229
-5.69 -30.78 -3.74 230 232 229
-5.70 -30.86 -3.73 230 232 229
-5.70 -30.95 -3.72 230 232 229
-5.71 -31.04 -3.72 230 232 229
-5.71 -31.14 -3.72 234 234 231
-5.72 -31.22 -3.70 234 234 231
-5.71 -31.32 -3.71 234 234 231
-5.72 -31.40 -3.70 234 234 231
-5.71 -31.50 -3.71 234 234 231
-5.71 -31.59 -3.71 234 234 231
-5.71 -31.69 -3.71 234 234 231
-5.71 -31.78 -3.71 234 234 231
-5.71 -31.87 -3.71 235 235 232
-5.71 -31.97 -3.71 235 235 232
-5.71 -32.06 -3.71 235 235 232
-5.71 -32.15 -3.71 235 235 232
-5.71 -32.25 -3.71 235 235 232
-5.72 -32.33 -3.70 235 235 232
-5.71 -32.43 -3.71 235 235 232
-5.72 -32.52 -3.70 235 235 232
-5.71 -32.62 -3.71 237 237 234
-5.72 -32.70 -3.70 237 237 234
-5.72 -32.80 -3.70 237 237 234
-5.72 -32.88 -3.69 238 238 235
-5.73 -32.98 -3.69 239 239 236
-5.72 -33.07 -3.70 239 239 236
-5.74 -33.15 -3.68 241 241 238
-5.74 -33.25 -3.68 241 241 238
-5.74 -33.33 -3.67 242 242 239
-5.73 -33.43 -3.68 242 242 239
-5.74 -33.52 -3.68 242 242 239
-5.74 -33.61 -3.67 242 242 239
-5.74 -33.70 -3.67 242 242 239
-5.76 -33.79 -3.65 242 242 239
-5.75 -33.88 -3.66 242 242 239
-5.75 -33.97 -3.66 242 242 239
-5.75 -34.07 -3.66 241 243 240
-5.76 -34.16 -3.65 241 243 240
-5.76 -34.25 -3.66 241 243 240
-5.75 -34.35 -3.67 241 243 240
-5.75 -34.44 -3.66 241 243 240
-5.76 -34.53 -3.65 241 243 240
-5.76 -34.61 -3.65 241 243 240
-5.77 -34.70 -3.64 241 243 240
-5.76 -34.80 -3.65 241 243 240
-5.76 -34.89 -3.65 241 243 240
-5.75 -34.99 -3.66 241 243 240
-5.77 -35.07 -3.64 241 243 240
-5.77 -35.17 -3.64 241 243 240
-5.78 -35.25 -3.63 241 243 240
-5.79 -35.33 -3.62 241 243 240
-5.83 -35.39 -3.57 241 243 240
-5.84 -35.48 -3.56 242 242 239
-5.87 -35.54 -3.52 241 241 238
-5.89 -35.62 -3.50 240 238 236
-5.87 -35.73 -3.52 243 241 239
-5.90 -35.80 -3.49 244 239 238
-5.79 -35.98 -3.62 247 242 241
-6.19 -35.74 -3.14 239 234 233
-5.63 22.41 -3.94 142 133 125
-5.59 22.35 -3.98 142 133 125
-5.61 22.24 -3.96 142 133 125
-5.61 22.15 -3.97 142 133 125
-5.61 22.05 -3.96 142 133 125
-5.62 21.95 -3.95 142 133 125
-5.59 21.88 -3.98 142 133 125
-5.59 21.79 -3.99 142 133 125
-5.58 21.70 -3.99 142 133 125
-5.57 21.62 -4.01 143 134 126
-5.58 21.52 -4.00 143 134 126
-5.57 21.43 -4.01 143 134 126
-5.56 21.35 -4.02 143 134 126
-5.56 21.26 -4.02 143 134 126
-5.56 21.16 -4.02 143 134 126
-5.55 21.08 -4.03 143 134 126
-5.56 20.98 -4.02 143 137 128
-5.55 20.89 -4.04 143 137 128
-5.54 20.80 -4.04 143 137 128
-5.54 20.71 -4.05 143 137 128
-5.53 20.62 -4.05 143 137 128
-5.53 20.54 -4.06 143 137 128
-5.53 20.44 -4.06 143 137 128
-5.51 20.36 -4.08 144 138 129
-5.51 20.27 -4.08 146 140 131
-5.50 20.19 -4.10 146 140 131
-5.49 20.10 -4.11 146 140 131
-5.48 20.02 -4.12 146 140 131
-5.47 19.93 -4.13 146 140 131
-5.46 19.84 -4.14 146 140 131
-5.45 19.75 -4.15 145 141 131
-5.45 19.66 -4.15 146 142 132
-5.44 19.58 -4.17 147 141 132
-5.43 19.49 -4.17 148 142 133
-5.43 19.40 -4.18 148 142 133
-5.42 19.31 -4.19 148 142 133
-5.41 19.22 -4.20 148 142 133
-5.41 19.14 -4.20 148 142 133
-5.40 19.05 -4.21 148 142 133
-5.39 18.96 -4.22 148 142 133
-5.39 18.87 -4.23 148 142 133
-5.39 18.77 -4.22 148 142 133
-5.38 18.69 -4.24 148 142 133
-5.38 18.59 -4.24 148 142 133
-5.37 18.51 -4.25 148 142 133
-5.36 18.42 -4.26 148 142 133
-5.36 18.33 -4.26 148 142 133
-5.34 18.25 -4.28 148 142 133
-5.34 18.15 -4.28 150 144 137
-5.33 18.07 -4.29 150 144 137
-5.32 17.98 -4.30 150 144 137
-5.32 17.89 -4.30 150 144 137
-5.31 17.80 -4.32 150 144 137
-5.31 17.71 -4.32 150 144 137
-5.30 17.62 -4.34 150 144 137
-5.29 17.53 -4.34 150 144 137
-5.28 17.45 -4.35 153 147 140
-5.28 17.35 -4.36 153 147 140
-5.27 17.26 -4.36 153 147 140
-5.27 17.17 -4.37 153 147 140
-5.27 17.08 -4.37 153 147 140
-5.27 16.98 -4.37 153 147 140
-5.27 16.89 -4.36 153 147 140
-5.27 16.80 -4.37 153 147 140
-5.27 16.70 -4.37 153 149 141
-5.26 16.61 -4.38 153 149 141
-5.27 16.52 -4.37 153 149 141
-5.25 16.43 -4.39 153 149 141
-5.26 16.33 -4.38 153 149 141
-5.25 16.24 -4.39 153 149 141
-5.25 16.15 -4.39 153 149 141
-5.25 16.05 -4.39 153 149 141
-5.25 15.96 -4.39 154 150 142
-5.25 15.87 -4.39 154 150 142
-5.24 15.78 -4.41 154 150 142
-5.24 15.69 -4.40 154 150 142
-5.24 15.59 -4.41 154 150 142
-5.24 15.50 -4.41 154 150 142
-5.23 15.41 -4.41 154 150 142
-5.22 15.32 -4.43 154 150 142
-5.21 15.23 -4.43 153 149 143
-5.21 15.14 -4.44 152 148 142
-5.20 15.06 -4.45 150 146 140
-5.20 14.96 -4.45 149 145 139
-5.19 14.87 -4.46 147 143 137
-5.19 14.78 -4.46 146 142 136
-5.19 14.68 -4.46 145 141 135
-5.19 14.59 -4.46 143 139 133
-5.18 14.50 -4.47 141 137 131
-5.19 14.40 -4.46 141 137 131
-5.20 14.30 -4.45 141 137 131
-5.20 14.21 -4.45 141 137 131
-5.20 14.11 -4.45 141 137 131
-5.19 14.02 -4.47 141 137 131
-5.20 13.92 -4.45 141 137 131
-5.18 13.84 -4.47 141 137 131
-5.20 13.74 -4.45 137 136 127
-5.19 13.65 -4.46 136 135 126
-5.19 13.55 -4.46 137 136 127
-5.19 13.46 -4.46 138 137 128
-5.18 13.37 -4.48 138 137 128
-5.18 13.27 -4.47 139 138 129
-5.17 13.18 -4.48 140 139 130
-5.17 13.09 -4.48 140 139 130
-5.17 12.99 -4.48 141 140 131
-5.16 12.91 -4.49 141 140 131
-5.16 12.81 -4.50 143 142 133
-5.16 12.72 -4.50 145 144 135
-5.16 12.63 -4.50 146 145 136
-5.16 12.53 -4.50 147 146 137
-5.16 12.44 -4.50 148 147 140
-5.15 12.35 -4.51 148 147 140
-5.16 12.25 -4.50 151 150 143
-5.15 12.16 -4.51 154 153 146
-5.15 12.07 -4.51 155 154 147
-5.14 11.98 -4.52 155 154 147
-5.14 11.88 -4.52 157 156 149
-5.14 11.78 -4.52 158 157 150
-5.14 11.69 -4.52 161 157 151
-5.14 11.60 -4.53 162 158 152
-5.13 11.51 -4.53 163 159 153
-5.13 11.41 -4.53 163 159 153
-5.12 11.33 -4.55 163 159 153
-5.12 11.23 -4.54 164 160 154
-5.11 11.14 -4.55 164 160 152
-5.11 11.04 -4.55 166 162 154
-5.11 10.96 -4.56 166 162 154
-5.11 10.86 -4.56 164 160 152
-5.10 10.77 -4.57 168 164 156
-5.09 10.68 -4.58 168 164 156
-5.09 10.59 -4.58 168 164 156
-5.08 10.49 -4.59 168 164 156
-5.08 10.40 -4.59 166 165 156
-5.08 10.31 -4.59 166 165 156
-5.07 10.22 -4.60 166 165 156
-5.07 10.12 -4.60 166 165 156
-5.07 10.03 -4.60 166 165 156
-5.07 9.93 -4.60 166 165 156
-5.07 9.84 -4.61 166 165 156
-5.06 9.75 -4.61 166 165 156
-5.06 9.65 -4.61 167 166 157
-5.06 9.56 -4.61 167 166 157
-5.06 9.46 -4.62 168 167 158
-5.06 9.37 -4.61 168 167 158
-5.07 9.27 -4.60 168 169 159
-5.06 9.18 -4.61 168 169 159
-5.06 9.09 -4.61 168 169 159
-5.06 8.99 -4.61 168 169 159
-5.06 8.90 -4.62 168 169 159
-5.06 8.80 -4.61 168 169 159
-5.06 8.71 -4.61 168 169 159
-5.06 8.61 -4.61 170 171 161
-5.06 8.52 -4.62 170 171 161
-5.06 8.42 -4.62 170 171 161
-5.06 8.33 -4.62 170 171 161
-5.06 8.23 -4.61 170 171 161
-5.06 8.14 -4.62 170 171 161
-5.06 8.04 -4.61 170 171 161
-5.06 7.95 -4.62 170 171 161
-5.05 7.86 -4.63 171 172 162
-5.05 7.77 -4.63 171 172 162
-5.04 7.67 -4.64 171 172 162
-5.04 7.58 -4.64 171 172 162
-5.03 7.49 -4.65 171 172 162
-5.04 7.39 -4.64 171 172 162
-5.04 7.30 -4.64 171 172 162
-5.03 7.21 -4.66 172 173 163
-5.03 7.11 -4.65 172 173 163
-5.01 7.02 -4.67 172 173 163
-5.02 6.93 -4.66 172 173 163
-5.01 6.83 -4.67 172 173 163
-5.02 6.74 -4.67 172 173 163
-5.01 6.65 -4.68 172 173 165
-5.01 6.55 -4.67 172 173 165
-5.01 6.46 -4.68 172 172 167
-5.01 6.36 -4.68 172 172 167
-5.01 6.27 -4.68 172 172 167
-5.00 6.17 -4.68 172 172 167
-5.00 6.08 -4.68 172 172 167
-5.00 5.98 -4.68 172 172 167
-5.00 5.89 -4.69 172 172 167
-4.99 5.80 -4.69 172 172 167
-5.00 5.70 -4.68 172 172 167
-5.00 5.61 -4.69 172 172 167
-5.00 5.51 -4.68 172 172 167
-5.00 5.42 -4.69 172 172 167
-5.00 5.32 -4.69 172 172 167
-5.00 5.23 -4.69 172 172 167
-5.00 5.13 -4.69 172 172 167
-5.00 5.04 -4.68 172 172 167
-5.00 4.94 -4.68 172 172 167
-5.00 4.85 -4.69 173 173 168
-5.00 4.75 -4.69 173 173 168
-5.00 4.66 -4.68 173 173 168
-5.00 4.56 -4.68 173 173 168
-5.00 4.47 -4.69 173 173 168
-5.00 4.37 -4.69 173 173 168
-5.00 4.28 -4.69 173 173 168
-4.99 4.19 -4.70 173 173 168
-4.99 4.09 -4.69 173 173 168
-4.99 4.00 -4.69 173 173 168
-4.99 3.90 -4.70 173 173 168
-4.98 3.81 -4.71 173 173 168
-4.98 3.71 -4.71 173 173 168
-4.99 3.62 -4.70 173 173 168
-4.98 3.52 -4.71 173 173 168
-4.99 3.43 -4.70 171 174 166
-4.98 3.34 -4.71 171 174 166
-4.98 3.24 -4.71 172 175 167
-4.98 3.15 -4.71 171 174 166
-4.98 3.05 -4.71 171 174 166
-4.98 2.96 -4.71 171 174 166
-4.98 2.86 -4.71 171 174 166
-4.98 2.77 -4.71 171 174 166
-4.98 2.67 -4.71 171 174 166
-4.98 2.58 -4.71 171 174 166
-4.98 2.48 -4.71 171 174 166
-4.98 2.39 -4.71 172 175 167
-4.98 2.29 -4.71 172 175 167
-4.99 2.19 -4.70 172 175 167
-4.99 2.10 -4.69 172 175 167
-4.99 2.00 -4.69 172 175 167
-5.00 1.91 -4.68 172 175 167
-5.01 1.81 -4.68 172 175 167
-5.01 1.72 -4.67 169 175 166
-5.00 1.62 -4.68 169 175 166
-5.01 1.53 -4.67 169 174 168
-5.01 1.43 -4.68 169 174 168
-5.01 1.34 -4.68 169 174 168
-5.01 1.24 -4.68 169 174 168
-5.01 1.15 -4.68 169 174 168
-5.01 1.05 -4.68 169 174 168
-5.01 0.96 -4.68 169 174 168
-5.02 0.86 -4.67 169 174 168
-5.01 0.77 -4.67 169 174 168
-5.01 0.67 -4.67 169 174 168
-5.01 0.58 -4.67 169 174 168
-5.01 0.48 -4.67 169 174 168
-5.01 0.39 -4.67 169 174 168
-5.01 0.29 -4.67 169 174 168
-5.01 0.20 -4.67 170 175 169
-5.01 0.10 -4.67 170 175 169
-5.01 0.01 -4.67 170 175 169
-5.01 -0.08 -4.68 170 175 169
-5.01 -0.18 -4.68 170 175 169
-5.01 -0.27 -4.68 170 175 169
-5.00 -0.37 -4.69 170 175 169
-5.00 -0.46 -4.69 171 176 170
-4.99 -0.56 -4.70 171 176 170
-4.99 -0.65 -4.70 171 176 170
-4.99 -0.74 -4.70 171 176 170
-4.99 -0.84 -4.70 171 176 170
-4.98 -0.93 -4.71 171 176 170
-4.98 -1.03 -4.71 171 176 170
-4.99 -1.12 -4.70 170 177 170
-4.98 -1.22 -4.71 171 178 171
-4.98 -1.31 -4.71 171 178 171
-4.97 -1.41 -4.73 171 178 171
-4.97 -1.50 -4.73 171 178 171
-4.96 -1.59 -4.73 171 178 171
-4.96 -1.69 -4.74 171 178 171
-4.96 -1.78 -4.74 171 178 171
-4.95 -1.88 -4.75 171 178 171
-4.94 -1.97 -4.76 171 178 171
-4.93 -2.06 -4.77 173 180 173
-4.93 -2.16 -4.77 173 180 173
-4.93 -2.25 -4.77 173 180 173
-4.93 -2.35 -4.77 173 180 173
-4.92 -2.44 -4.78 173 180 173
-4.93 -2.54 -4.77 173 180 173
-4.93 -2.63 -4.77 173 180 173
-4.95 -2.73 -4.75 173 180 173
-4.94 -2.83 -4.75 173 180 175
-4.94 -2.92 -4.75 173 180 175
-4.95 -3.02 -4.75 173 180 175
-4.95 -3.11 -4.74 173 180 175
-4.96 -3.21 -4.73 173 180 175
-4.97 -3.30 -4.73 173 180 175
-4.97 -3.40 -4.72 173 180 175
-4.97 -3.49 -4.72 173 180 175
-4.97 -3.59 -4.72 174 181 176
-4.97 -3.68 -4.72 174 181 176
-4.97 -3.78 -4.72 174 181 176
-4.97 -3.87 -4.72 174 181 176
-4.97 -3.97 -4.72 174 181 176
-4.97 -4.06 -4.72 174 181 176
-4.97 -4.16 -4.72 174 181 176
-4.96 -4.25 -4.74 174 181 176
-4.95 -4.35 -4.74 175 182 177
-4.95 -4.44 -4.75 175 182 177
-4.95 -4.54 -4.75 175 182 177
-4.94 -4.63 -4.75 175 182 177
-4.94 -4.72 -4.76 175 182 177
-4.94 -4.82 -4.75 175 182 177
-4.94 -4.91 -4.76 175 182 177
-4.94 -5.01 -4.76 175 182 177
-4.93 -5.10 -4.77 175 182 177
-4.93 -5.20 -4.77 175 182 177
-4.92 -5.29 -4.78 175 182 177
-4.92 -5.39 -4.78 175 182 177
-4.92 -5.48 -4.78 175 182 177
-4.92 -5.58 -4.78 175 182 177
-4.92 -5.67 -4.78 175 182 177
-4.92 -5.77 -4.79 175 182 177
-4.92 -5.86 -4.78 177 184 182
-4.92 -5.96 -4.78 177 184 182
-4.92 -6.05 -4.78 177 184 182
-4.92 -6.15 -4.78 177 184 182
-4.92 -6.24 -4.78 177 184 182
-4.92 -6.34 -4.78 177 184 182
-4.92 -6.43 -4.78 177 184 182
-4.92 -6.53 -4.79 177 184 182
-4.91 -6.62 -4.79 178 185 183
-4.91 -6.72 -4.80 178 185 183
-4.91 -6.81 -4.80 178 185 183
-4.90 -6.91 -4.80 178 185 183
-4.90 -7.00 -4.81 178 185 183
-4.89 -7.10 -4.81 178 185 183
-4.89 -7.19 -4.81 178 185 183
-4.88 -7.29 -4.83 178 185 183
-4.88 -7.38 -4.83 179 184 180
-4.88 -7.48 -4.83 179 184 180
-4.86 -7.58 -4.85 179 184 180
-4.86 -7.67 -4.85 179 184 180
-4.85 -7.77 -4.86 179 184 180
-4.85 -7.86 -4.87 179 184 180
-4.85 -7.96 -4.87 179 184 180
-4.85 -8.05 -4.87 179 184 180
-4.84 -8.15 -4.87 181 186 182
-4.84 -8.24 -4.87 181 186 182
-4.83 -8.34 -4.88 181 186 182
-4.84 -8.43 -4.88 181 186 182
-4.84 -8.53 -4.88 181 186 182
-4.84 -8.62 -4.87 181 186 182
-4.83 -8.72 -4.88 181 186 182
-4.83 -8.81 -4.88 181 186 182
-4.83 -8.91 -4.89 183 190 188
-4.83 -9.00 -4.88 183 190 188
-4.84 -9.10 -4.88 183 190 188
-4.84 -9.19 -4.88 183 190 188
-4.84 -9.29 -4.87 183 190 188
-4.84 -9.39 -4.87 183 190 188
-4.85 -9.48 -4.87 183 190 188
-4.84 -9.58 -4.87 183 190 188
-4.84 -9.67 -4.88 182 189 187
-4.84 -9.77 -4.88 183 190 188
-4.84 -9.86 -4.88 183 190 188
-4.83 -9.96 -4.88 184 191 189
-4.83 -10.05 -4.89 184 191 189
-4.83 -10.15 -4.89 185 192 190
-4.83 -10.24 -4.89 185 192 190
-4.82 -10.34 -4.90 187 194 192
-4.83 -10.43 -4.89 187 194 189
-4.82 -10.53 -4.90 187 194 189
-4.83 -10.62 -4.89 187 194 189
-4.83 -10.72 -4.89 187 194 189
-4.83 -10.82 -4.89 187 194 189
-4.82 -10.91 -4.90 187 194 189
-4.82 -11.01 -4.90 187 194 189
-4.83 -11.10 -4.89 187 194 189
-4.82 -11.20 -4.90 187 194 189
-4.82 -11.29 -4.90 187 194 189
-4.81 -11.39 -4.91 187 194 189
-4.80 -11.49 -4.92 187 194 189
-4.80 -11.58 -4.93 187 194 189
-4.79 -11.68 -4.93 187 194 189
-4.78 -11.77 -4.94 187 194 189
-4.78 -11.87 -4.95 187 194 189
-4.77 -11.97 -4.96 187 194 192
-4.75 -12.06 -4.98 188 195 193
-4.75 -12.16 -4.98 188 195 193
-4.74 -12.26 -4.99 189 196 194
-4.74 -12.35 -5.00 189 196 194
-4.74 -12.45 -5.00 190 197 195
-4.74 -12.54 -4.99 190 197 195
-4.74 -12.64 -5.00 191 198 196
-4.73 -12.74 -5.01 192 199 197
-4.73 -12.83 -5.01 192 199 197
-4.72 -12.93 -5.02 192 199 197
-4.73 -13.02 -5.00 192 199 197
-4.73 -13.12 -5.01 192 199 197
-4.72 -13.22 -5.02 192 199 197
-4.73 -13.31 -5.01 192 199 197
-4.72 -13.41 -5.02 192 199 197
-4.72 -13.50 -5.02 194 201 199
-4.71 -13.60 -5.03 195 202 200
-4.70 -13.70 -5.04 195 202 200
-4.70 -13.79 -5.04 195 202 200
-4.70 -13.89 -5.04 195 202 200
-4.70 -13.98 -5.04 195 202 200
-4.70 -14.08 -5.04 195 202 200
-4.71 -14.17 -5.03 195 202 200
-4.71 -14.27 -5.03 195 202 200
-4.71 -14.36 -5.03 195 202 200
-4.72 -14.46 -5.01 195 202 200
-4.73 -14.55 -5.01 195 202 200
-4.73 -14.65 -5.01 195 202 200
-4.75 -14.74 -4.98 195 202 200
-4.75 -14.83 -4.98 195 202 200
-4.77 -14.93 -4.96 195 202 200
-4.79 -15.02 -4.94 198 201 193
-4.80 -15.11 -4.92 197 200 192
-4.82 -15.20 -4.90 199 204 200
-4.81 -15.30 -4.92 195 200 196
-4.83 -15.39 -4.89 194 204 212
-4.78 -15.49 -4.94 212 222 230
-4.99 -15.54 -4.70 192 203 230
-5.66 -15.48 -3.90 146 157 184
-6.12 -15.46 -3.36 69 79 126
-6.16 -15.54 -3.31 27 37 84
-6.18 -15.63 -3.29 6 12 70
-6.07 -15.75 -3.41 20 26 84
-6.13 -15.82 -3.34 29 31 87
-6.13 -15.92 -3.35 32 34 90
-6.19 -15.99 -3.27 36 37 87
-6.31 -16.06 -3.14 9 10 60
-6.64 -16.06 -2.74 18 15 0
-6.73 -16.13 -2.64 224 221 206
-6.63 -16.24 -2.75 255 237 180
-6.87 -16.27 -2.48 235 216 159
-6.98 -16.33 -2.34 245 210 145
-7.15 -16.37 -2.13 255 223 158
-7.18 -16.45 -2.11 223 186 131
-7.20 -16.54 -2.09 181 144 89
-7.20 -16.62 -2.08 179 149 103
-7.22 -16.71 -2.05 189 159 113
-7.25 -16.79 -2.02 169 143 104
-7.28 -16.87 -1.99 169 143 104
-7.31 -16.95 -1.95 223 201 152
-7.33 -17.03 -1.92 222 200 151
-7.36 -17.11 -1.89 215 195 145
-7.39 -17.19 -1.86 194 174 124
-7.40 -17.27 -1.84 178 171 112
-7.44 -17.35 -1.80 179 172 113
-7.46 -17.43 -1.78 175 168 111
-7.49 -17.51 -1.74 175 168 111
-7.53 -17.58 -1.69 155 150 95
-7.57 -17.66 -1.65 142 137 82
-7.62 -17.73 -1.59 130 127 72
-7.66 -17.81 -1.53 151 148 93
-7.73 -17.87 -1.46 182 179 124
-7.77 -17.95 -1.40 208 205 150
-7.84 -18.01 -1.32 213 207 159
-7.91 -18.07 -1.24 226 220 172
-7.99 -18.14 -1.15 205 195 157
-8.04 -18.20 -1.08 177 167 129
-8.10 -18.27 -1.02 165 153 123
-8.14 -18.34 -0.96 147 135 105
-8.19 -18.41 -0.91 143 139 93
-8.24 -18.48 -0.85 130 126 80
-8.29 -18.55 -0.79 100 89 43
-8.32 -18.62 -0.75 112 101 55
-8.36 -18.69 -0.70 136 113 71
-8.40 -18.77 -0.66 163 140 98
-8.43 -18.84 -0.63 158 124 92
-8.47 -18.91 -0.58 162 128 96
-8.50 -18.99 -0.54 158 122 91
-8.53 -19.06 -0.50 149 113 82
-8.57 -19.13 -0.46 183 151 119
-8.59 -19.21 -0.43 150 118 86
-8.61 -19.28 -0.41 123 96 80
-8.59 -19.38 -0.43 208 181 165
-8.35 -19.55 -0.72 78 52 56
-8.00 -19.78 -1.13 21 0 0
-7.98 -19.87 -1.16 21 23 20
-7.98 -19.96 -1.16 30 32 29
-7.95 -20.06 -1.19 36 38 35
-7.95 -20.14 -1.19 46 48 45
-7.92 -20.24 -1.23 53 55 52
-7.94 -20.32 -1.21 53 55 52
-7.94 -20.41 -1.20 48 50 47
-7.94 -20.50 -1.21 36 38 35
-7.96 -20.57 -1.18 35 37 34
-7.93 -20.67 -1.22 56 58 55
-7.93 -20.76 -1.21 88 90 87
-7.64 -20.97 -1.56 130 132 129
-7.23 -21.23 -2.05 176 178 175
-6.56 -21.61 -2.84 208 210 207
-6.12 -21.88 -3.36 229 231 228
-5.69 -22.16 -3.87 244 246 243
-5.56 -22.31 -4.03 236 238 235
-5.49 -22.44 -4.11 232 234 231
-5.49 -22.53 -4.10 228 230 227
-5.60 -22.57 -3.97 225 227 224
-5.61 -22.66 -3.97 225 227 224
-5.66 -22.74 -3.91 223 225 222
-5.69 -22.82 -3.87 220 222 219
-5.69 -22.91 -3.87 222 224 221
-5.71 -22.99 -3.85 225 227 224
-5.71 -23.08 -3.85 225 227 224
-5.70 -23.18 -3.86 225 227 224
-5.71 -23.27 -3.85 225 227 224
-5.71 -23.36 -3.84 225 227 224
-5.71 -23.46 -3.85 225 227 224
-5.69 -23.56 -3.87 225 227 224
-5.67 -23.66 -3.89 225 227 224
-5.67 -23.75 -3.89 226 228 225
-5.67 -23.85 -3.90 226 228 225
-5.67 -23.94 -3.90 226 228 225
-5.66 -24.03 -3.90 226 228 225
-5.66 -24.13 -3.91 226 228 225
-5.66 -24.22 -3.91 226 228 225
-5.65 -24.32 -3.91 226 228 225
-5.64 -24.42 -3.92 226 228 225
-5.64 -24.51 -3.93 227 229 226
-5.64 -24.60 -3.93 227 229 226
-5.63 -24.70 -3.94 227 229 226
-5.64 -24.79 -3.93 227 229 226
-5.64 -24.88 -3.93 227 229 226
-5.65 -24.97 -3.92 227 229 226
-5.64 -25.07 -3.92 227 229 226
-5.64 -25.16 -3.92 227 229 226
-5.65 -25.25 -3.92 227 229 226
-5.64 -25.35 -3.93 227 229 226
-5.64 -25.44 -3.93 227 229 226
-5.64 -25.54 -3.93 227 229 226
-5.64 -25.63 -3.93 227 229 226
-5.64 -25.72 -3.93 227 229 226
-5.64 -25.82 -3.93 227 229 226
-5.64 -25.91 -3.93 227 229 226
-5.64 -26.00 -3.93 227 229 226
-5.64 -26.09 -3.93 227 229 226
-5.64 -26.19 -3.93 227 229 226
-5.65 -26.28 -3.92 227 229 226
-5.66 -26.36 -3.90 227 229 226
-5.66 -26.46 -3.91 227 229 226
-5.67 -26.54 -3.89 227 229 226
-5.67 -26.63 -3.89 227 229 226
-5.68 -26.72 -3.88 228 230 227
-5.68 -26.81 -3.88 228 230 227
-5.69 -26.91 -3.87 228 230 227
-5.69 -27.00 -3.87 228 230 227
-5.69 -27.09 -3.87 228 230 227
-5.69 -27.18 -3.87 228 230 227
-5.69 -27.27 -3.87 228 230 227
-5.69 -27.37 -3.87 228 230 227
-5.69 -27.46 -3.87 228 230 227
-5.69 -27.55 -3.87 228 230 227
-5.69 -27.65 -3.87 228 230 227
-5.68 -27.74 -3.88 228 230 227
-5.68 -27.84 -3.88 228 230 227
-5.68 -27.93 -3.88 228 230 227
-5.68 -28.02 -3.88 228 230 227
-5.68 -28.12 -3.88 228 230 227
-5.68 -28.21 -3.88 227 229 226
-5.68 -28.30 -3.88 227 229 226
-5.69 -28.39 -3.87 227 229 226
-5.69 -28.49 -3.87 227 229 226
-5.69 -28.58 -3.87 227 229 226
-5.70 -28.67 -3.86 227 229 226
-5.70 -28.76 -3.86 227 229 226
-5.70 -28.85 -3.85 227 229 226
-5.71 -28.94 -3.85 229 231 228
-5.71 -29.03 -3.84 229 231 228
-5.72 -29.11 -3.83 229 231 228
-5.72 -29.21 -3.83 229 231 228
-5.73 -29.29 -3.82 229 231 228
-5.75 -29.38 -3.80 229 231 228
-5.75 -29.47 -3.80 229 231 228
-5.76 -29.55 -3.78 229 231 228
-5.77 -29.64 -3.78 229 231 228
-5.78 -29.73 -3.76 229 231 228
-5.78 -29.82 -3.76 229 231 228
-5.79 -29.90 -3.75 229 231 228
-5.79 -29.99 -3.75 229 231 228
-5.80 -30.08 -3.74 229 231 228
-5.80 -30.18 -3.74 229 231 228
-5.81 -30.26 -3.73 229 231 228
-5.81 -30.35 -3.72 230 232 229
-5.81 -30.44 -3.72 230 232 229
-5.82 -30.53 -3.71 230 232 229
-5.81 -30.63 -3.72 230 232 229
-5.83 -30.71 -3.71 230 232 229
-5.83 -30.80 -3.70 230 232 229
-5.84 -30.89 -3.69 230 232 229
-5.84 -30.98 -3.69 230 232 229
-5.84 -31.07 -3.69 235 233 231
-5.85 -31.16 -3.68 235 233 231
-5.85 -31.25 -3.68 235 233 231
-5.86 -31.34 -3.67 235 233 231
-5.86 -31.43 -3.67 235 233 231
-5.86 -31.52 -3.67 235 233 231
-5.86 -31.62 -3.67 235 233 231
-5.85 -31.71 -3.68 235 233 231
-5.85 -31.80 -3.68 236 234 232
-5.85 -31.90 -3.68 236 234 232
-5.85 -31.99 -3.68 236 234 232
-5.85 -32.08 -3.68 236 234 232
-5.85 -32.18 -3.68 236 234 232
-5.85 -32.27 -3.68 236 234 232
-5.85 -32.36 -3.68 236 234 232
-5.86 -32.45 -3.67 236 234 232
-5.86 -32.54 -3.67 236 236 233
-5.86 -32.63 -3.66 237 237 234
-5.87 -32.72 -3.65 237 237 234
-5.87 -32.81 -3.65 238 238 235
-5.88 -32.90 -3.65 238 238 235
-5.88 -32.99 -3.65 239 239 236
-5.88 -33.08 -3.64 239 239 236
-5.89 -33.17 -3.64 239 239 236
-5.89 -33.26 -3.63 242 242 239
-5.89 -33.35 -3.64 242 242 239
-5.89 -33.44 -3.63 242 242 239
-5.89 -33.53 -3.63 242 242 239
-5.89 -33.63 -3.64 242 242 239
-5.90 -33.71 -3.62 242 242 239
-5.89 -33.81 -3.64 242 242 239
-5.89 -33.90 -3.63 242 242 239
-5.90 -33.99 -3.62 241 243 240
-5.90 -34.08 -3.62 241 243 240
-5.90 -34.17 -3.62 241 243 240
-5.90 -34.26 -3.62 241 243 240
-5.91 -34.35 -3.61 241 243 240
-5.91 -34.44 -3.61 241 243 240
-5.92 -34.53 -3.60 241 243 240
-5.91 -34.62 -3.61 241 243 240
-5.91 -34.72 -3.61 241 243 240
-5.92 -34.80 -3.60 241 243 240
-5.92 -34.90 -3.60 241 243 240
-5.94 -34.98 -3.58 241 243 240
-5.94 -35.06 -3.57 241 243 240
-5.95 -35.15 -3.56 241 243 240
-5.96 -35.23 -3.55 241 243 240
-5.99 -35.30 -3.52 241 243 240
-6.00 -35.39 -3.51 242 242 239
-6.05 -35.44 -3.45 242 242 239
-6.06 -35.52 -3.43 243 241 239
-6.02 -35.64 -3.47 243 241 239
-6.07 -35.70 -3.42 242 237 236
-5.95 -35.89 -3.56 246 241 240
-6.56 -35.46 -2.84 245 240 239
-5.78 22.32 -3.90 142 133 125
-5.74 22.26 -3.95 142 133 125
-5.75 22.16 -3.93 142 133 125
-5.74 22.07 -3.94 142 133 125
-5.74 21.98 -3.94 142 133 125
-5.75 21.88 -3.94 142 133 125
-5.71 21.82 -3.98 142 133 125
-5.72 21.72 -3.97 142 133 125
-5.72 21.63 -3.97 142 133 125
-5.71 21.54 -3.98 143 134 126
-5.70 21.45 -3.99 143 134 126
-5.70 21.36 -3.99 143 134 126
-5.70 21.27 -3.99 143 134 126
-5.70 21.18 -3.99 143 134 126
-5.70 21.08 -3.99 143 134 126
-5.70 20.99 -3.99 143 134 126
-5.70 20.90 -3.99 143 137 128
-5.70 20.81 -4.00 143 137 128
-5.70 20.72 -4.00 143 137 128
-5.68 20.64 -4.01 143 137 128
-5.68 20.54 -4.01 143 137 128
-5.67 20.46 -4.03 143 137 128
-5.67 20.36 -4.03 143 137 128
-5.65 20.29 -4.05 144 138 129
-5.65 20.20 -4.06 146 140 131
-5.63 20.11 -4.07 146 140 131
-5.63 20.03 -4.08 146 140 131
-5.61 19.95 -4.09 146 140 131
-5.61 19.85 -4.09 146 140 131
-5.60 19.77 -4.11 146 140 131
-5.60 19.68 -4.11 145 141 131
-5.60 19.59 -4.12 146 142 132
-5.58 19.51 -4.14 147 141 132
-5.57 19.42 -4.14 148 142 133
-5.57 19.33 -4.15 148 142 133
-5.56 19.24 -4.16 148 142 133
-5.56 19.15 -4.16 148 142 133
-5.55 19.06 -4.18 148 142 133
-5.55 18.97 -4.18 148 142 133
-5.54 18.88 -4.18 148 142 133
-5.53 18.79 -4.19 148 142 133
-5.53 18.70 -4.19 148 142 133
-5.52 18.62 -4.21 148 142 133
-5.52 18.52 -4.20 148 142 133
-5.51 18.44 -4.21 148 142 133
-5.51 18.35 -4.22 148 142 133
-5.50 18.26 -4.23 148 142 133
-5.49 18.17 -4.24 148 142 133
-5.48 18.08 -4.25 150 144 137
-5.48 18.00 -4.26 150 144 137
-5.47 17.90 -4.26 150 144 137
-5.47 17.81 -4.26 150 144 137
-5.46 17.73 -4.28 150 144 137
-5.46 17.63 -4.28 150 144 137
-5.45 17.55 -4.29 150 144 137
-5.44 17.46 -4.30 150 144 137
-5.43 17.37 -4.31 153 147 140
-5.43 17.28 -4.32 153 147 140
-5.42 17.19 -4.32 153 147 140
-5.41 17.10 -4.33 153 147 140
-5.41 17.01 -4.34 153 147 140
-5.41 16.92 -4.34 153 147 140
-5.40 16.83 -4.34 153 147 140
-5.41 16.73 -4.34 153 147 140
-5.41 16.64 -4.34 153 149 141
-5.41 16.54 -4.34 153 149 141
-5.41 16.45 -4.34 153 149 141
-5.40 16.36 -4.35 153 149 141
-5.40 16.27 -4.35 153 149 141
-5.40 16.18 -4.35 153 149 141
-5.39 16.09 -4.36 153 149 141
-5.40 15.99 -4.35 153 149 141
-5.40 15.90 -4.35 154 150 142
-5.39 15.81 -4.36 154 150 142
-5.38 15.72 -4.37 154 150 142
-5.39 15.62 -4.36 154 150 142
-5.38 15.53 -4.37 154 150 142
-5.38 15.44 -4.38 154 150 142
-5.38 15.35 -4.38 154 150 142
-5.36 15.26 -4.39 154 150 142
-5.36 15.17 -4.40 153 149 143
-5.35 15.08 -4.41 152 148 142
-5.34 14.99 -4.42 152 148 142
-5.34 14.90 -4.42 150 146 140
-5.33 14.81 -4.43 149 145 139
-5.33 14.72 -4.44 148 144 138
-5.33 14.63 -4.44 147 143 137
-5.33 14.53 -4.43 147 143 137
-5.33 14.44 -4.43 145 141 135
-5.33 14.34 -4.43 145 141 135
-5.33 14.24 -4.43 145 141 135
-5.34 14.15 -4.42 145 141 135
-5.34 14.05 -4.42 145 141 135
-5.33 13.96 -4.43 145 141 135
-5.34 13.86 -4.42 145 141 135
-5.33 13.77 -4.43 145 141 135
-5.33 13.68 -4.44 141 140 131
-5.33 13.59 -4.43 141 140 131
-5.32 13.50 -4.44 141 140 131
-5.33 13.40 -4.43 143 142 133
-5.32 13.31 -4.44 143 142 133
-5.32 13.22 -4.44 144 143 134
-5.31 13.13 -4.45 144 143 134
-5.31 13.03 -4.45 144 143 134
-5.31 12.94 -4.46 143 142 133
-5.31 12.85 -4.46 143 142 133
-5.31 12.76 -4.46 144 143 134
-5.31 12.66 -4.46 145 144 135
-5.31 12.57 -4.46 146 145 136
-5.31 12.47 -4.46 147 146 137
-5.30 12.38 -4.46 150 149 142
-5.30 12.29 -4.47 148 147 140
-5.30 12.20 -4.47 148 147 140
-5.29 12.11 -4.48 152 151 144
-5.29 12.01 -4.48 154 153 146
-5.28 11.92 -4.49 157 156 149
-5.28 11.83 -4.50 158 157 150
-5.28 11.74 -4.49 158 157 150
-5.28 11.64 -4.50 161 157 151
-5.28 11.55 -4.50 162 158 152
-5.28 11.45 -4.50 164 160 154
-5.27 11.36 -4.50 164 160 154
-5.27 11.27 -4.50 164 160 154
-5.27 11.18 -4.50 164 160 154
-5.26 11.09 -4.52 164 160 152
-5.27 10.99 -4.50 166 162 154
-5.25 10.90 -4.52 166 162 154
-5.26 10.81 -4.52 164 160 152
-5.26 10.71 -4.52 168 164 156
-5.25 10.62 -4.53 168 164 156
-5.25 10.53 -4.53 168 164 156
-5.24 10.44 -4.54 168 164 156
-5.23 10.35 -4.55 166 165 156
-5.23 10.25 -4.55 166 165 156
-5.23 10.16 -4.55 166 165 156
-5.22 10.07 -4.56 166 165 156
-5.22 9.98 -4.56 166 165 156
-5.21 9.88 -4.57 166 165 156
-5.21 9.79 -4.57 166 165 156
-5.21 9.70 -4.57 166 165 156
-5.21 9.60 -4.57 167 166 157
-5.21 9.51 -4.57 167 166 157
-5.21 9.41 -4.57 168 167 158
-5.21 9.32 -4.57 168 167 158
-5.21 9.22 -4.57 168 169 159
-5.21 9.13 -4.57 168 169 159
-5.21 9.04 -4.57 168 169 159
-5.21 8.94 -4.57 168 169 159
-5.21 8.85 -4.57 168 169 159
-5.20 8.76 -4.58 168 169 159
-5.21 8.66 -4.57 168 169 159
-5.21 8.56 -4.57 170 171 161
-5.20 8.47 -4.58 170 171 161
-5.21 8.38 -4.58 170 171 161
-5.20 8.29 -4.58 170 171 161
-5.20 8.19 -4.58 170 171 161
-5.21 8.09 -4.58 170 171 161
-5.21 8.00 -4.58 170 171 161
-5.20 7.91 -4.59 170 171 161
-5.20 7.82 -4.59 171 172 162
-5.20 7.72 -4.59 171 172 162
-5.19 7.63 -4.59 171 172 162
-5.20 7.53 -4.59 171 172 162
-5.19 7.44 -4.60 171 172 162
-5.18 7.35 -4.61 171 172 162
-5.18 7.26 -4.61 171 172 162
-5.17 7.17 -4.62 172 173 163
-5.18 7.07 -4.61 172 173 163
-5.17 6.98 -4.62 172 173 163
-5.17 6.88 -4.62 172 173 163
-5.16 6.79 -4.63 172 173 163
-5.16 6.70 -4.63 172 173 163
-5.16 6.60 -4.63 172 173 165
-5.15 6.51 -4.64 172 173 165
-5.15 6.42 -4.64 172 172 167
-5.14 6.33 -4.65 172 172 167
-5.14 6.23 -4.65 172 172 167
-5.15 6.13 -4.65 172 172 167
-5.14 6.04 -4.65 172 172 167
-5.14 5.95 -4.65 172 172 167
-5.15 5.85 -4.65 172 172 167
-5.14 5.76 -4.65 172 172 167
-5.15 5.66 -4.65 172 172 167
-5.15 5.57 -4.65 172 172 167
-5.15 5.47 -4.64 172 172 167
-5.15 5.38 -4.64 172 172 167
-5.17 5.28 -4.63 172 172 167
-5.16 5.19 -4.64 172 172 167
-5.15 5.09 -4.64 172 172 167
-5.15 5.00 -4.64 172 172 167
-5.15 4.90 -4.64 172 172 167
-5.16 4.81 -4.63 173 173 168
-5.15 4.72 -4.64 173 173 168
-5.14 4.62 -4.65 173 173 168
-5.14 4.53 -4.65 173 173 168
-5.14 4.43 -4.65 173 173 168
-5.14 4.34 -4.65 173 173 168
-5.14 4.25 -4.65 173 173 168
-5.14 4.15 -4.66 173 173 168
-5.14 4.06 -4.66 173 173 168
-5.14 3.96 -4.66 173 173 168
-5.13 3.87 -4.67 173 173 168
-5.13 3.78 -4.67 173 173 168
-5.13 3.68 -4.67 173 173 168
-5.13 3.59 -4.67 173 173 168
-5.13 3.49 -4.67 173 173 168
-5.13 3.40 -4.67 171 174 166
-5.13 3.30 -4.67 171 174 166
-5.13 3.21 -4.67 171 174 166
-5.14 3.11 -4.66 171 174 166
-5.14 3.02 -4.66 171 174 166
-5.14 2.92 -4.66 171 174 166
-5.14 2.83 -4.66 171 174 166
-5.14 2.73 -4.65 171 174 166
-5.14 2.64 -4.65 171 174 166
-5.14 2.54 -4.66 171 174 166
-5.14 2.45 -4.66 171 174 166
-5.14 2.36 -4.66 171 174 166
-5.14 2.26 -4.66 171 174 166
-5.14 2.17 -4.66 171 174 166
-5.14 2.07 -4.65 171 174 166
-5.14 1.98 -4.65 171 174 166
-5.16 1.88 -4.64 171 174 166
-5.16 1.78 -4.64 171 174 166
-5.16 1.69 -4.64 169 175 166
-5.16 1.59 -4.63 169 175 166
-5.16 1.50 -4.63 169 174 168
-5.15 1.41 -4.64 169 174 168
-5.15 1.31 -4.64 169 174 168
-5.15 1.22 -4.64 169 174 168
-5.15 1.12 -4.64 169 174 168
-5.16 1.03 -4.63 169 174 168
-5.16 0.93 -4.63 169 174 168
-5.16 0.84 -4.63 169 174 168
-5.16 0.74 -4.63 169 174 168
-5.16 0.65 -4.63 169 174 168
-5.17 0.55 -4.62 169 174 168
-5.17 0.46 -4.62 169 174 168
-5.17 0.36 -4.62 169 174 168
-5.17 0.27 -4.62 169 174 168
-5.17 0.17 -4.62 170 175 169
-5.16 0.08 -4.63 170 175 169
-5.17 -0.02 -4.62 170 175 169
-5.16 -0.11 -4.63 170 175 169
-5.16 -0.20 -4.64 170 175 169
-5.16 -0.30 -4.64 170 175 169
-5.15 -0.39 -4.65 170 175 169
-5.15 -0.48 -4.65 171 176 170
-5.14 -0.58 -4.66 171 176 170
-5.13 -0.67 -4.67 171 176 170
-5.13 -0.76 -4.67 171 176 170
-5.13 -0.86 -4.67 171 176 170
-5.14 -0.95 -4.66 171 176 170
-5.14 -1.05 -4.66 171 176 170
-5.14 -1.14 -4.66 170 177 170
-5.13 -1.24 -4.67 171 178 171
-5.13 -1.33 -4.67 171 178 171
-5.12 -1.42 -4.68 171 178 171
-5.12 -1.52 -4.68 171 178 171
-5.11 -1.61 -4.69 171 178 171
-5.10 -1.70 -4.70 171 178 171
-5.10 -1.80 -4.71 171 178 171
-5.09 -1.89 -4.72 171 178 171
-5.08 -1.99 -4.73 171 178 171
-5.07 -2.08 -4.74 173 180 173
-5.08 -2.17 -4.73 173 180 173
-5.07 -2.27 -4.74 173 180 173
-5.08 -2.36 -4.73 173 180 173
-5.08 -2.46 -4.73 173 180 173
-5.09 -2.56 -4.71 173 180 173
-5.08 -2.65 -4.73 173 180 173
-5.10 -2.75 -4.71 173 180 173
-5.10 -2.84 -4.70 173 180 175
-5.11 -2.94 -4.70 173 180 175
-5.11 -3.03 -4.69 173 180 175
-5.10 -3.12 -4.70 173 180 175
-5.10 -3.22 -4.70 173 180 175
-5.11 -3.31 -4.69 173 180 175
-5.11 -3.41 -4.69 173 180 175
-5.11 -3.50 -4.69 173 180 175
