ply
format ascii 1.0
element vertex 1681
property float x
property float y
property float z
property uchar red
property uchar green
property uchar blue
end_header
6.19 12.85 -1.43 158 159 153
6.44 12.86 -1.63 157 158 152
6.44 12.75 -1.63 157 158 150
6.19 12.54 -1.43 157 158 150
6.19 12.44 -1.43 158 160 149
6.19 12.34 -1.43 158 160 149
5.98 12.15 -1.25 157 159 148
6.19 12.14 -1.43 157 159 148
6.19 12.04 -1.43 155 158 147
6.19 11.93 -1.43 155 158 147
6.19 11.83 -1.43 155 158 147
6.19 11.73 -1.43 155 158 147
6.19 11.63 -1.43 155 158 147
6.19 11.53 -1.43 155 158 147
6.19 11.42 -1.43 156 158 147
6.19 11.32 -1.43 156 158 147
6.19 11.22 -1.43 156 158 147
6.19 11.12 -1.43 156 158 147
6.19 11.02 -1.43 156 158 145
6.19 10.91 -1.43 156 158 145
6.19 10.81 -1.43 157 157 145
6.19 10.71 -1.43 156 156 144
6.19 10.61 -1.43 155 155 143
6.19 10.51 -1.43 154 154 142
6.19 10.41 -1.43 152 154 140
6.19 10.30 -1.43 153 155 142
6.19 10.20 -1.43 154 155 147
6.19 10.10 -1.43 154 155 149
6.19 10.00 -1.43 153 154 149
6.19 9.90 -1.43 153 152 147
6.19 9.79 -1.43 153 152 147
1.57 7.97 2.39 153 155 144
1.57 7.88 2.39 154 157 148
1.57 7.79 2.39 132 142 131
1.57 7.70 2.39 140 155 148
1.57 7.61 2.39 184 207 201
1.57 7.52 2.39 169 197 198
1.40 7.37 2.52 169 204 206
1.40 7.27 2.52 165 200 206
1.57 7.24 2.39 197 228 231
1.57 7.15 2.39 190 219 223
1.40 7.00 2.52 192 220 221
1.40 6.91 2.52 190 216 215
1.40 6.82 2.52 186 212 209
1.40 6.73 2.52 177 198 193
1.40 6.63 2.52 204 222 210
1.57 6.60 2.39 247 255 242
1.57 6.51 2.39 250 255 237
1.57 6.42 2.39 186 185 154
1.76 6.39 2.23 214 212 174
1.76 6.30 2.23 228 227 183
1.95 5.90 2.07 210 211 154
1.95 5.80 2.07 211 212 152
1.95 5.71 2.07 212 213 153
1.95 5.62 2.07 218 220 155
1.95 5.53 2.07 215 217 152
1.95 5.43 2.07 214 216 153
1.95 5.34 2.07 211 213 150
1.95 5.25 2.07 215 216 156
1.95 5.16 2.07 214 215 155
1.95 5.06 2.07 213 214 154
1.95 4.97 2.07 212 213 153
1.95 4.88 2.07 210 212 147
1.95 4.79 2.07 208 210 145
1.76 4.64 2.23 206 209 140
1.76 4.55 2.23 204 207 140
1.76 4.45 2.23 195 202 135
1.76 4.36 2.23 187 193 131
1.76 4.27 2.23 179 185 125
1.76 4.18 2.23 185 188 133
1.76 4.09 2.23 210 213 160
1.76 3.99 2.23 222 222 170
1.76 3.90 2.23 215 215 161
1.76 3.81 2.23 210 211 154
1.76 3.72 2.23 213 214 154
1.76 3.63 2.23 214 214 152
1.76 3.53 2.23 215 215 151
1.76 3.44 2.23 208 207 140
1.76 3.35 2.23 204 203 136
1.76 3.26 2.23 211 210 143
1.76 3.17 2.23 210 207 140
1.57 3.02 2.39 206 201 137
1.57 2.93 2.39 205 201 137
1.57 2.84 2.39 197 200 129
1.57 2.75 2.39 190 193 122
1.57 2.66 2.39 192 189 120
1.40 2.53 2.52 196 191 125
1.40 2.44 2.52 199 200 132
1.40 2.34 2.52 203 205 142
1.40 2.25 2.52 197 200 145
1.40 2.16 2.52 220 223 178
1.57 2.11 2.39 229 233 200
1.57 2.02 2.39 215 229 204
1.57 1.92 2.39 174 216 204
1.57 1.83 2.39 172 219 213
1.57 1.74 2.39 170 220 219
1.57 1.65 2.39 166 217 218
1.76 1.60 2.23 160 214 216
1.76 1.51 2.23 164 218 220
1.76 1.42 2.23 170 224 226
1.76 1.32 2.23 170 223 227
1.95 1.27 2.07 171 224 228
1.95 1.18 2.07 173 226 232
1.95 1.09 2.07 172 225 231
2.12 1.03 1.94 169 224 229
2.12 0.93 1.94 170 225 230
2.12 0.84 1.94 168 225 232
2.12 0.75 1.94 166 223 230
2.12 0.66 1.94 165 222 229
2.12 0.56 1.94 165 222 229
2.12 0.47 1.94 164 221 230
2.12 0.38 1.94 163 220 229
2.12 0.28 1.94 159 220 225
2.12 0.19 1.94 159 220 225
2.12 0.10 1.94 157 220 227
2.12 0.01 1.94 158 221 228
2.12 -0.09 1.94 157 220 229
2.12 -0.18 1.94 156 219 228
2.12 -0.27 1.94 156 219 228
2.12 -0.37 1.94 158 221 230
2.12 -0.46 1.94 157 220 229
2.12 -0.55 1.94 155 218 227
2.12 -0.64 1.94 155 218 227
2.12 -0.74 1.94 158 218 228
2.12 -0.83 1.94 159 219 229
2.12 -0.92 1.94 159 219 227
2.12 -1.02 1.94 159 219 227
2.12 -1.11 1.94 156 219 224
2.12 -1.20 1.94 156 219 224
2.12 -1.29 1.94 156 219 224
2.12 -1.39 1.94 155 218 223
2.12 -1.48 1.94 155 218 223
2.12 -1.57 1.94 156 219 224
2.12 -1.67 1.94 157 217 225
2.12 -1.76 1.94 155 215 223
2.12 -1.85 1.94 155 215 223
2.12 -1.95 1.94 155 215 223
2.12 -2.04 1.94 156 216 226
2.12 -2.13 1.94 158 218 228
2.12 -2.22 1.94 157 217 227
2.12 -2.32 1.94 156 216 226
2.12 -2.41 1.94 157 217 227
2.12 -2.50 1.94 156 215 223
2.12 -2.60 1.94 156 215 223
1.95 -2.71 2.07 157 215 226
1.95 -2.80 2.07 158 216 227
1.95 -2.89 2.07 158 216 227
1.95 -2.98 2.07 158 216 227
1.95 -3.08 2.07 157 217 227
1.95 -3.17 2.07 156 216 226
1.95 -3.26 2.07 154 214 225
1.95 -3.35 2.07 155 215 226
1.95 -3.45 2.07 157 217 228
1.95 -3.54 2.07 157 217 228
1.95 -3.63 2.07 156 215 229
1.95 -3.72 2.07 155 214 228
1.95 -3.82 2.07 152 214 227
1.95 -3.91 2.07 152 214 227
1.95 -4.00 2.07 155 214 228
1.95 -4.09 2.07 154 213 227
1.95 -4.19 2.07 150 212 223
1.95 -4.28 2.07 149 211 222
1.95 -4.37 2.07 148 212 222
1.95 -4.46 2.07 147 211 221
1.95 -4.56 2.07 144 210 222
1.95 -4.65 2.07 138 206 217
1.95 -4.74 2.07 136 204 217
1.95 -4.83 2.07 130 202 214
1.95 -4.93 2.07 127 199 213
1.95 -5.02 2.07 123 195 210
1.95 -5.11 2.07 120 192 207
1.76 -5.21 2.23 115 188 205
1.76 -5.31 2.23 114 185 203
1.76 -5.40 2.23 116 187 205
1.76 -5.49 2.23 98 164 180
1.76 -5.58 2.23 166 228 239
1.57 -5.68 2.39 219 255 255
1.57 -5.77 2.39 212 241 245
1.57 -5.87 2.39 226 244 246
1.57 -5.96 2.39 229 245 242
1.40 -6.05 2.52 236 248 244
1.40 -6.15 2.52 234 246 244
1.40 -6.24 2.52 234 243 242
1.40 -6.33 2.52 236 241 244
1.40 -6.42 2.52 236 244 246
1.40 -6.51 2.52 243 255 255
1.40 -6.60 2.52 148 163 160
5.98 -7.02 -1.25 178 190 186
5.76 -7.12 -1.07 179 191 187
5.76 -7.22 -1.07 180 192 188
5.76 -7.33 -1.07 181 193 189
5.76 -7.43 -1.07 181 193 189
5.76 -7.53 -1.07 182 194 190
5.76 -7.63 -1.07 181 193 189
5.76 -7.73 -1.07 181 193 189
5.76 -7.83 -1.07 181 193 189
5.76 -7.93 -1.07 182 194 190
5.98 -8.04 -1.25 183 195 191
5.98 -8.14 -1.25 184 196 192
5.98 -8.24 -1.25 184 196 192
5.76 -8.34 -1.07 181 196 191
5.76 -8.44 -1.07 182 197 192
5.76 -8.54 -1.07 183 198 193
5.76 -8.64 -1.07 183 198 193
5.76 -8.74 -1.07 182 197 192
5.76 -8.84 -1.07 180 195 190
5.76 -8.94 -1.07 181 193 189
5.76 -9.04 -1.07 180 192 188
5.76 -9.14 -1.07 183 194 190
5.76 -9.24 -1.07 184 195 189
5.76 -9.34 -1.07 184 195 189
5.76 -9.45 -1.07 185 196 190
5.76 -9.55 -1.07 184 195 189
5.76 -9.65 -1.07 185 194 189
5.76 -9.75 -1.07 185 194 189
5.76 -9.85 -1.07 185 194 189
5.76 -9.95 -1.07 186 195 190
5.76 -10.05 -1.07 187 196 191
5.76 -10.15 -1.07 187 196 191
5.76 -10.25 -1.07 188 197 192
5.76 -10.35 -1.07 187 196 191
5.76 -10.45 -1.07 187 196 191
5.76 -10.56 -1.07 186 195 190
5.76 -10.66 -1.07 187 196 193
5.76 -10.76 -1.07 188 197 194
5.76 -10.86 -1.07 189 198 195
5.76 -10.96 -1.07 189 198 195
5.76 -11.06 -1.07 189 198 195
5.76 -11.16 -1.07 189 198 195
5.76 -11.26 -1.07 189 198 195
5.76 -11.36 -1.07 189 198 195
5.76 -11.46 -1.07 190 199 196
5.76 -11.56 -1.07 190 199 196
5.76 -11.67 -1.07 189 198 195
5.76 -11.77 -1.07 189 198 195
5.76 -11.87 -1.07 188 197 194
5.76 -11.97 -1.07 188 197 194
5.76 -12.07 -1.07 188 197 194
5.76 -12.17 -1.07 188 197 194
5.76 -12.27 -1.07 189 198 195
5.76 -12.37 -1.07 189 198 195
5.76 -12.47 -1.07 190 199 196
5.76 -12.57 -1.07 190 199 196
5.76 -12.67 -1.07 190 199 196
5.76 -12.78 -1.07 190 199 196
5.76 -12.88 -1.07 190 199 196
5.76 -12.98 -1.07 190 199 196
5.76 -13.08 -1.07 190 199 196
5.76 -13.18 -1.07 190 199 196
5.76 -13.28 -1.07 191 200 197
5.76 -13.38 -1.07 191 200 197
5.76 -13.48 -1.07 192 201 198
5.76 -13.58 -1.07 192 201 198
5.76 -13.68 -1.07 191 200 197
5.76 -13.79 -1.07 191 200 197
5.76 -13.89 -1.07 190 199 196
5.76 -13.99 -1.07 190 199 196
5.76 -14.09 -1.07 192 201 198
5.76 -14.19 -1.07 191 200 197
5.76 -14.29 -1.07 192 201 198
5.76 -14.39 -1.07 195 204 199
5.76 -14.49 -1.07 193 203 195
5.76 -14.59 -1.07 193 203 194
5.76 -14.69 -1.07 193 203 194
5.76 -14.79 -1.07 194 204 195
5.76 -14.90 -1.07 194 204 196
5.54 -14.96 -0.89 195 205 197
5.76 -15.50 -1.07 198 207 202
5.76 -15.60 -1.07 199 208 203
5.76 -15.70 -1.07 200 209 204
5.54 -15.76 -0.89 201 210 205
5.54 -15.86 -0.89 201 210 207
5.54 -15.96 -0.89 201 210 207
5.54 -16.06 -0.89 201 212 208
5.54 -16.17 -0.89 201 212 208
5.54 -16.27 -0.89 204 213 210
5.54 -16.37 -0.89 205 214 211
5.54 -16.47 -0.89 206 215 212
5.54 -16.57 -0.89 205 214 211
5.54 -16.67 -0.89 205 214 211
5.54 -16.77 -0.89 207 216 213
5.54 -16.87 -0.89 206 215 212
5.32 -16.92 -0.71 208 214 212
5.32 -17.02 -0.71 210 216 214
5.32 -17.12 -0.71 214 220 218
5.32 -17.22 -0.71 217 223 221
5.10 -17.27 -0.53 217 223 221
5.10 -17.37 -0.53 216 222 220
5.10 -17.47 -0.53 218 224 222
5.10 -17.57 -0.53 218 224 222
5.10 -17.67 -0.53 218 224 222
5.10 -17.77 -0.53 218 224 222
5.10 -17.87 -0.53 219 225 223
4.91 -17.93 -0.37 221 227 225
4.91 -18.02 -0.37 224 230 228
5.10 -18.17 -0.53 226 232 230
5.10 -18.27 -0.53 226 232 230
-9.39 14.17 11.34 0 0 0
-9.39 14.11 11.34 0 0 0
-9.39 14.04 11.34 0 0 0
-9.28 14.05 11.25 0 0 0
-9.28 13.98 11.25 0 0 0
-9.17 13.99 11.16 171 117 89
-9.17 13.92 11.16 171 117 89
-9.17 13.85 11.16 173 119 91
-9.17 13.78 11.16 175 121 93
-9.08 13.77 11.09 176 122 94
-9.08 13.71 11.09 175 122 91
-8.98 13.71 11.00 174 121 90
-8.98 13.64 11.00 172 122 89
-8.87 13.65 10.91 172 122 89
-8.87 13.58 10.91 175 125 92
-8.78 13.57 10.85 175 125 92
-8.78 13.50 10.85 175 126 93
-8.78 13.43 10.85 175 126 93
-8.78 13.36 10.85 176 127 94
-8.67 13.37 10.76 175 126 93
-8.67 13.30 10.76 174 125 92
-8.67 13.23 10.76 173 124 91
-8.57 13.23 10.66 171 121 88
-8.46 13.23 10.57 173 123 90
-8.46 13.16 10.57 175 122 90
-8.37 13.15 10.51 172 119 87
-8.37 13.08 10.51 173 120 88
-8.37 13.01 10.51 174 119 88
5.49 18.49 -0.98 27 23 12
5.71 18.51 -1.16 26 22 11
5.71 18.41 -1.16 83 76 66
5.71 18.31 -1.16 162 155 145
5.71 18.21 -1.16 162 155 145
5.71 18.11 -1.16 155 148 140
5.92 18.13 -1.34 142 134 131
5.92 18.03 -1.34 148 140 138
5.92 17.93 -1.34 151 146 143
5.92 17.82 -1.34 154 149 146
5.92 17.72 -1.34 150 147 142
5.92 17.62 -1.34 148 147 142
5.92 17.52 -1.34 147 146 141
5.92 17.42 -1.34 148 148 140
5.92 17.32 -1.34 148 148 140
5.92 17.22 -1.34 148 148 140
5.92 17.11 -1.34 148 148 140
5.92 17.01 -1.34 150 147 138
5.92 16.91 -1.34 150 147 138
5.92 16.81 -1.34 151 148 139
5.92 16.71 -1.34 151 148 139
6.14 16.72 -1.52 152 149 140
6.14 16.62 -1.52 152 149 140
6.14 16.52 -1.52 152 149 140
6.14 16.42 -1.52 152 149 140
6.14 16.32 -1.52 152 149 140
6.14 16.21 -1.52 153 150 141
5.92 16.00 -1.34 155 152 143
5.92 15.90 -1.34 155 152 143
5.92 15.80 -1.34 153 150 141
5.92 15.70 -1.34 154 151 142
5.92 15.59 -1.34 154 151 142
5.92 15.49 -1.34 154 151 142
5.92 15.39 -1.34 154 151 142
5.92 15.29 -1.34 153 150 141
5.92 15.19 -1.34 154 151 142
5.92 15.09 -1.34 152 152 144
5.92 14.99 -1.34 152 152 144
5.92 14.88 -1.34 153 153 145
5.92 14.78 -1.34 153 153 145
5.92 14.68 -1.34 153 153 145
5.92 14.58 -1.34 154 154 146
5.92 14.48 -1.34 155 155 147
5.92 14.38 -1.34 155 155 147
5.92 14.28 -1.34 156 156 148
5.92 14.17 -1.34 156 156 148
5.92 14.07 -1.34 156 156 148
5.92 13.97 -1.34 156 156 148
5.92 13.87 -1.34 158 155 148
5.92 13.77 -1.34 157 154 147
5.92 13.67 -1.34 157 154 147
5.92 13.57 -1.34 157 154 147
5.92 13.46 -1.34 155 154 149
5.92 13.36 -1.34 155 154 149
5.92 13.26 -1.34 156 155 150
5.92 13.16 -1.34 157 156 151
5.92 13.06 -1.34 157 156 151
5.92 12.96 -1.34 157 156 151
5.92 12.86 -1.34 157 156 151
5.92 12.75 -1.34 158 157 152
6.14 12.75 -1.52 158 157 152
6.14 12.65 -1.52 158 158 150
6.14 12.54 -1.52 158 158 150
5.92 12.35 -1.34 158 158 150
5.92 12.25 -1.34 158 158 150
5.92 12.15 -1.34 158 158 148
5.92 12.04 -1.34 158 158 148
5.92 11.94 -1.34 156 159 148
5.92 11.84 -1.34 156 159 148
5.92 11.74 -1.34 155 158 147
5.92 11.64 -1.34 155 158 147
5.92 11.54 -1.34 154 157 146
5.92 11.44 -1.34 154 157 146
5.92 11.33 -1.34 154 156 145
5.92 11.23 -1.34 154 156 145
5.92 11.13 -1.34 154 156 143
5.92 11.03 -1.34 154 156 143
5.92 10.93 -1.34 155 155 143
5.92 10.83 -1.34 155 155 143
5.92 10.73 -1.34 154 154 142
5.92 10.62 -1.34 153 153 141
5.92 10.52 -1.34 152 152 140
5.92 10.42 -1.34 152 152 140
5.92 10.32 -1.34 151 155 140
5.92 10.22 -1.34 152 154 140
5.92 10.12 -1.34 152 154 143
5.92 10.02 -1.34 152 152 142
6.14 10.00 -1.52 151 151 143
6.14 9.90 -1.52 149 150 142
6.14 9.79 -1.52 149 150 142
1.17 7.84 2.60 148 154 144
1.36 7.82 2.44 145 152 144
1.36 7.73 2.44 123 136 127
1.36 7.64 2.44 163 182 178
1.36 7.55 2.44 180 205 202
1.36 7.46 2.44 170 200 202
1.36 7.37 2.44 163 196 203
1.36 7.27 2.44 169 202 211
1.36 7.18 2.44 197 230 235
1.36 7.09 2.44 187 218 221
1.17 6.93 2.60 190 220 222
1.17 6.84 2.60 186 215 213
1.17 6.75 2.60 176 201 195
1.17 6.66 2.60 182 203 194
1.36 6.63 2.44 225 243 229
1.36 6.54 2.44 246 255 243
1.52 6.51 2.31 232 242 218
1.52 6.42 2.31 152 158 124
1.52 6.32 2.31 164 168 131
1.71 6.30 2.15 218 224 178
1.71 6.20 2.15 203 210 159
1.71 6.11 2.15 210 217 163
1.71 6.02 2.15 212 217 161
1.71 5.93 2.15 214 218 159
1.91 5.90 1.99 215 216 158
1.91 5.80 1.99 213 215 152
1.91 5.71 1.99 214 216 153
1.91 5.62 1.99 216 218 153
1.91 5.53 1.99 212 214 149
1.91 5.43 1.99 216 218 155
1.91 5.34 1.99 215 217 154
1.91 5.25 1.99 213 214 154
1.91 5.16 1.99 214 215 155
1.71 5.01 2.15 214 215 155
1.71 4.91 2.15 213 214 154
1.71 4.82 2.15 211 213 148
1.71 4.73 2.15 205 208 141
1.71 4.64 2.15 202 205 136
1.71 4.55 2.15 205 208 139
1.71 4.45 2.15 206 211 147
1.71 4.36 2.15 232 236 177
1.71 4.27 2.15 255 255 204
1.71 4.18 2.15 210 213 158
1.71 4.09 2.15 204 207 154
1.71 3.99 2.15 218 218 164
1.71 3.90 2.15 215 216 159
1.71 3.63 2.15 207 207 143
1.71 3.53 2.15 210 211 145
1.71 3.44 2.15 209 210 142
1.71 3.35 2.15 208 209 141
1.71 3.26 2.15 210 211 143
1.71 3.17 2.15 203 202 135
1.52 3.02 2.31 207 202 138
1.52 2.93 2.31 205 201 137
1.52 2.84 2.31 195 198 127
1.52 2.75 2.31 186 189 118
1.36 2.62 2.44 186 184 110
1.36 2.53 2.44 187 183 112
1.17 2.39 2.60 170 172 99
1.17 2.30 2.60 147 150 83
1.17 2.21 2.60 204 210 150
1.36 2.16 2.44 223 227 177
1.36 2.07 2.44 225 231 195
1.36 1.98 2.44 211 225 200
1.52 1.92 2.31 177 219 209
1.52 1.83 2.31 173 219 216
1.52 1.74 2.31 168 218 219
1.52 1.65 2.31 165 216 219
1.71 1.60 2.15 161 214 218
1.71 1.51 2.15 165 218 222
1.71 1.42 2.15 170 223 227
1.71 1.32 2.15 170 223 227
1.91 1.27 1.99 171 224 228
1.91 1.18 1.99 173 226 232
1.91 1.09 1.99 173 226 232
2.07 1.03 1.86 173 228 233
2.07 0.93 1.86 173 228 233
2.07 0.84 1.86 172 227 234
2.07 0.75 1.86 170 225 232
2.07 0.66 1.86 167 224 233
2.07 0.56 1.86 165 222 231
2.07 0.47 1.86 163 222 230
2.07 0.38 1.86 162 221 229
2.07 0.28 1.86 157 220 225
2.07 0.19 1.86 158 221 226
2.07 0.10 1.86 158 221 228
2.07 0.01 1.86 158 221 228
2.07 -0.09 1.86 158 221 230
2.07 -0.18 1.86 157 220 229
2.07 -0.27 1.86 157 220 229
2.07 -0.37 1.86 157 220 229
2.07 -0.46 1.86 156 219 228
2.07 -0.55 1.86 157 217 227
2.07 -0.64 1.86 157 217 227
2.07 -0.74 1.86 159 219 227
2.07 -0.83 1.86 159 219 227
2.07 -0.92 1.86 159 219 227
2.07 -1.02 1.86 158 218 226
2.07 -1.11 1.86 161 222 227
2.07 -1.20 1.86 160 221 226
2.07 -1.29 1.86 160 221 226
2.07 -1.39 1.86 160 221 226
2.07 -1.48 1.86 160 221 226
2.07 -1.57 1.86 160 221 226
2.07 -1.67 1.86 159 219 227
2.07 -1.76 1.86 157 217 225
2.07 -1.85 1.86 157 217 225
2.07 -1.95 1.86 157 217 225
2.07 -2.04 1.86 157 217 225
2.07 -2.13 1.86 159 219 227
2.07 -2.22 1.86 158 218 228
2.07 -2.32 1.86 156 216 226
2.07 -2.41 1.86 158 218 228
2.07 -2.50 1.86 158 217 223
2.07 -2.60 1.86 158 217 223
2.07 -2.69 1.86 158 217 223
2.07 -2.78 1.86 159 218 224
1.91 -2.89 1.99 159 218 226
1.91 -2.98 1.99 159 218 226
1.91 -3.08 1.99 158 218 228
1.91 -3.17 1.99 157 217 227
1.91 -3.26 1.99 156 216 227
1.91 -3.35 1.99 156 216 227
1.91 -3.45 1.99 156 215 229
1.91 -3.54 1.99 156 215 229
2.07 -3.62 1.86 155 214 228
2.07 -3.71 1.86 153 212 226
2.07 -3.80 1.86 150 212 227
2.07 -3.90 1.86 150 212 227
2.07 -3.99 1.86 154 213 227
2.07 -4.08 1.86 153 212 226
1.91 -4.19 1.99 149 211 224
1.91 -4.28 1.99 148 210 223
1.91 -4.37 1.99 147 211 223
1.91 -4.46 1.99 145 209 221
1.91 -4.56 1.99 142 208 220
1.91 -4.65 1.99 133 203 215
1.91 -4.74 1.99 132 202 214
1.91 -4.83 1.99 128 200 214
1.91 -4.93 1.99 125 197 211
1.91 -5.02 1.99 122 195 210
1.91 -5.11 1.99 119 192 207
1.71 -5.21 2.15 117 190 207
1.71 -5.31 2.15 116 187 205
1.71 -5.40 2.15 112 183 201
1.71 -5.49 2.15 96 163 179
1.71 -5.58 2.15 177 240 249
1.52 -5.68 2.31 219 255 255
1.52 -5.77 2.31 210 240 242
1.36 -5.87 2.44 227 245 245
1.36 -5.96 2.44 229 245 242
1.36 -6.05 2.44 236 251 246
1.17 -6.15 2.60 235 247 245
1.17 -6.24 2.60 233 243 242
1.17 -6.33 2.60 238 243 246
1.17 -6.42 2.60 238 246 248
1.17 -6.51 2.60 243 255 255
1.36 -6.60 2.44 149 164 161
5.71 -6.82 -1.16 178 190 186
5.92 -6.92 -1.34 178 190 186
5.71 -7.02 -1.16 179 191 187
5.71 -7.12 -1.16 179 191 187
5.71 -7.22 -1.16 180 192 188
5.49 -7.33 -0.98 180 192 188
5.49 -7.43 -0.98 180 192 188
5.71 -7.53 -1.16 181 193 189
5.71 -7.63 -1.16 181 193 189
5.71 -7.73 -1.16 180 192 188
5.71 -7.83 -1.16 180 192 188
5.71 -7.93 -1.16 181 193 189
5.71 -8.03 -1.16 182 194 190
5.71 -8.13 -1.16 183 195 191
5.71 -8.23 -1.16 184 196 192
5.71 -8.34 -1.16 180 195 190
5.71 -8.44 -1.16 181 196 191
5.71 -8.54 -1.16 182 197 192
5.71 -8.64 -1.16 182 197 192
5.71 -8.74 -1.16 183 195 191
5.71 -8.84 -1.16 182 194 190
5.71 -8.94 -1.16 181 194 187
5.71 -9.04 -1.16 181 194 187
5.71 -9.14 -1.16 184 195 189
5.71 -9.24 -1.16 184 195 189
5.71 -9.34 -1.16 184 195 189
5.71 -9.45 -1.16 185 194 189
5.71 -9.55 -1.16 185 194 189
5.71 -9.65 -1.16 185 194 189
5.71 -9.75 -1.16 185 194 189
5.71 -9.85 -1.16 184 194 186
5.71 -9.95 -1.16 184 194 186
5.71 -10.05 -1.16 185 195 187
5.71 -10.15 -1.16 186 196 188
5.71 -10.25 -1.16 187 196 191
5.71 -10.35 -1.16 187 196 191
5.71 -10.45 -1.16 187 196 191
5.71 -10.56 -1.16 186 195 190
5.71 -10.66 -1.16 187 196 191
5.49 -10.74 -0.98 188 197 192
5.49 -10.84 -0.98 189 198 193
5.49 -10.94 -0.98 189 198 193
5.49 -11.04 -0.98 188 197 194
5.49 -11.14 -0.98 188 197 194
5.49 -11.24 -0.98 188 197 194
5.49 -11.34 -0.98 189 198 195
5.49 -11.44 -0.98 190 199 196
5.49 -11.54 -0.98 189 198 195
5.49 -11.65 -0.98 188 197 194
5.49 -11.75 -0.98 188 197 194
5.49 -11.85 -0.98 188 197 194
5.49 -11.95 -0.98 188 197 194
5.49 -12.05 -0.98 188 197 194
5.49 -12.15 -0.98 188 197 194
5.49 -12.25 -0.98 188 197 194
5.49 -12.35 -0.98 189 198 195
5.49 -12.45 -0.98 189 198 195
5.49 -12.55 -0.98 189 198 195
5.49 -12.65 -0.98 190 199 196
5.49 -12.75 -0.98 189 198 195
5.71 -12.88 -1.16 189 198 195
5.71 -12.98 -1.16 191 200 197
5.71 -13.08 -1.16 190 199 196
5.49 -13.15 -0.98 190 199 196
5.71 -13.28 -1.16 190 199 196
5.71 -13.38 -1.16 191 200 197
5.71 -13.48 -1.16 191 200 197
5.71 -13.58 -1.16 192 201 198
5.71 -13.68 -1.16 192 201 198
5.71 -13.79 -1.16 191 200 197
5.71 -13.89 -1.16 190 199 196
5.71 -13.99 -1.16 190 199 196
5.71 -14.09 -1.16 191 200 197
5.71 -14.19 -1.16 191 200 197
5.71 -14.29 -1.16 193 202 199
5.71 -14.39 -1.16 195 204 199
5.49 -14.46 -0.98 192 202 193
5.49 -14.56 -0.98 193 203 192
5.49 -14.66 -0.98 194 204 195
5.49 -14.76 -0.98 194 204 195
5.49 -14.86 -0.98 195 205 196
5.49 -14.96 -0.98 195 205 196
5.49 -15.06 -0.98 195 205 197
5.49 -15.16 -0.98 194 204 196
5.49 -15.26 -0.98 196 205 200
5.49 -15.36 -0.98 197 206 201
5.49 -15.46 -0.98 199 208 203
5.49 -15.56 -0.98 200 209 204
5.49 -15.66 -0.98 201 210 207
5.49 -15.76 -0.98 201 210 207
5.49 -15.86 -0.98 201 210 207
5.49 -15.96 -0.98 201 210 207
5.49 -16.06 -0.98 200 211 207
5.49 -16.17 -0.98 200 211 207
5.49 -16.27 -0.98 203 212 209
5.49 -16.37 -0.98 204 213 210
5.49 -16.47 -0.98 205 214 211
5.49 -16.57 -0.98 205 214 211
5.49 -16.67 -0.98 204 213 210
5.49 -16.77 -0.98 208 217 214
5.49 -16.87 -0.98 207 216 213
5.27 -16.92 -0.79 209 215 213
5.27 -17.02 -0.79 211 217 215
5.27 -17.12 -0.79 213 219 217
5.27 -17.22 -0.79 215 221 219
5.05 -17.27 -0.61 217 223 221
5.05 -17.37 -0.61 217 223 221
5.05 -17.47 -0.61 215 221 219
5.05 -17.77 -0.61 218 224 222
5.05 -17.87 -0.61 219 225 223
4.86 -17.93 -0.45 222 228 226
4.86 -18.02 -0.45 225 231 229
4.86 -18.12 -0.45 227 233 231
4.86 -18.22 -0.45 227 233 231
4.86 -18.32 -0.45 228 234 232
4.86 -18.42 -0.45 230 236 234
4.86 -18.52 -0.45 231 237 235
4.86 -18.62 -0.45 232 238 236
4.64 -18.66 -0.27 233 239 237
4.64 -18.76 -0.27 234 240 238
4.64 -18.86 -0.27 235 240 236
4.64 -18.96 -0.27 235 240 236
-9.42 14.17 11.29 0 0 0
-9.42 14.11 11.29 0 0 0
-9.31 14.12 11.19 0 0 0
-9.31 14.05 11.19 0 0 0
-9.31 13.98 11.19 0 0 0
-9.31 13.91 11.19 171 117 91
-9.20 13.92 11.10 171 117 91
-9.20 13.85 11.10 172 118 92
-9.20 13.78 11.10 172 118 92
-9.12 13.77 11.04 173 119 93
-9.12 13.71 11.04 173 120 89
-9.12 13.64 11.04 172 119 88
-9.01 13.64 10.95 171 121 88
-9.01 13.58 10.95 171 121 88
-8.90 13.58 10.85 175 125 92
-8.90 13.51 10.85 175 125 92
-8.82 13.50 10.79 174 125 92
-8.82 13.43 10.79 174 125 92
-8.82 13.36 10.79 174 125 92
-8.71 13.37 10.70 174 125 92
-8.71 13.30 10.70 174 125 93
-8.71 13.23 10.70 174 125 93
-8.60 13.23 10.60 173 123 90
-8.60 13.16 10.60 174 124 91
-8.49 13.16 10.51 176 123 91
-8.49 13.09 10.51 173 118 87
-8.41 13.08 10.45 173 118 87
-8.41 13.01 10.45 175 118 88
5.66 18.61 -1.24 14 10 1
5.44 18.39 -1.06 107 103 94
5.44 18.29 -1.06 166 162 153
5.66 18.31 -1.24 159 155 146
5.66 18.21 -1.24 149 145 136
5.66 18.11 -1.24 149 144 138
5.66 18.01 -1.24 154 146 143
5.87 18.03 -1.43 153 145 143
5.87 17.93 -1.43 154 149 146
5.87 17.82 -1.43 151 146 143
5.87 17.72 -1.43 147 144 139
5.87 17.62 -1.43 149 148 143
5.87 17.52 -1.43 141 140 135
5.87 17.42 -1.43 146 146 138
5.66 17.20 -1.24 146 146 138
5.66 17.10 -1.24 147 147 139
5.66 17.00 -1.24 148 148 140
5.66 16.90 -1.24 150 147 138
5.66 16.80 -1.24 150 147 138
5.66 16.69 -1.24 149 146 137
5.66 16.59 -1.24 148 145 136
5.66 16.49 -1.24 151 148 139
5.87 16.51 -1.43 151 148 139
5.87 16.41 -1.43 150 147 138
5.87 16.30 -1.43 151 148 139
5.87 16.20 -1.43 151 148 139
5.87 16.10 -1.43 153 150 141
5.66 15.89 -1.24 154 151 142
5.66 15.79 -1.24 155 152 143
5.66 15.69 -1.24 154 151 142
5.66 15.58 -1.24 155 152 143
5.66 15.48 -1.24 156 153 144
5.66 15.38 -1.24 155 152 143
5.66 15.28 -1.24 155 152 143
5.87 15.29 -1.43 154 151 142
5.87 15.19 -1.43 154 151 144
5.87 15.09 -1.43 151 152 144
5.66 14.88 -1.24 151 152 146
5.66 14.78 -1.24 151 152 146
5.66 14.68 -1.24 151 152 146
5.66 14.58 -1.24 152 153 147
5.66 14.47 -1.24 153 154 148
5.66 14.37 -1.24 154 154 146
5.66 14.27 -1.24 154 154 146
5.66 14.17 -1.24 155 155 147
5.66 14.07 -1.24 155 155 147
5.66 13.97 -1.24 156 156 148
5.87 13.97 -1.43 156 156 148
5.87 13.87 -1.43 158 155 148
5.87 13.77 -1.43 158 155 148
5.87 13.67 -1.43 157 154 145
5.87 13.57 -1.43 157 154 147
5.87 13.46 -1.43 155 155 147
5.87 13.36 -1.43 155 154 149
5.87 13.26 -1.43 156 155 150
5.87 13.16 -1.43 156 155 150
5.87 13.06 -1.43 157 156 151
5.87 12.96 -1.43 157 156 151
5.87 12.86 -1.43 157 157 149
5.87 12.75 -1.43 157 157 149
5.87 12.65 -1.43 157 157 149
6.09 12.65 -1.61 157 157 149
5.87 12.45 -1.43 157 157 149
5.87 12.35 -1.43 156 156 148
5.87 12.25 -1.43 157 157 149
5.87 12.15 -1.43 157 157 149
5.87 12.04 -1.43 158 158 150
5.87 11.94 -1.43 156 159 148
5.87 11.84 -1.43 155 158 147
5.87 11.74 -1.43 154 157 146
5.87 11.64 -1.43 154 157 146
5.87 11.54 -1.43 153 156 145
5.87 11.44 -1.43 153 156 145
5.87 11.33 -1.43 154 156 145
5.87 11.23 -1.43 154 156 145
5.87 11.13 -1.43 155 157 146
5.87 11.03 -1.43 155 157 146
5.87 10.93 -1.43 154 156 143
5.87 10.83 -1.43 154 156 143
5.87 10.73 -1.43 154 154 142
5.87 10.62 -1.43 154 154 142
5.87 10.52 -1.43 153 153 141
5.66 10.34 -1.24 152 154 141
5.66 10.24 -1.24 152 156 141
5.66 10.13 -1.24 151 155 141
5.87 10.12 -1.43 151 153 140
5.87 10.02 -1.43 151 151 141
5.87 9.91 -1.43 151 151 141
5.87 9.81 -1.43 149 150 142
6.09 9.79 -1.61 149 152 145
1.31 7.91 2.37 148 155 147
1.12 7.75 2.52 132 143 137
1.31 7.73 2.37 131 150 146
1.31 7.64 2.37 181 203 201
1.31 7.55 2.37 168 196 199
1.12 7.39 2.52 166 195 201
1.12 7.30 2.52 156 189 196
1.12 7.21 2.52 170 203 212
1.12 7.11 2.52 185 223 226
1.12 7.02 2.52 183 218 220
1.12 6.93 2.52 185 219 218
0.96 6.79 2.66 183 214 209
0.96 6.69 2.66 170 196 185
1.12 6.66 2.52 199 221 208
1.12 6.57 2.52 239 255 243
1.31 6.54 2.37 245 255 243
1.48 6.51 2.23 189 204 181
1.48 6.42 2.23 192 206 173
1.48 6.32 2.23 164 174 137
1.67 6.30 2.07 205 216 173
1.67 6.20 2.07 202 212 162
1.67 6.11 2.07 209 218 161
1.67 6.02 2.07 212 220 161
1.67 5.93 2.07 209 213 154
1.86 5.90 1.91 214 215 157
1.86 5.80 1.91 210 211 151
1.86 5.71 1.91 220 221 161
1.86 5.62 1.91 222 224 161
1.86 5.53 1.91 219 221 158
1.86 5.43 1.91 219 220 160
1.86 5.34 1.91 214 215 155
1.86 5.25 1.91 211 212 154
1.67 5.10 2.07 208 209 151
1.67 5.01 2.07 204 205 147
1.67 4.91 2.07 207 208 148
1.67 4.82 2.07 213 215 152
1.67 4.73 2.07 206 209 142
1.67 4.64 2.07 196 199 130
1.67 4.55 2.07 196 199 130
1.67 4.45 2.07 182 184 121
1.67 4.36 2.07 175 176 118
1.67 4.27 2.07 163 164 106
1.67 4.18 2.07 212 212 158
1.67 4.09 2.07 214 214 162
1.67 3.99 2.07 210 210 156
1.67 3.90 2.07 213 214 157
1.67 3.63 2.07 206 208 143
1.67 3.53 2.07 208 210 145
1.67 3.44 2.07 204 207 140
1.67 3.35 2.07 202 205 138
1.67 3.26 2.07 207 209 144
1.67 3.17 2.07 203 203 139
1.67 3.07 2.07 207 201 139
1.48 2.93 2.23 202 198 134
1.48 2.84 2.23 194 197 128
1.48 2.75 2.23 190 194 120
1.48 2.66 2.23 188 188 114
1.31 2.53 2.37 184 182 108
1.12 2.39 2.52 167 171 95
1.12 2.30 2.52 148 154 84
1.12 2.21 2.52 219 225 161
1.12 2.12 2.52 228 232 181
1.31 2.07 2.37 222 229 188
1.31 1.98 2.37 205 219 193
1.31 1.89 2.37 180 222 210
1.48 1.83 2.23 176 222 219
1.48 1.74 2.23 166 216 217
1.48 1.65 2.23 163 217 219
1.48 1.56 2.23 160 215 218
1.67 1.51 2.07 165 218 222
1.67 1.42 2.07 170 223 227
1.67 1.32 2.07 170 223 229
1.86 1.27 1.91 171 224 230
1.86 1.18 1.91 174 227 233
1.86 1.09 1.91 173 226 232
2.02 1.03 1.78 174 227 235
2.02 0.93 1.78 174 227 235
2.02 0.84 1.78 172 227 234
2.02 0.75 1.78 171 226 233
2.02 0.66 1.78 167 224 231
2.02 0.56 1.78 165 222 229
2.02 0.47 1.78 162 221 229
2.02 0.38 1.78 162 221 229
2.02 0.28 1.78 159 222 229
2.02 0.19 1.78 159 222 229
2.02 0.10 1.78 159 222 229
2.02 0.01 1.78 160 223 230
2.02 -0.09 1.78 159 222 231
2.02 -0.18 1.78 160 220 230
2.02 -0.27 1.78 160 220 230
2.02 -0.37 1.78 158 218 228
2.02 -0.46 1.78 158 218 228
2.02 -0.55 1.78 160 218 229
2.02 -0.64 1.78 161 219 230
2.02 -0.74 1.78 161 220 228
2.02 -0.83 1.78 161 220 228
2.02 -0.92 1.78 160 219 227
2.02 -1.02 1.78 159 218 226
2.02 -1.11 1.78 160 221 226
2.02 -1.20 1.78 160 221 226
2.02 -1.29 1.78 160 221 226
2.02 -1.39 1.78 161 222 227
2.02 -1.48 1.78 161 222 227
2.02 -1.57 1.78 161 222 227
2.02 -1.67 1.78 160 220 228
2.02 -1.76 1.78 159 219 227
2.02 -1.85 1.78 159 219 227
2.02 -1.95 1.78 158 218 226
2.02 -2.04 1.78 158 218 226
2.02 -2.13 1.78 159 219 227
2.02 -2.22 1.78 158 218 226
2.02 -2.32 1.78 157 217 225
2.02 -2.41 1.78 158 218 226
2.02 -2.50 1.78 158 217 221
2.02 -2.60 1.78 157 216 220
2.02 -2.69 1.78 157 216 222
2.02 -2.78 1.78 158 217 223
2.02 -2.87 1.78 158 217 225
2.02 -2.97 1.78 159 218 226
2.02 -3.06 1.78 157 217 227
2.02 -3.15 1.78 157 217 227
1.86 -3.26 1.91 158 218 229
1.86 -3.35 1.91 157 217 228
1.86 -3.45 1.91 156 215 229
2.02 -3.52 1.78 155 214 228
2.02 -3.62 1.78 154 213 227
2.02 -3.71 1.78 154 213 227
2.02 -3.80 1.78 151 213 228
2.02 -3.90 1.78 151 213 228
2.02 -3.99 1.78 151 213 226
2.02 -4.08 1.78 151 213 226
2.02 -4.17 1.78 150 212 225
1.86 -4.28 1.91 149 211 224
1.86 -4.37 1.91 147 211 223
1.86 -4.46 1.91 145 209 221
1.86 -4.56 1.91 141 207 219
1.86 -4.65 1.91 132 202 214
1.86 -4.74 1.91 131 201 213
1.86 -4.83 1.91 127 199 213
1.86 -4.93 1.91 125 197 211
1.86 -5.02 1.91 122 195 210
1.86 -5.11 1.91 120 193 208
1.67 -5.21 2.07 115 191 207
1.67 -5.31 2.07 115 188 205
1.67 -5.40 2.07 107 178 196
1.67 -5.49 2.07 99 166 182
1.48 -5.59 2.23 186 249 255
1.48 -5.68 2.23 219 255 255
1.31 -5.78 2.37 210 240 242
1.31 -5.87 2.37 228 246 246
1.31 -5.96 2.37 228 244 241
1.12 -6.06 2.52 235 250 245
1.12 -6.15 2.52 235 247 245
1.12 -6.24 2.52 234 244 245
1.12 -6.33 2.52 240 245 248
1.12 -6.42 2.52 241 249 252
1.12 -6.51 2.52 240 255 255
1.12 -6.61 2.52 148 164 163
5.66 -6.82 -1.24 178 190 186
5.66 -6.92 -1.24 179 191 187
5.66 -7.02 -1.24 179 191 187
5.44 -7.13 -1.06 180 192 188
5.44 -7.23 -1.06 180 192 188
5.44 -7.33 -1.06 180 192 188
5.44 -7.43 -1.06 180 192 188
5.44 -7.53 -1.06 181 193 189
5.44 -7.63 -1.06 181 193 189
5.44 -7.73 -1.06 180 192 188
5.44 -7.83 -1.06 180 192 188
5.44 -7.93 -1.06 181 193 189
5.44 -8.03 -1.06 182 194 190
5.66 -8.13 -1.24 183 195 191
5.66 -8.23 -1.24 184 196 192
5.66 -8.34 -1.24 180 195 190
5.44 -8.43 -1.06 180 195 190
5.44 -8.53 -1.06 183 195 191
5.44 -8.63 -1.06 182 194 190
5.44 -8.73 -1.06 182 194 190
5.44 -8.83 -1.06 182 194 190
5.44 -8.93 -1.06 183 196 189
5.44 -9.03 -1.06 183 196 189
5.44 -9.13 -1.06 184 195 189
5.44 -9.23 -1.06 185 195 187
5.44 -9.33 -1.06 185 195 187
5.44 -9.44 -1.06 185 195 187
5.44 -9.54 -1.06 185 195 187
5.44 -9.64 -1.06 184 194 186
5.44 -9.74 -1.06 185 195 187
5.44 -9.84 -1.06 185 195 187
5.44 -9.94 -1.06 185 195 187
5.44 -10.04 -1.06 185 195 187
5.44 -10.14 -1.06 185 195 187
5.44 -10.24 -1.06 186 196 188
5.44 -10.34 -1.06 187 197 189
5.44 -10.44 -1.06 188 198 190
5.44 -10.54 -1.06 189 199 191
5.44 -10.64 -1.06 188 197 192
5.44 -10.74 -1.06 189 198 193
5.44 -10.84 -1.06 190 199 194
5.44 -10.94 -1.06 190 199 194
5.44 -11.04 -1.06 189 198 193
5.44 -11.14 -1.06 189 198 193
5.44 -11.24 -1.06 189 198 193
5.44 -11.34 -1.06 190 199 194
5.44 -11.44 -1.06 189 198 195
5.44 -11.54 -1.06 189 198 195
5.44 -11.65 -1.06 188 197 194
5.44 -11.75 -1.06 188 197 194
5.44 -11.85 -1.06 188 197 194
5.44 -11.95 -1.06 189 198 195
5.44 -12.05 -1.06 189 198 195
5.44 -12.15 -1.06 188 197 194
5.22 -12.22 -0.88 188 197 194
5.22 -12.32 -0.88 188 197 194
5.44 -12.45 -1.06 189 198 195
5.44 -12.55 -1.06 189 198 195
5.44 -12.65 -1.06 189 198 195
5.44 -12.75 -1.06 189 198 195
5.44 -12.85 -1.06 189 198 195
5.44 -12.95 -1.06 191 200 197
5.44 -13.05 -1.06 191 200 197
5.44 -13.15 -1.06 191 200 197
5.44 -13.25 -1.06 190 199 196
5.44 -13.35 -1.06 190 199 196
5.44 -13.45 -1.06 190 199 196
5.44 -13.55 -1.06 191 200 197
5.44 -13.65 -1.06 192 201 198
5.44 -13.75 -1.06 192 201 198
5.44 -13.85 -1.06 190 199 196
5.44 -13.96 -1.06 190 199 196
5.44 -14.06 -1.06 191 200 197
5.44 -14.16 -1.06 191 200 197
5.44 -14.26 -1.06 192 201 198
5.44 -14.36 -1.06 195 204 199
5.44 -14.46 -1.06 193 203 195
5.44 -14.56 -1.06 193 203 194
5.44 -14.66 -1.06 194 204 195
5.44 -14.76 -1.06 195 205 196
5.44 -14.86 -1.06 195 205 196
5.44 -14.96 -1.06 195 205 196
5.44 -15.06 -1.06 195 205 197
5.44 -15.16 -1.06 195 205 197
5.44 -15.26 -1.06 197 206 201
5.44 -15.36 -1.06 198 207 202
5.44 -15.46 -1.06 199 208 203
5.44 -15.56 -1.06 200 209 204
5.44 -15.66 -1.06 201 210 207
5.44 -15.76 -1.06 201 210 207
5.44 -15.86 -1.06 201 210 207
5.44 -15.96 -1.06 201 210 207
5.44 -16.06 -1.06 201 212 208
5.44 -16.17 -1.06 201 212 208
5.44 -16.27 -1.06 202 211 208
5.44 -16.37 -1.06 203 212 209
5.44 -16.47 -1.06 205 214 211
5.22 -16.52 -0.88 206 215 212
5.22 -16.62 -0.88 206 215 212
5.22 -16.72 -0.88 207 216 213
5.22 -16.82 -0.88 208 217 214
5.22 -16.92 -0.88 211 217 215
5.22 -17.02 -0.88 211 217 215
5.22 -17.12 -0.88 212 218 216
5.22 -17.22 -0.88 213 219 217
5.00 -17.27 -0.70 215 221 219
5.00 -17.37 -0.70 217 223 221
5.00 -17.47 -0.70 217 223 221
5.00 -17.77 -0.70 221 227 225
5.00 -17.87 -0.70 222 228 226
4.81 -17.93 -0.54 224 230 228
4.81 -18.02 -0.54 226 232 230
4.81 -18.12 -0.54 227 233 231
4.81 -18.22 -0.54 228 234 232
4.81 -18.32 -0.54 228 234 232
4.81 -18.42 -0.54 227 233 231
4.81 -18.52 -0.54 226 232 230
4.81 -18.62 -0.54 227 233 231
4.59 -18.66 -0.36 234 240 238
4.59 -18.76 -0.36 237 243 241
4.59 -18.86 -0.36 238 242 241
4.59 -18.96 -0.36 236 240 239
-9.53 14.38 11.30 0 0 0
-9.53 14.32 11.30 0 0 0
-9.45 14.17 11.23 0 0 0
-9.45 14.11 11.23 0 0 0
-9.34 14.12 11.14 0 0 0
-9.34 14.05 11.14 0 0 0
-9.34 13.98 11.14 0 0 0
-9.34 13.91 11.14 170 114 89
-9.23 13.92 11.05 170 114 89
-9.23 13.85 11.05 170 114 89
-9.23 13.78 11.05 170 114 87
-9.15 13.77 10.98 170 114 87
-9.15 13.71 10.98 169 116 85
-9.15 13.64 10.98 170 117 86
-9.04 13.64 10.89 171 118 86
-9.04 13.58 10.89 171 118 86
-9.04 13.51 10.89 170 120 85
-8.93 13.51 10.79 171 121 86
-8.93 13.44 10.79 172 122 89
-8.85 13.43 10.73 172 122 89
-8.85 13.36 10.73 170 121 89
-8.85 13.29 10.73 170 121 89
-8.74 13.30 10.64 171 122 90
-8.74 13.23 10.64 172 123 91
-8.74 13.16 10.64 175 125 92
-8.63 13.16 10.54 176 126 93
-8.53 13.16 10.45 175 125 92
-8.53 13.09 10.45 175 122 90
-8.53 13.02 10.45 175 120 89
-8.44 13.01 10.39 175 120 89
-8.44 12.94 10.39 175 120 89
-8.33 12.94 10.29 177 120 90
-8.33 12.87 10.29 175 118 88
-8.33 12.80 10.29 174 118 85
5.17 18.76 -0.97 38 31 15
5.39 18.79 -1.15 26 18 7
5.39 18.69 -1.15 9 3 0
5.39 18.59 -1.15 27 20 10
5.39 18.49 -1.15 108 104 95
5.39 18.39 -1.15 172 168 159
5.39 18.29 -1.15 157 152 146
5.39 18.19 -1.15 149 144 138
5.61 18.21 -1.33 145 140 134
5.61 18.11 -1.33 146 141 137
5.61 18.01 -1.33 154 146 143
5.61 17.91 -1.33 146 138 136
5.61 17.81 -1.33 148 143 140
5.61 17.70 -1.33 150 145 142
5.61 17.60 -1.33 149 146 141
5.61 17.50 -1.33 150 149 144
5.61 17.40 -1.33 151 150 145
5.61 17.30 -1.33 147 147 139
5.61 17.20 -1.33 148 148 140
5.61 17.10 -1.33 149 149 141
5.61 17.00 -1.33 149 149 141
5.61 16.90 -1.33 151 148 139
5.61 16.80 -1.33 150 147 138
5.61 16.69 -1.33 148 145 136
5.61 16.59 -1.33 147 144 135
5.61 16.49 -1.33 150 147 138
5.61 16.39 -1.33 150 147 138
5.61 16.29 -1.33 150 147 138
5.61 16.19 -1.33 150 147 138
5.61 16.09 -1.33 151 148 139
5.61 15.99 -1.33 152 149 140
5.61 15.89 -1.33 153 150 141
5.61 15.79 -1.33 154 151 142
5.61 15.69 -1.33 152 149 140
5.61 15.58 -1.33 153 150 141
5.61 15.48 -1.33 152 152 142
5.61 15.38 -1.33 152 152 142
5.61 15.28 -1.33 152 152 142
5.61 15.18 -1.33 152 152 142
5.61 15.08 -1.33 153 153 145
5.61 14.98 -1.33 150 153 146
5.61 14.88 -1.33 150 152 147
5.61 14.78 -1.33 150 151 146
5.61 14.68 -1.33 151 152 147
5.61 14.58 -1.33 152 153 147
5.61 14.47 -1.33 152 153 147
5.61 14.37 -1.33 153 154 148
5.61 14.27 -1.33 152 153 147
5.61 14.17 -1.33 153 153 145
5.61 14.07 -1.33 153 153 145
5.61 13.97 -1.33 154 154 146
5.61 13.87 -1.33 155 155 147
5.61 13.77 -1.33 158 155 148
5.61 13.67 -1.33 158 155 148
5.61 13.57 -1.33 159 156 147
5.61 13.47 -1.33 159 156 149
5.61 13.36 -1.33 157 154 147
5.61 13.26 -1.33 157 154 149
5.61 13.16 -1.33 157 154 149
5.61 13.06 -1.33 158 155 150
5.61 12.96 -1.33 158 155 148
5.61 12.86 -1.33 158 155 148
5.61 12.76 -1.33 158 155 148
5.61 12.66 -1.33 158 155 148
5.61 12.56 -1.33 158 155 148
5.61 12.46 -1.33 158 155 148
5.82 12.45 -1.51 158 155 148
5.82 12.35 -1.51 157 154 149
5.61 12.15 -1.33 157 154 149
5.61 12.05 -1.33 158 155 150
5.61 11.95 -1.33 159 156 151
5.61 11.85 -1.33 155 156 148
5.61 11.75 -1.33 154 155 147
5.61 11.65 -1.33 154 155 147
5.61 11.55 -1.33 154 155 147
5.61 11.45 -1.33 154 155 147
5.61 11.35 -1.33 155 156 148
5.61 11.24 -1.33 155 156 148
5.61 11.14 -1.33 156 157 149
5.61 11.04 -1.33 155 157 146
5.61 10.94 -1.33 154 156 145
5.61 10.84 -1.33 154 156 145
5.61 10.74 -1.33 153 155 144
5.61 10.64 -1.33 153 155 144
5.61 10.54 -1.33 152 154 143
5.61 10.44 -1.33 152 154 143
5.61 10.34 -1.33 152 154 143
5.61 10.24 -1.33 152 155 144
5.61 10.13 -1.33 151 155 141
5.61 10.03 -1.33 152 152 140
5.82 10.02 -1.51 152 152 140
5.82 9.91 -1.51 154 151 142
5.82 9.81 -1.51 151 153 142
5.82 9.71 -1.51 151 154 147
1.08 7.84 2.45 143 153 145
1.08 7.75 2.45 126 141 136
1.08 7.66 2.45 155 175 173
1.08 7.57 2.45 183 209 208
1.08 7.48 2.45 168 196 200
1.08 7.39 2.45 167 196 204
1.08 7.30 2.45 169 202 209
1.08 7.21 2.45 178 211 220
0.91 7.06 2.58 180 218 221
0.91 6.97 2.58 186 221 223
0.91 6.88 2.58 185 217 212
0.91 6.79 2.58 180 210 202
0.91 6.69 2.58 173 197 183
0.91 6.60 2.58 217 238 221
1.08 6.57 2.45 241 255 241
1.08 6.48 2.45 240 255 238
1.27 6.45 2.29 163 178 155
1.43 6.42 2.15 177 192 163
1.43 6.32 2.15 145 159 124
1.62 6.30 1.99 179 194 151
1.62 6.20 1.99 209 221 171
1.62 6.11 1.99 202 213 157
1.81 6.08 1.83 210 218 159
1.81 5.99 1.83 218 223 165
1.81 5.90 1.83 214 217 160
1.81 5.80 1.83 194 198 139
1.81 5.71 1.83 202 206 147
1.81 5.62 1.83 206 210 149
1.81 5.53 1.83 209 213 152
1.81 5.43 1.83 214 218 159
1.81 5.34 1.83 208 211 154
1.81 5.25 1.83 209 212 155
1.62 5.10 1.99 209 212 157
1.62 5.01 1.99 207 210 153
1.62 4.91 1.99 210 214 155
1.62 4.82 1.99 213 217 156
1.62 4.73 1.99 200 205 139
1.62 4.64 1.99 189 194 127
1.62 4.55 1.99 195 200 133
1.62 4.45 1.99 211 213 150
1.62 4.36 1.99 252 253 195
1.62 4.27 1.99 254 255 197
1.62 4.18 1.99 207 207 153
1.62 4.09 1.99 205 205 153
1.62 3.99 1.99 217 217 165
1.62 3.90 1.99 210 210 156
1.81 3.86 1.83 216 217 160
1.81 3.77 1.83 214 215 157
1.81 3.68 1.83 211 212 152
1.81 3.58 1.83 213 214 154
1.81 3.49 1.83 211 212 152
1.81 3.40 1.83 208 209 149
1.81 3.31 1.83 212 213 155
1.62 3.17 1.99 207 206 149
1.62 3.07 1.99 207 205 148
1.43 2.93 2.15 198 198 138
1.43 2.84 2.15 187 193 129
1.27 2.71 2.29 182 189 122
1.27 2.62 2.29 175 178 109
1.08 2.48 2.45 163 164 96
1.08 2.39 2.45 159 166 98
1.08 2.30 2.45 167 176 111
1.08 2.21 2.45 235 245 185
1.08 2.12 2.45 230 238 189
1.27 2.07 2.29 220 228 191
1.27 1.98 2.29 199 213 187
1.27 1.89 2.29 180 222 208
1.43 1.83 2.15 179 224 217
1.43 1.74 2.15 166 214 214
1.43 1.65 2.15 162 216 218
1.81 1.27 1.83 174 224 231
1.81 1.18 1.83 177 227 236
1.98 1.12 1.69 176 226 235
1.98 1.03 1.69 173 226 234
1.98 0.93 1.69 172 225 233
1.98 0.84 1.69 170 225 232
1.98 0.75 1.69 170 225 232
1.98 0.66 1.69 166 225 231
1.98 0.56 1.69 164 223 229
1.98 0.47 1.69 161 221 229
1.98 0.38 1.69 162 222 230
1.98 0.28 1.69 158 222 231
1.98 0.19 1.69 158 222 231
1.98 0.10 1.69 160 223 232
1.98 0.01 1.69 160 223 232
1.98 -0.09 1.69 162 222 233
1.98 -0.18 1.69 162 220 232
1.98 -0.27 1.69 162 220 232
1.98 -0.37 1.69 160 218 230
1.98 -0.46 1.69 162 220 232
1.98 -0.55 1.69 163 221 232
1.98 -0.64 1.69 164 222 233
1.98 -0.74 1.69 163 221 232
1.98 -0.83 1.69 162 220 231
1.98 -0.92 1.69 161 220 228
1.98 -1.02 1.69 160 219 227
1.98 -1.11 1.69 159 218 224
1.98 -1.20 1.69 158 217 223
1.98 -1.29 1.69 159 218 224
1.98 -1.39 1.69 160 219 225
1.98 -1.48 1.69 162 221 227
1.98 -1.57 1.69 161 220 226
1.98 -1.67 1.69 161 220 226
1.98 -1.76 1.69 162 221 227
1.98 -1.85 1.69 160 221 226
1.98 -1.95 1.69 159 220 225
1.98 -2.04 1.69 159 220 225
1.98 -2.13 1.69 160 221 226
1.98 -2.22 1.69 159 219 227
1.98 -2.32 1.69 158 218 226
1.98 -2.41 1.69 160 220 228
1.98 -2.50 1.69 160 219 225
1.98 -2.60 1.69 159 218 224
1.98 -2.69 1.69 159 218 224
1.98 -2.78 1.69 159 218 224
1.98 -2.87 1.69 160 219 227
1.98 -2.97 1.69 160 219 227
1.98 -3.06 1.69 159 219 227
1.98 -3.15 1.69 158 218 226
1.98 -3.25 1.69 159 219 229
1.98 -3.34 1.69 158 218 228
1.98 -3.43 1.69 157 217 228
1.98 -3.52 1.69 156 216 227
1.98 -3.62 1.69 156 215 229
1.98 -3.71 1.69 156 215 229
1.98 -3.80 1.69 154 216 229
1.98 -3.90 1.69 153 215 228
1.98 -3.99 1.69 151 213 226
1.98 -4.08 1.69 151 213 226
1.98 -4.17 1.69 151 213 226
1.98 -4.27 1.69 150 212 225
1.81 -4.37 1.83 148 212 224
1.81 -4.46 1.83 145 209 221
1.81 -4.56 1.83 139 207 218
1.81 -4.65 1.83 133 203 215
1.81 -4.74 1.83 132 201 216
1.81 -4.83 1.83 127 199 213
1.81 -4.93 1.83 125 197 212
1.81 -5.02 1.83 121 194 211
1.81 -5.11 1.83 119 192 209
1.62 -5.21 1.99 114 189 208
1.62 -5.31 1.99 114 187 206
1.43 -5.41 2.15 103 171 190
1.43 -5.50 2.15 105 171 187
1.43 -5.59 2.15 192 252 255
1.27 -5.69 2.29 217 255 255
1.27 -5.78 2.29 212 241 245
1.27 -5.87 2.29 227 245 247
1.08 -5.97 2.45 223 242 240
1.08 -6.06 2.45 230 246 243
0.91 -6.16 2.58 232 246 246
0.91 -6.25 2.58 234 245 247
0.91 -6.34 2.58 237 245 248
0.91 -6.43 2.58 244 253 255
0.91 -6.52 2.58 233 251 251
1.08 -6.61 2.45 146 164 164
5.82 -6.82 -1.51 177 189 185
5.61 -6.92 -1.33 178 190 186
5.39 -7.02 -1.15 179 191 187
5.39 -7.13 -1.15 180 192 188
5.39 -7.23 -1.15 181 193 189
5.39 -7.33 -1.15 182 194 190
5.39 -7.43 -1.15 182 194 190
5.39 -7.53 -1.15 182 194 190
5.39 -7.63 -1.15 182 194 190
5.39 -7.73 -1.15 181 193 189
5.39 -7.83 -1.15 181 193 189
5.39 -7.93 -1.15 181 193 189
5.39 -8.03 -1.15 182 194 190
5.39 -8.13 -1.15 183 195 191
5.39 -8.23 -1.15 183 195 191
5.39 -8.33 -1.15 181 193 189
5.39 -8.43 -1.15 182 194 190
5.39 -8.53 -1.15 182 194 190
5.39 -8.63 -1.15 182 194 190
5.39 -8.73 -1.15 181 194 187
5.39 -8.83 -1.15 182 195 188
5.39 -8.93 -1.15 184 195 189
5.39 -9.03 -1.15 185 196 190
5.39 -9.13 -1.15 184 195 187
5.39 -9.23 -1.15 185 195 187
5.39 -9.33 -1.15 184 194 186
5.39 -9.44 -1.15 184 194 186
5.39 -9.54 -1.15 184 194 186
5.39 -9.64 -1.15 185 195 187
5.39 -9.74 -1.15 185 195 187
5.39 -9.84 -1.15 186 196 187
5.39 -9.94 -1.15 186 196 187
5.39 -10.04 -1.15 186 196 187
5.39 -10.14 -1.15 186 196 187
5.39 -10.24 -1.15 187 197 189
5.39 -10.34 -1.15 188 198 190
5.17 -10.43 -0.97 189 199 191
5.17 -10.53 -0.97 190 200 192
5.39 -10.64 -1.15 187 197 189
5.39 -10.74 -1.15 188 198 190
5.17 -10.82 -0.97 189 199 191
5.17 -10.92 -0.97 189 199 191
5.17 -11.02 -0.97 188 197 192
5.17 -11.12 -0.97 188 197 192
5.39 -11.24 -1.15 188 197 192
5.39 -11.34 -1.15 188 197 192
5.39 -11.44 -1.15 188 197 194
5.39 -11.54 -1.15 188 197 194
5.39 -11.65 -1.15 189 198 195
5.17 -11.72 -0.97 189 198 195
5.17 -11.82 -0.97 189 198 195
5.17 -11.92 -0.97 190 199 196
5.17 -12.02 -0.97 190 199 196
5.17 -12.12 -0.97 188 197 194
5.17 -12.22 -0.97 188 197 194
5.17 -12.32 -0.97 189 198 195
5.17 -12.42 -0.97 189 198 195
5.17 -12.52 -0.97 190 199 196
5.17 -12.62 -0.97 190 199 196
5.17 -12.72 -0.97 190 199 196
5.17 -12.82 -0.97 189 198 195
5.39 -12.95 -1.15 191 200 197
5.39 -13.05 -1.15 191 200 197
5.39 -13.15 -1.15 191 200 197
5.17 -13.22 -0.97 191 200 197
5.39 -13.35 -1.15 190 199 196
5.39 -13.45 -1.15 190 199 196
5.39 -13.55 -1.15 191 200 197
5.39 -13.65 -1.15 192 201 198
5.39 -13.75 -1.15 192 201 198
5.39 -13.85 -1.15 191 200 197
5.39 -13.96 -1.15 191 200 197
5.39 -14.06 -1.15 191 200 197
5.39 -14.16 -1.15 191 200 197
5.39 -14.26 -1.15 192 201 198
5.39 -14.36 -1.15 194 203 200
5.17 -14.42 -0.97 193 203 195
5.17 -14.52 -0.97 193 203 195
5.17 -14.62 -0.97 194 204 196
5.17 -14.72 -0.97 195 205 197
5.17 -14.82 -0.97 195 204 199
5.17 -14.92 -0.97 196 205 200
5.17 -15.02 -0.97 196 205 200
5.17 -15.12 -0.97 196 205 200
5.39 -15.26 -1.15 197 206 201
5.39 -15.36 -1.15 198 207 202
5.39 -15.46 -1.15 199 208 205
5.17 -15.52 -0.97 200 209 206
5.17 -15.62 -0.97 201 210 207
5.17 -15.72 -0.97 201 210 207
5.17 -15.82 -0.97 201 210 207
5.17 -15.92 -0.97 201 210 207
5.17 -16.02 -0.97 202 213 209
5.17 -16.12 -0.97 202 213 209
5.17 -16.22 -0.97 203 212 209
5.17 -16.32 -0.97 204 213 210
5.17 -16.42 -0.97 206 215 212
5.17 -16.52 -0.97 207 216 213
5.17 -16.62 -0.97 208 217 214
5.17 -16.72 -0.97 207 216 213
5.17 -16.82 -0.97 208 217 214
5.17 -16.92 -0.97 212 218 216
5.17 -17.02 -0.97 212 218 216
4.95 -17.08 -0.79 212 218 216
4.95 -17.17 -0.79 212 218 216
4.95 -17.27 -0.79 214 220 218
4.95 -17.37 -0.79 217 223 221
4.95 -17.47 -0.79 218 224 222
4.76 -17.93 -0.63 223 229 227
4.76 -18.02 -0.63 224 230 228
4.76 -18.12 -0.63 225 231 229
4.76 -18.22 -0.63 227 233 231
4.76 -18.32 -0.63 229 235 233
4.76 -18.42 -0.63 231 237 235
4.76 -18.52 -0.63 231 237 235
4.76 -18.62 -0.63 230 236 234
4.54 -18.66 -0.44 228 234 232
4.54 -18.76 -0.44 226 232 230
4.54 -18.86 -0.44 238 244 240
4.54 -18.96 -0.44 238 244 240
4.54 -19.06 -0.44 239 245 241
4.54 -19.16 -0.44 238 244 240
-9.57 14.38 11.24 0 0 0
-9.57 14.32 11.24 0 0 0
-9.49 14.17 11.17 0 0 0
-9.49 14.11 11.17 0 0 0
-9.49 14.04 11.17 0 0 0
-9.38 14.05 11.08 0 0 0
-9.38 13.98 11.08 0 0 0
-9.38 13.91 11.08 162 105 78
-9.38 13.84 11.08 162 105 78
-9.27 13.85 10.99 162 105 78
-9.27 13.78 10.99 164 107 78
-9.27 13.72 10.99 165 108 79
-9.19 13.71 10.92 167 113 79
-9.19 13.64 10.92 168 114 80
-9.08 13.64 10.83 168 114 78
-9.08 13.58 10.83 168 114 78
-8.97 13.58 10.74 169 117 80
-8.97 13.51 10.74 172 120 83
-8.97 13.44 10.74 175 122 88
-8.89 13.43 10.67 176 123 91
-8.89 13.36 10.67 174 124 91
-8.89 13.29 10.67 173 122 91
-8.78 13.30 10.58 172 121 92
-8.78 13.23 10.58 172 121 92
-8.78 13.16 10.58 173 124 92
-8.67 13.16 10.48 173 124 92
-8.67 13.09 10.48 174 123 92
-8.56 13.09 10.39 178 125 93
-8.56 13.02 10.39 177 124 92
-8.48 13.01 10.33 177 122 91
-8.48 12.94 10.33 176 121 90
-8.48 12.87 10.33 176 121 90
-8.37 12.87 10.23 176 121 90
-8.37 12.80 10.23 178 122 89
5.12 18.76 -1.05 16 8 0
5.12 18.66 -1.05 45 36 27
5.34 18.69 -1.24 137 128 121
5.34 18.59 -1.24 160 151 144
5.34 18.49 -1.24 153 146 140
5.34 18.39 -1.24 150 143 137
5.34 18.29 -1.24 148 140 137
5.34 18.19 -1.24 151 143 140
5.34 18.09 -1.24 149 141 138
5.55 18.11 -1.42 149 141 138
5.55 18.01 -1.42 151 143 141
5.55 17.91 -1.42 148 140 138
5.55 17.81 -1.42 150 145 142
5.55 17.70 -1.42 146 141 138
5.55 17.60 -1.42 150 147 142
5.55 17.50 -1.42 146 145 140
5.55 17.40 -1.42 149 148 143
5.55 17.30 -1.42 145 145 137
5.55 17.20 -1.42 145 145 137
5.55 17.10 -1.42 146 146 138
5.55 17.00 -1.42 146 146 138
5.55 16.90 -1.42 148 145 136
5.34 16.68 -1.24 149 146 137
5.34 16.58 -1.24 149 146 137
5.34 16.48 -1.24 149 146 137
5.34 16.38 -1.24 151 147 138
5.34 16.28 -1.24 151 147 138
5.34 16.18 -1.24 152 148 139
5.55 16.19 -1.42 152 148 139
5.55 16.09 -1.42 152 149 140
5.55 15.99 -1.42 152 149 140
5.55 15.89 -1.42 152 149 140
5.55 15.79 -1.42 152 149 140
5.55 15.69 -1.42 156 153 144
5.55 15.58 -1.42 156 153 144
5.55 15.48 -1.42 154 154 144
5.55 15.38 -1.42 153 153 143
5.55 15.28 -1.42 152 152 142
5.55 15.18 -1.42 152 152 142
5.55 15.08 -1.42 153 153 145
5.55 14.98 -1.42 150 153 146
5.55 14.88 -1.42 149 151 146
5.34 14.67 -1.24 148 150 145
5.34 14.57 -1.24 149 151 146
5.34 14.47 -1.24 150 152 147
5.34 14.37 -1.24 151 153 148
5.34 14.27 -1.24 152 153 147
5.34 14.17 -1.24 151 152 146
5.55 14.17 -1.42 153 152 147
5.55 14.07 -1.42 154 153 148
5.55 13.97 -1.42 154 154 146
5.55 13.87 -1.42 155 155 147
5.55 13.77 -1.42 157 154 145
5.55 13.67 -1.42 158 155 146
5.55 13.57 -1.42 158 155 146
5.55 13.47 -1.42 158 155 148
5.55 13.36 -1.42 157 154 147
5.55 13.26 -1.42 157 154 149
5.55 13.16 -1.42 157 154 149
5.55 13.06 -1.42 156 153 148
5.55 12.96 -1.42 156 153 146
5.55 12.86 -1.42 156 153 146
5.55 12.76 -1.42 157 154 145
5.55 12.66 -1.42 158 155 146
5.55 12.56 -1.42 159 156 147
5.55 12.46 -1.42 158 155 148
5.55 12.36 -1.42 157 154 147
5.55 12.25 -1.42 156 153 148
5.55 12.15 -1.42 157 154 149
5.55 12.05 -1.42 158 154 151
5.55 11.95 -1.42 160 156 153
5.55 11.85 -1.42 159 155 152
5.55 11.75 -1.42 159 155 152
5.55 11.65 -1.42 157 154 149
5.55 11.55 -1.42 156 153 148
5.55 11.45 -1.42 154 153 148
5.55 11.35 -1.42 154 153 148
5.55 11.24 -1.42 153 154 148
5.55 11.14 -1.42 153 154 148
5.55 11.04 -1.42 150 153 146
5.55 10.94 -1.42 151 154 147
5.55 10.84 -1.42 152 155 146
5.55 10.74 -1.42 153 156 147
5.55 10.64 -1.42 150 156 146
5.55 10.54 -1.42 149 155 145
5.55 10.44 -1.42 147 153 143
5.55 10.34 -1.42 146 152 142
5.55 10.24 -1.42 149 154 147
5.55 10.13 -1.42 152 154 143
5.55 10.03 -1.42 154 151 142
5.55 9.93 -1.42 153 151 139
5.77 9.91 -1.60 152 149 140
5.77 9.81 -1.60 148 148 138
5.77 9.71 -1.60 143 148 141
1.03 7.84 2.37 132 145 138
1.03 7.75 2.37 155 174 170
1.03 7.66 2.37 179 205 204
1.03 7.57 2.37 169 197 200
1.03 7.48 2.37 165 196 199
1.03 7.39 2.37 176 207 212
0.87 7.24 2.50 193 223 231
0.87 7.15 2.50 186 217 222
0.87 7.06 2.50 186 215 219
0.87 6.97 2.50 189 218 216
0.87 6.88 2.50 188 211 205
0.87 6.79 2.50 180 197 187
0.87 6.69 2.50 205 219 202
0.87 6.60 2.50 251 255 243
0.87 6.51 2.50 245 254 233
1.03 6.48 2.37 248 255 235
1.22 6.45 2.21 250 255 240
1.39 6.42 2.07 214 224 200
1.39 6.32 2.07 159 168 139
1.58 6.30 1.91 171 177 141
1.58 6.20 1.91 213 216 173
1.77 6.17 1.75 210 212 162
1.77 6.08 1.75 209 212 159
1.77 5.99 1.75 210 215 161
1.77 5.90 1.75 226 233 181
1.77 5.80 1.75 228 235 181
1.77 5.71 1.75 254 255 207
1.77 5.62 1.75 255 255 208
1.77 5.53 1.75 254 255 207
1.77 5.43 1.75 255 255 211
1.77 5.34 1.75 254 255 209
1.77 5.25 1.75 241 248 197
1.58 5.10 1.91 241 248 197
1.58 5.01 1.91 233 240 188
1.58 4.91 1.91 233 240 186
1.58 4.82 1.91 231 239 182
1.58 4.73 1.91 209 217 157
1.58 4.64 1.91 193 202 139
1.58 4.55 1.91 204 210 146
1.39 4.40 2.07 181 183 118
1.39 4.31 2.07 152 152 90
1.39 4.22 2.07 125 125 63
1.58 4.18 1.91 229 228 172
1.58 4.09 1.91 210 209 155
1.58 3.99 1.91 207 207 155
1.58 3.90 1.91 211 211 159
1.58 3.81 1.91 219 219 165
1.77 3.77 1.75 232 232 178
1.77 3.68 1.75 240 243 190
1.77 3.58 1.75 242 244 194
1.77 3.49 1.75 229 231 181
1.77 3.40 1.75 218 220 173
1.77 3.31 1.75 225 227 180
1.77 3.21 1.75 225 226 184
