ply
format ascii 1.0
element vertex 1611
property float x
property float y
property float z
property uchar red
property uchar green
property uchar blue
end_header
-3.07 -15.03 -0.83 198 202 201
-3.07 -15.12 -0.83 199 203 202
-3.07 -15.21 -0.83 200 204 203
-3.07 -15.29 -0.83 201 205 204
-3.07 -15.38 -0.83 200 206 204
-3.07 -15.47 -0.83 200 206 204
-3.07 -15.56 -0.83 201 207 205
-3.07 -15.64 -0.83 201 207 205
-3.07 -15.73 -0.83 201 207 205
-3.07 -15.82 -0.83 200 206 204
-3.07 -15.91 -0.83 201 207 205
-3.07 -15.99 -0.83 202 208 206
-3.07 -16.08 -0.83 203 209 207
-3.07 -16.17 -0.83 204 210 208
-3.07 -16.26 -0.83 203 207 206
-3.07 -16.34 -0.83 204 208 207
-3.07 -16.43 -0.83 205 209 208
-3.07 -16.52 -0.83 206 210 209
-3.07 -16.61 -0.83 208 210 209
-3.07 -16.69 -0.83 208 210 209
-2.92 -16.82 -0.98 209 211 210
-2.92 -16.91 -0.98 209 211 210
-2.92 -17.00 -0.98 209 211 210
-3.07 -17.04 -0.83 210 212 211
-3.07 -17.13 -0.83 211 213 212
-3.07 -17.22 -0.83 213 215 214
-3.07 -17.31 -0.83 214 216 215
-3.07 -17.39 -0.83 214 216 215
-3.07 -17.48 -0.83 213 215 214
-3.07 -17.57 -0.83 216 216 214
-3.07 -17.66 -0.83 217 217 215
-3.07 -17.74 -0.83 218 218 218
-3.07 -17.83 -0.83 218 218 218
-3.07 -17.92 -0.83 218 218 218
-3.07 -18.01 -0.83 218 218 218
-3.07 -18.09 -0.83 219 219 221
-3.07 -18.18 -0.83 219 219 221
-3.07 -18.27 -0.83 217 217 219
-3.07 -18.36 -0.83 217 217 219
-3.07 -18.44 -0.83 218 218 218
-3.07 -18.53 -0.83 219 219 219
-3.07 -18.62 -0.83 219 219 219
-3.07 -18.71 -0.83 218 218 218
-3.07 -18.79 -0.83 221 221 219
-3.07 -18.88 -0.83 224 224 222
-3.07 -18.97 -0.83 221 223 222
-3.07 -19.06 -0.83 221 223 222
-3.07 -19.14 -0.83 221 221 221
-3.07 -19.23 -0.83 220 220 220
-3.07 -19.32 -0.83 222 222 222
-3.07 -19.41 -0.83 224 224 224
-3.07 -19.49 -0.83 222 222 222
-3.07 -19.58 -0.83 222 222 222
-3.07 -19.67 -0.83 219 219 219
-3.07 -19.76 -0.83 222 222 222
-3.07 -19.84 -0.83 227 227 227
-3.07 -19.93 -0.83 226 226 226
-3.07 -20.02 -0.83 221 221 221
-3.07 -20.11 -0.83 222 224 223
-3.07 -20.19 -0.83 228 230 229
-3.07 -20.28 -0.83 227 227 227
-3.07 -20.37 -0.83 228 228 228
-3.07 -20.46 -0.83 229 229 229
-3.07 -20.54 -0.83 229 229 229
-3.23 -20.58 -0.67 230 230 230
-3.23 -20.66 -0.67 230 230 230
-3.23 -20.75 -0.67 230 230 230
-3.07 -20.89 -0.83 229 229 229
-3.07 -20.98 -0.83 225 225 225
-3.07 -21.07 -0.83 226 226 226
-3.07 -21.16 -0.83 228 228 228
-3.07 -21.24 -0.83 230 230 230
-3.07 -21.33 -0.83 231 231 231
-3.07 -21.42 -0.83 233 233 233
-3.07 -21.51 -0.83 234 234 234
-3.07 -21.59 -0.83 233 233 233
-3.07 -21.68 -0.83 233 233 233
-3.07 -21.77 -0.83 234 234 234
-3.07 -21.86 -0.83 233 233 233
-3.07 -21.94 -0.83 233 233 233
-3.07 -22.03 -0.83 234 234 234
-3.07 -22.12 -0.83 236 236 236
-3.07 -22.20 -0.83 237 237 237
-3.07 -22.29 -0.83 236 236 236
-3.07 -22.38 -0.83 236 236 236
-3.07 -22.47 -0.83 236 236 236
-3.07 -22.55 -0.83 236 236 236
-3.07 -22.64 -0.83 235 235 235
-3.07 -22.73 -0.83 235 235 235
-3.23 -22.75 -0.67 236 236 236
-3.23 -22.84 -0.67 236 236 236
-3.23 -22.93 -0.67 238 238 238
-3.23 -23.01 -0.67 238 238 238
-3.23 -23.10 -0.67 238 238 238
-3.23 -23.19 -0.67 238 238 238
-3.07 -23.34 -0.83 238 238 238
-3.07 -23.43 -0.83 237 237 237
-3.07 -23.52 -0.83 237 237 237
-3.07 -23.60 -0.83 237 237 237
-3.07 -23.69 -0.83 239 239 239
-3.07 -23.78 -0.83 240 240 240
-3.07 -23.87 -0.83 240 240 240
-3.07 -23.95 -0.83 240 240 240
-3.07 -24.04 -0.83 239 239 239
-3.07 -24.13 -0.83 238 238 238
-3.07 -24.22 -0.83 238 238 238
-3.07 -24.30 -0.83 240 240 240
-3.07 -24.39 -0.83 239 239 239
-3.07 -24.48 -0.83 239 239 239
-3.07 -24.57 -0.83 239 239 239
-3.07 -24.65 -0.83 240 240 240
-3.07 -24.74 -0.83 241 241 241
-3.07 -24.83 -0.83 241 241 241
-3.07 -24.92 -0.83 241 241 241
-3.07 -25.00 -0.83 243 243 243
-3.23 -25.02 -0.67 243 243 243
-3.23 -25.10 -0.67 242 242 242
-3.23 -25.19 -0.67 241 241 241
-3.23 -25.28 -0.67 240 240 240
-3.23 -25.37 -0.67 240 240 240
-3.07 -25.53 -0.83 240 240 240
-3.07 -25.62 -0.83 241 241 241
-3.07 -25.70 -0.83 242 242 242
-3.23 -25.71 -0.67 242 242 242
-3.23 -25.80 -0.67 239 239 239
-3.23 -25.89 -0.67 239 239 239
-3.23 -25.98 -0.67 240 240 240
-3.07 -26.14 -0.83 241 241 241
-3.07 -26.23 -0.83 241 241 241
-3.07 -26.32 -0.83 240 240 240
-3.07 -26.40 -0.83 242 242 242
-3.07 -26.49 -0.83 243 243 243
-3.07 -26.58 -0.83 243 243 243
-3.23 -26.59 -0.67 241 241 241
-3.23 -26.67 -0.67 240 240 240
-3.23 -26.76 -0.67 241 241 241
-3.23 -26.85 -0.67 242 242 242
-3.23 -26.93 -0.67 241 241 241
-3.23 -27.02 -0.67 240 240 240
-3.23 -27.11 -0.67 239 239 239
-3.23 -27.20 -0.67 240 240 240
-3.23 -27.28 -0.67 242 242 242
-3.07 -27.45 -0.83 244 244 244
-3.07 -27.54 -0.83 244 244 244
-3.07 -27.63 -0.83 244 244 244
-3.07 -27.72 -0.83 243 243 243
-3.07 -27.80 -0.83 243 243 243
-3.07 -27.89 -0.83 243 243 243
-3.07 -27.98 -0.83 243 243 243
-3.07 -28.07 -0.83 242 242 242
-3.07 -28.15 -0.83 242 242 242
-3.07 -28.24 -0.83 241 241 241
-3.07 -28.33 -0.83 241 241 241
-3.07 -28.42 -0.83 241 241 241
-3.23 -28.42 -0.67 240 240 240
-3.23 -28.50 -0.67 240 240 240
-3.23 -28.59 -0.67 241 241 241
-3.23 -28.68 -0.67 241 241 241
-3.23 -28.76 -0.67 241 241 241
-3.23 -28.85 -0.67 241 241 241
-3.23 -28.94 -0.67 240 240 240
-3.23 -29.02 -0.67 240 240 240
-3.23 -29.11 -0.67 241 241 241
-3.07 -29.29 -0.83 243 243 243
-3.07 -29.38 -0.83 244 244 244
-3.23 -29.37 -0.67 244 244 244
-3.23 -29.46 -0.67 244 244 244
-3.23 -29.55 -0.67 243 243 243
-3.07 -29.73 -0.83 243 245 244
-3.07 -29.81 -0.83 242 244 243
-3.07 -29.90 -0.83 242 244 243
-3.07 -29.99 -0.83 242 244 243
-3.07 -30.08 -0.83 242 244 243
-3.07 -30.16 -0.83 241 243 242
-3.07 -30.25 -0.83 241 243 242
-3.07 -30.34 -0.83 240 240 240
-3.07 -30.43 -0.83 240 240 240
-3.07 -30.51 -0.83 239 239 239
-3.07 -30.60 -0.83 240 240 240
-3.23 -30.59 -0.67 241 241 241
-3.23 -30.68 -0.67 242 242 242
-3.23 -30.77 -0.67 240 240 240
-3.23 -30.85 -0.67 239 239 239
-3.23 -30.94 -0.67 240 238 239
-3.23 -31.03 -0.67 240 238 239
-3.23 -31.12 -0.67 241 239 240
-3.23 -31.20 -0.67 241 239 240
-3.23 -31.29 -0.67 240 238 239
-3.23 -31.38 -0.67 239 237 238
-3.23 -31.46 -0.67 239 237 238
-3.23 -31.55 -0.67 238 236 237
-3.23 -31.64 -0.67 238 236 237
-3.23 -31.73 -0.67 238 236 237
-3.23 -31.81 -0.67 240 238 239
-3.23 -31.90 -0.67 240 238 239
-3.23 -31.99 -0.67 242 240 241
-3.23 -32.07 -0.67 243 241 242
-3.07 -32.26 -0.83 244 242 243
-3.07 -32.35 -0.83 244 244 244
-3.07 -32.44 -0.83 243 243 243
-3.07 -32.53 -0.83 243 243 243
-3.07 -32.61 -0.83 243 243 243
-3.07 -32.70 -0.83 243 243 243
-3.23 -32.86 -0.67 246 246 246
-3.23 -32.94 -0.67 248 248 248
-3.23 -33.03 -0.67 248 248 248
-3.23 -33.12 -0.67 248 248 248
-3.23 -33.21 -0.67 248 248 248
-3.23 -33.29 -0.67 250 250 250
-3.23 -33.38 -0.67 251 251 251
-3.38 -33.36 -0.51 251 251 251
-3.38 -33.45 -0.51 251 251 251
-3.38 -33.53 -0.51 0 0 0
-3.38 -33.62 -0.51 0 0 0
-3.38 -33.71 -0.51 0 0 0
-3.38 -33.79 -0.51 0 0 0
-3.23 -33.99 -0.67 0 0 0
-3.23 -34.08 -0.67 0 0 0
-3.23 -34.16 -0.67 0 0 0
-3.23 -34.25 -0.67 0 0 0
-3.23 -34.34 -0.67 0 0 0
-3.23 -34.77 -0.67 0 0 0
-3.23 -34.86 -0.67 0 0 0
-2.66 21.27 -1.37 0 0 0
-2.66 21.18 -1.37 0 0 0
-2.81 20.98 -1.21 0 0 0
-2.81 20.89 -1.21 0 0 0
-2.81 20.80 -1.21 0 0 0
-2.81 20.71 -1.21 0 0 0
-2.81 20.62 -1.21 0 0 0
-2.81 20.54 -1.21 0 0 0
-2.81 20.45 -1.21 0 0 0
-2.81 20.36 -1.21 114 106 93
-2.81 20.27 -1.21 114 106 93
-2.81 20.18 -1.21 116 108 95
-2.81 20.10 -1.21 113 107 93
-2.81 20.01 -1.21 112 106 92
-2.81 19.92 -1.21 116 110 96
-2.81 19.83 -1.21 115 109 95
-2.66 19.85 -1.37 114 108 94
-2.66 19.77 -1.37 116 110 96
-2.66 19.68 -1.37 113 107 93
-2.66 19.59 -1.37 114 108 94
-2.66 19.50 -1.37 115 109 97
-2.66 19.41 -1.37 116 110 98
-2.66 19.32 -1.37 116 110 98
-2.66 19.23 -1.37 117 111 99
-2.66 19.15 -1.37 118 112 100
-2.66 19.06 -1.37 119 112 102
-2.66 18.97 -1.37 119 110 101
-2.66 18.88 -1.37 118 109 104
-2.66 18.79 -1.37 119 110 105
-2.66 18.70 -1.37 124 114 113
-2.66 18.61 -1.37 123 113 112
-2.66 18.53 -1.37 124 115 110
-2.81 18.33 -1.21 127 118 113
-2.81 18.24 -1.21 128 119 110
-2.66 18.26 -1.37 127 118 109
-2.66 18.17 -1.37 130 122 109
-2.66 18.08 -1.37 132 124 111
-2.66 17.99 -1.37 132 124 113
-2.66 17.91 -1.37 129 120 111
-2.81 17.71 -1.21 131 122 113
-2.81 17.63 -1.21 135 126 119
-2.81 17.54 -1.21 137 130 122
-2.81 17.45 -1.21 137 130 122
-2.66 17.46 -1.37 137 130 122
-2.66 17.37 -1.37 137 130 122
-2.66 17.29 -1.37 135 131 122
-2.81 17.10 -1.21 135 131 122
-2.66 17.11 -1.37 134 131 122
-2.66 17.02 -1.37 134 131 122
-2.66 16.93 -1.37 137 132 126
-2.81 16.74 -1.21 137 132 126
-2.81 16.66 -1.21 139 132 126
-2.66 16.67 -1.37 141 132 127
-2.66 16.58 -1.37 145 134 130
-2.81 16.39 -1.21 148 134 131
-2.81 16.30 -1.21 146 135 133
-2.81 16.21 -1.21 141 133 130
-2.81 16.13 -1.21 140 135 132
-2.81 16.04 -1.21 144 136 134
-2.81 15.95 -1.21 146 138 136
-2.81 15.86 -1.21 146 138 136
-2.81 15.77 -1.21 146 138 136
-2.97 15.59 -1.06 144 136 134
-2.97 15.50 -1.06 144 136 134
-2.97 15.41 -1.06 147 139 137
-2.97 15.33 -1.06 147 139 137
-9.76 10.64 5.87 147 142 139
-9.76 10.57 5.87 145 140 137
-9.76 10.50 5.87 144 139 135
-9.76 10.42 5.87 144 139 135
-9.76 10.35 5.87 146 141 137
-9.76 10.28 5.87 147 142 139
-9.76 10.21 5.87 146 140 142
-9.76 10.14 5.87 140 136 137
-9.76 10.07 5.87 139 134 138
-9.76 9.99 5.87 136 134 139
-9.76 9.92 5.87 135 133 138
-9.76 9.85 5.87 136 134 137
-9.76 9.78 5.87 136 134 135
-9.65 9.76 5.77 132 132 130
-9.65 9.69 5.77 129 128 124
-9.65 9.62 5.77 134 126 124
-9.65 9.55 5.77 129 119 118
-9.65 9.48 5.77 116 105 103
-9.65 9.41 5.77 101 87 86
-9.65 9.33 5.77 89 74 69
-9.65 9.26 5.77 85 66 60
-9.65 9.19 5.77 83 60 54
-9.65 9.12 5.77 81 54 45
-9.65 9.05 5.77 90 60 50
-9.65 8.97 5.77 94 60 50
-9.55 8.96 5.66 95 59 45
-9.55 8.88 5.66 103 63 51
-9.55 8.81 5.66 114 72 56
-9.55 8.74 5.66 112 69 53
-9.55 8.67 5.66 120 75 56
-9.55 8.60 5.66 127 83 58
-9.45 8.58 5.56 131 87 60
-9.45 8.51 5.56 139 94 65
-9.45 8.43 5.56 148 101 73
-9.35 8.12 5.46 168 115 81
-9.35 8.05 5.46 168 115 81
-9.35 7.98 5.46 171 121 84
-9.25 7.96 5.35 174 124 87
-9.25 7.88 5.35 173 125 87
-9.25 7.81 5.35 178 130 92
-9.25 7.74 5.35 186 138 100
-9.12 7.73 5.22 188 140 104
-9.12 7.65 5.22 190 141 108
-9.12 7.58 5.22 192 143 111
-9.02 7.56 5.12 195 146 116
-9.02 7.48 5.12 197 148 118
-9.02 7.41 5.12 195 148 118
-9.02 7.34 5.12 194 147 117
-8.92 7.31 5.02 194 147 117
-8.92 7.24 5.02 190 143 113
-8.92 7.16 5.02 186 139 109
-8.92 7.09 5.02 189 140 108
-8.92 7.02 5.02 189 140 108
-8.82 6.99 4.91 188 138 105
-8.82 6.92 4.91 191 141 108
-8.82 6.84 4.91 193 143 108
-8.82 6.77 4.91 191 141 106
-8.82 6.70 4.91 195 145 110
-8.69 6.68 4.78 194 144 109
-8.69 6.60 4.78 195 142 108
-8.59 6.58 4.68 193 140 106
-8.59 6.50 4.68 194 139 108
-8.59 6.43 4.68 194 139 108
-8.59 6.35 4.68 195 140 109
-8.59 6.28 4.68 196 141 110
-8.48 6.25 4.57 195 140 109
-8.48 6.17 4.57 196 141 110
-8.36 6.15 4.44 197 142 112
-2.81 7.92 -1.21 193 137 112
-2.81 7.84 -1.21 196 140 115
-2.81 7.75 -1.21 201 144 117
-2.97 7.60 -1.06 202 145 118
-3.12 7.45 -0.90 200 144 117
-3.12 7.36 -0.90 197 143 115
-3.27 7.21 -0.75 195 144 117
-3.27 7.12 -0.75 197 150 124
-3.42 6.98 -0.59 190 149 121
-3.42 6.89 -0.59 188 151 125
-3.42 6.80 -0.59 180 146 119
-3.42 6.72 -0.59 163 133 107
-3.58 6.57 -0.43 151 123 99
-3.58 6.49 -0.43 137 115 92
-3.58 6.40 -0.43 120 105 86
-3.58 6.31 -0.43 112 103 88
-3.58 6.23 -0.43 108 101 85
-3.58 6.14 -0.43 102 98 86
-3.58 6.05 -0.43 94 94 84
-3.58 5.97 -0.43 89 92 85
-3.58 5.88 -0.43 88 95 88
-3.58 5.79 -0.43 91 100 97
-3.58 5.71 -0.43 86 98 94
-3.58 5.62 -0.43 81 96 93
-3.58 5.53 -0.43 83 98 95
-3.58 5.45 -0.43 89 101 97
-3.58 5.36 -0.43 91 103 99
-3.58 5.28 -0.43 91 102 96
-3.58 5.19 -0.43 91 100 95
-3.58 5.10 -0.43 93 95 94
-3.58 5.02 -0.43 97 97 97
-3.58 4.93 -0.43 99 100 102
-3.58 4.84 -0.43 99 100 102
-3.73 4.71 -0.28 98 99 101
-3.73 4.62 -0.28 98 99 101
-3.73 4.53 -0.28 96 100 99
-3.73 4.45 -0.28 97 101 100
-3.73 4.36 -0.28 98 105 98
-3.73 4.28 -0.28 96 103 96
-3.73 4.19 -0.28 92 102 93
-3.73 4.10 -0.28 91 101 93
-3.73 4.02 -0.28 90 101 93
-3.73 3.93 -0.28 91 102 98
-3.73 3.85 -0.28 93 104 100
-3.73 3.76 -0.28 94 104 105
-3.73 3.67 -0.28 91 101 103
-3.73 3.59 -0.28 91 100 105
-3.73 3.50 -0.28 91 101 103
-3.73 3.42 -0.28 92 102 103
-3.73 3.33 -0.28 93 103 104
-3.73 3.24 -0.28 94 104 103
-3.73 3.16 -0.28 95 105 104
-3.73 3.07 -0.28 91 102 98
-3.73 2.99 -0.28 94 105 101
-3.73 2.90 -0.28 97 109 105
-3.73 2.81 -0.28 96 108 104
-3.73 2.73 -0.28 94 106 102
-3.73 2.64 -0.28 94 106 102
-3.73 2.56 -0.28 98 110 106
-3.73 2.47 -0.28 102 114 112
-3.73 2.38 -0.28 105 117 117
-3.73 2.30 -0.28 102 113 115
-3.73 2.21 -0.28 97 111 111
-3.73 2.13 -0.28 99 113 113
-3.73 2.04 -0.28 101 115 115
-3.73 1.95 -0.28 101 115 115
-3.86 1.84 -0.15 100 115 112
-3.86 1.75 -0.15 101 116 113
-3.86 1.66 -0.15 105 120 117
-3.86 1.58 -0.15 106 121 118
-3.86 1.49 -0.15 106 121 118
-3.86 1.41 -0.15 107 122 119
-3.86 1.32 -0.15 111 127 124
-3.86 1.24 -0.15 111 127 126
-3.86 1.15 -0.15 110 125 122
-3.86 1.06 -0.15 113 125 121
-3.86 0.98 -0.15 113 124 118
-3.86 0.89 -0.15 115 124 119
-3.86 0.81 -0.15 118 127 122
-3.86 0.72 -0.15 119 128 125
-3.86 0.64 -0.15 118 127 124
-3.86 0.55 -0.15 118 127 126
-3.86 0.46 -0.15 120 129 128
-3.86 0.38 -0.15 120 129 128
-3.86 0.29 -0.15 118 127 126
-3.86 0.21 -0.15 115 125 126
-3.86 0.12 -0.15 117 127 128
-3.86 0.04 -0.15 118 128 129
-3.86 -0.05 -0.15 118 128 129
-3.86 -0.14 -0.15 113 124 126
-3.86 -0.22 -0.15 109 121 121
-3.86 -0.31 -0.15 113 128 121
-3.86 -0.39 -0.15 114 130 120
-3.86 -0.48 -0.15 117 133 123
-3.86 -0.56 -0.15 118 134 124
-3.86 -0.65 -0.15 116 132 122
-3.86 -0.74 -0.15 111 127 117
-3.86 -0.82 -0.15 112 128 118
-3.86 -0.91 -0.15 123 136 127
-3.86 -0.99 -0.15 123 136 127
-3.86 -1.08 -0.15 125 137 127
-3.86 -1.16 -0.15 126 138 128
-3.86 -1.25 -0.15 128 138 129
-3.86 -1.34 -0.15 127 137 128
-3.86 -1.42 -0.15 128 135 127
-3.86 -1.51 -0.15 126 133 126
-3.86 -1.59 -0.15 126 137 129
-3.86 -1.68 -0.15 123 134 128
-3.86 -1.76 -0.15 121 132 128
-3.86 -1.85 -0.15 122 133 129
-3.86 -1.94 -0.15 124 136 134
-3.86 -2.02 -0.15 124 136 134
-3.86 -2.11 -0.15 122 137 132
-3.86 -2.19 -0.15 122 137 132
-3.86 -2.28 -0.15 134 150 140
-3.86 -2.36 -0.15 132 148 138
-3.86 -2.45 -0.15 131 147 136
-3.86 -2.54 -0.15 130 146 136
-3.86 -2.62 -0.15 133 146 139
-3.86 -2.71 -0.15 132 144 142
-4.01 -2.81 0.01 130 142 140
-4.01 -2.90 0.01 144 159 152
-4.01 -2.98 0.01 141 157 147
-4.01 -3.07 0.01 135 152 144
-4.01 -3.15 0.01 131 148 140
-4.01 -3.24 0.01 127 146 140
-4.01 -3.32 0.01 126 145 139
-4.01 -3.41 0.01 125 146 141
-4.01 -3.50 0.01 124 145 140
-4.01 -3.58 0.01 138 159 154
-4.01 -3.67 0.01 137 158 153
-4.01 -3.75 0.01 139 158 152
-4.01 -3.84 0.01 144 161 155
-4.01 -3.92 0.01 140 157 147
-4.01 -4.01 0.01 136 152 142
-4.01 -4.09 0.01 140 153 143
-4.01 -4.18 0.01 147 160 151
-4.01 -4.26 0.01 140 157 149
-3.86 -4.34 -0.15 139 156 150
-3.86 -4.42 -0.15 137 153 150
-3.86 -4.51 -0.15 134 150 149
-4.01 -4.61 0.01 131 147 146
-4.01 -4.69 0.01 130 146 146
-4.01 -4.78 0.01 131 145 148
-4.16 -4.87 0.16 131 142 146
-4.16 -4.96 0.16 116 127 131
-4.01 -5.03 0.01 133 142 147
-4.01 -5.12 0.01 138 147 152
-4.01 -5.20 0.01 147 155 158
-4.01 -5.29 0.01 148 156 159
-3.86 -5.36 -0.15 143 148 152
-3.86 -5.45 -0.15 148 153 157
-3.73 -5.53 -0.28 147 157 156
-3.42 -5.60 -0.59 148 158 157
-3.12 -5.67 -0.90 149 159 158
-3.12 -5.76 -0.90 149 159 158
-2.97 -5.84 -1.06 148 158 157
-2.97 -5.93 -1.06 148 158 157
-2.97 -6.02 -1.06 150 160 159
-2.97 -6.10 -1.06 153 163 162
-2.97 -6.19 -1.06 153 164 160
-2.97 -6.28 -1.06 155 166 162
-2.97 -6.37 -1.06 157 168 164
-2.97 -6.46 -1.06 159 170 166
-2.97 -6.54 -1.06 161 170 167
-2.97 -6.63 -1.06 161 170 167
-2.97 -6.72 -1.06 160 169 166
-2.97 -6.81 -1.06 159 168 165
-2.97 -6.90 -1.06 161 170 169
-2.97 -6.98 -1.06 162 171 170
-2.97 -7.07 -1.06 163 172 171
-2.97 -7.16 -1.06 164 173 172
-2.97 -7.25 -1.06 164 173 172
-2.97 -7.33 -1.06 163 172 171
-2.97 -7.42 -1.06 163 172 171
-2.97 -7.51 -1.06 165 174 171
-2.97 -7.60 -1.06 162 171 168
-2.97 -7.69 -1.06 164 173 170
-2.97 -7.77 -1.06 170 179 176
-2.81 -7.86 -1.21 175 184 179
-2.97 -7.95 -1.06 176 185 180
-2.97 -8.04 -1.06 176 185 180
-2.97 -8.13 -1.06 177 186 181
-2.97 -8.21 -1.06 176 187 183
-2.97 -8.30 -1.06 176 187 183
-2.97 -8.39 -1.06 178 187 184
-3.12 -8.47 -0.90 179 188 185
-3.12 -8.56 -0.90 179 188 183
-3.12 -8.65 -0.90 177 186 181
-3.12 -8.73 -0.90 177 186 181
-3.12 -8.82 -0.90 179 188 183
-3.12 -8.91 -0.90 179 188 183
-3.12 -9.00 -0.90 182 189 182
-3.12 -9.08 -0.90 182 189 182
-3.12 -9.17 -0.90 181 188 181
-3.12 -9.26 -0.90 180 187 180
-3.12 -9.35 -0.90 180 187 180
-2.97 -9.44 -1.06 180 187 180
-2.97 -9.53 -1.06 179 191 181
-2.97 -9.62 -1.06 179 191 181
-3.12 -9.70 -0.90 179 190 182
-3.12 -9.78 -0.90 180 191 183
-3.12 -10.22 -0.90 180 189 188
-3.27 -10.30 -0.75 181 190 189
-3.27 -10.38 -0.75 182 191 190
-3.27 -10.47 -0.75 182 191 190
-3.27 -10.56 -0.75 182 191 188
-3.27 -10.65 -0.75 182 191 188
-3.27 -10.73 -0.75 181 190 187
-3.27 -10.82 -0.75 180 189 186
-3.27 -10.91 -0.75 183 189 187
-3.27 -10.99 -0.75 183 189 187
-3.12 -11.10 -0.90 183 189 187
-3.12 -11.18 -0.90 184 190 188
-3.12 -11.27 -0.90 185 191 189
-3.12 -11.36 -0.90 185 191 189
-3.12 -11.45 -0.90 186 192 190
-3.12 -11.53 -0.90 185 191 189
-3.12 -11.62 -0.90 185 191 189
-3.12 -11.71 -0.90 186 192 190
-3.12 -11.80 -0.90 187 193 191
-3.12 -11.88 -0.90 187 193 191
-3.12 -11.97 -0.90 188 194 192
-3.12 -12.06 -0.90 188 194 192
-3.12 -12.15 -0.90 189 193 192
-3.12 -12.23 -0.90 189 193 192
-3.12 -12.32 -0.90 191 193 192
-3.12 -12.41 -0.90 190 194 193
-3.12 -12.50 -0.90 190 194 193
-3.12 -12.58 -0.90 190 194 193
-3.12 -12.67 -0.90 190 194 193
-3.12 -12.76 -0.90 190 194 193
-3.12 -12.85 -0.90 190 194 193
-3.12 -12.93 -0.90 188 194 192
-3.12 -13.02 -0.90 188 194 192
-3.12 -13.11 -0.90 188 194 192
-3.12 -13.20 -0.90 189 195 193
-3.12 -13.28 -0.90 189 195 193
-3.12 -13.37 -0.90 190 196 194
-3.12 -13.46 -0.90 190 196 194
-3.12 -13.55 -0.90 192 196 195
-3.12 -13.63 -0.90 193 197 196
-3.12 -13.72 -0.90 193 197 196
-3.12 -13.81 -0.90 192 196 195
-3.12 -13.90 -0.90 191 195 194
-3.12 -13.98 -0.90 192 196 195
-3.12 -14.07 -0.90 194 198 197
-3.12 -14.16 -0.90 195 199 198
-3.27 -14.22 -0.75 194 198 197
-3.27 -14.30 -0.75 194 198 197
-3.27 -14.39 -0.75 197 199 198
-3.27 -14.48 -0.75 199 201 200
-3.27 -14.57 -0.75 199 201 200
-3.27 -14.65 -0.75 198 200 199
-3.27 -14.74 -0.75 198 200 199
-3.27 -14.83 -0.75 198 200 199
-3.12 -14.94 -0.90 197 201 200
-3.12 -15.03 -0.90 197 201 200
-3.27 -15.09 -0.75 199 203 202
-3.27 -15.17 -0.75 200 204 203
-3.12 -15.29 -0.90 201 205 204
-3.12 -15.38 -0.90 202 206 205
-3.12 -15.47 -0.90 201 205 204
-3.12 -15.56 -0.90 203 207 206
-3.12 -15.64 -0.90 203 207 206
-3.27 -15.70 -0.75 202 206 205
-3.27 -15.78 -0.75 202 206 205
-3.27 -15.87 -0.75 202 206 205
-3.12 -15.99 -0.90 203 207 206
-3.12 -16.08 -0.90 205 209 208
-3.12 -16.17 -0.90 206 210 209
-3.12 -16.26 -0.90 208 210 209
-3.12 -16.34 -0.90 208 210 209
-3.12 -16.43 -0.90 208 210 209
-3.12 -16.52 -0.90 208 210 209
-3.12 -16.61 -0.90 208 210 209
-3.12 -16.69 -0.90 208 210 209
-3.12 -16.78 -0.90 208 210 209
-3.12 -16.87 -0.90 209 211 210
-3.12 -16.96 -0.90 211 213 212
-3.12 -17.04 -0.90 211 213 212
-3.12 -17.13 -0.90 211 213 212
-3.12 -17.22 -0.90 212 214 213
-3.12 -17.31 -0.90 213 215 214
-3.12 -17.39 -0.90 211 213 212
-3.12 -17.48 -0.90 210 212 211
-3.12 -17.57 -0.90 214 214 212
-3.12 -17.66 -0.90 215 215 213
-3.12 -17.74 -0.90 215 215 215
-3.12 -17.83 -0.90 215 215 215
-3.12 -17.92 -0.90 215 215 215
-3.12 -18.01 -0.90 215 215 215
-3.12 -18.09 -0.90 216 216 218
-3.27 -18.14 -0.75 216 216 218
-3.27 -18.22 -0.75 217 217 219
-3.27 -18.31 -0.75 216 216 218
-3.27 -18.40 -0.75 217 217 217
-3.27 -18.48 -0.75 218 218 218
-3.27 -18.57 -0.75 216 216 216
-3.27 -18.66 -0.75 215 215 215
-3.27 -18.75 -0.75 215 215 213
-3.27 -18.83 -0.75 217 217 215
-3.12 -18.97 -0.90 217 219 218
-3.12 -19.06 -0.90 216 218 217
-3.12 -19.14 -0.90 218 218 218
-3.12 -19.23 -0.90 222 222 222
-3.12 -19.32 -0.90 224 224 224
-3.12 -19.41 -0.90 224 224 224
-3.12 -19.49 -0.90 228 226 227
-3.12 -19.58 -0.90 234 232 233
-3.12 -19.67 -0.90 226 224 225
-3.12 -19.76 -0.90 222 222 222
-3.12 -19.84 -0.90 225 225 225
-3.12 -19.93 -0.90 226 226 226
-3.12 -20.02 -0.90 224 224 224
-3.27 -20.05 -0.75 223 225 224
-3.27 -20.14 -0.75 226 228 227
-3.27 -20.23 -0.75 225 225 225
-3.27 -20.31 -0.75 227 227 227
-3.27 -20.40 -0.75 228 228 228
-3.27 -20.49 -0.75 228 228 228
-3.27 -20.58 -0.75 229 229 229
-3.27 -20.66 -0.75 230 230 230
-3.27 -20.75 -0.75 230 230 230
-3.27 -20.84 -0.75 229 229 229
-3.27 -20.92 -0.75 227 227 227
-3.27 -21.01 -0.75 228 228 228
-3.27 -21.10 -0.75 229 229 229
-3.27 -21.19 -0.75 229 229 229
-3.27 -21.27 -0.75 230 230 230
-3.27 -21.36 -0.75 230 230 230
-3.27 -21.45 -0.75 231 231 231
-3.27 -21.53 -0.75 233 233 233
-3.27 -21.62 -0.75 233 233 233
-3.12 -21.77 -0.90 233 233 233
-3.12 -21.86 -0.90 233 233 233
-3.12 -21.94 -0.90 233 233 233
-3.12 -22.03 -0.90 233 233 233
-3.12 -22.12 -0.90 235 235 235
-3.12 -22.20 -0.90 236 236 236
-3.12 -22.29 -0.90 235 235 235
-3.12 -22.38 -0.90 236 236 236
-3.12 -22.47 -0.90 236 236 236
-3.27 -22.49 -0.75 236 236 236
-3.27 -22.58 -0.75 235 235 235
-3.27 -22.67 -0.75 235 235 235
-3.27 -22.75 -0.75 235 235 235
-3.27 -22.84 -0.75 236 236 236
-3.27 -22.93 -0.75 235 235 235
-3.27 -23.01 -0.75 236 236 236
-3.27 -23.10 -0.75 237 237 237
-3.27 -23.19 -0.75 237 237 237
-3.27 -23.28 -0.75 237 237 237
-3.27 -23.36 -0.75 237 237 237
-3.12 -23.52 -0.90 236 236 236
-3.12 -23.60 -0.90 235 235 235
-3.12 -23.69 -0.90 238 238 238
-3.12 -23.78 -0.90 240 240 240
-3.12 -23.87 -0.90 240 240 240
-3.12 -23.95 -0.90 240 240 240
-3.12 -24.04 -0.90 239 239 239
-3.12 -24.13 -0.90 238 238 238
-3.12 -24.22 -0.90 238 238 238
-3.12 -24.30 -0.90 237 237 237
-3.12 -24.39 -0.90 236 236 236
-3.27 -24.41 -0.75 236 236 236
-3.27 -24.50 -0.75 237 237 237
-3.27 -24.58 -0.75 239 239 239
-3.27 -24.67 -0.75 241 241 241
-3.27 -24.76 -0.75 241 241 241
-3.27 -24.84 -0.75 241 241 241
-3.27 -24.93 -0.75 244 244 244
-3.27 -25.02 -0.75 243 243 243
-3.27 -25.10 -0.75 242 242 242
-3.27 -25.19 -0.75 240 240 240
-3.27 -25.28 -0.75 240 240 240
-3.27 -25.37 -0.75 240 240 240
-3.27 -25.45 -0.75 240 240 240
-3.27 -25.54 -0.75 240 240 240
-3.27 -25.63 -0.75 240 240 240
-3.27 -25.71 -0.75 241 241 241
-3.27 -25.80 -0.75 238 238 238
-3.27 -25.89 -0.75 237 237 237
-3.27 -25.98 -0.75 238 238 238
-3.27 -26.06 -0.75 238 238 238
-3.27 -26.15 -0.75 238 238 238
-3.27 -26.24 -0.75 238 238 238
-3.27 -26.32 -0.75 239 239 239
-3.27 -26.41 -0.75 241 241 241
-3.27 -26.50 -0.75 242 242 242
-3.27 -26.59 -0.75 242 242 242
-3.27 -26.67 -0.75 241 241 241
-3.27 -26.76 -0.75 241 241 241
-3.27 -26.85 -0.75 241 241 241
-3.27 -26.93 -0.75 242 242 242
-3.27 -27.02 -0.75 241 241 241
-3.27 -27.11 -0.75 241 241 241
-3.27 -27.20 -0.75 241 241 241
-3.27 -27.28 -0.75 241 241 241
-3.27 -27.37 -0.75 242 242 242
-3.12 -27.54 -0.90 241 241 241
-3.27 -27.54 -0.75 241 241 241
-3.27 -27.63 -0.75 244 244 244
-3.27 -27.72 -0.75 244 244 244
-3.27 -27.81 -0.75 243 243 243
-3.27 -27.89 -0.75 242 242 242
-3.27 -27.98 -0.75 242 242 242
-3.27 -28.07 -0.75 241 241 241
-3.27 -28.15 -0.75 240 240 240
-3.27 -28.24 -0.75 242 242 242
-3.27 -28.33 -0.75 241 241 241
-3.27 -28.42 -0.75 240 240 240
-3.27 -28.50 -0.75 240 240 240
-3.27 -28.59 -0.75 240 240 240
-3.27 -28.68 -0.75 239 239 239
-3.27 -28.76 -0.75 239 239 239
-3.27 -28.85 -0.75 238 238 238
-3.27 -28.94 -0.75 238 238 238
-3.27 -29.02 -0.75 238 238 238
-3.27 -29.11 -0.75 239 239 239
-3.27 -29.20 -0.75 241 241 241
-3.27 -29.29 -0.75 243 243 243
-3.27 -29.37 -0.75 244 244 244
-3.27 -29.46 -0.75 244 244 244
-3.27 -29.55 -0.75 243 243 243
-3.27 -29.63 -0.75 241 245 244
-3.27 -29.72 -0.75 240 244 243
-3.27 -29.81 -0.75 240 244 243
-3.27 -29.90 -0.75 242 244 243
-3.27 -29.98 -0.75 242 244 243
-3.27 -30.07 -0.75 241 243 242
-3.27 -30.16 -0.75 241 243 242
-3.27 -30.24 -0.75 241 241 241
-3.27 -30.33 -0.75 241 241 241
-3.27 -30.42 -0.75 241 241 241
-3.27 -30.51 -0.75 242 242 242
-3.27 -30.59 -0.75 243 241 242
-3.42 -30.58 -0.59 242 240 241
-3.42 -30.67 -0.59 239 237 238
-3.42 -30.76 -0.59 237 235 236
-3.42 -30.84 -0.59 238 236 237
-3.27 -31.03 -0.75 239 237 238
-3.27 -31.12 -0.75 240 238 239
-3.27 -31.20 -0.75 241 239 240
-3.42 -31.19 -0.59 240 238 239
-3.42 -31.28 -0.59 239 237 238
-3.42 -31.36 -0.59 238 236 237
-3.42 -31.45 -0.59 238 236 237
-3.42 -31.54 -0.59 239 237 238
-3.27 -31.73 -0.75 240 238 239
-3.27 -31.81 -0.75 240 238 239
-3.27 -31.90 -0.75 241 239 240
-3.27 -31.99 -0.75 242 240 241
-3.27 -32.07 -0.75 244 242 243
-3.27 -32.16 -0.75 245 243 244
-3.27 -32.25 -0.75 245 245 245
-3.27 -32.33 -0.75 245 245 245
-3.27 -32.42 -0.75 244 244 244
-3.27 -32.51 -0.75 243 243 243
-3.27 -32.60 -0.75 243 243 243
-3.27 -32.86 -0.75 246 246 246
-3.27 -32.94 -0.75 246 246 246
-3.27 -33.03 -0.75 245 245 245
-3.27 -33.12 -0.75 246 246 246
-3.42 -33.10 -0.59 247 247 247
-3.42 -33.18 -0.59 248 248 248
-3.42 -33.27 -0.59 249 249 249
-3.42 -33.36 -0.59 249 249 249
-3.42 -33.45 -0.59 249 249 249
-3.42 -33.53 -0.59 0 0 0
-3.42 -33.62 -0.59 0 0 0
-3.42 -33.71 -0.59 0 0 0
-3.42 -33.79 -0.59 0 0 0
-3.27 -33.99 -0.75 0 0 0
-3.27 -34.08 -0.75 0 0 0
-3.27 -34.16 -0.75 0 0 0
-3.27 -34.25 -0.75 0 0 0
-3.27 -34.34 -0.75 0 0 0
-3.27 -34.77 -0.75 0 0 0
-3.27 -34.86 -0.75 0 0 0
-2.86 21.15 -1.29 0 0 0
-2.86 21.07 -1.29 0 0 0
-2.86 20.98 -1.29 0 0 0
-2.86 20.89 -1.29 0 0 0
-2.86 20.80 -1.29 0 0 0
-2.86 20.71 -1.29 0 0 0
-2.86 20.62 -1.29 0 0 0
-2.86 20.54 -1.29 0 0 0
-2.86 20.45 -1.29 0 0 0
-3.01 20.25 -1.13 116 108 89
-3.01 20.16 -1.13 116 108 89
-3.01 20.07 -1.13 117 109 90
-2.86 20.10 -1.29 114 106 87
-2.86 20.01 -1.29 113 105 86
-2.86 19.92 -1.29 116 107 90
-2.86 19.83 -1.29 116 107 90
-2.86 19.74 -1.29 112 105 87
-2.86 19.65 -1.29 114 107 89
-2.86 19.57 -1.29 112 105 89
-2.71 19.59 -1.45 114 107 91
-2.71 19.50 -1.45 115 109 95
-2.71 19.41 -1.45 116 110 96
-2.71 19.32 -1.45 116 110 98
-2.86 19.12 -1.29 116 110 98
-2.86 19.04 -1.29 117 111 99
-2.86 18.95 -1.29 117 110 100
-2.86 18.86 -1.29 119 110 103
-2.86 18.77 -1.29 116 106 104
-2.86 18.68 -1.29 118 108 106
-2.86 18.60 -1.29 122 112 111
-2.86 18.51 -1.29 120 110 109
-2.86 18.42 -1.29 121 111 109
-2.86 18.33 -1.29 124 115 110
-2.86 18.24 -1.29 125 116 109
-2.86 18.15 -1.29 123 114 105
-2.86 18.07 -1.29 125 117 104
-2.86 17.98 -1.29 128 120 107
-2.86 17.89 -1.29 128 120 109
-2.86 17.80 -1.29 126 118 107
-2.86 17.71 -1.29 127 118 109
-2.86 17.63 -1.29 131 122 113
-2.86 17.54 -1.29 135 128 120
-2.86 17.45 -1.29 135 128 120
-2.86 17.36 -1.29 133 129 120
-2.86 17.27 -1.29 132 128 119
-2.86 17.18 -1.29 132 129 122
-2.86 17.10 -1.29 132 129 122
-2.86 17.01 -1.29 133 130 123
-2.86 16.92 -1.29 133 130 123
-2.86 16.83 -1.29 136 131 125
-2.86 16.74 -1.29 136 131 125
-2.86 16.66 -1.29 138 130 127
-2.86 16.57 -1.29 140 130 128
-2.86 16.48 -1.29 142 131 129
-2.86 16.39 -1.29 146 132 131
-2.86 16.30 -1.29 146 134 134
-2.86 16.21 -1.29 143 133 132
-2.86 16.13 -1.29 142 133 134
-2.86 16.04 -1.29 142 134 132
-2.86 15.95 -1.29 143 135 133
-2.86 15.86 -1.29 142 137 134
-3.01 15.68 -1.13 143 138 135
-3.01 15.59 -1.13 142 137 134
-3.01 15.50 -1.13 142 137 134
-3.16 15.32 -0.98 144 139 135
-3.16 15.23 -0.98 145 140 136
-3.16 15.15 -0.98 146 141 137
-3.01 15.15 -1.13 146 141 137
-3.16 14.97 -0.98 147 139 136
-3.16 14.88 -0.98 147 139 136
-3.16 14.80 -0.98 147 140 134
-3.16 14.71 -0.98 148 140 137
-3.01 14.71 -1.13 147 142 139
-3.01 14.62 -1.13 146 140 140
-9.79 10.50 5.81 144 139 135
-9.79 10.42 5.81 144 139 135
-9.79 10.35 5.81 146 138 135
-9.69 10.34 5.71 147 139 137
-9.69 10.27 5.71 146 137 140
-9.69 10.20 5.71 148 139 142
-9.69 10.12 5.71 147 138 143
-9.69 10.05 5.71 145 138 145
-9.69 9.98 5.71 145 138 145
-9.69 9.91 5.71 142 138 139
-9.69 9.84 5.71 137 133 134
-9.69 9.76 5.71 132 131 127
-9.69 9.69 5.71 131 130 128
-9.69 9.62 5.71 129 125 124
-9.69 9.55 5.71 131 125 127
-9.69 9.48 5.71 128 122 122
-9.69 9.41 5.71 123 113 112
-9.69 9.33 5.71 115 105 103
-9.69 9.26 5.71 111 97 94
-9.69 9.19 5.71 105 88 81
-9.69 9.12 5.71 99 79 72
-9.69 9.05 5.71 94 70 60
-9.69 8.97 5.71 91 63 51
-9.59 8.96 5.60 90 61 47
-9.59 8.88 5.60 98 65 50
-9.59 8.81 5.60 103 68 49
-9.59 8.74 5.60 102 63 46
-9.59 8.67 5.60 104 63 45
-9.59 8.60 5.60 111 70 50
-9.59 8.52 5.60 113 71 49
-9.49 8.51 5.50 118 76 52
-9.49 8.43 5.50 129 83 57
-9.49 8.36 5.50 137 92 61
-9.49 8.29 5.50 145 96 63
-9.39 8.27 5.39 150 102 64
-9.39 8.20 5.39 154 105 65
-9.39 8.12 5.39 161 110 67
-9.39 8.05 5.39 161 110 67
-9.39 7.98 5.39 167 115 75
-9.39 7.91 5.39 171 119 80
-9.28 7.88 5.29 169 120 80
-9.28 7.81 5.29 175 125 88
-9.28 7.74 5.29 182 132 97
-9.28 7.66 5.29 183 133 100
-9.16 7.65 5.16 185 136 103
-9.16 7.58 5.16 189 140 108
-9.16 7.51 5.16 192 146 113
-9.06 7.48 5.06 194 148 115
-9.06 7.41 5.06 195 148 118
-9.06 7.34 5.06 195 148 118
-9.06 7.26 5.06 195 148 118
-8.95 7.24 4.95 185 138 108
-8.95 7.16 4.95 182 135 105
-8.95 7.09 4.95 185 136 104
-8.85 6.92 4.85 188 137 106
-8.85 6.84 4.85 190 140 107
-8.85 6.77 4.85 188 138 105
-8.85 6.70 4.85 193 143 110
-8.73 6.68 4.72 191 141 108
-8.73 6.60 4.72 189 139 106
-8.73 6.53 4.72 188 138 105
-8.62 6.50 4.61 192 139 107
-8.62 6.43 4.61 193 140 108
-8.62 6.35 4.61 195 140 110
-8.62 6.28 4.61 195 140 110
-8.62 6.20 4.61 196 141 111
-8.52 6.17 4.51 197 142 112
-8.52 6.10 4.51 199 143 116
-8.52 6.02 4.51 197 141 114
-8.39 6.00 4.38 195 139 112
-8.39 5.93 4.38 194 138 111
-8.39 5.85 4.38 195 141 115
-3.01 7.68 -1.13 198 142 115
-2.86 7.66 -1.29 200 144 117
-3.01 7.51 -1.13 199 145 117
-3.16 7.36 -0.98 199 145 117
-3.31 7.21 -0.82 191 142 112
-3.31 7.12 -0.82 199 152 124
-3.31 7.04 -0.82 195 150 121
-3.47 6.89 -0.67 194 152 127
-3.47 6.80 -0.67 194 154 128
-3.47 6.72 -0.67 187 150 124
-3.47 6.63 -0.67 185 151 126
-3.62 6.49 -0.51 177 145 122
-3.62 6.40 -0.51 165 140 120
-3.62 6.31 -0.51 140 119 102
-3.62 6.23 -0.51 115 98 82
-3.62 6.14 -0.51 107 93 80
-3.62 6.05 -0.51 107 99 88
-3.62 5.97 -0.51 105 101 92
-3.62 5.88 -0.51 96 98 93
-3.62 5.79 -0.51 89 95 93
-3.62 5.71 -0.51 90 99 96
-3.62 5.62 -0.51 86 98 98
-3.47 5.59 -0.67 87 99 99
-3.47 5.50 -0.67 88 100 96
-3.47 5.42 -0.67 90 102 98
-3.47 5.33 -0.67 91 102 96
-3.62 5.19 -0.51 91 100 95
-3.62 5.10 -0.51 91 97 93
-3.62 5.02 -0.51 94 99 95
-3.62 4.93 -0.51 95 99 98
-3.62 4.84 -0.51 96 100 99
-3.62 4.76 -0.51 96 102 102
-3.62 4.67 -0.51 96 102 102
-3.77 4.53 -0.35 97 103 99
-3.77 4.45 -0.35 98 104 100
-3.62 4.41 -0.51 94 104 95
-3.62 4.33 -0.51 93 103 94
-3.62 4.24 -0.51 92 104 94
-3.77 4.10 -0.35 92 104 94
-3.77 4.02 -0.35 93 104 96
-3.77 3.93 -0.35 94 105 99
-3.77 3.85 -0.35 96 107 103
-3.77 3.76 -0.35 97 107 106
-3.62 3.72 -0.51 96 104 106
-3.62 3.63 -0.51 95 103 105
-3.62 3.55 -0.51 95 104 103
-3.62 3.46 -0.51 95 104 103
-3.62 3.38 -0.51 96 105 104
-3.62 3.29 -0.51 97 106 103
-3.62 3.20 -0.51 98 107 104
-3.62 3.12 -0.51 102 113 107
-3.77 2.99 -0.35 104 115 109
-3.77 2.90 -0.35 104 115 109
-3.77 2.81 -0.35 99 110 104
-3.77 2.73 -0.35 93 104 100
-3.77 2.64 -0.35 93 104 100
-3.77 2.56 -0.35 99 110 106
-3.77 2.47 -0.35 107 118 114
-3.77 2.38 -0.35 103 113 112
-3.77 2.30 -0.35 101 111 110
-3.77 2.21 -0.35 100 110 109
-3.77 2.13 -0.35 102 112 111
-3.77 2.04 -0.35 105 116 112
-3.77 1.95 -0.35 105 116 112
-3.77 1.87 -0.35 106 117 113
-3.77 1.78 -0.35 107 118 114
-3.77 1.70 -0.35 107 119 115
-3.77 1.61 -0.35 108 120 116
-3.77 1.52 -0.35 108 120 118
-3.77 1.44 -0.35 108 120 118
-3.77 1.35 -0.35 110 122 122
-3.77 1.27 -0.35 109 121 121
-3.77 1.18 -0.35 108 120 118
-3.77 1.09 -0.35 109 120 116
-3.77 1.01 -0.35 108 119 113
-3.77 0.92 -0.35 107 118 112
-3.77 0.84 -0.35 109 120 114
-3.77 0.75 -0.35 109 118 113
-3.90 0.64 -0.22 108 117 112
-3.90 0.55 -0.22 108 117 114
-3.90 0.46 -0.22 110 119 116
-3.90 0.38 -0.22 109 118 117
-3.90 0.29 -0.22 109 118 117
-3.90 0.21 -0.22 110 120 121
-3.90 0.12 -0.22 111 121 122
-3.90 0.04 -0.22 112 123 125
-3.90 -0.05 -0.22 113 124 126
-3.90 -0.14 -0.22 113 124 126
-3.90 -0.22 -0.22 112 123 127
-3.90 -0.31 -0.22 114 123 128
-3.90 -0.39 -0.22 114 123 130
-3.90 -0.48 -0.22 114 125 131
-3.90 -0.56 -0.22 115 126 132
-3.77 -0.63 -0.35 115 126 132
-3.77 -0.71 -0.35 111 122 128
-3.77 -0.80 -0.35 112 123 129
-3.77 -0.88 -0.35 111 122 126
-3.77 -0.97 -0.35 110 121 125
-3.77 -1.06 -0.35 110 119 124
-3.77 -1.14 -0.35 111 120 125
-3.90 -1.25 -0.22 114 121 127
-3.90 -1.34 -0.22 116 123 129
-3.90 -1.42 -0.22 118 123 127
-3.90 -1.51 -0.22 118 123 129
-3.90 -1.59 -0.22 115 122 130
-3.90 -1.68 -0.22 114 121 131
-3.90 -1.76 -0.22 114 122 133
-3.90 -1.85 -0.22 117 125 136
-3.90 -1.94 -0.22 117 127 139
-3.90 -2.02 -0.22 117 127 139
-3.90 -2.11 -0.22 117 130 139
-3.90 -2.19 -0.22 119 132 141
-3.77 -2.26 -0.35 117 130 136
-3.90 -2.36 -0.22 115 128 134
-3.90 -2.45 -0.22 114 128 131
-3.90 -2.54 -0.22 114 127 133
-3.90 -2.62 -0.22 118 129 135
-3.90 -2.71 -0.22 118 128 138
-3.90 -2.79 -0.22 117 126 141
-3.90 -2.88 -0.22 115 128 137
-3.90 -2.96 -0.22 115 128 137
-3.90 -3.05 -0.22 114 128 137
-3.90 -3.14 -0.22 114 128 137
-4.05 -3.24 -0.07 113 130 137
-4.05 -3.32 -0.07 114 131 138
-4.05 -3.41 -0.07 116 135 141
-4.05 -3.50 -0.07 117 136 142
-4.05 -3.58 -0.07 106 123 130
-4.05 -3.67 -0.07 108 125 132
-4.05 -3.75 -0.07 114 129 134
-3.90 -3.82 -0.22 119 132 138
-3.90 -3.91 -0.22 119 132 138
-3.90 -3.99 -0.22 119 130 136
-3.90 -4.08 -0.22 119 128 135
-3.90 -4.16 -0.22 118 129 135
-3.90 -4.25 -0.22 119 133 134
-3.90 -4.34 -0.22 120 136 136
-3.90 -4.42 -0.22 121 136 139
-3.90 -4.51 -0.22 119 134 137
-3.90 -4.59 -0.22 118 133 138
-4.05 -4.69 -0.07 117 132 137
-4.05 -4.78 -0.07 120 135 142
-4.05 -4.86 -0.07 126 139 147
-4.05 -4.95 -0.07 128 141 149
-4.05 -5.03 -0.07 143 154 160
-4.05 -5.12 -0.07 143 154 160
-4.05 -5.20 -0.07 143 152 157
-3.90 -5.28 -0.22 155 164 169
-3.90 -5.36 -0.22 150 158 161
-3.77 -5.44 -0.35 158 166 169
-3.62 -5.52 -0.51 154 166 164
-3.31 -5.59 -0.82 155 167 165
-3.31 -5.68 -0.82 155 167 165
-3.16 -5.76 -0.98 155 167 165
-3.16 -5.85 -0.98 154 166 164
-3.01 -5.93 -1.13 155 167 165
-3.01 -6.02 -1.13 156 168 164
-3.01 -6.10 -1.13 157 169 165
-3.01 -6.19 -1.13 155 166 162
-3.01 -6.28 -1.13 155 166 162
-3.01 -6.37 -1.13 156 167 163
-3.01 -6.46 -1.13 158 169 165
-3.01 -6.54 -1.13 160 169 166
-3.01 -6.63 -1.13 161 170 167
-3.01 -6.72 -1.13 160 169 166
-3.01 -6.81 -1.13 160 169 168
-3.01 -6.90 -1.13 162 170 172
-3.01 -6.98 -1.13 163 171 173
-3.01 -7.07 -1.13 163 171 173
-3.01 -7.16 -1.13 164 173 172
-3.01 -7.25 -1.13 164 173 172
-3.01 -7.33 -1.13 163 172 171
-3.01 -7.42 -1.13 163 172 171
-3.01 -7.51 -1.13 165 174 171
-3.01 -7.60 -1.13 162 171 168
-3.01 -7.69 -1.13 163 172 169
-3.16 -7.77 -0.98 170 179 176
-3.01 -7.86 -1.13 175 184 181
-3.01 -7.95 -1.13 175 184 181
-3.01 -8.04 -1.13 175 184 181
-3.16 -8.12 -0.98 176 185 182
-3.16 -8.21 -0.98 175 186 182
-3.16 -8.30 -0.98 175 186 182
-3.16 -8.38 -0.98 177 186 183
-3.16 -8.47 -0.98 179 188 185
-3.16 -8.56 -0.98 178 187 184
-3.16 -8.65 -0.98 177 186 183
-3.16 -8.73 -0.98 177 186 181
-3.16 -8.82 -0.98 179 188 183
-3.16 -8.91 -0.98 179 188 183
-3.16 -9.00 -0.98 182 188 184
-3.16 -9.08 -0.98 182 188 184
-3.16 -9.17 -0.98 181 187 183
-3.16 -9.26 -0.98 180 186 182
-3.16 -9.35 -0.98 180 186 182
-3.16 -9.43 -0.98 180 186 182
-3.16 -9.52 -0.98 176 188 178
-3.16 -9.61 -0.98 177 189 179
-3.16 -9.70 -0.98 179 190 182
-3.16 -9.78 -0.98 180 191 183
-3.16 -9.87 -0.98 181 192 186
-3.16 -9.96 -0.98 181 192 186
-3.31 -10.04 -0.82 180 191 187
-3.31 -10.12 -0.82 180 191 187
-3.31 -10.21 -0.82 180 189 188
-3.31 -10.30 -0.82 180 189 188
-3.31 -10.38 -0.82 181 190 189
-3.31 -10.47 -0.82 181 190 189
-3.31 -10.56 -0.82 181 190 187
-3.31 -10.65 -0.82 181 190 187
-3.31 -10.73 -0.82 181 190 187
-3.31 -10.82 -0.82 183 189 187
-3.31 -10.91 -0.82 183 189 187
-3.31 -10.99 -0.82 184 188 187
-3.31 -11.08 -0.82 184 188 187
-3.31 -11.17 -0.82 184 188 187
-3.31 -11.25 -0.82 185 189 188
-3.16 -11.36 -0.98 185 189 188
-3.16 -11.45 -0.98 186 190 189
-3.16 -11.53 -0.98 185 191 189
-3.16 -11.62 -0.98 185 191 189
-3.16 -11.71 -0.98 186 192 190
-3.16 -11.80 -0.98 186 192 190
-3.16 -11.88 -0.98 187 193 191
-3.16 -12.15 -0.98 187 193 191
-3.16 -12.23 -0.98 188 192 191
-3.16 -12.32 -0.98 188 192 191
-3.16 -12.41 -0.98 189 193 192
-3.16 -12.50 -0.98 189 193 192
-3.16 -12.58 -0.98 190 194 193
-3.16 -12.67 -0.98 190 194 193
-3.16 -12.76 -0.98 190 194 193
-3.16 -12.85 -0.98 190 194 193
-3.16 -12.93 -0.98 190 194 193
-3.16 -13.02 -0.98 190 194 193
-3.16 -13.11 -0.98 189 193 192
-3.16 -13.20 -0.98 188 194 192
-3.16 -13.28 -0.98 189 195 193
-3.16 -13.37 -0.98 189 195 193
-3.16 -13.46 -0.98 191 195 194
-3.16 -13.55 -0.98 191 195 194
-3.31 -13.61 -0.82 194 196 195
-3.31 -13.69 -0.82 195 197 196
-3.31 -13.78 -0.82 195 197 196
-3.31 -13.87 -0.82 194 196 195
-3.31 -13.96 -0.82 194 196 195
-3.16 -14.07 -0.98 196 198 197
-3.31 -14.13 -0.82 198 200 199
-3.31 -14.22 -0.82 197 199 198
-3.31 -14.30 -0.82 195 197 196
-3.31 -14.39 -0.82 194 198 197
-3.31 -14.48 -0.82 196 200 199
-3.31 -14.57 -0.82 196 200 199
-3.31 -14.65 -0.82 195 199 198
-3.31 -14.74 -0.82 195 199 198
-3.31 -14.83 -0.82 197 201 200
-3.31 -14.91 -0.82 197 199 198
-3.31 -15.00 -0.82 197 199 198
-3.31 -15.09 -0.82 199 201 200
-3.31 -15.17 -0.82 200 202 201
-3.31 -15.26 -0.82 202 204 203
-3.31 -15.35 -0.82 202 204 203
-3.31 -15.44 -0.82 202 204 203
-3.31 -15.52 -0.82 204 206 205
-3.31 -15.61 -0.82 205 207 206
-3.31 -15.70 -0.82 205 207 206
-3.47 -15.75 -0.67 205 207 206
-3.47 -15.84 -0.67 204 206 205
-3.31 -15.96 -0.82 204 206 205
-3.31 -16.05 -0.82 205 207 206
-3.16 -16.17 -0.98 206 208 207
-3.31 -16.22 -0.82 207 207 207
-3.31 -16.31 -0.82 208 208 208
-3.31 -16.39 -0.82 207 209 208
-3.31 -16.48 -0.82 207 209 208
-3.31 -16.57 -0.82 207 209 208
-3.16 -16.69 -0.98 207 209 208
-3.16 -16.78 -0.98 208 210 209
-3.16 -16.87 -0.98 209 211 210
-3.16 -16.96 -0.98 212 214 213
-3.16 -17.04 -0.98 211 213 212
-3.16 -17.13 -0.98 210 212 211
-3.16 -17.22 -0.98 210 212 211
-3.31 -17.27 -0.82 211 213 212
-3.31 -17.35 -0.82 212 214 213
-3.31 -17.44 -0.82 211 213 212
-3.31 -17.53 -0.82 212 212 210
-3.31 -17.61 -0.82 212 212 210
-3.31 -17.70 -0.82 213 213 213
-3.31 -17.79 -0.82 213 213 213
-3.31 -17.88 -0.82 213 213 213
-3.31 -17.96 -0.82 213 213 213
-3.31 -18.05 -0.82 213 213 215
-3.31 -18.14 -0.82 214 214 216
-3.31 -18.22 -0.82 217 217 219
-3.31 -18.31 -0.82 215 215 217
-3.47 -18.35 -0.67 216 216 216
-3.47 -18.44 -0.67 219 219 219
-3.47 -18.53 -0.67 221 221 221
-3.47 -18.61 -0.67 220 220 220
-3.47 -18.70 -0.67 217 217 215
-3.31 -18.83 -0.82 215 215 213
-3.31 -18.92 -0.82 215 217 216
-3.31 -19.01 -0.82 213 215 214
-3.31 -19.09 -0.82 218 218 218
-3.31 -19.18 -0.82 224 224 224
-3.31 -19.27 -0.82 224 222 223
-3.31 -19.36 -0.82 216 214 215
-3.31 -19.44 -0.82 222 220 221
-3.31 -19.53 -0.82 226 224 225
-3.31 -19.62 -0.82 228 226 227
-3.31 -19.70 -0.82 228 226 227
-3.31 -19.79 -0.82 225 223 224
-3.31 -19.88 -0.82 223 223 223
-3.31 -19.97 -0.82 225 225 225
-3.31 -20.05 -0.82 225 227 226
-3.31 -20.14 -0.82 224 226 225
-3.31 -20.23 -0.82 224 224 224
-3.31 -20.31 -0.82 226 226 226
-3.31 -20.40 -0.82 227 227 227
-3.31 -20.49 -0.82 226 226 226
-3.31 -20.58 -0.82 227 227 227
-3.31 -20.66 -0.82 229 229 229
-3.31 -20.75 -0.82 229 229 229
-3.31 -20.84 -0.82 227 227 227
-3.31 -20.92 -0.82 230 230 230
-3.31 -21.01 -0.82 230 230 230
-3.31 -21.10 -0.82 230 230 230
-3.31 -21.19 -0.82 229 229 229
-3.31 -21.27 -0.82 228 228 228
-3.31 -21.36 -0.82 227 227 227
-3.31 -21.45 -0.82 228 228 228
-3.31 -21.53 -0.82 230 230 230
-3.31 -21.62 -0.82 230 230 230
-3.31 -21.71 -0.82 231 231 231
-3.31 -21.79 -0.82 232 232 232
-3.16 -21.94 -0.98 232 232 232
-3.31 -21.97 -0.82 232 232 232
-3.31 -22.06 -0.82 233 233 233
-3.31 -22.14 -0.82 233 233 233
-3.31 -22.23 -0.82 233 233 233
-3.31 -22.32 -0.82 234 234 234
-3.31 -22.40 -0.82 235 235 235
-3.31 -22.49 -0.82 235 235 235
-3.31 -22.58 -0.82 234 234 234
-3.31 -22.67 -0.82 234 234 234
-3.31 -22.75 -0.82 234 234 234
-3.31 -22.84 -0.82 234 234 234
-3.31 -22.93 -0.82 235 235 235
-3.31 -23.01 -0.82 234 234 234
-3.31 -23.10 -0.82 235 235 235
-3.31 -23.19 -0.82 235 235 235
-3.31 -23.28 -0.82 235 235 235
-3.31 -23.36 -0.82 235 235 235
-3.31 -23.45 -0.82 234 234 234
-3.31 -23.54 -0.82 234 234 234
-3.16 -23.69 -0.98 237 237 237
-3.16 -23.78 -0.98 238 238 238
-3.31 -23.80 -0.82 238 238 238
-3.31 -23.89 -0.82 238 238 238
-3.31 -23.97 -0.82 238 238 238
-3.31 -24.06 -0.82 238 238 238
-3.31 -24.15 -0.82 239 239 239
-3.31 -24.23 -0.82 239 239 239
-3.31 -24.32 -0.82 237 237 237
-3.31 -24.41 -0.82 235 235 235
-3.31 -24.50 -0.82 236 236 236
-3.31 -24.58 -0.82 238 238 238
-3.31 -24.67 -0.82 239 239 239
-3.31 -24.76 -0.82 239 239 239
-3.31 -24.84 -0.82 239 239 239
-3.31 -24.93 -0.82 239 239 239
-3.31 -25.02 -0.82 239 239 239
-3.47 -25.03 -0.67 239 239 239
-3.47 -25.12 -0.67 239 239 239
-3.47 -25.20 -0.67 239 239 239
-3.47 -25.29 -0.67 239 239 239
-3.47 -25.38 -0.67 238 238 238
-3.31 -25.54 -0.82 238 238 238
-3.31 -25.63 -0.82 238 238 238
-3.31 -25.71 -0.82 240 240 240
-3.47 -25.72 -0.67 238 238 238
-3.47 -25.81 -0.67 237 237 237
-3.47 -25.90 -0.67 238 238 238
-3.47 -25.99 -0.67 238 238 238
-3.31 -26.15 -0.82 237 237 237
-3.31 -26.24 -0.82 239 239 239
-3.31 -26.32 -0.82 239 239 239
-3.31 -26.41 -0.82 239 239 239
-3.31 -26.50 -0.82 240 240 240
-3.31 -26.59 -0.82 241 241 241
-3.31 -26.67 -0.82 242 242 242
-3.31 -26.76 -0.82 241 241 241
-3.31 -26.85 -0.82 241 241 241
-3.31 -26.93 -0.82 242 242 242
-3.31 -27.02 -0.82 242 242 242
-3.47 -27.03 -0.67 242 242 242
-3.47 -27.11 -0.67 242 242 242
-3.47 -27.20 -0.67 241 241 241
-3.31 -27.37 -0.82 240 240 240
-3.31 -27.46 -0.82 239 239 239
-3.31 -27.54 -0.82 239 239 239
-3.31 -27.63 -0.82 243 243 243
-3.31 -27.72 -0.82 243 243 243
-3.31 -27.81 -0.82 243 243 243
-3.31 -27.89 -0.82 242 242 242
-3.31 -27.98 -0.82 242 242 242
-3.31 -28.07 -0.82 241 241 241
-3.31 -28.15 -0.82 241 241 241
-3.31 -28.24 -0.82 241 241 241
-3.31 -28.33 -0.82 241 241 241
-3.31 -28.42 -0.82 241 241 241
-3.31 -28.50 -0.82 241 241 241
-3.47 -28.50 -0.67 240 240 240
-3.47 -28.59 -0.67 240 240 240
-3.47 -28.67 -0.67 238 238 238
-3.47 -28.76 -0.67 237 237 237
-3.47 -28.85 -0.67 238 238 238
-3.47 -28.93 -0.67 238 238 238
-3.47 -29.02 -0.67 238 238 238
-3.47 -29.11 -0.67 239 239 239
-3.47 -29.19 -0.67 240 240 240
-3.47 -29.28 -0.67 241 241 241
-3.47 -29.37 -0.67 241 241 241
-3.47 -29.45 -0.67 241 241 241
-3.47 -29.54 -0.67 238 242 241
-3.47 -29.63 -0.67 238 242 241
-3.47 -29.72 -0.67 237 241 240
-3.47 -29.80 -0.67 241 243 242
-3.31 -29.98 -0.82 241 243 242
-3.47 -29.98 -0.67 240 242 241
-3.31 -30.16 -0.82 238 240 239
-3.47 -30.15 -0.67 242 242 242
-3.47 -30.24 -0.67 241 241 241
-3.47 -30.32 -0.67 241 241 241
-3.47 -30.41 -0.67 242 242 242
-3.47 -30.50 -0.67 243 241 242
-3.47 -30.58 -0.67 242 240 241
-3.62 -30.57 -0.51 239 237 238
-3.62 -30.66 -0.51 237 235 236
-3.62 -30.74 -0.51 240 236 237
-3.62 -30.83 -0.51 241 237 238
-3.47 -31.02 -0.67 242 238 239
-3.47 -31.10 -0.67 242 238 239
-3.62 -31.09 -0.51 241 237 238
-3.62 -31.18 -0.51 240 236 237
-3.62 -31.26 -0.51 241 237 238
-3.47 -31.45 -0.67 241 237 238
-3.47 -31.54 -0.67 243 239 240
-3.47 -31.62 -0.67 243 239 240
-3.47 -31.71 -0.67 243 239 240
-3.47 -31.80 -0.67 243 239 240
-3.47 -31.88 -0.67 244 240 241
-3.47 -31.97 -0.67 245 241 242
-3.47 -32.06 -0.67 246 242 243
-3.47 -32.14 -0.67 244 244 244
-3.47 -32.23 -0.67 243 243 243
-3.31 -32.42 -0.82 243 243 243
-3.31 -32.51 -0.82 243 243 243
-3.47 -32.49 -0.67 244 244 244
-3.47 -32.58 -0.67 245 245 245
-3.47 -32.66 -0.67 245 245 245
-3.47 -32.75 -0.67 246 246 246
-3.47 -32.84 -0.67 244 244 244
-3.47 -32.92 -0.67 244 244 244
-3.47 -33.01 -0.67 244 244 244
-3.47 -33.10 -0.67 245 245 245
-3.47 -33.18 -0.67 246 246 246
-3.62 -33.16 -0.51 247 247 247
-3.62 -33.25 -0.51 247 247 247
-3.62 -33.34 -0.51 246 246 246
-3.62 -33.42 -0.51 0 0 0
-3.47 -33.62 -0.67 0 0 0
-3.47 -33.71 -0.67 0 0 0
-3.47 -33.79 -0.67 0 0 0
-3.47 -33.88 -0.67 0 0 0
-3.31 -34.08 -0.82 0 0 0
-3.31 -34.16 -0.82 0 0 0
-3.31 -34.25 -0.82 0 0 0
-3.31 -34.34 -0.82 0 0 0
-3.31 -34.77 -0.82 0 0 0
-3.47 -34.75 -0.67 0 0 0
-2.90 21.15 -1.37 0 0 0
-2.90 21.07 -1.37 0 0 0
-3.05 20.86 -1.21 0 0 0
-3.05 20.77 -1.21 0 0 0
-3.05 20.68 -1.21 0 0 0
-3.05 20.60 -1.21 0 0 0
-3.05 20.51 -1.21 0 0 0
-3.05 20.42 -1.21 0 0 0
-3.05 20.33 -1.21 0 0 0
-3.05 20.25 -1.21 119 108 86
-3.05 20.16 -1.21 119 108 86
-3.05 20.07 -1.21 119 108 86
-3.05 19.98 -1.21 116 105 83
-3.05 19.89 -1.21 115 104 82
-3.05 19.81 -1.21 117 109 88
-3.05 19.72 -1.21 116 108 87
-3.05 19.63 -1.21 113 105 86
-3.05 19.54 -1.21 113 104 87
-2.90 19.57 -1.37 114 107 89
-2.90 19.48 -1.37 115 108 92
-2.75 19.50 -1.52 116 110 96
-2.75 19.41 -1.52 117 111 97
-2.90 19.21 -1.37 116 110 98
-3.05 19.02 -1.21 115 109 97
-3.05 18.93 -1.21 114 110 98
-3.05 18.84 -1.21 116 109 99
-2.90 18.86 -1.37 117 110 102
-2.90 18.77 -1.37 115 105 103
-2.90 18.68 -1.37 116 106 104
-2.90 18.60 -1.37 121 111 112
-2.90 18.51 -1.37 118 108 109
-3.05 18.31 -1.21 118 108 106
-3.05 18.23 -1.21 121 112 107
-3.05 18.14 -1.21 121 112 105
-3.05 18.05 -1.21 119 110 101
-2.90 18.07 -1.37 120 112 99
-2.90 17.98 -1.37 124 116 103
-2.90 17.89 -1.37 125 117 104
-2.90 17.80 -1.37 123 115 104
-2.90 17.71 -1.37 125 117 106
-2.90 17.63 -1.37 130 121 114
-2.90 17.54 -1.37 128 121 113
-2.90 17.45 -1.37 128 121 115
-2.90 17.36 -1.37 126 121 115
-2.90 17.27 -1.37 127 122 116
-2.90 17.18 -1.37 127 124 117
-2.90 17.10 -1.37 128 125 118
-2.90 17.01 -1.37 130 127 120
-2.90 16.92 -1.37 131 128 121
-2.90 16.83 -1.37 132 129 124
-2.90 16.74 -1.37 134 129 125
-3.05 16.56 -1.21 135 130 126
-3.05 16.47 -1.21 138 128 126
-3.05 16.38 -1.21 141 127 126
-2.90 16.39 -1.37 144 130 130
-3.05 16.20 -1.21 146 132 132
-3.05 16.12 -1.21 144 134 135
-3.05 16.03 -1.21 142 133 134
-3.05 15.94 -1.21 139 133 133
-3.05 15.85 -1.21 140 134 134
-3.05 15.77 -1.21 141 136 133
-3.05 15.68 -1.21 142 137 134
-3.21 15.49 -1.05 143 138 135
-3.21 15.41 -1.05 143 138 135
-3.21 15.32 -1.05 142 137 133
-3.21 15.23 -1.05 143 138 134
-3.21 15.15 -1.05 145 140 134
-3.21 15.06 -1.05 145 140 134
-3.21 14.97 -1.05 145 140 134
-3.21 14.88 -1.05 145 140 134
-3.21 14.80 -1.05 148 141 135
-3.21 14.71 -1.05 148 140 137
-3.05 14.71 -1.21 142 138 135
-3.05 14.62 -1.21 143 139 138
-9.73 10.56 5.64 144 139 135
-9.73 10.48 5.64 144 139 135
-9.73 10.41 5.64 146 138 135
-9.73 10.34 5.64 147 137 136
-9.73 10.27 5.64 147 136 140
-9.73 10.20 5.64 147 136 140
-9.73 10.12 5.64 146 135 141
-9.62 10.11 5.54 146 137 142
-9.73 9.98 5.64 148 139 144
-9.62 9.97 5.54 144 138 140
-9.62 9.89 5.54 138 132 132
-9.62 9.82 5.54 137 133 130
-9.73 9.69 5.64 141 137 134
-9.73 9.62 5.64 138 136 137
-9.73 9.55 5.64 138 136 139
-9.73 9.48 5.64 138 134 133
-9.73 9.41 5.64 138 132 132
-9.73 9.33 5.64 143 135 132
-9.73 9.26 5.64 145 134 130
-9.73 9.19 5.64 139 126 120
-9.73 9.12 5.64 131 114 106
-9.73 9.05 5.64 118 98 89
-9.73 8.97 5.64 104 80 68
-9.62 8.96 5.54 92 66 53
-9.62 8.88 5.54 90 61 45
-9.62 8.81 5.54 89 58 40
-9.62 8.74 5.54 94 59 40
-9.62 8.67 5.54 106 69 50
-9.62 8.60 5.54 103 64 47
-9.52 8.58 5.44 104 63 45
-9.52 8.51 5.44 108 67 45
-9.52 8.43 5.44 119 75 50
-9.52 8.36 5.44 128 85 51
-9.52 8.29 5.44 138 92 56
-9.52 8.22 5.44 146 99 57
-9.42 8.20 5.33 151 102 59
-9.42 8.12 5.33 156 105 58
-9.42 8.05 5.33 156 105 58
-9.42 7.98 5.33 162 111 66
-9.42 7.91 5.33 166 115 72
-9.42 7.83 5.33 167 115 75
-9.42 7.76 5.33 171 119 82
-9.32 7.74 5.23 175 125 90
-9.32 7.66 5.23 176 126 93
-9.32 7.59 5.23 180 131 98
-9.19 7.58 5.10 185 136 103
-9.19 7.51 5.10 188 142 108
-9.09 7.48 4.99 191 145 111
-9.09 7.41 4.99 192 146 113
-9.09 7.34 4.99 192 146 113
-9.09 7.26 4.99 192 145 115
-9.09 7.19 4.99 182 135 105
-8.99 7.16 4.89 179 132 102
-8.99 7.09 4.89 182 133 103
-8.89 6.92 4.78 184 135 103
-8.89 6.84 4.78 187 136 105
-8.89 6.77 4.78 184 133 102
-8.89 6.70 4.78 190 141 108
-8.89 6.62 4.78 188 139 106
-8.76 6.60 4.65 188 138 105
-8.76 6.53 4.65 188 138 105
-8.66 6.50 4.55 192 139 108
-8.66 6.43 4.55 193 140 109
-8.66 6.35 4.55 193 138 108
-8.66 6.28 4.55 192 137 107
-8.66 6.20 4.55 190 134 107
-8.56 6.17 4.45 193 137 110
-8.56 6.10 4.45 195 139 114
-8.43 6.08 4.32 196 140 115
-8.43 6.00 4.32 197 141 116
-8.43 5.93 4.32 199 143 118
-8.43 5.85 4.32 203 149 123
