ply
format ascii 1.0
element vertex 1650
property float x
property float y
property float z
property uchar red
property uchar green
property uchar blue
end_header
0.58 -26.28 -0.72 253 253 253
0.58 -26.37 -0.72 254 254 254
0.58 -26.46 -0.72 254 254 254
0.58 -26.55 -0.72 254 254 254
0.58 -26.65 -0.72 253 253 253
0.58 -26.74 -0.72 253 253 253
0.58 -26.83 -0.72 253 253 253
0.43 -26.85 -0.57 252 252 252
0.43 -26.94 -0.57 251 251 251
0.43 -27.03 -0.57 251 251 251
0.43 -27.13 -0.57 250 250 250
0.43 -27.22 -0.57 250 250 250
0.43 -27.31 -0.57 250 250 250
0.43 -27.40 -0.57 250 250 250
0.43 -27.50 -0.57 250 250 250
0.43 -27.59 -0.57 250 250 250
0.43 -27.68 -0.57 250 250 250
0.43 -27.77 -0.57 250 250 250
0.58 -27.95 -0.72 250 250 250
0.58 -28.04 -0.72 250 250 250
0.58 -28.13 -0.72 250 250 250
0.43 -28.14 -0.57 250 250 250
0.43 -28.24 -0.57 251 251 251
0.43 -28.33 -0.57 252 252 252
0.43 -28.42 -0.57 252 252 252
0.43 -28.51 -0.57 251 251 251
0.43 -28.61 -0.57 250 250 250
0.43 -28.70 -0.57 251 251 251
0.43 -28.79 -0.57 251 251 251
0.43 -28.88 -0.57 250 250 250
0.43 -28.98 -0.57 249 249 249
0.43 -29.07 -0.57 248 248 248
0.43 -29.16 -0.57 249 249 249
0.58 -29.34 -0.72 249 249 249
0.58 -29.43 -0.72 248 248 248
0.58 -29.53 -0.72 247 247 247
0.43 -29.53 -0.57 246 246 246
0.43 -29.62 -0.57 246 246 246
0.43 -29.72 -0.57 247 247 247
0.43 -29.81 -0.57 247 247 247
0.43 -29.90 -0.57 248 248 248
0.58 -30.08 -0.72 248 248 248
0.43 -30.09 -0.57 248 248 248
0.43 -30.18 -0.57 248 248 248
0.43 -30.27 -0.57 248 248 248
0.43 -30.36 -0.57 247 247 247
0.43 -30.46 -0.57 246 246 246
0.43 -30.55 -0.57 247 247 247
0.43 -30.64 -0.57 249 249 249
0.43 -30.73 -0.57 249 249 249
0.43 -30.83 -0.57 246 246 246
0.43 -30.92 -0.57 243 243 243
0.43 -31.01 -0.57 245 245 243
0.43 -31.10 -0.57 245 245 243
0.43 -31.20 -0.57 246 246 244
0.43 -31.29 -0.57 244 244 242
0.43 -31.38 -0.57 245 245 243
0.43 -31.47 -0.57 246 246 244
0.43 -31.57 -0.57 248 248 246
0.24 -31.55 -0.40 239 239 237
0.24 -31.64 -0.40 240 240 238
0.24 -31.73 -0.40 241 241 239
0.24 -31.82 -0.40 241 241 239
0.24 -31.92 -0.40 239 239 237
0.24 -32.01 -0.40 238 238 236
0.06 -31.99 -0.23 238 238 236
0.06 -32.08 -0.23 239 239 237
-9.92 14.74 8.88 0 0 0
-9.92 14.67 8.88 0 0 0
-10.00 14.54 8.95 0 0 0
-10.00 14.47 8.95 0 0 0
-10.10 14.33 9.05 0 0 0
-10.10 14.26 9.05 0 0 0
-10.10 14.19 9.05 0 0 0
-10.10 14.12 9.05 53 41 17
-10.10 14.05 9.05 53 41 17
-10.10 13.99 9.05 55 40 17
-10.10 13.92 9.05 55 40 19
-10.10 13.85 9.05 58 39 22
-10.10 13.78 9.05 59 40 23
-10.10 13.71 9.05 61 39 25
-10.00 13.72 8.95 58 40 26
-10.00 13.65 8.95 57 41 26
-10.00 13.58 8.95 52 39 23
-10.00 13.51 8.95 52 40 24
-10.00 13.44 8.95 54 43 25
-10.00 13.38 8.95 58 45 28
-10.00 13.31 8.95 63 46 26
-10.00 13.24 8.95 69 48 29
-10.00 13.17 8.95 78 53 33
-10.00 13.10 8.95 85 58 37
-10.00 13.03 8.95 91 63 41
-10.00 12.96 8.95 92 62 38
-10.00 12.89 8.95 93 62 41
-10.00 12.83 8.95 102 65 47
-10.00 12.76 8.95 106 64 48
-10.00 12.69 8.95 109 66 49
-9.92 12.67 8.88 115 68 52
-9.92 12.60 8.88 121 72 55
-9.92 12.54 8.88 121 68 52
-9.92 12.47 8.88 131 76 56
-9.92 12.40 8.88 126 69 49
-9.92 12.33 8.88 130 72 50
-9.92 12.26 8.88 137 79 55
-9.81 12.26 8.78 131 71 43
-9.81 12.19 8.78 140 83 56
-9.81 12.12 8.78 141 85 62
-9.81 12.05 8.78 141 86 65
-9.71 12.05 8.68 143 88 67
-9.71 11.71 8.68 148 94 68
-9.60 11.70 8.59 151 96 66
-9.60 11.63 8.59 152 97 67
-9.60 11.56 8.59 154 97 67
-9.52 11.54 8.51 155 98 68
-9.52 11.47 8.51 164 104 78
-9.52 11.40 8.51 169 109 83
-9.42 11.40 8.42 172 111 90
-9.42 11.33 8.42 167 111 88
-9.42 11.26 8.42 169 112 92
-9.31 11.25 8.32 170 113 93
-9.31 11.18 8.32 171 114 94
-9.31 11.11 8.32 171 114 94
-9.21 11.11 8.22 172 115 95
-9.21 11.04 8.22 174 117 97
-9.21 10.97 8.22 175 118 98
-9.00 10.74 8.03 176 121 91
-9.00 10.67 8.03 178 123 93
-9.00 10.60 8.03 178 123 92
-8.89 10.59 7.93 175 120 89
-8.89 10.52 7.93 175 124 93
-8.79 10.51 7.83 175 124 93
-8.79 10.43 7.83 176 126 93
-8.68 10.42 7.73 177 127 94
-8.68 10.35 7.73 180 127 95
-8.68 10.28 7.73 182 127 96
-8.58 10.27 7.64 182 127 96
-8.58 10.20 7.64 182 127 96
-8.58 10.12 7.64 181 126 95
-8.47 10.11 7.54 179 124 93
-8.37 10.10 7.44 179 124 93
-8.37 10.03 7.44 179 126 94
-8.37 9.95 7.44 181 128 96
-8.26 9.94 7.34 181 128 96
-8.26 9.87 7.34 181 128 96
-8.26 9.79 7.34 181 128 96
1.09 14.42 -1.31 179 133 99
1.09 14.32 -1.31 181 132 99
1.09 14.23 -1.31 182 133 100
1.09 14.13 -1.31 180 129 98
1.09 14.04 -1.31 178 127 98
1.09 13.94 -1.31 173 124 94
1.09 13.85 -1.31 166 119 91
1.09 13.76 -1.31 157 118 89
1.09 13.66 -1.31 153 118 88
1.09 13.57 -1.31 149 123 96
1.09 13.47 -1.31 155 133 109
1.09 13.38 -1.31 155 137 117
1.09 13.29 -1.31 158 141 125
0.91 13.10 -1.14 157 143 130
0.91 13.01 -1.14 154 144 134
0.91 12.91 -1.14 152 145 137
0.91 12.82 -1.14 150 147 140
0.91 12.72 -1.14 149 148 143
0.91 12.63 -1.14 149 150 142
0.91 12.54 -1.14 148 149 141
0.91 12.44 -1.14 148 150 139
0.91 12.35 -1.14 149 149 139
1.09 12.34 -1.31 151 151 141
1.09 12.25 -1.31 154 150 141
1.09 12.16 -1.31 154 149 143
1.09 12.06 -1.31 155 148 142
1.09 11.97 -1.31 153 150 145
1.09 11.87 -1.31 154 151 146
1.09 11.78 -1.31 151 150 145
1.09 11.69 -1.31 149 148 143
1.09 11.59 -1.31 149 148 144
1.09 11.50 -1.31 149 148 144
0.91 11.32 -1.14 149 148 144
0.91 11.22 -1.14 148 147 143
0.91 11.13 -1.14 147 146 142
0.91 11.04 -1.14 146 147 141
0.91 10.94 -1.14 147 148 142
0.91 10.85 -1.14 148 149 141
0.91 10.76 -1.14 148 149 141
0.91 10.66 -1.14 147 149 138
0.91 10.57 -1.14 147 149 138
0.91 10.48 -1.14 146 148 135
0.91 10.38 -1.14 146 146 136
0.91 10.29 -1.14 148 144 135
1.09 10.27 -1.31 149 141 138
1.09 10.18 -1.31 145 140 136
0.91 10.01 -1.14 143 139 136
0.91 9.91 -1.14 140 141 136
0.91 9.82 -1.14 140 141 136
0.91 9.73 -1.14 138 139 133
1.09 9.71 -1.31 143 140 135
1.09 9.61 -1.31 139 135 132
1.09 9.52 -1.31 124 123 121
0.91 9.35 -1.14 136 142 140
-2.89 7.71 2.37 167 183 182
-2.89 7.62 2.37 165 194 190
-2.89 7.54 2.37 151 185 184
-2.89 7.45 2.37 166 196 204
-2.89 7.37 2.37 167 201 203
-2.89 7.28 2.37 169 203 205
-2.89 7.20 2.37 172 208 208
-2.89 7.11 2.37 171 207 207
-3.04 6.96 2.52 172 206 208
-3.04 6.88 2.52 174 208 210
-3.04 6.79 2.52 179 210 215
-3.04 6.71 2.52 178 209 214
-3.04 6.63 2.52 178 207 215
-3.04 6.54 2.52 179 208 216
-3.04 6.46 2.52 183 214 217
-3.04 6.37 2.52 182 213 215
-3.04 6.29 2.52 169 205 203
-2.73 6.32 2.22 169 205 201
-2.57 6.29 2.08 159 196 189
-2.12 6.37 1.66 158 195 188
-1.96 6.34 1.52 161 197 193
-1.65 6.37 1.22 162 198 194
-1.33 6.39 0.93 171 207 203
-1.33 6.30 0.93 168 204 200
-1.15 6.28 0.76 169 206 199
-1.15 6.19 0.76 163 200 193
-0.99 6.16 0.62 164 201 193
-0.99 6.07 0.62 161 201 192
-0.99 5.98 0.62 163 203 195
-0.83 5.94 0.47 165 205 197
-0.83 5.85 0.47 168 207 204
-0.83 5.76 0.47 171 210 207
-0.99 5.62 0.62 176 212 210
-0.99 5.53 0.62 164 201 193
-2.12 4.55 1.66 176 209 202
-2.12 4.46 1.66 174 209 202
-2.28 4.33 1.81 180 215 208
-2.28 4.24 1.81 171 208 201
-2.28 4.15 1.81 168 205 198
-2.28 4.07 1.81 182 217 211
-2.28 3.98 1.81 180 215 209
-2.44 3.85 1.96 176 208 203
-2.44 3.76 1.96 190 220 218
-2.44 3.67 1.96 180 209 207
-2.44 3.59 1.96 178 204 205
-2.28 3.55 1.81 179 208 206
-2.28 3.46 1.81 185 217 212
-2.28 3.38 1.81 182 214 209
-3.18 2.36 2.64 200 234 236
-3.18 2.28 2.64 194 228 230
-3.04 2.23 2.52 203 235 234
-3.04 2.14 2.52 204 236 235
-3.04 2.06 2.52 202 232 232
-3.04 1.97 2.52 196 226 226
-2.89 1.93 2.37 201 231 231
-2.57 1.92 2.08 200 230 230
-2.57 1.84 2.08 199 229 229
-2.28 1.82 1.81 199 229 229
-1.96 1.81 1.52 199 229 231
-1.96 1.72 1.52 200 230 232
-1.65 1.71 1.22 199 229 231
-1.33 1.70 0.93 196 226 228
-1.15 1.65 0.76 198 228 230
-1.15 1.56 0.76 198 228 230
-0.99 1.51 0.62 196 227 229
-0.83 1.46 0.47 193 229 229
-0.83 1.37 0.47 190 229 228
-0.67 1.31 0.32 192 228 228
-0.67 1.22 0.32 191 227 227
-0.67 1.13 0.32 190 226 226
-0.49 1.08 0.15 189 225 225
-0.49 0.99 0.15 189 223 224
-0.67 0.86 0.32 188 222 223
-0.67 0.77 0.32 186 220 221
-0.67 0.68 0.32 185 219 220
-0.67 0.59 0.32 185 216 218
-0.67 0.50 0.32 183 214 216
-0.67 0.41 0.32 182 213 215
-0.67 0.32 0.32 181 212 214
-0.67 0.23 0.32 181 212 214
-0.67 0.14 0.32 181 212 214
-0.67 0.05 0.32 187 218 220
-0.67 -0.04 0.32 189 220 222
-0.67 -0.13 0.32 189 220 222
-0.67 -0.22 0.32 186 217 219
-0.67 -0.31 0.32 184 215 217
-0.67 -0.40 0.32 182 213 215
-0.67 -0.49 0.32 181 212 214
-0.49 -0.55 0.15 185 216 218
-0.49 -0.64 0.15 184 215 217
-0.49 -0.73 0.15 184 215 217
-0.49 -0.82 0.15 182 213 215
-0.49 -0.91 0.15 180 211 213
-0.49 -1.00 0.15 179 210 212
-0.49 -1.09 0.15 181 211 213
-0.49 -1.18 0.15 184 214 216
-0.49 -1.27 0.15 184 214 214
-0.49 -1.36 0.15 187 217 217
-0.49 -1.45 0.15 188 218 218
-0.33 -1.52 0.01 180 210 210
-0.33 -1.61 0.01 185 215 215
-0.33 -1.70 0.01 175 205 205
-0.33 -1.79 0.01 181 211 213
-0.33 -1.88 0.01 182 212 214
-0.33 -1.97 0.01 181 211 213
-0.33 -2.06 0.01 185 215 217
-0.33 -2.15 0.01 191 221 223
-0.49 -2.26 0.15 186 216 218
-0.49 -2.36 0.15 187 215 218
-0.49 -2.45 0.15 186 214 217
-0.49 -2.54 0.15 184 212 215
-0.49 -2.63 0.15 192 217 222
-0.67 -2.74 0.32 186 214 218
-0.67 -2.83 0.32 188 217 221
-0.67 -2.92 0.32 188 219 222
-0.67 -3.01 0.32 183 218 222
-0.67 -3.10 0.32 184 219 223
-0.67 -3.19 0.32 183 218 222
-0.67 -3.64 0.32 174 209 215
-0.67 -3.73 0.32 168 207 212
-0.67 -3.82 0.32 165 204 209
-0.67 -3.91 0.32 159 202 208
-0.67 -4.00 0.32 157 200 206
-0.67 -4.09 0.32 142 185 192
-0.67 -4.18 0.32 142 185 192
-0.67 -4.27 0.32 142 183 187
-0.67 -4.36 0.32 136 177 181
-0.67 -4.45 0.32 132 172 172
-0.67 -4.54 0.32 131 171 171
-0.49 -4.62 0.15 131 173 172
-0.49 -4.71 0.15 163 203 205
-0.49 -4.80 0.15 194 232 235
-0.49 -4.89 0.15 228 255 255
-0.67 -4.99 0.32 233 255 255
-0.67 -5.08 0.32 216 241 245
-0.67 -5.17 0.32 219 238 242
-3.18 -5.57 2.64 225 243 243
-3.18 -5.65 2.64 227 245 245
-3.18 -5.74 2.64 227 246 244
-3.18 -5.82 2.64 227 246 244
-3.18 -5.90 2.64 231 247 246
-3.18 -5.99 2.64 232 248 247
-3.18 -6.07 2.64 232 246 246
-3.18 -6.16 2.64 229 243 243
-3.18 -6.24 2.64 242 254 254
-3.18 -6.33 2.64 191 203 203
0.91 -6.49 -1.14 158 169 173
0.91 -6.58 -1.14 154 165 169
0.91 -6.67 -1.14 153 167 170
0.91 -6.77 -1.14 155 169 170
0.91 -6.86 -1.14 155 170 167
0.91 -6.96 -1.14 155 169 169
0.91 -7.05 -1.14 155 169 169
0.91 -7.14 -1.14 158 170 170
0.91 -7.24 -1.14 159 171 171
0.91 -7.33 -1.14 160 172 172
0.91 -7.42 -1.14 161 173 173
0.72 -7.52 -0.97 162 174 174
0.72 -7.61 -0.97 160 172 172
0.72 -7.70 -0.97 164 174 173
0.72 -7.80 -0.97 161 171 170
0.72 -7.89 -0.97 164 175 171
0.72 -7.98 -0.97 172 183 179
0.72 -8.08 -0.97 172 183 179
0.72 -8.17 -0.97 177 186 183
0.72 -8.26 -0.97 177 186 183
0.72 -8.36 -0.97 180 186 184
0.72 -8.45 -0.97 179 188 185
0.72 -8.54 -0.97 179 188 185
0.72 -8.64 -0.97 179 188 185
0.72 -8.73 -0.97 179 188 185
0.72 -8.82 -0.97 179 188 185
0.72 -8.92 -0.97 180 189 186
0.72 -9.01 -0.97 179 188 185
0.72 -9.10 -0.97 179 190 186
0.72 -9.20 -0.97 180 191 187
0.72 -9.29 -0.97 180 191 187
0.72 -9.38 -0.97 181 192 188
0.72 -9.48 -0.97 181 192 188
0.72 -9.57 -0.97 181 192 188
0.72 -9.66 -0.97 181 192 186
0.72 -9.76 -0.97 181 192 186
0.72 -9.85 -0.97 182 193 187
0.72 -9.94 -0.97 182 193 187
0.72 -10.04 -0.97 181 192 186
0.72 -10.13 -0.97 181 192 186
0.72 -10.22 -0.97 181 192 188
0.72 -10.32 -0.97 181 192 188
0.72 -10.41 -0.97 183 192 189
0.72 -10.50 -0.97 185 194 191
0.72 -10.60 -0.97 186 195 192
0.72 -10.69 -0.97 186 195 192
0.72 -10.78 -0.97 186 195 192
0.72 -10.88 -0.97 185 194 191
0.72 -10.97 -0.97 186 195 192
0.72 -11.06 -0.97 188 194 192
0.72 -11.16 -0.97 187 193 191
0.72 -11.25 -0.97 188 192 191
0.91 -11.36 -1.14 189 193 192
0.91 -11.45 -1.14 189 193 192
0.72 -11.53 -0.97 189 193 192
0.72 -11.62 -0.97 187 193 191
0.72 -11.72 -0.97 187 193 191
0.72 -11.81 -0.97 186 195 192
0.72 -11.90 -0.97 187 196 193
0.72 -12.00 -0.97 187 196 193
0.72 -12.09 -0.97 187 196 193
0.72 -12.18 -0.97 186 197 193
0.72 -12.28 -0.97 186 197 193
0.72 -12.37 -0.97 186 197 193
0.72 -12.46 -0.97 186 197 193
0.72 -12.56 -0.97 187 196 193
0.72 -12.65 -0.97 186 195 192
0.54 -12.72 -0.80 186 195 192
0.54 -12.81 -0.80 187 196 193
0.54 -12.90 -0.80 189 198 195
0.54 -13.00 -0.80 190 199 196
0.54 -13.09 -0.80 190 199 196
0.54 -13.18 -0.80 189 198 195
0.54 -13.27 -0.80 189 198 195
0.54 -13.37 -0.80 189 198 195
0.54 -13.46 -0.80 190 199 196
0.54 -13.55 -0.80 190 199 196
0.54 -13.65 -0.80 191 200 197
0.72 -13.77 -0.97 191 200 197
0.54 -13.83 -0.80 193 199 197
0.54 -13.92 -0.80 193 199 197
0.54 -14.02 -0.80 196 200 199
0.54 -14.11 -0.80 196 202 200
0.54 -14.20 -0.80 195 201 199
0.54 -14.30 -0.80 192 201 198
0.54 -14.39 -0.80 192 201 198
0.72 -14.51 -0.97 192 203 199
0.72 -14.61 -0.97 194 205 201
0.72 -14.70 -0.97 193 204 200
0.72 -14.79 -0.97 194 205 201
0.72 -14.89 -0.97 195 206 202
0.72 -14.98 -0.97 196 207 203
0.72 -15.07 -0.97 198 207 204
0.72 -15.17 -0.97 198 207 204
0.72 -15.26 -0.97 199 208 205
0.72 -15.35 -0.97 199 208 205
0.72 -15.45 -0.97 203 209 207
0.72 -15.54 -0.97 203 209 207
0.72 -15.63 -0.97 204 210 208
0.72 -15.73 -0.97 204 210 208
0.72 -15.82 -0.97 205 211 209
0.72 -15.91 -0.97 205 211 209
0.72 -16.01 -0.97 205 211 209
0.72 -16.10 -0.97 206 212 210
0.72 -16.19 -0.97 207 213 211
0.72 -16.29 -0.97 209 213 212
0.72 -16.38 -0.97 210 214 213
0.72 -16.47 -0.97 211 215 214
0.72 -16.57 -0.97 212 216 215
0.54 -16.62 -0.80 213 217 216
0.54 -16.71 -0.80 214 218 217
0.54 -16.80 -0.80 215 221 219
0.54 -16.90 -0.80 216 222 220
0.54 -16.99 -0.80 218 224 222
0.54 -17.08 -0.80 219 225 223
0.54 -17.17 -0.80 221 227 225
0.54 -17.27 -0.80 222 228 226
0.54 -17.36 -0.80 224 228 227
0.54 -17.45 -0.80 224 228 227
0.54 -17.55 -0.80 224 228 227
0.54 -17.64 -0.80 226 230 229
0.72 -17.78 -0.97 228 232 231
0.72 -17.87 -0.97 229 233 232
0.72 -17.97 -0.97 228 232 231
0.54 -18.01 -0.80 230 234 233
0.54 -18.10 -0.80 231 235 234
0.54 -18.20 -0.80 233 235 234
0.54 -18.29 -0.80 237 239 238
0.54 -18.38 -0.80 240 242 241
0.72 -18.53 -0.97 238 240 239
0.54 -18.57 -0.80 237 239 238
0.54 -18.66 -0.80 238 240 239
0.54 -18.75 -0.80 241 243 242
0.54 -18.85 -0.80 242 244 243
0.54 -18.94 -0.80 247 249 248
0.54 -19.03 -0.80 244 246 245
0.54 -19.13 -0.80 241 243 242
0.54 -19.22 -0.80 238 240 239
0.54 -19.31 -0.80 238 240 239
0.54 -19.40 -0.80 240 242 241
0.54 -19.50 -0.80 242 244 243
0.54 -19.59 -0.80 243 245 244
0.54 -19.68 -0.80 245 245 245
0.54 -19.78 -0.80 245 245 245
0.72 -19.93 -0.97 246 246 246
0.72 -20.02 -0.97 247 247 247
0.54 -20.05 -0.80 247 247 247
0.54 -20.15 -0.80 247 247 247
0.54 -20.24 -0.80 247 247 247
0.54 -20.33 -0.80 243 243 243
0.72 -20.48 -0.97 244 244 244
0.72 -20.58 -0.97 244 244 244
0.72 -20.67 -0.97 245 245 245
0.72 -20.76 -0.97 246 246 246
0.72 -20.86 -0.97 247 247 247
0.72 -20.95 -0.97 249 249 249
0.72 -21.04 -0.97 250 250 250
0.72 -21.14 -0.97 249 249 249
0.72 -21.23 -0.97 250 250 250
0.54 -21.26 -0.80 250 250 250
0.54 -21.35 -0.80 250 250 250
0.54 -21.45 -0.80 250 250 250
0.54 -21.54 -0.80 250 250 250
0.38 -21.58 -0.65 250 250 250
0.38 -21.67 -0.65 251 251 251
0.38 -21.76 -0.65 252 252 252
0.38 -21.85 -0.65 252 252 252
0.54 -22.00 -0.80 252 252 252
0.54 -22.10 -0.80 253 253 253
0.38 -22.13 -0.65 253 253 253
0.38 -22.22 -0.65 253 253 253
0.38 -22.32 -0.65 253 253 253
0.38 -22.41 -0.65 254 254 254
0.54 -22.56 -0.80 253 253 253
0.54 -22.65 -0.80 252 254 253
0.54 -22.75 -0.80 252 254 253
0.54 -22.84 -0.80 252 254 253
0.54 -22.93 -0.80 252 254 253
0.54 -23.03 -0.80 250 254 253
0.54 -23.12 -0.80 250 254 253
0.54 -23.21 -0.80 250 254 253
0.54 -23.30 -0.80 250 254 253
0.54 -23.40 -0.80 249 255 253
0.54 -23.49 -0.80 250 255 254
0.54 -23.58 -0.80 250 255 254
0.54 -23.68 -0.80 250 255 254
0.54 -23.77 -0.80 250 255 254
0.72 -23.94 -0.97 250 255 254
0.72 -24.03 -0.97 249 255 253
0.72 -24.12 -0.97 249 255 253
0.72 -24.22 -0.97 249 255 253
0.54 -24.23 -0.80 249 255 253
0.54 -24.33 -0.80 249 255 253
0.54 -24.42 -0.80 249 255 253
0.54 -24.51 -0.80 250 254 253
0.54 -24.60 -0.80 250 254 253
0.54 -24.70 -0.80 252 254 253
0.54 -24.79 -0.80 253 255 254
0.54 -24.88 -0.80 253 255 254
0.38 -24.91 -0.65 253 255 254
0.38 -25.00 -0.65 252 254 253
0.38 -25.09 -0.65 253 253 253
0.38 -25.18 -0.65 253 253 253
0.38 -25.28 -0.65 253 253 253
0.38 -25.37 -0.65 253 253 253
0.38 -25.46 -0.65 253 253 253
0.38 -25.55 -0.65 252 252 252
0.54 -25.72 -0.80 251 251 251
0.54 -25.81 -0.80 251 251 251
0.54 -25.90 -0.80 251 251 251
0.54 -26.18 -0.80 253 253 253
0.54 -26.28 -0.80 253 253 253
0.54 -26.37 -0.80 253 253 253
0.54 -26.46 -0.80 253 253 253
0.54 -26.55 -0.80 253 253 253
0.54 -26.65 -0.80 253 253 253
0.54 -26.74 -0.80 252 252 252
0.54 -26.83 -0.80 253 253 253
0.38 -26.85 -0.65 252 252 252
0.38 -26.94 -0.65 251 251 251
0.38 -27.03 -0.65 250 250 250
0.38 -27.13 -0.65 250 250 250
0.38 -27.22 -0.65 250 250 250
0.38 -27.31 -0.65 250 250 250
0.38 -27.40 -0.65 250 250 250
0.38 -27.50 -0.65 250 250 250
0.20 -27.50 -0.48 250 250 250
0.20 -27.59 -0.48 251 251 251
0.20 -27.68 -0.48 250 250 250
0.20 -27.77 -0.48 251 251 251
0.38 -27.96 -0.65 251 251 251
0.38 -28.05 -0.65 251 251 251
0.38 -28.14 -0.65 250 250 250
0.38 -28.24 -0.65 251 251 251
0.38 -28.33 -0.65 252 252 252
0.38 -28.42 -0.65 252 252 252
0.38 -28.51 -0.65 251 251 251
0.38 -28.61 -0.65 251 251 251
0.38 -28.70 -0.65 251 251 251
0.38 -28.79 -0.65 251 251 251
0.38 -28.88 -0.65 250 250 250
0.38 -28.98 -0.65 250 250 250
0.38 -29.07 -0.65 250 250 250
0.38 -29.16 -0.65 250 250 250
0.38 -29.25 -0.65 250 250 250
0.38 -29.35 -0.65 249 249 249
0.38 -29.44 -0.65 248 248 248
0.38 -29.53 -0.65 247 247 247
0.38 -29.62 -0.65 247 247 247
0.38 -29.72 -0.65 247 247 247
0.38 -29.81 -0.65 247 247 247
0.38 -29.90 -0.65 247 247 247
0.38 -29.99 -0.65 248 248 248
0.38 -30.09 -0.65 248 248 248
0.20 -30.07 -0.48 249 249 249
0.20 -30.17 -0.48 248 248 248
0.20 -30.26 -0.48 248 248 248
0.20 -30.35 -0.48 248 248 248
0.20 -30.44 -0.48 249 249 249
0.20 -30.54 -0.48 250 250 250
0.20 -30.63 -0.48 249 249 249
0.20 -30.72 -0.48 246 246 246
0.20 -30.81 -0.48 244 244 244
0.20 -30.90 -0.48 246 246 246
0.20 -31.00 -0.48 246 246 246
0.20 -31.09 -0.48 247 247 247
0.20 -31.18 -0.48 246 246 246
0.20 -31.27 -0.48 244 244 244
0.20 -31.36 -0.48 242 242 242
0.20 -31.46 -0.48 241 241 241
0.20 -31.55 -0.48 245 245 245
0.20 -31.64 -0.48 244 244 244
0.20 -31.73 -0.48 242 242 242
0.20 -31.82 -0.48 242 242 242
0.20 -31.92 -0.48 243 243 243
0.20 -32.01 -0.48 243 243 243
0.01 -31.99 -0.31 242 242 240
0.01 -32.08 -0.31 240 240 238
-10.03 14.54 8.89 0 0 0
-10.03 14.47 8.89 0 0 0
-10.03 14.40 8.89 0 0 0
-10.14 14.26 8.99 0 0 0
-10.14 14.19 8.99 0 0 0
-10.14 14.12 8.99 56 45 17
-10.14 14.05 8.99 56 45 17
-10.14 13.99 8.99 57 43 16
-10.14 13.92 8.99 57 41 16
-10.14 13.85 8.99 60 39 18
-10.03 13.86 8.89 61 40 21
-10.03 13.79 8.89 63 40 24
-10.03 13.72 8.89 61 42 27
-10.03 13.65 8.89 61 44 28
-10.03 13.58 8.89 60 47 31
-10.03 13.51 8.89 55 43 27
-10.03 13.44 8.89 51 44 25
-10.03 13.38 8.89 54 46 27
-10.03 13.31 8.89 57 46 26
-10.03 13.24 8.89 61 46 27
-10.03 13.17 8.89 70 52 30
-10.03 13.10 8.89 81 59 36
-10.03 13.03 8.89 86 64 40
-10.03 12.96 8.89 87 61 36
-10.03 12.89 8.89 88 62 39
-10.03 12.83 8.89 101 68 49
-10.03 12.76 8.89 106 69 53
-10.03 12.69 8.89 112 70 58
-9.95 12.67 8.82 117 70 60
-9.95 12.60 8.82 118 68 57
-9.95 12.54 8.82 118 64 52
-9.95 12.47 8.82 130 74 59
-9.95 12.40 8.82 126 67 49
-9.95 12.33 8.82 130 72 50
-9.95 12.26 8.82 140 80 54
-9.85 12.26 8.72 133 72 44
-9.85 12.19 8.72 144 84 56
-9.85 12.12 8.72 145 87 63
-9.85 12.05 8.72 142 86 63
-9.85 11.98 8.72 141 84 64
-9.74 11.98 8.62 143 86 66
-9.74 11.91 8.62 146 89 69
-9.74 11.84 8.62 148 91 71
-9.74 11.78 8.62 148 92 67
-9.74 11.71 8.62 146 90 63
-9.64 11.70 8.53 150 95 65
-9.64 11.63 8.53 152 97 66
-9.64 11.56 8.53 154 98 65
-9.56 11.54 8.45 154 97 67
-9.56 11.47 8.45 159 99 73
-9.56 11.40 8.45 167 105 80
-9.45 11.40 8.36 171 110 89
-9.45 11.33 8.36 170 112 90
-9.45 11.26 8.36 170 113 93
-9.45 11.19 8.36 170 113 93
-9.35 11.18 8.26 170 113 93
-9.35 11.11 8.26 170 113 93
-9.24 11.11 8.16 172 115 95
-9.24 11.04 8.16 176 119 99
-9.24 10.97 8.16 178 121 101
-9.03 10.74 7.96 178 123 93
-9.03 10.67 7.96 181 126 96
-8.93 10.66 7.87 181 126 95
-8.93 10.59 7.87 177 124 92
-8.93 10.52 7.87 179 128 97
-8.82 10.51 7.77 178 129 97
-8.72 10.50 7.67 179 128 97
-8.72 10.42 7.67 178 127 96
-8.72 10.35 7.67 180 127 96
-8.61 10.34 7.57 180 127 96
-8.61 10.27 7.57 180 127 96
-8.61 10.20 7.57 182 127 96
-8.61 10.12 7.57 180 125 94
-8.51 10.11 7.48 179 124 93
-8.51 10.04 7.48 179 124 93
-8.40 10.03 7.38 180 127 95
-8.30 9.87 7.28 184 131 99
-8.30 9.79 7.28 182 127 96
-8.30 9.72 7.28 179 126 94
-8.30 9.65 7.28 177 126 95
0.86 14.13 -1.22 176 127 95
0.86 14.04 -1.22 177 126 97
0.86 13.94 -1.22 178 124 96
0.86 13.85 -1.22 178 124 96
0.86 13.76 -1.22 176 125 96
0.86 13.66 -1.22 172 127 94
0.86 13.57 -1.22 166 126 91
0.86 13.47 -1.22 150 120 86
0.86 13.38 -1.22 140 114 87
0.86 13.29 -1.22 142 120 97
0.86 13.19 -1.22 148 127 108
0.86 13.10 -1.22 151 134 118
0.86 13.01 -1.22 152 138 127
0.86 12.91 -1.22 153 143 134
0.86 12.82 -1.22 155 148 140
0.86 12.72 -1.22 156 151 145
0.86 12.63 -1.22 152 152 144
0.86 12.54 -1.22 151 151 143
0.86 12.44 -1.22 149 149 139
0.86 12.35 -1.22 151 148 139
0.86 12.26 -1.22 153 150 141
0.86 12.16 -1.22 155 151 142
1.04 12.16 -1.39 157 150 144
1.04 12.06 -1.39 157 150 144
0.86 11.88 -1.22 150 147 140
0.86 11.79 -1.22 152 149 142
0.86 11.69 -1.22 152 149 144
0.86 11.60 -1.22 150 147 142
0.86 11.51 -1.22 147 146 141
0.86 11.41 -1.22 149 148 143
0.86 11.32 -1.22 149 148 144
0.86 11.22 -1.22 148 147 142
0.86 11.13 -1.22 148 147 142
0.86 11.04 -1.22 148 147 142
0.86 10.94 -1.22 148 147 142
0.86 10.85 -1.22 147 148 140
0.86 10.76 -1.22 147 148 140
0.86 10.66 -1.22 146 147 139
0.86 10.57 -1.22 145 146 138
0.86 10.48 -1.22 145 147 134
0.86 10.38 -1.22 146 146 136
0.86 10.29 -1.22 147 143 134
0.86 10.19 -1.22 147 139 136
0.86 10.10 -1.22 144 139 135
0.86 10.01 -1.22 142 138 135
0.86 9.91 -1.22 139 140 135
0.86 9.82 -1.22 140 141 136
0.86 9.73 -1.22 129 130 125
-3.09 7.81 2.44 121 119 120
-2.93 7.79 2.30 160 165 168
-3.09 7.64 2.44 175 190 193
-2.93 7.62 2.30 165 195 195
-2.93 7.54 2.30 159 194 196
-2.93 7.45 2.30 164 201 207
-2.93 7.37 2.30 162 202 202
-2.93 7.28 2.30 163 203 203
-3.09 7.13 2.44 169 209 208
-3.09 7.05 2.44 171 210 209
-3.09 6.96 2.44 170 208 209
-3.22 6.83 2.57 178 211 216
-3.22 6.74 2.57 177 208 213
-3.22 6.66 2.57 181 208 217
-3.22 6.58 2.57 182 209 220
-3.22 6.49 2.57 177 201 213
-3.22 6.41 2.57 185 212 219
-3.22 6.32 2.57 185 212 219
-3.22 6.24 2.57 192 223 226
-3.22 6.15 2.57 194 225 227
-3.09 6.12 2.44 202 232 230
-2.93 6.09 2.30 200 230 228
-2.01 6.34 1.44 198 228 226
-2.01 6.25 1.44 193 223 223
-1.38 6.39 0.86 197 227 227
-1.19 6.37 0.68 193 223 223
-1.19 6.28 0.68 201 231 229
-1.03 6.25 0.54 200 230 228
-1.03 5.98 0.54 198 229 224
-0.88 5.94 0.39 195 227 222
-0.88 5.85 0.39 197 229 228
-0.88 5.76 0.39 200 232 231
-2.93 4.48 2.30 198 229 223
-2.93 4.39 2.30 203 234 228
-2.93 4.31 2.30 200 231 225
-2.48 4.36 1.88 203 238 232
-2.48 4.28 1.88 201 236 230
-2.48 4.19 1.88 206 241 235
-2.48 4.10 1.88 202 237 231
-2.48 4.02 1.88 201 233 230
-2.48 3.93 1.88 205 235 233
-2.48 3.85 1.88 200 230 228
-2.48 3.76 1.88 201 229 230
-2.48 3.67 1.88 200 229 233
-2.48 3.59 1.88 198 227 233
-2.48 3.50 1.88 203 234 236
-2.48 3.42 1.88 198 233 229
-2.32 3.38 1.74 191 226 222
-3.38 2.82 2.71 205 236 230
-3.38 2.74 2.71 214 243 238
-3.38 2.65 2.71 214 241 236
-3.38 2.57 2.71 217 244 239
-3.38 2.49 2.71 210 239 235
-3.38 2.40 2.71 202 231 227
-3.22 2.36 2.57 205 235 233
-3.22 2.28 2.57 198 228 228
-3.22 2.19 2.57 196 230 229
-3.22 2.11 2.57 198 232 233
-3.22 2.02 2.57 200 234 235
-3.09 1.97 2.44 195 229 230
-3.09 1.89 2.44 203 234 236
-2.77 1.88 2.15 198 229 231
-2.61 1.84 2.00 200 230 232
-2.48 1.78 1.88 201 231 233
-2.01 1.81 1.44 199 227 228
-2.01 1.72 1.44 203 231 232
-1.69 1.71 1.15 203 231 234
-1.38 1.70 0.86 201 229 232
-1.19 1.65 0.68 206 234 237
-1.19 1.56 0.68 207 232 236
-1.03 1.51 0.54 201 229 232
-1.03 1.42 0.54 203 233 235
-0.88 1.37 0.39 202 233 235
-0.88 1.28 0.39 203 233 235
-0.72 1.22 0.24 203 233 235
-0.72 1.13 0.24 203 233 235
-0.72 1.04 0.24 203 233 235
-0.72 0.95 0.24 204 232 235
-0.72 0.86 0.24 204 232 235
-0.72 0.77 0.24 212 237 241
-0.72 0.68 0.24 214 239 243
-0.72 0.59 0.24 216 240 244
-0.72 0.50 0.24 218 242 246
-0.72 0.41 0.24 220 241 246
-0.72 0.32 0.24 220 241 246
-0.72 0.23 0.24 219 240 245
-0.72 0.14 0.24 219 240 245
-0.72 0.05 0.24 214 239 243
-0.72 -0.04 0.24 217 242 246
-0.72 -0.13 0.24 218 243 247
-0.72 -0.22 0.24 217 242 246
-0.72 -0.31 0.24 217 241 245
-0.72 -0.40 0.24 218 242 246
-0.72 -0.49 0.24 218 242 246
-0.72 -0.58 0.24 222 246 250
-0.72 -0.67 0.24 220 244 248
-0.72 -0.76 0.24 221 242 247
-0.72 -0.85 0.24 221 242 247
-0.72 -0.94 0.24 220 241 246
-0.72 -1.03 0.24 220 241 246
-0.53 -1.09 0.07 223 244 249
-0.53 -1.18 0.07 228 249 254
-0.53 -1.27 0.07 228 249 250
-0.53 -1.36 0.07 226 247 248
-0.53 -1.45 0.07 232 253 254
-0.53 -1.54 0.07 225 246 247
-0.53 -1.63 0.07 221 245 245
-0.53 -1.72 0.07 219 243 243
-0.53 -1.81 0.07 223 247 247
-0.53 -1.90 0.07 219 243 243
-0.53 -1.99 0.07 222 246 246
-0.53 -2.08 0.07 228 252 252
-0.53 -2.17 0.07 220 241 244
-0.53 -2.26 0.07 215 236 239
-0.53 -2.36 0.07 226 245 249
-0.53 -2.45 0.07 221 240 244
-0.53 -2.54 0.07 231 250 254
-0.72 -2.65 0.24 218 242 242
-0.72 -2.74 0.24 212 236 236
-0.72 -2.83 0.24 215 243 244
-0.72 -2.92 0.24 212 240 241
-0.72 -3.01 0.24 205 237 236
-0.72 -3.10 0.24 204 236 235
-0.72 -3.19 0.24 197 231 232
-0.72 -3.28 0.24 196 230 231
-0.72 -3.37 0.24 195 226 229
-0.88 -3.48 0.39 194 225 228
-0.88 -3.57 0.39 192 223 226
-0.88 -3.66 0.39 190 221 224
-0.88 -3.74 0.39 185 220 222
-0.88 -3.83 0.39 180 218 219
-0.88 -3.92 0.39 178 218 218
-0.88 -4.01 0.39 177 217 219
-0.88 -4.10 0.39 185 225 227
-0.88 -4.19 0.39 194 229 233
-0.88 -4.28 0.39 195 230 232
-0.72 -4.36 0.24 194 226 225
-0.72 -4.45 0.24 196 228 225
-0.72 -4.54 0.24 209 240 235
-0.72 -4.63 0.24 226 255 251
-0.72 -4.72 0.24 230 255 255
-0.72 -4.81 0.24 237 255 255
-0.72 -4.90 0.24 223 249 248
-0.72 -4.99 0.24 216 237 238
-3.38 -5.57 2.71 228 244 243
-3.22 -5.65 2.57 227 246 244
-3.22 -5.74 2.57 229 248 246
-3.22 -5.82 2.57 229 248 246
-3.22 -5.90 2.57 233 249 248
-3.22 -5.99 2.57 235 251 250
-3.22 -6.07 2.57 234 249 246
-3.22 -6.16 2.57 230 245 242
-3.22 -6.24 2.57 241 253 253
-3.38 -6.33 2.71 176 188 188
0.68 -6.49 -1.05 160 171 175
0.86 -6.58 -1.22 155 166 170
0.68 -6.68 -1.05 153 167 170
0.68 -6.77 -1.05 155 169 170
0.68 -6.86 -1.05 156 172 169
0.86 -6.96 -1.22 157 171 171
0.86 -7.05 -1.22 158 172 172
0.68 -7.14 -1.05 158 172 172
0.68 -7.24 -1.05 159 173 173
0.68 -7.33 -1.05 161 173 173
0.68 -7.42 -1.05 161 173 173
0.68 -7.52 -1.05 163 173 174
0.68 -7.61 -1.05 161 171 172
0.68 -7.70 -1.05 165 175 174
0.68 -7.80 -1.05 163 173 172
0.68 -7.89 -1.05 168 177 174
0.68 -7.98 -1.05 176 185 182
0.68 -8.08 -1.05 176 185 182
0.68 -8.17 -1.05 179 188 185
0.68 -8.26 -1.05 182 188 186
0.68 -8.36 -1.05 182 188 186
0.68 -8.45 -1.05 182 188 186
0.68 -8.54 -1.05 182 188 186
0.68 -8.64 -1.05 180 189 186
0.68 -8.73 -1.05 181 190 187
0.68 -8.82 -1.05 183 192 189
0.49 -8.91 -0.88 184 193 190
0.49 -9.00 -0.88 179 188 185
0.49 -9.10 -0.88 180 191 187
0.68 -9.20 -1.05 181 192 188
0.68 -9.29 -1.05 182 193 189
0.68 -9.38 -1.05 182 193 189
0.49 -9.47 -0.88 182 193 189
0.49 -9.56 -0.88 183 194 190
0.49 -9.65 -0.88 181 194 187
0.68 -9.76 -1.05 182 195 188
0.68 -9.85 -1.05 183 194 188
0.68 -9.94 -1.05 182 193 187
0.49 -10.02 -0.88 181 192 186
0.49 -10.12 -0.88 180 191 185
0.49 -10.21 -0.88 180 191 187
0.68 -10.32 -1.05 180 191 187
0.68 -10.41 -1.05 180 189 186
0.68 -10.50 -1.05 182 191 188
0.68 -10.60 -1.05 185 194 191
0.68 -10.69 -1.05 187 196 193
0.68 -10.78 -1.05 186 195 192
0.68 -10.88 -1.05 186 195 192
0.68 -10.97 -1.05 186 195 194
0.68 -11.06 -1.05 188 194 194
0.68 -11.16 -1.05 188 194 192
0.68 -11.25 -1.05 189 193 192
0.68 -11.34 -1.05 191 195 194
0.68 -11.44 -1.05 191 195 194
0.68 -11.53 -1.05 191 195 194
0.68 -11.62 -1.05 190 196 194
0.68 -11.72 -1.05 190 196 194
0.68 -11.81 -1.05 189 195 193
0.49 -11.88 -0.88 189 195 193
0.49 -11.97 -0.88 188 197 194
0.68 -12.09 -1.05 188 197 194
0.68 -12.18 -1.05 187 198 194
0.49 -12.25 -0.88 187 198 194
0.49 -12.35 -0.88 186 197 193
0.49 -12.44 -0.88 186 197 193
0.49 -12.53 -0.88 189 198 195
0.49 -12.62 -0.88 188 197 194
0.49 -12.72 -0.88 187 196 193
0.49 -12.81 -0.88 187 196 193
0.49 -12.90 -0.88 189 198 195
0.33 -12.97 -0.73 189 198 195
0.33 -13.07 -0.73 188 199 195
0.33 -13.16 -0.73 187 198 194
0.33 -13.25 -0.73 189 200 196
0.33 -13.34 -0.73 189 200 196
0.33 -13.44 -0.73 190 201 197
0.49 -13.55 -0.88 191 202 198
0.49 -13.65 -0.88 191 202 198
0.49 -13.74 -0.88 191 202 198
0.49 -13.83 -0.88 192 201 198
0.49 -13.92 -0.88 193 199 197
0.49 -14.02 -0.88 196 200 199
0.49 -14.11 -0.88 197 203 201
0.49 -14.20 -0.88 196 202 200
0.49 -14.30 -0.88 193 202 199
0.49 -14.39 -0.88 192 201 198
0.49 -14.48 -0.88 192 201 198
0.49 -14.57 -0.88 193 202 199
0.49 -14.67 -0.88 195 206 202
0.49 -14.76 -0.88 195 206 202
0.49 -14.85 -0.88 195 206 202
0.49 -14.95 -0.88 196 207 203
0.49 -15.04 -0.88 198 207 204
0.49 -15.13 -0.88 199 208 205
0.49 -15.22 -0.88 200 209 206
0.49 -15.32 -0.88 201 210 207
0.49 -15.41 -0.88 203 209 207
0.49 -15.50 -0.88 204 210 208
0.49 -15.60 -0.88 205 211 209
0.68 -15.73 -1.05 206 212 210
0.68 -15.82 -1.05 207 213 211
0.49 -15.87 -0.88 208 214 212
0.49 -15.97 -0.88 208 214 212
0.49 -16.06 -0.88 207 213 211
0.49 -16.15 -0.88 207 213 211
0.49 -16.25 -0.88 209 213 212
0.49 -16.34 -0.88 212 216 215
0.49 -16.43 -0.88 215 219 218
0.49 -16.52 -0.88 217 221 220
0.49 -16.62 -0.88 217 221 220
0.49 -16.71 -0.88 215 219 218
0.49 -16.80 -0.88 216 222 220
0.49 -16.90 -0.88 216 222 220
0.49 -16.99 -0.88 218 224 222
0.33 -17.04 -0.73 219 225 223
0.49 -17.17 -0.88 221 227 225
0.33 -17.23 -0.73 222 228 226
0.33 -17.32 -0.73 224 228 227
0.33 -17.41 -0.73 224 228 227
0.33 -17.51 -0.73 225 229 228
0.49 -17.64 -0.88 227 231 230
0.49 -17.73 -0.88 230 234 233
0.49 -17.83 -0.88 230 234 233
0.49 -17.92 -0.88 228 232 231
0.49 -18.01 -0.88 228 232 231
0.49 -18.10 -0.88 229 233 232
0.49 -18.20 -0.88 231 235 234
0.49 -18.29 -0.88 236 240 239
0.49 -18.38 -0.88 240 244 243
0.49 -18.48 -0.88 238 242 241
0.49 -18.57 -0.88 236 240 239
0.49 -18.66 -0.88 236 240 239
0.49 -18.75 -0.88 237 241 240
0.33 -18.80 -0.73 237 241 240
0.33 -18.89 -0.73 238 242 241
0.33 -18.99 -0.73 239 243 242
0.33 -19.08 -0.73 240 244 243
0.33 -19.17 -0.73 243 247 246
0.33 -19.26 -0.73 245 249 248
0.33 -19.36 -0.73 245 249 248
0.33 -19.45 -0.73 243 247 246
0.33 -19.54 -0.73 243 245 244
0.33 -19.63 -0.73 243 245 244
0.33 -19.73 -0.73 245 245 245
0.49 -19.87 -0.88 247 247 247
0.49 -19.96 -0.88 249 249 249
0.49 -20.05 -0.88 249 249 249
0.49 -20.15 -0.88 249 249 249
0.49 -20.24 -0.88 247 247 247
0.49 -20.33 -0.88 247 247 247
0.49 -20.43 -0.88 247 247 247
0.49 -20.52 -0.88 248 248 248
0.49 -20.61 -0.88 248 248 248
0.49 -20.70 -0.88 248 248 248
0.49 -20.80 -0.88 248 248 248
0.49 -20.89 -0.88 246 246 246
0.49 -20.98 -0.88 246 246 246
0.49 -21.08 -0.88 246 246 246
0.49 -21.17 -0.88 247 247 247
0.33 -21.21 -0.73 250 250 250
0.33 -21.30 -0.73 251 251 251
0.33 -21.39 -0.73 252 252 252
0.33 -21.48 -0.73 252 252 252
0.33 -21.58 -0.73 252 252 252
0.33 -21.67 -0.73 252 252 252
0.33 -21.76 -0.73 252 252 252
0.33 -21.85 -0.73 252 252 252
0.33 -21.95 -0.73 252 252 252
0.33 -22.04 -0.73 253 253 253
0.33 -22.13 -0.73 253 253 253
0.33 -22.22 -0.73 253 253 253
0.33 -22.32 -0.73 254 254 254
0.33 -22.41 -0.73 254 254 254
0.33 -22.50 -0.73 254 254 254
0.33 -22.59 -0.73 252 254 253
0.33 -22.69 -0.73 252 254 253
0.33 -22.78 -0.73 252 254 253
0.33 -22.87 -0.73 252 254 253
0.49 -23.03 -0.88 250 254 253
0.49 -23.12 -0.88 250 254 253
0.49 -23.21 -0.88 249 253 252
0.49 -23.30 -0.88 250 254 253
0.49 -23.40 -0.88 249 255 253
0.49 -23.49 -0.88 249 255 253
0.33 -23.52 -0.73 249 255 253
0.33 -23.61 -0.73 249 255 253
0.49 -23.77 -0.88 247 255 253
0.49 -23.86 -0.88 247 255 253
0.49 -23.95 -0.88 247 255 253
0.49 -24.05 -0.88 247 255 253
0.49 -24.14 -0.88 249 255 253
0.49 -24.23 -0.88 249 255 253
0.49 -24.33 -0.88 249 255 253
0.49 -24.42 -0.88 249 255 253
0.49 -24.51 -0.88 250 254 253
0.49 -24.60 -0.88 250 254 253
0.49 -24.70 -0.88 251 255 254
0.33 -24.72 -0.73 253 255 254
0.33 -24.81 -0.73 253 255 254
0.33 -24.91 -0.73 253 255 254
0.33 -25.00 -0.73 252 254 253
0.33 -25.09 -0.73 253 253 253
0.33 -25.18 -0.73 252 252 252
0.33 -25.28 -0.73 254 254 254
0.33 -25.37 -0.73 254 254 254
0.33 -25.46 -0.73 254 254 254
0.33 -25.55 -0.73 254 254 254
0.33 -25.65 -0.73 253 253 253
0.33 -25.74 -0.73 253 253 253
0.33 -25.83 -0.73 254 254 254
0.33 -25.92 -0.73 254 254 254
0.33 -26.02 -0.73 254 254 254
0.15 -26.02 -0.56 254 254 254
0.33 -26.20 -0.73 254 254 254
0.33 -26.29 -0.73 254 254 254
0.33 -26.39 -0.73 254 254 254
0.33 -26.48 -0.73 254 254 254
0.33 -26.57 -0.73 253 253 253
0.33 -26.66 -0.73 253 253 253
0.33 -26.76 -0.73 251 251 251
0.33 -26.85 -0.73 251 251 251
0.33 -26.94 -0.73 251 251 251
0.33 -27.03 -0.73 251 251 251
0.33 -27.13 -0.73 251 251 251
0.33 -27.22 -0.73 251 251 251
0.33 -27.31 -0.73 251 251 251
0.33 -27.40 -0.73 251 251 251
0.33 -27.50 -0.73 251 251 251
0.15 -27.50 -0.56 251 251 251
0.15 -27.59 -0.56 251 251 251
0.15 -27.68 -0.56 251 251 251
0.15 -27.77 -0.56 251 251 251
0.33 -28.14 -0.73 250 250 250
0.15 -28.14 -0.56 251 251 251
0.15 -28.23 -0.56 252 252 252
0.15 -28.33 -0.56 252 252 252
0.15 -28.42 -0.56 251 251 251
0.15 -28.51 -0.56 251 251 251
0.15 -28.60 -0.56 251 251 251
0.15 -28.69 -0.56 252 252 252
0.15 -28.79 -0.56 251 251 251
0.15 -28.88 -0.56 251 251 251
0.15 -28.97 -0.56 252 252 252
0.15 -29.06 -0.56 252 252 252
0.33 -29.25 -0.73 251 251 251
0.33 -29.35 -0.73 250 250 250
0.15 -29.34 -0.56 250 250 250
0.15 -29.43 -0.56 250 250 250
0.15 -29.52 -0.56 249 249 249
0.15 -29.61 -0.56 247 247 247
0.15 -29.71 -0.56 246 246 246
0.33 -29.90 -0.73 245 245 245
0.15 -29.89 -0.56 246 246 246
0.15 -29.98 -0.56 247 247 247
0.15 -30.07 -0.56 248 248 248
0.15 -30.17 -0.56 247 247 247
0.15 -30.26 -0.56 248 248 248
0.15 -30.35 -0.56 248 248 248
0.15 -30.44 -0.56 247 247 247
0.15 -30.54 -0.56 245 245 245
0.15 -30.63 -0.56 244 244 244
0.15 -30.72 -0.56 244 244 244
0.15 -30.81 -0.56 244 244 244
0.15 -30.90 -0.56 246 246 246
0.15 -31.00 -0.56 244 244 244
0.15 -31.09 -0.56 243 243 243
0.15 -31.18 -0.56 244 244 244
0.15 -31.27 -0.56 244 244 244
0.15 -31.36 -0.56 244 244 244
0.15 -31.46 -0.56 244 244 244
0.15 -31.55 -0.56 242 242 242
0.15 -31.64 -0.56 242 242 242
0.15 -31.73 -0.56 243 243 243
0.15 -31.82 -0.56 242 242 242
0.15 -31.92 -0.56 241 241 241
0.15 -32.01 -0.56 240 240 240
-0.04 -31.99 -0.39 238 238 238
-0.04 -32.08 -0.39 237 237 237
-0.04 -32.17 -0.39 239 241 238
-0.04 -32.26 -0.39 243 245 242
0.15 -32.47 -0.56 239 241 238
0.15 -32.56 -0.56 235 237 234
-0.04 -32.54 -0.39 238 243 239
-0.04 -32.63 -0.39 237 242 238
-0.04 -32.72 -0.39 233 237 236
0.15 -32.93 -0.56 236 240 239
0.15 -33.02 -0.56 229 233 232
0.15 -33.11 -0.56 231 233 232
0.15 -33.21 -0.56 231 233 232
-0.04 -33.18 -0.39 228 228 228
-0.04 -33.27 -0.39 237 235 236
-0.04 -33.36 -0.39 254 250 251
-0.04 -33.45 -0.39 255 254 255
-0.04 -33.54 -0.39 255 255 251
-10.07 14.54 8.83 0 0 0
-10.07 14.47 8.83 0 0 0
-10.17 14.33 8.93 0 0 0
-10.17 14.26 8.93 0 0 0
-10.17 14.19 8.93 0 0 0
-10.17 14.12 8.93 58 41 23
-10.17 14.05 8.93 58 41 23
-10.17 13.99 8.93 57 40 22
-10.17 13.92 8.93 57 40 22
-10.07 13.92 8.83 56 39 21
-10.07 13.86 8.83 54 39 20
-10.07 13.79 8.83 55 40 21
-10.07 13.72 8.83 57 42 23
-10.07 13.65 8.83 59 44 25
-10.07 13.58 8.83 64 48 32
-10.07 13.51 8.83 57 41 25
-9.99 13.50 8.76 58 42 27
-9.99 13.43 8.76 60 44 31
-9.99 13.36 8.76 56 40 27
-10.07 13.24 8.83 55 38 28
-10.07 13.17 8.83 60 43 33
-10.07 13.10 8.83 60 43 35
-10.07 13.03 8.83 67 54 45
-10.07 12.96 8.83 68 53 46
-10.07 12.89 8.83 73 56 48
-10.07 12.83 8.83 85 63 52
-10.07 12.76 8.83 89 62 53
-9.99 12.74 8.76 95 63 52
-9.99 12.67 8.76 101 65 53
-9.99 12.60 8.76 105 65 53
-9.99 12.54 8.76 114 70 57
-9.99 12.47 8.76 121 74 58
-9.99 12.40 8.76 125 73 59
-9.99 12.33 8.76 126 75 56
-9.99 12.26 8.76 130 77 59
-9.88 12.26 8.66 134 79 59
-9.88 12.19 8.66 134 78 61
-9.88 12.12 8.66 135 79 66
-9.88 12.05 8.66 139 81 70
-9.78 12.05 8.56 143 85 71
-9.78 11.98 8.56 146 84 71
-9.78 11.91 8.56 142 81 63
-9.78 11.84 8.56 140 77 60
-9.78 11.78 8.56 143 82 61
-9.67 11.77 8.47 150 89 68
-9.67 11.70 8.47 144 88 61
-9.67 11.63 8.47 142 86 59
-9.67 11.56 8.47 148 97 68
-9.67 11.49 8.47 147 96 67
-9.59 11.47 8.39 160 106 80
-9.59 11.40 8.39 158 102 79
-9.59 11.34 8.39 164 108 85
-9.49 11.33 8.30 168 112 87
-9.49 11.26 8.30 168 112 89
-9.49 11.19 8.30 168 112 89
-9.49 11.12 8.30 169 112 92
-9.38 11.11 8.20 170 115 95
-9.28 11.11 8.10 172 117 97
-9.28 11.04 8.10 173 118 97
-9.28 10.97 8.10 173 118 97
-9.17 10.68 8.00 178 125 94
-9.07 10.67 7.90 178 125 94
-9.07 10.60 7.90 177 123 95
-8.96 10.59 7.81 177 123 95
-8.96 10.52 7.81 180 127 95
-8.86 10.51 7.71 180 127 95
-8.86 10.43 7.71 180 127 95
-8.75 10.42 7.61 180 127 95
-8.75 10.35 7.61 180 127 96
-8.65 10.34 7.51 179 126 95
-8.65 10.27 7.51 178 125 94
-8.65 10.20 7.51 178 124 96
-8.54 10.18 7.41 180 126 98
-8.54 10.11 7.41 182 128 102
-8.54 10.04 7.41 181 127 101
-8.44 10.03 7.32 180 126 100
-8.33 9.87 7.22 182 128 102
-8.33 9.79 7.22 181 125 98
-8.33 9.72 7.22 181 125 98
-8.33 9.65 7.22 181 125 98
0.81 14.13 -1.30 182 129 98
0.81 14.04 -1.30 180 130 97
0.81 13.94 -1.30 180 130 97
0.81 13.85 -1.30 179 130 97
0.81 13.76 -1.30 177 128 95
0.81 13.66 -1.30 174 126 90
0.81 13.57 -1.30 171 123 87
0.81 13.47 -1.30 166 120 84
0.81 13.38 -1.30 163 119 82
0.81 13.29 -1.30 158 118 82
0.81 13.19 -1.30 154 118 86
0.81 13.10 -1.30 151 117 90
0.81 13.01 -1.30 148 122 99
0.81 12.91 -1.30 150 129 112
0.81 12.82 -1.30 153 137 122
0.81 12.72 -1.30 153 143 133
0.81 12.63 -1.30 152 145 137
0.81 12.54 -1.30 152 147 143
0.81 12.44 -1.30 150 149 144
0.81 12.35 -1.30 149 148 144
0.81 12.26 -1.30 149 148 143
0.81 12.16 -1.30 151 150 145
0.81 12.07 -1.30 152 149 140
0.81 11.97 -1.30 149 146 137
0.81 11.88 -1.30 148 148 136
0.81 11.79 -1.30 147 147 137
0.81 11.69 -1.30 146 146 136
0.81 11.60 -1.30 147 147 139
0.81 11.51 -1.30 148 147 142
0.81 11.41 -1.30 147 146 141
0.81 11.32 -1.30 148 148 140
0.63 11.14 -1.13 148 148 136
0.63 11.05 -1.13 146 146 134
0.63 10.95 -1.13 144 146 133
0.63 10.86 -1.13 143 145 134
0.63 10.77 -1.13 143 145 134
0.63 10.67 -1.13 143 144 138
0.63 10.58 -1.13 141 142 136
0.63 10.49 -1.13 140 139 135
0.81 10.48 -1.30 141 141 133
0.81 10.38 -1.30 144 141 136
0.81 10.29 -1.30 143 142 137
0.81 10.19 -1.30 143 142 140
0.81 10.10 -1.30 141 140 138
0.81 10.01 -1.30 139 137 138
0.81 9.91 -1.30 139 135 136
0.81 9.82 -1.30 138 134 135
0.81 9.73 -1.30 136 134 135
-3.13 7.81 2.37 112 122 121
-3.13 7.73 2.37 178 194 193
-3.13 7.64 2.37 171 192 193
-3.13 7.56 2.37 166 194 195
-3.13 7.47 2.37 163 192 196
-3.13 7.39 2.37 167 197 207
-3.13 7.30 2.37 169 199 207
-3.13 7.22 2.37 170 200 208
-3.13 7.13 2.37 170 201 206
-3.13 7.05 2.37 171 202 207
-3.26 6.91 2.49 172 203 206
-3.26 6.83 2.49 172 203 206
-3.26 6.74 2.49 175 206 209
-3.26 6.66 2.49 175 206 209
-3.26 6.58 2.49 176 207 210
-3.26 6.49 2.49 177 208 211
-3.26 6.41 2.49 177 208 213
-3.26 6.32 2.49 176 207 212
-3.26 6.24 2.49 177 206 212
-3.26 6.15 2.49 179 208 214
-3.26 6.07 2.49 178 209 214
-3.26 5.99 2.49 178 209 214
-2.05 6.34 1.37 180 211 216
-2.05 6.25 1.37 181 212 217
-1.42 6.39 0.78 183 214 219
-1.24 6.37 0.61 185 216 221
-1.24 6.28 0.61 185 216 221
-1.08 6.25 0.46 185 216 221
-0.92 6.03 0.31 185 216 219
-0.92 5.94 0.31 185 216 219
-0.92 5.85 0.31 184 215 218
-0.92 5.76 0.31 182 213 216
-2.97 4.48 2.22 178 212 213
-2.97 4.39 2.22 183 217 216
-2.97 4.31 2.22 184 218 217
-2.97 4.22 2.22 186 220 219
-2.97 4.14 2.22 185 219 218
-2.97 4.05 2.22 184 218 217
-2.97 3.97 2.22 184 218 217
-2.66 3.98 1.93 185 219 220
-2.66 3.89 1.93 186 220 221
-2.66 3.81 1.93 187 221 222
-2.66 3.72 1.93 188 222 223
-2.66 3.64 1.93 189 223 222
-2.52 3.59 1.81 188 222 221
-2.66 3.46 1.93 188 222 221
-2.52 3.42 1.81 191 222 224
-2.52 3.33 1.81 192 223 225
-3.42 2.82 2.64 192 222 224
-3.42 2.74 2.64 196 226 228
-3.42 2.65 2.64 200 230 232
-3.42 2.57 2.64 201 231 233
-3.42 2.49 2.64 204 232 236
-3.42 2.40 2.64 204 232 236
-3.42 2.32 2.64 201 229 233
-3.42 2.23 2.64 197 225 229
-3.26 2.19 2.49 203 228 232
-3.26 2.11 2.49 203 228 232
-3.26 2.02 2.49 201 229 232
-3.26 1.94 2.49 201 229 232
-3.26 1.85 2.49 202 230 233
-2.97 1.84 2.22 202 230 233
-2.81 1.80 2.08 200 230 232
-2.52 1.78 1.81 198 228 230
-2.21 1.77 1.51 199 229 231
-2.05 1.72 1.37 201 231 233
-1.74 1.71 1.07 201 232 234
-1.42 1.70 0.78 202 233 235
-1.24 1.65 0.61 201 233 232
-1.24 1.56 0.61 198 232 231
-1.24 1.48 0.61 197 231 230
-1.08 1.42 0.46 201 232 234
-1.08 1.33 0.46 202 233 235
-0.92 1.28 0.31 204 234 236
-0.92 1.19 0.31 203 233 235
-0.92 1.10 0.31 203 233 235
-0.76 1.04 0.17 202 232 234
-0.76 0.95 0.17 203 231 234
-0.76 0.86 0.17 204 232 235
-0.92 0.74 0.31 206 231 235
-0.92 0.65 0.31 206 231 235
-0.92 0.56 0.31 208 232 236
-0.92 0.47 0.31 208 232 236
-0.92 0.38 0.31 211 232 237
-0.92 0.29 0.31 211 232 237
-0.92 0.20 0.31 211 232 237
-0.92 0.11 0.31 211 232 237
-0.92 0.02 0.31 209 234 238
-0.92 -0.07 0.31 208 233 237
-0.92 -0.16 0.31 208 233 237
-0.92 -0.25 0.31 209 234 238
-0.92 -0.34 0.31 210 235 239
-0.92 -0.43 0.31 213 237 241
-0.76 -0.49 0.17 213 237 241
-0.76 -0.58 0.17 213 237 241
-0.76 -0.67 0.17 212 236 240
-0.76 -0.76 0.17 212 236 240
-0.76 -0.85 0.17 211 235 239
-0.76 -0.94 0.17 214 235 240
-0.76 -1.03 0.17 217 238 243
-0.76 -1.12 0.17 220 241 246
-0.76 -1.21 0.17 223 244 249
-0.58 -1.27 -0.00 219 240 243
-0.76 -1.39 0.17 218 239 242
-0.58 -1.45 -0.00 217 238 241
-0.58 -1.54 -0.00 217 238 241
-0.58 -1.63 -0.00 216 240 242
-0.58 -1.72 -0.00 215 239 241
-0.58 -1.81 -0.00 213 239 240
-0.58 -1.90 -0.00 212 238 239
-0.58 -1.99 -0.00 216 242 243
-0.58 -2.08 -0.00 216 242 243
-0.58 -2.17 -0.00 216 242 243
-0.58 -2.26 -0.00 216 242 243
-0.76 -2.38 0.17 218 242 244
-0.76 -2.47 0.17 218 242 244
-0.76 -2.56 0.17 221 242 245
-0.76 -2.65 0.17 215 239 243
-0.76 -2.74 0.17 219 243 247
-0.76 -2.83 0.17 220 244 248
-0.76 -2.92 0.17 218 242 246
-0.76 -3.01 0.17 218 244 245
-0.92 -3.12 0.31 221 247 248
-0.92 -3.21 0.31 218 247 245
-0.92 -3.30 0.31 214 243 241
-0.92 -3.39 0.31 209 239 239
-0.92 -3.48 0.31 208 238 238
-0.92 -3.57 0.31 206 237 239
-0.92 -3.66 0.31 203 234 236
-0.92 -3.74 0.31 200 231 234
-0.92 -3.83 0.31 201 232 235
-0.92 -3.92 0.31 201 234 239
-0.92 -4.01 0.31 204 237 242
-0.92 -4.10 0.31 203 239 239
-0.92 -4.19 0.31 203 239 239
-0.92 -4.28 0.31 205 239 240
-0.92 -4.37 0.31 209 243 244
-0.92 -4.46 0.31 216 248 247
-0.92 -4.55 0.31 217 249 248
-0.92 -4.64 0.31 216 246 246
-0.92 -4.73 0.31 212 241 239
-0.92 -4.82 0.31 218 242 242
-0.76 -4.90 0.17 220 244 244
-0.76 -4.99 0.17 223 244 245
-3.42 -5.57 2.64 227 246 244
-3.42 -5.66 2.64 229 248 246
-3.42 -5.74 2.64 229 245 244
-3.26 -5.82 2.49 228 244 243
-3.26 -5.90 2.49 233 247 247
-3.26 -5.99 2.49 232 246 246
-3.26 -6.07 2.49 233 245 245
-3.26 -6.16 2.49 235 247 247
-3.26 -6.24 2.49 246 255 255
-3.42 -6.33 2.64 156 168 168
0.63 -6.49 -1.13 155 171 170
0.63 -6.58 -1.13 151 167 166
0.63 -6.68 -1.13 154 170 169
0.63 -6.77 -1.13 157 173 172
0.63 -6.86 -1.13 157 172 169
0.63 -6.96 -1.13 159 174 171
0.63 -7.05 -1.13 158 173 170
0.63 -7.14 -1.13 159 171 169
0.63 -7.24 -1.13 158 170 168
0.63 -7.33 -1.13 159 171 169
0.63 -7.42 -1.13 161 173 171
0.44 -7.52 -0.96 160 172 170
0.44 -7.61 -0.96 157 169 167
0.44 -7.70 -0.96 161 173 171
0.44 -7.80 -0.96 161 173 171
0.44 -7.89 -0.96 169 179 178
0.44 -7.98 -0.96 179 189 188
0.44 -8.07 -0.96 177 187 186
0.44 -8.17 -0.96 178 189 185
0.44 -8.26 -0.96 177 188 182
0.44 -8.35 -0.96 177 188 180
0.44 -8.45 -0.96 177 188 180
0.44 -8.54 -0.96 177 188 180
0.44 -8.63 -0.96 177 188 180
0.44 -8.72 -0.96 179 190 182
0.44 -8.82 -0.96 180 191 183
0.44 -8.91 -0.96 181 192 184
0.44 -9.00 -0.96 179 190 182
0.44 -9.10 -0.96 182 193 185
0.44 -9.19 -0.96 181 192 184
0.44 -9.28 -0.96 179 190 182
0.44 -9.37 -0.96 179 190 182
0.44 -9.47 -0.96 180 191 183
0.44 -9.56 -0.96 182 193 185
0.44 -9.65 -0.96 182 191 186
0.44 -9.75 -0.96 183 192 187
0.44 -9.84 -0.96 183 192 187
0.44 -9.93 -0.96 183 192 187
0.44 -10.02 -0.96 184 193 188
0.44 -10.12 -0.96 186 195 190
0.44 -10.21 -0.96 185 194 189
0.44 -10.30 -0.96 184 193 188
0.44 -10.40 -0.96 182 191 188
0.44 -10.49 -0.96 180 189 186
0.44 -10.58 -0.96 181 190 187
0.44 -10.67 -0.96 184 193 190
0.44 -10.77 -0.96 185 194 191
0.44 -10.86 -0.96 184 193 190
0.44 -10.95 -0.96 185 194 191
0.44 -11.05 -0.96 190 196 194
0.44 -11.14 -0.96 188 192 191
0.44 -11.23 -0.96 190 192 191
0.44 -11.32 -0.96 189 193 192
0.63 -11.44 -1.13 190 194 193
0.63 -11.53 -1.13 191 195 194
0.44 -11.60 -0.96 190 194 193
0.44 -11.70 -0.96 190 194 193
0.44 -11.79 -0.96 188 194 192
0.44 -11.88 -0.96 188 194 192
0.44 -11.97 -0.96 187 196 193
0.44 -12.07 -0.96 190 199 196
0.44 -12.16 -0.96 190 199 196
0.44 -12.25 -0.96 187 196 193
0.44 -12.35 -0.96 186 195 192
0.44 -12.44 -0.96 186 195 192
0.44 -12.53 -0.96 192 201 198
0.44 -12.62 -0.96 190 199 196
0.44 -12.72 -0.96 188 197 194
0.29 -12.79 -0.81 188 197 194
0.29 -12.88 -0.81 189 198 195
0.29 -12.97 -0.81 189 198 195
0.29 -13.07 -0.81 187 198 194
0.29 -13.16 -0.81 186 197 193
0.29 -13.25 -0.81 190 201 197
0.29 -13.34 -0.81 188 199 195
0.29 -13.44 -0.81 186 197 193
0.29 -13.53 -0.81 187 199 195
0.29 -13.62 -0.81 189 201 197
0.44 -13.74 -0.96 189 201 197
0.29 -13.81 -0.81 189 200 196
0.29 -13.90 -0.81 191 202 198
0.44 -14.02 -0.96 193 202 199
0.44 -14.11 -0.96 192 203 199
0.44 -14.20 -0.96 192 203 199
0.44 -14.30 -0.96 193 204 200
0.44 -14.39 -0.96 193 204 200
0.44 -14.48 -0.96 193 204 200
0.44 -14.57 -0.96 193 204 200
0.44 -14.67 -0.96 194 203 200
0.44 -14.76 -0.96 195 204 201
0.44 -14.85 -0.96 198 204 202
0.44 -14.95 -0.96 199 205 203
0.44 -15.04 -0.96 202 206 205
0.44 -15.13 -0.96 203 207 206
0.44 -15.22 -0.96 205 207 206
0.44 -15.32 -0.96 206 208 207
0.44 -15.41 -0.96 206 210 209
0.44 -15.50 -0.96 205 209 208
0.44 -15.60 -0.96 203 209 207
0.44 -15.69 -0.96 203 209 207
0.44 -15.78 -0.96 204 210 208
0.44 -15.87 -0.96 206 212 210
0.29 -15.93 -0.81 207 213 211
0.29 -16.03 -0.81 207 213 211
0.29 -16.12 -0.81 207 213 211
0.29 -16.21 -0.81 208 214 212
0.29 -16.30 -0.81 210 216 214
0.29 -16.40 -0.81 211 217 215
0.29 -16.49 -0.81 213 219 217
0.29 -16.58 -0.81 214 220 218
0.29 -16.67 -0.81 214 220 218
0.29 -16.77 -0.81 215 219 218
0.29 -16.86 -0.81 216 220 219
0.29 -16.95 -0.81 217 221 220
0.29 -17.04 -0.81 219 223 222
0.29 -17.14 -0.81 220 226 224
0.29 -17.23 -0.81 222 228 226
0.29 -17.32 -0.81 223 229 227
0.29 -17.41 -0.81 224 230 228
0.29 -17.51 -0.81 227 233 231
0.29 -17.60 -0.81 227 233 231
0.29 -17.69 -0.81 227 233 231
0.44 -17.83 -0.96 227 233 231
0.44 -17.92 -0.96 229 233 232
0.44 -18.01 -0.96 232 236 235
0.44 -18.10 -0.96 232 236 235
0.44 -18.20 -0.96 229 235 233
0.44 -18.29 -0.96 230 236 234
0.44 -18.38 -0.96 233 239 237
0.44 -18.48 -0.96 234 240 238
0.29 -18.52 -0.81 236 240 239
0.29 -18.62 -0.81 236 240 239
0.29 -18.71 -0.81 236 240 239
0.29 -18.80 -0.81 236 240 239
0.29 -18.89 -0.81 239 241 240
0.29 -18.99 -0.81 239 241 240
0.29 -19.08 -0.81 239 239 239
0.29 -19.17 -0.81 236 236 236
0.29 -19.26 -0.81 233 233 233
0.29 -19.36 -0.81 235 235 235
0.29 -19.45 -0.81 240 240 240
0.29 -19.54 -0.81 244 244 244
0.29 -19.63 -0.81 246 246 246
0.29 -19.73 -0.81 246 246 246
0.29 -19.82 -0.81 247 247 247
0.44 -19.96 -0.96 248 248 248
0.44 -20.05 -0.96 248 248 248
0.29 -20.10 -0.81 249 249 249
0.29 -20.19 -0.81 249 249 249
0.29 -20.28 -0.81 249 249 249
0.29 -20.37 -0.81 247 247 247
0.29 -20.47 -0.81 245 245 245
0.29 -20.56 -0.81 246 246 246
0.29 -20.65 -0.81 248 248 248
0.29 -20.74 -0.81 249 249 249
0.29 -20.84 -0.81 248 248 248
0.29 -20.93 -0.81 247 247 247
0.29 -21.02 -0.81 247 247 247
0.29 -21.11 -0.81 247 247 247
0.29 -21.21 -0.81 248 248 248
0.10 -21.24 -0.64 250 250 250
0.10 -21.33 -0.64 251 251 251
0.10 -21.42 -0.64 252 252 252
0.10 -21.51 -0.64 251 251 251
0.10 -21.60 -0.64 250 250 250
0.10 -21.70 -0.64 251 251 251
0.10 -21.79 -0.64 251 251 251
0.29 -21.95 -0.81 252 252 252
0.29 -22.04 -0.81 253 253 253
