ply
format ascii 1.0
element vertex 1612
property float x
property float y
property float z
property uchar red
property uchar green
property uchar blue
end_header
0.40 20.47 -1.53 120 113 103
0.40 20.38 -1.53 128 124 112
0.40 20.28 -1.53 129 125 113
0.40 20.19 -1.53 127 123 111
0.21 19.97 -1.36 129 125 114
0.21 19.88 -1.36 127 123 112
0.21 19.79 -1.36 126 122 113
0.21 19.69 -1.36 129 125 116
0.21 19.60 -1.36 127 122 116
0.21 19.51 -1.36 127 122 116
0.40 19.54 -1.53 128 123 119
0.40 19.44 -1.53 129 124 121
0.21 19.23 -1.36 130 125 122
0.21 19.14 -1.36 129 123 123
0.21 19.04 -1.36 128 122 122
0.21 18.95 -1.36 127 121 123
0.21 18.86 -1.36 128 119 122
0.21 18.76 -1.36 129 120 125
0.21 18.67 -1.36 130 121 124
0.21 18.58 -1.36 130 121 124
0.06 18.38 -1.21 128 123 120
0.06 18.29 -1.21 127 122 119
0.06 18.20 -1.21 128 123 117
0.06 18.11 -1.21 128 123 117
0.06 18.01 -1.21 129 125 116
0.06 17.92 -1.21 128 124 115
0.06 17.83 -1.21 126 123 114
0.06 17.74 -1.21 126 123 114
0.06 17.64 -1.21 127 124 115
0.06 17.55 -1.21 127 124 117
0.06 17.46 -1.21 128 125 118
0.21 17.46 -1.36 129 125 116
0.21 17.37 -1.36 131 127 118
0.21 17.28 -1.36 132 128 119
0.21 17.19 -1.36 131 127 118
0.21 17.09 -1.36 129 125 116
0.21 17.00 -1.36 129 125 116
0.21 16.91 -1.36 130 125 119
0.21 16.81 -1.36 131 126 120
0.21 16.72 -1.36 132 127 121
0.21 16.63 -1.36 132 127 121
0.21 16.54 -1.36 131 126 122
0.21 16.44 -1.36 131 126 122
0.21 16.35 -1.36 131 126 122
0.21 16.26 -1.36 131 126 122
0.21 16.16 -1.36 131 126 123
0.21 16.07 -1.36 131 126 123
0.21 15.98 -1.36 128 122 122
0.21 15.89 -1.36 129 123 123
0.21 15.79 -1.36 131 125 125
0.21 15.70 -1.36 132 126 126
0.21 15.61 -1.36 132 126 126
0.06 15.42 -1.21 131 125 125
0.06 15.33 -1.21 130 124 124
0.06 15.24 -1.21 134 128 128
0.06 15.15 -1.21 135 129 129
0.21 15.14 -1.36 134 129 126
0.21 15.05 -1.36 132 127 124
0.21 14.96 -1.36 131 126 122
0.21 14.86 -1.36 133 128 124
0.40 14.87 -1.53 135 130 124
0.40 14.78 -1.53 135 130 126
0.40 14.69 -1.53 134 131 126
0.40 14.59 -1.53 133 129 126
0.40 14.50 -1.53 132 128 125
0.40 14.41 -1.53 132 128 125
0.40 14.31 -1.53 131 127 126
0.40 14.22 -1.53 131 127 126
0.40 14.13 -1.53 132 128 129
0.40 14.03 -1.53 132 128 129
0.40 13.94 -1.53 132 126 126
0.06 13.67 -1.21 132 126 126
0.06 13.57 -1.21 132 127 124
0.06 13.48 -1.21 133 128 125
0.06 13.39 -1.21 133 128 122
0.06 13.30 -1.21 133 128 122
0.06 13.20 -1.21 133 128 122
0.21 13.19 -1.36 133 130 125
0.21 13.10 -1.36 134 130 127
0.06 12.93 -1.21 136 133 128
0.06 12.83 -1.21 136 133 128
0.06 12.74 -1.21 135 132 127
0.21 12.73 -1.36 135 132 127
0.06 12.56 -1.21 135 132 127
0.06 12.46 -1.21 135 132 127
0.06 12.37 -1.21 134 131 126
0.06 12.28 -1.21 134 131 126
0.06 12.19 -1.21 135 132 125
0.21 12.17 -1.36 135 132 125
0.21 12.08 -1.36 134 131 124
0.21 11.98 -1.36 133 130 123
0.21 11.89 -1.36 134 131 124
0.21 11.80 -1.36 134 131 126
0.21 11.52 -1.36 133 128 125
0.21 11.43 -1.36 132 127 124
0.21 11.33 -1.36 132 127 123
0.21 11.24 -1.36 132 127 123
0.21 11.15 -1.36 131 126 120
0.06 10.98 -1.21 130 125 119
0.06 10.89 -1.21 129 124 118
0.06 10.80 -1.21 127 124 117
0.06 10.71 -1.21 127 124 117
0.06 10.61 -1.21 126 126 118
0.06 10.52 -1.21 126 126 118
0.06 10.43 -1.21 125 126 118
0.06 10.34 -1.21 123 124 116
0.06 10.24 -1.21 124 124 114
0.06 10.15 -1.21 122 122 112
0.06 10.06 -1.21 120 120 112
0.06 9.97 -1.21 118 118 110
0.06 9.87 -1.21 117 116 111
0.06 9.78 -1.21 117 116 111
0.06 9.69 -1.21 120 117 112
0.21 9.66 -1.36 120 117 112
0.21 9.57 -1.36 116 115 110
-3.76 7.80 2.40 110 111 106
-3.63 7.77 2.28 111 116 110
-3.63 7.69 2.28 104 113 110
-3.63 7.61 2.28 114 130 130
-3.63 7.52 2.28 135 154 158
-3.63 7.44 2.28 138 166 169
-3.63 7.35 2.28 153 182 186
-3.63 7.27 2.28 156 189 194
-3.63 7.19 2.28 158 193 197
-3.63 7.10 2.28 160 195 199
-3.63 7.02 2.28 160 198 201
-3.76 6.88 2.40 159 197 200
-3.76 6.80 2.40 157 197 199
-3.76 6.72 2.40 155 195 197
-3.76 6.63 2.40 158 198 200
-3.76 6.55 2.40 160 200 202
-3.76 6.47 2.40 163 203 205
-3.92 6.32 2.55 165 205 207
-3.92 6.24 2.55 168 206 209
-3.92 6.15 2.55 170 208 211
-3.92 6.07 2.55 173 208 212
-3.92 5.99 2.55 172 210 213
-3.92 5.91 2.55 176 216 218
-3.92 5.82 2.55 178 219 221
-3.92 5.74 2.55 182 222 224
-3.92 5.66 2.55 182 222 224
-3.92 5.57 2.55 183 223 225
-3.92 5.49 2.55 184 224 226
-3.92 5.41 2.55 181 221 221
-3.92 5.32 2.55 177 217 217
-3.92 5.24 2.55 189 227 230
-3.92 5.16 2.55 191 229 232
-3.92 5.07 2.55 191 229 232
-3.92 4.99 2.55 192 227 233
-3.92 4.91 2.55 190 225 231
-3.92 4.82 2.55 189 223 232
-3.92 4.74 2.55 188 222 231
-3.92 4.66 2.55 192 226 235
-3.92 4.57 2.55 195 229 238
-3.92 4.49 2.55 196 230 239
-3.92 4.41 2.55 198 232 241
-3.92 4.32 2.55 195 234 241
-3.92 4.24 2.55 191 230 237
-3.92 4.16 2.55 190 229 234
-3.92 4.07 2.55 186 225 230
-3.92 3.99 2.55 186 225 230
-3.92 3.91 2.55 186 225 230
-3.92 3.82 2.55 187 226 231
-3.92 3.74 2.55 189 226 232
-3.92 3.66 2.55 189 226 232
-3.92 3.57 2.55 190 225 231
-3.92 3.49 2.55 188 223 229
-3.92 3.41 2.55 186 221 227
-3.92 3.32 2.55 181 219 222
-3.92 3.24 2.55 179 217 220
-3.92 3.16 2.55 178 216 219
-3.92 3.07 2.55 182 220 223
-3.92 2.99 2.55 183 221 224
-3.92 2.91 2.55 181 218 224
-3.92 2.82 2.55 179 216 222
-3.92 2.74 2.55 179 216 222
-3.92 2.66 2.55 178 215 221
-3.92 2.57 2.55 178 215 221
-3.92 2.49 2.55 178 215 221
-3.92 2.41 2.55 178 215 221
-3.92 2.32 2.55 178 215 221
-3.92 2.24 2.55 179 216 222
-3.92 2.16 2.55 179 216 222
-3.92 2.07 2.55 174 215 219
-3.92 1.99 2.55 174 215 219
-3.92 1.91 2.55 174 215 219
-3.92 1.82 2.55 173 214 218
-3.92 1.74 2.55 173 214 218
-3.92 1.66 2.55 173 214 218
-3.92 1.57 2.55 174 215 219
-3.92 1.49 2.55 175 216 220
-3.92 1.41 2.55 173 214 218
-3.92 1.32 2.55 174 215 219
-3.92 1.24 2.55 176 217 221
-3.92 1.16 2.55 177 218 222
-4.05 1.04 2.67 177 218 222
-4.05 0.96 2.67 178 219 223
-4.05 0.88 2.67 178 219 223
-4.05 0.79 2.67 179 219 221
-4.05 0.71 2.67 180 220 222
-4.05 0.63 2.67 180 220 222
-4.05 0.55 2.67 178 218 220
-4.05 0.46 2.67 180 218 221
-4.05 0.38 2.67 183 221 224
-4.05 0.30 2.67 184 222 225
-4.05 0.21 2.67 184 222 225
-4.05 0.13 2.67 182 220 223
-4.05 0.05 2.67 182 220 223
-4.05 -0.04 2.67 183 221 224
-3.92 -0.09 2.55 183 221 224
-3.92 -0.17 2.55 183 223 225
-3.92 -0.26 2.55 183 223 225
-3.92 -0.34 2.55 184 224 226
-4.05 -0.45 2.67 185 223 226
-4.05 -0.53 2.67 188 226 229
-3.92 -0.59 2.55 191 226 230
-3.92 -0.67 2.55 189 224 230
-3.92 -0.76 2.55 190 225 231
-3.92 -0.84 2.55 196 231 237
-3.92 -0.92 2.55 195 228 235
-3.92 -1.01 2.55 196 229 236
-3.76 -1.06 2.40 203 234 239
-3.76 -1.15 2.40 204 235 240
-3.63 -1.21 2.28 205 236 239
-3.63 -1.29 2.28 203 234 237
-3.47 -1.35 2.13 204 234 236
-3.47 -1.43 2.13 205 235 237
-3.34 -1.50 2.00 207 237 239
-3.34 -1.58 2.00 206 236 238
-3.34 -1.67 2.00 207 238 241
-3.34 -1.75 2.00 206 237 240
-3.34 -1.84 2.00 206 237 240
-3.18 -1.90 1.86 207 238 241
-3.18 -1.98 1.86 210 239 243
-3.18 -2.07 1.86 210 239 243
-3.18 -2.15 1.86 209 239 241
-3.18 -2.24 1.86 207 237 239
-1.15 -3.48 -0.07 210 240 240
-1.15 -3.57 -0.07 209 239 241
-1.15 -3.66 -0.07 206 236 238
-1.15 -3.74 -0.07 205 235 237
-1.15 -3.83 -0.07 205 235 237
-1.15 -3.92 -0.07 204 233 237
-1.30 -4.03 0.07 203 232 236
-1.30 -4.12 0.07 207 237 239
-1.30 -4.21 0.07 205 235 237
-1.30 -4.30 0.07 205 235 237
-4.33 -4.62 2.94 207 237 239
-4.33 -4.70 2.94 209 237 240
-4.33 -4.79 2.94 209 237 240
-4.33 -4.87 2.94 210 238 241
-4.20 -4.94 2.82 215 241 242
-4.20 -5.02 2.82 214 240 241
-4.05 -5.10 2.67 214 238 240
-4.05 -5.18 2.67 214 238 240
-4.05 -5.26 2.67 215 239 241
-4.05 -5.35 2.67 218 242 244
-4.05 -5.43 2.67 222 243 246
-4.05 -5.51 2.67 223 244 245
-4.05 -5.60 2.67 220 242 240
-3.92 -5.67 2.55 225 247 244
-3.92 -5.76 2.55 224 246 243
-3.92 -5.84 2.55 223 245 242
-3.92 -5.92 2.55 230 250 249
-3.92 -6.01 2.55 232 252 251
-3.92 -6.09 2.55 230 248 248
-3.92 -6.17 2.55 228 246 246
-3.92 -6.26 2.55 230 246 246
-3.92 -6.34 2.55 120 134 135
0.06 -6.50 -1.21 153 163 164
-0.13 -6.60 -1.04 153 163 164
-0.13 -6.69 -1.04 161 169 171
-0.13 -6.78 -1.04 159 167 169
-0.13 -6.87 -1.04 158 170 170
-0.13 -6.96 -1.04 159 171 171
-0.13 -7.06 -1.04 159 171 171
-0.13 -7.15 -1.04 159 171 171
-0.13 -7.24 -1.04 159 171 171
0.06 -7.33 -1.21 161 171 170
-0.13 -7.42 -1.04 161 171 170
-0.13 -7.52 -1.04 160 170 169
-0.13 -7.61 -1.04 164 174 173
-0.13 -7.70 -1.04 161 172 168
-0.13 -7.79 -1.04 160 171 167
-0.13 -7.88 -1.04 167 178 174
-0.13 -7.98 -1.04 173 184 180
-0.13 -8.07 -1.04 174 185 181
-0.13 -8.16 -1.04 174 185 181
-0.13 -8.25 -1.04 177 188 184
-0.13 -8.34 -1.04 178 189 185
-0.13 -8.44 -1.04 179 190 186
-0.13 -8.53 -1.04 180 191 187
-0.13 -8.62 -1.04 180 191 187
-0.13 -8.71 -1.04 181 192 188
-0.13 -8.81 -1.04 181 192 188
-0.13 -8.90 -1.04 181 192 188
-0.13 -8.99 -1.04 181 190 187
-0.13 -9.08 -1.04 181 190 187
-0.13 -9.17 -1.04 182 191 188
-0.13 -9.27 -1.04 183 192 189
-0.13 -9.36 -1.04 184 193 190
-0.13 -9.45 -1.04 183 192 189
-0.13 -9.54 -1.04 182 191 188
-0.13 -9.63 -1.04 181 192 186
-0.13 -9.73 -1.04 182 193 187
-0.13 -9.82 -1.04 183 192 187
-0.13 -9.91 -1.04 183 192 187
-0.13 -10.00 -1.04 182 191 186
-0.13 -10.09 -1.04 182 191 186
-0.13 -10.19 -1.04 186 192 188
-0.13 -10.28 -1.04 187 193 189
-0.13 -10.37 -1.04 187 193 189
-0.13 -10.46 -1.04 187 193 189
-0.31 -10.54 -0.87 186 193 186
-0.31 -10.63 -0.87 184 191 184
-0.31 -10.72 -0.87 182 192 184
-0.31 -10.81 -0.87 184 194 186
-0.13 -10.92 -1.04 185 195 187
-0.13 -11.01 -1.04 187 193 189
-0.13 -11.11 -1.04 187 193 189
-0.13 -11.20 -1.04 189 193 192
-0.13 -11.29 -1.04 188 192 191
-0.13 -11.38 -1.04 187 193 191
-0.13 -11.66 -1.04 188 194 192
-0.13 -11.75 -1.04 186 195 192
-0.13 -11.84 -1.04 187 196 193
-0.31 -11.91 -0.87 187 196 193
-0.31 -12.01 -0.87 187 196 193
-0.31 -12.10 -0.87 186 197 193
-0.31 -12.19 -0.87 186 197 193
-0.31 -12.28 -0.87 186 197 193
-0.31 -12.37 -0.87 186 197 193
-0.31 -12.46 -0.87 185 196 190
-0.31 -12.56 -0.87 184 195 189
-0.31 -12.65 -0.87 184 195 189
-0.31 -12.74 -0.87 184 195 189
-0.31 -12.83 -0.87 187 196 193
-0.31 -12.92 -0.87 188 197 194
-0.31 -13.01 -0.87 190 196 194
-0.31 -13.11 -0.87 190 196 194
-0.31 -13.20 -0.87 191 195 194
-0.31 -13.29 -0.87 192 196 195
-0.31 -13.38 -0.87 193 197 196
-0.31 -13.47 -0.87 194 198 197
-0.31 -13.56 -0.87 194 198 197
-0.31 -13.66 -0.87 193 197 196
-0.31 -13.75 -0.87 193 197 196
-0.31 -13.84 -0.87 194 200 198
-0.31 -13.93 -0.87 194 200 198
-0.31 -14.02 -0.87 194 200 198
-0.31 -14.11 -0.87 195 201 199
-0.31 -14.21 -0.87 193 202 199
-0.31 -14.30 -0.87 194 203 200
-0.13 -14.42 -1.04 194 205 201
-0.13 -14.51 -1.04 195 206 202
-0.13 -14.61 -1.04 194 205 201
-0.13 -14.70 -1.04 194 205 201
-0.13 -14.79 -1.04 194 205 201
-0.13 -14.88 -1.04 194 205 201
-0.31 -14.94 -0.87 193 204 200
-0.31 -15.03 -0.87 194 205 201
-0.31 -15.12 -0.87 196 205 202
-0.31 -15.21 -0.87 197 206 203
-0.31 -15.31 -0.87 198 207 204
-0.31 -15.40 -0.87 198 207 204
-0.31 -15.49 -0.87 199 208 205
-0.31 -15.58 -0.87 200 209 206
-0.31 -15.67 -0.87 202 211 208
-0.31 -15.76 -0.87 204 210 208
-0.31 -15.86 -0.87 205 211 209
-0.31 -15.95 -0.87 205 211 209
-0.31 -16.04 -0.87 206 212 210
-0.31 -16.13 -0.87 207 213 211
-0.31 -16.22 -0.87 208 214 212
-0.31 -16.31 -0.87 211 215 214
-0.31 -16.41 -0.87 212 216 215
-0.31 -16.50 -0.87 212 216 215
-0.31 -16.59 -0.87 211 215 214
-0.31 -16.68 -0.87 214 220 218
-0.31 -16.77 -0.87 215 221 219
-0.31 -16.86 -0.87 216 222 220
-0.31 -16.96 -0.87 216 222 220
-0.31 -17.05 -0.87 217 223 221
-0.31 -17.14 -0.87 219 225 223
-0.31 -17.23 -0.87 222 226 225
-0.31 -17.32 -0.87 223 227 226
-0.31 -17.41 -0.87 222 226 225
-0.31 -17.51 -0.87 223 227 226
-0.31 -17.60 -0.87 226 228 227
-0.31 -17.69 -0.87 226 228 227
-0.31 -17.78 -0.87 224 226 225
-0.31 -17.87 -0.87 224 226 225
-0.31 -17.96 -0.87 225 227 226
-0.31 -18.06 -0.87 232 232 232
-0.31 -18.15 -0.87 231 231 231
-0.31 -18.24 -0.87 230 230 230
-0.31 -18.33 -0.87 232 232 232
-0.31 -18.42 -0.87 235 235 235
-0.31 -18.51 -0.87 236 236 236
-0.31 -18.61 -0.87 235 235 235
-0.31 -18.70 -0.87 234 234 234
-0.31 -18.79 -0.87 235 235 235
-0.31 -18.88 -0.87 236 236 236
-0.31 -18.97 -0.87 237 237 237
-0.31 -19.06 -0.87 237 237 237
-0.47 -19.11 -0.72 236 238 237
-0.47 -19.20 -0.72 238 240 239
-0.47 -19.29 -0.72 237 239 238
-0.47 -19.38 -0.72 235 237 236
-0.47 -19.47 -0.72 241 241 241
-0.47 -19.57 -0.72 240 240 240
-0.47 -19.66 -0.72 241 241 241
-0.31 -19.80 -0.87 242 242 242
-0.31 -19.89 -0.87 242 242 242
-0.31 -19.98 -0.87 241 241 241
-0.31 -20.07 -0.87 243 243 243
-0.31 -20.16 -0.87 241 241 241
-0.47 -20.20 -0.72 242 242 242
-0.47 -20.30 -0.72 243 243 243
-0.47 -20.39 -0.72 243 243 243
-0.47 -20.48 -0.72 244 244 244
-0.47 -20.57 -0.72 244 244 244
-0.47 -20.66 -0.72 245 245 245
-0.47 -20.75 -0.72 246 246 246
-0.47 -20.84 -0.72 247 247 247
-0.47 -20.93 -0.72 248 248 248
-0.47 -21.03 -0.72 249 249 249
-0.47 -21.12 -0.72 249 249 249
-0.47 -21.21 -0.72 249 249 249
-0.47 -21.30 -0.72 249 249 249
-0.47 -21.39 -0.72 251 251 251
-0.47 -21.48 -0.72 252 252 252
-0.47 -21.57 -0.72 250 250 250
-0.47 -21.66 -0.72 250 250 250
-0.47 -21.76 -0.72 251 251 251
-0.47 -21.85 -0.72 250 250 250
-0.47 -21.94 -0.72 250 250 250
-0.47 -22.03 -0.72 250 250 250
-0.47 -22.12 -0.72 251 251 251
-0.47 -22.21 -0.72 252 252 252
-0.47 -22.30 -0.72 252 252 252
-0.47 -22.40 -0.72 252 252 252
-0.31 -22.55 -0.87 253 253 253
-0.31 -22.64 -0.87 254 254 254
-0.31 -22.73 -0.87 254 254 254
-0.31 -22.82 -0.87 253 255 254
-0.31 -22.91 -0.87 252 254 253
-0.31 -23.00 -0.87 251 255 254
-0.31 -23.10 -0.87 251 255 254
-0.31 -23.19 -0.87 250 255 254
-0.31 -23.28 -0.87 250 255 254
-0.31 -23.37 -0.87 250 255 254
-0.31 -23.46 -0.87 250 255 254
-0.31 -23.55 -0.87 250 255 254
-0.31 -23.65 -0.87 250 255 254
-0.31 -23.74 -0.87 250 255 254
-0.13 -23.91 -1.04 250 255 254
-0.13 -24.00 -1.04 250 255 254
-0.13 -24.09 -1.04 250 255 254
-0.31 -24.10 -0.87 250 255 254
-0.31 -24.20 -0.87 250 255 254
-0.31 -24.29 -0.87 251 255 254
-0.31 -24.38 -0.87 251 255 254
-0.31 -24.47 -0.87 250 254 253
-0.31 -24.56 -0.87 252 254 253
-0.47 -24.59 -0.72 253 255 254
-0.47 -24.68 -0.72 253 255 254
-0.47 -24.77 -0.72 253 255 254
-0.47 -24.86 -0.72 253 255 254
-0.47 -24.95 -0.72 253 255 254
-0.47 -25.04 -0.72 252 254 253
-0.47 -25.13 -0.72 252 254 253
-0.47 -25.23 -0.72 252 254 253
-0.47 -25.32 -0.72 252 254 253
-0.47 -25.41 -0.72 252 254 253
-0.47 -25.50 -0.72 253 255 254
-0.47 -25.59 -0.72 251 255 254
-0.47 -25.68 -0.72 251 255 254
-0.47 -25.77 -0.72 250 254 253
-0.47 -25.86 -0.72 250 254 253
-0.47 -25.96 -0.72 250 254 253
-0.47 -26.05 -0.72 250 254 253
-0.47 -26.14 -0.72 250 254 253
-0.47 -26.23 -0.72 250 254 253
-0.47 -26.32 -0.72 250 254 253
-0.47 -26.41 -0.72 250 254 253
-0.47 -26.50 -0.72 253 255 254
-0.47 -26.59 -0.72 252 254 253
-0.47 -26.69 -0.72 252 254 253
-0.47 -26.78 -0.72 252 254 253
-0.47 -26.87 -0.72 252 254 253
-0.47 -26.96 -0.72 252 254 253
-0.47 -27.05 -0.72 252 254 253
-0.47 -27.14 -0.72 253 253 253
-0.47 -27.23 -0.72 253 253 253
-0.47 -27.32 -0.72 254 254 254
-0.47 -27.42 -0.72 254 254 254
-0.47 -27.51 -0.72 254 254 254
-0.47 -27.60 -0.72 253 253 253
-0.47 -27.69 -0.72 252 252 252
-0.47 -27.78 -0.72 252 252 252
-0.47 -27.87 -0.72 252 252 252
-0.47 -27.96 -0.72 252 252 252
-0.47 -28.06 -0.72 251 251 251
-0.47 -28.15 -0.72 251 251 251
-0.47 -28.24 -0.72 251 251 251
-0.47 -28.33 -0.72 252 252 252
-0.47 -28.42 -0.72 252 252 252
-0.31 -28.60 -0.87 252 252 252
-0.31 -28.69 -0.87 251 251 251
-0.31 -28.78 -0.87 251 251 251
-0.31 -28.87 -0.87 252 252 252
-0.31 -28.96 -0.87 252 252 252
-0.47 -28.97 -0.72 251 251 251
-0.47 -29.06 -0.72 250 250 250
-0.47 -29.15 -0.72 249 249 249
-0.47 -29.24 -0.72 251 251 251
-0.47 -29.33 -0.72 249 249 249
-0.65 -29.32 -0.54 248 248 248
-0.65 -29.41 -0.54 248 248 248
-0.65 -29.50 -0.54 249 249 249
-0.65 -29.59 -0.54 249 249 249
-0.47 -29.79 -0.72 250 250 250
-0.47 -29.88 -0.72 249 249 249
-0.47 -29.97 -0.72 249 249 249
-0.47 -30.06 -0.72 248 248 248
-0.47 -30.15 -0.72 247 247 247
-0.47 -30.25 -0.72 247 247 247
-0.47 -30.34 -0.72 247 247 247
-0.47 -30.43 -0.72 247 247 247
-0.47 -30.52 -0.72 247 247 247
-0.47 -30.61 -0.72 247 247 247
-0.47 -30.70 -0.72 245 245 245
-0.47 -30.79 -0.72 245 245 245
-0.31 -30.98 -0.87 245 245 245
-0.31 -31.07 -0.87 246 246 246
-0.31 -31.16 -0.87 247 247 247
-0.47 -31.16 -0.72 248 248 248
-0.31 -31.35 -0.87 247 247 247
-0.47 -31.34 -0.72 246 246 246
-0.47 -31.43 -0.72 246 246 246
-0.47 -31.52 -0.72 246 246 246
-0.47 -31.62 -0.72 245 245 245
-0.47 -31.71 -0.72 243 243 243
-0.47 -31.80 -0.72 241 241 241
-0.47 -31.89 -0.72 241 241 241
-0.47 -31.98 -0.72 241 241 241
-0.47 -32.07 -0.72 241 241 241
-0.47 -32.16 -0.72 241 241 241
-0.47 -32.25 -0.72 241 241 241
-0.47 -32.35 -0.72 240 240 240
-0.47 -32.44 -0.72 240 240 240
-0.47 -32.53 -0.72 240 240 240
-0.47 -32.62 -0.72 241 239 240
-0.47 -32.71 -0.72 241 239 240
-0.47 -32.80 -0.72 240 238 239
-0.47 -32.89 -0.72 240 238 239
-0.47 -32.98 -0.72 243 239 240
-0.47 -33.08 -0.72 245 241 242
-0.65 -33.05 -0.54 246 242 243
-0.65 -33.14 -0.54 245 241 242
-0.65 -33.23 -0.54 244 240 241
-0.81 -33.22 -0.40 246 242 243
-0.81 -33.67 -0.40 244 242 243
-0.99 -33.64 -0.22 245 243 244
-0.99 -33.73 -0.22 244 242 243
-0.99 -33.82 -0.22 249 249 247
-0.99 -33.91 -0.22 246 246 244
-0.99 -34.00 -0.22 243 243 241
-0.99 -34.09 -0.22 243 243 241
-0.99 -34.18 -0.22 245 245 243
-0.99 -34.27 -0.22 247 247 245
-0.99 -34.36 -0.22 246 246 244
-0.99 -34.45 -0.22 243 243 241
-0.99 -34.54 -0.22 0 0 0
-0.99 -34.63 -0.22 0 0 0
-0.99 -34.72 -0.22 0 0 0
-0.99 -34.81 -0.22 0 0 0
-0.99 -34.90 -0.22 0 0 0
-0.81 -35.12 -0.40 0 0 0
-0.81 -35.21 -0.40 0 0 0
-0.81 -35.30 -0.40 0 0 0
-0.81 -35.39 -0.40 0 0 0
-0.81 -35.48 -0.40 0 0 0
-0.81 -35.57 -0.40 0 0 0
-0.81 -35.66 -0.40 0 0 0
-0.81 -35.75 -0.40 0 0 0
-0.81 -35.84 -0.40 0 0 0
-0.81 -35.93 -0.40 0 0 0
0.01 20.88 -1.29 59 43 30
0.01 20.79 -1.29 82 68 57
0.01 20.70 -1.29 122 109 100
0.01 20.60 -1.29 139 129 120
0.01 20.51 -1.29 130 123 113
0.01 20.42 -1.29 129 122 114
0.01 20.33 -1.29 131 126 120
0.17 20.34 -1.44 126 119 113
0.17 20.25 -1.44 125 118 108
0.17 20.16 -1.44 129 120 111
0.17 20.06 -1.44 128 119 110
0.17 19.97 -1.44 133 124 115
0.17 19.88 -1.44 133 124 115
0.01 19.68 -1.29 128 121 111
0.01 19.59 -1.29 127 120 110
0.01 19.49 -1.29 131 124 116
0.01 19.40 -1.29 130 123 115
0.01 19.31 -1.29 128 123 117
0.17 19.32 -1.44 128 123 119
0.17 19.23 -1.44 129 124 120
0.17 19.14 -1.44 129 124 121
0.01 18.94 -1.29 129 123 123
0.01 18.85 -1.29 128 122 124
0.01 18.75 -1.29 127 121 123
0.01 18.66 -1.29 128 122 126
0.01 18.57 -1.29 129 123 123
-0.17 18.36 -1.12 129 123 123
-0.17 18.27 -1.12 129 124 120
-0.17 18.17 -1.12 129 124 120
-0.17 18.08 -1.12 129 125 116
-0.17 17.99 -1.12 130 126 117
-0.17 17.90 -1.12 130 126 115
-0.17 17.81 -1.12 130 126 115
-0.17 17.71 -1.12 129 125 114
-0.17 17.62 -1.12 129 125 114
-0.17 17.53 -1.12 127 125 113
0.01 17.55 -1.29 127 124 115
0.01 17.46 -1.29 127 124 115
0.01 17.37 -1.29 131 127 116
0.01 17.27 -1.29 133 129 118
0.01 17.18 -1.29 134 130 119
0.17 17.19 -1.44 132 128 117
0.17 17.09 -1.44 130 126 115
0.01 16.90 -1.29 128 124 113
0.01 16.81 -1.29 129 125 116
0.01 16.72 -1.29 130 126 117
0.01 16.63 -1.29 132 128 119
0.17 16.63 -1.44 132 128 119
0.01 16.44 -1.29 131 127 118
0.01 16.35 -1.29 131 127 118
0.01 16.26 -1.29 131 126 120
0.01 16.16 -1.29 131 126 120
0.01 16.07 -1.29 131 126 120
0.01 15.98 -1.29 131 126 122
0.01 15.89 -1.29 130 124 124
0.01 15.79 -1.29 130 124 126
0.01 15.70 -1.29 131 125 127
0.01 15.61 -1.29 132 126 128
0.01 15.52 -1.29 132 126 128
0.01 15.42 -1.29 132 126 128
0.01 15.33 -1.29 132 126 128
0.01 15.24 -1.29 134 128 128
0.01 15.15 -1.29 135 129 129
0.01 15.05 -1.29 135 130 127
0.01 14.96 -1.29 133 128 125
0.01 14.87 -1.29 132 127 123
0.01 14.78 -1.29 134 129 125
0.01 14.68 -1.29 135 130 124
0.01 14.59 -1.29 135 130 124
0.17 14.59 -1.44 135 132 127
0.17 14.49 -1.44 135 132 127
0.17 14.40 -1.44 134 130 127
0.17 14.31 -1.44 133 129 126
0.35 14.31 -1.62 133 129 128
0.35 14.22 -1.62 133 129 128
0.17 14.03 -1.44 134 128 130
0.17 13.93 -1.44 133 127 129
0.17 13.84 -1.44 135 129 131
0.01 13.67 -1.29 135 129 131
0.01 13.57 -1.29 135 129 129
0.01 13.48 -1.29 134 128 128
0.01 13.39 -1.29 133 128 125
0.01 13.30 -1.29 133 128 125
0.01 13.20 -1.29 132 127 121
0.01 13.11 -1.29 129 126 121
0.01 13.02 -1.29 128 127 122
-0.17 12.83 -1.12 130 129 124
-0.17 12.74 -1.12 130 129 124
-0.17 12.65 -1.12 130 129 124
0.01 12.65 -1.29 129 128 123
0.01 12.56 -1.29 131 128 121
0.01 12.46 -1.29 131 128 121
0.01 12.37 -1.29 134 131 124
0.01 12.28 -1.29 134 131 124
0.01 12.19 -1.29 136 131 125
0.01 12.09 -1.29 135 130 124
0.01 12.00 -1.29 135 131 122
0.01 11.91 -1.29 134 130 121
0.01 11.82 -1.29 134 130 121
0.01 11.72 -1.29 134 129 123
0.01 11.45 -1.29 132 127 123
0.01 11.35 -1.29 132 127 123
0.01 11.26 -1.29 133 128 122
0.01 11.17 -1.29 133 128 122
0.01 11.08 -1.29 132 128 119
0.01 10.98 -1.29 131 127 118
0.01 10.89 -1.29 131 127 118
0.01 10.80 -1.29 129 126 119
0.01 10.71 -1.29 129 126 119
0.01 10.61 -1.29 127 127 119
0.01 10.52 -1.29 127 127 119
0.01 10.43 -1.29 125 126 120
0.01 10.34 -1.29 126 125 120
0.01 10.24 -1.29 124 124 114
0.01 10.15 -1.29 123 120 111
0.01 10.06 -1.29 119 119 111
0.01 9.97 -1.29 117 117 109
0.01 9.87 -1.29 119 116 111
-0.17 9.70 -1.12 119 116 111
0.01 9.69 -1.29 118 115 108
0.01 9.60 -1.29 118 115 108
0.17 9.57 -1.44 114 111 104
-3.80 7.80 2.33 111 110 105
-3.80 7.72 2.33 113 115 110
-3.80 7.64 2.33 109 115 113
-3.80 7.55 2.33 114 128 129
-3.67 7.52 2.20 122 140 144
-3.67 7.44 2.20 126 149 155
-3.80 7.30 2.33 133 160 167
-3.80 7.22 2.33 130 163 170
-3.80 7.13 2.33 130 165 171
-3.80 7.05 2.33 132 167 173
-3.80 6.97 2.33 130 169 174
-3.80 6.88 2.33 130 169 174
-3.80 6.80 2.33 127 168 172
-3.80 6.72 2.33 125 166 170
-3.80 6.63 2.33 120 161 165
-3.96 6.49 2.48 121 162 166
-3.96 6.40 2.48 124 165 169
-3.96 6.32 2.48 127 166 171
-3.96 6.24 2.48 128 167 172
-3.96 6.15 2.48 130 167 173
-3.96 6.07 2.48 131 168 174
-3.96 5.99 2.48 131 170 175
-3.96 5.91 2.48 129 170 174
-3.96 5.82 2.48 130 174 177
-3.96 5.74 2.48 132 176 179
-3.96 5.66 2.48 131 175 178
-3.96 5.57 2.48 133 177 180
-3.96 5.49 2.48 135 179 182
-3.96 5.41 2.48 136 177 179
-3.96 5.32 2.48 131 172 174
-3.96 5.24 2.48 131 170 175
-3.96 5.16 2.48 135 174 179
-3.96 5.07 2.48 139 178 183
-3.96 4.99 2.48 144 181 189
-3.96 4.91 2.48 147 184 192
-3.96 4.82 2.48 148 185 194
-3.96 4.74 2.48 148 185 194
-3.96 4.66 2.48 150 187 196
-3.96 4.57 2.48 150 187 196
-3.96 4.49 2.48 148 186 195
-3.96 4.41 2.48 146 184 193
-3.96 4.32 2.48 145 188 195
-3.96 4.24 2.48 152 195 202
-3.96 4.16 2.48 154 199 205
-3.96 4.07 2.48 156 201 207
-3.96 3.99 2.48 162 207 212
-3.96 3.91 2.48 163 208 213
-3.96 3.82 2.48 166 209 215
-3.96 3.74 2.48 168 209 215
-3.96 3.66 2.48 168 209 215
-3.96 3.57 2.48 168 207 214
-4.09 3.45 2.60 169 206 214
-4.09 3.37 2.60 169 206 214
-4.09 3.28 2.60 169 208 213
-4.09 3.20 2.60 169 208 213
-4.09 3.12 2.60 169 208 213
-4.09 3.04 2.60 172 211 216
-4.09 2.95 2.60 173 212 217
-4.09 2.87 2.60 173 212 217
-4.09 2.79 2.60 173 212 217
-4.09 2.70 2.60 174 213 220
-4.09 2.62 2.60 175 214 221
-4.09 2.54 2.60 176 215 222
-3.96 2.49 2.48 177 216 223
-3.96 2.41 2.48 178 217 224
-3.96 2.32 2.48 178 217 224
-3.96 2.24 2.48 178 217 224
-3.96 2.16 2.48 179 218 225
-3.96 2.07 2.48 180 223 230
-3.96 1.99 2.48 180 223 230
-3.96 1.91 2.48 181 224 231
-3.96 1.82 2.48 182 225 232
-4.09 1.71 2.60 182 225 231
-4.09 1.62 2.60 182 225 231
-4.09 1.54 2.60 183 226 232
-4.09 1.46 2.60 184 227 233
-3.96 1.41 2.48 181 225 228
-3.96 1.32 2.48 182 226 229
-4.09 1.21 2.60 183 227 230
-4.09 1.13 2.60 183 227 230
-4.09 1.04 2.60 185 229 232
-4.09 0.96 2.60 187 231 232
-4.09 0.88 2.60 189 233 234
-4.09 0.79 2.60 191 232 236
-4.09 0.71 2.60 192 233 237
-4.09 0.63 2.60 192 233 237
-4.09 0.55 2.60 192 233 237
-4.09 0.46 2.60 193 232 237
-4.09 0.38 2.60 195 234 239
-4.09 0.30 2.60 195 234 239
-4.09 0.21 2.60 194 233 238
-4.09 0.13 2.60 195 234 239
-4.09 0.05 2.60 195 234 239
-4.09 -0.04 2.60 196 235 240
-4.09 -0.12 2.60 197 236 241
-4.09 -0.20 2.60 196 237 241
-4.09 -0.28 2.60 195 236 240
-4.09 -0.37 2.60 193 237 240
-4.09 -0.45 2.60 193 237 240
-4.09 -0.53 2.60 192 233 237
-4.09 -0.62 2.60 195 236 240
-4.09 -0.70 2.60 196 237 243
-4.09 -0.78 2.60 199 240 246
-4.09 -0.87 2.60 207 246 253
-4.09 -0.95 2.60 210 247 255
-4.09 -1.03 2.60 213 250 255
-3.96 -1.09 2.48 206 241 247
-3.96 -1.17 2.48 209 244 250
-3.80 -1.23 2.33 211 244 249
-3.80 -1.31 2.33 209 242 247
-3.80 -1.40 2.33 209 243 245
-3.80 -1.48 2.33 210 244 246
-3.67 -1.54 2.20 215 246 249
-3.67 -1.63 2.20 216 247 250
-3.51 -1.69 2.05 209 244 248
-3.51 -1.77 2.05 209 244 248
-3.51 -1.86 2.05 210 245 249
-3.38 -1.92 1.93 212 247 251
-3.38 -2.01 1.93 215 248 253
-3.51 -2.11 2.05 216 249 254
-3.51 -2.19 2.05 215 248 253
-3.51 -2.28 2.05 214 247 252
-1.19 -3.48 -0.15 218 252 253
-1.19 -3.57 -0.15 219 253 254
-1.19 -3.66 -0.15 218 252 253
-1.19 -3.74 -0.15 216 250 251
-1.19 -3.83 -0.15 216 250 251
-1.19 -3.92 -0.15 214 248 249
-1.35 -4.03 -0.00 212 246 247
-1.35 -4.12 -0.00 219 250 253
-1.35 -4.21 -0.00 217 248 251
-1.50 -4.31 0.15 217 248 251
-4.37 -4.62 2.87 219 250 253
-4.37 -4.70 2.87 222 251 255
-4.37 -4.79 2.87 221 250 254
-4.37 -4.87 2.87 221 250 254
-4.24 -4.94 2.75 224 252 255
-4.24 -5.02 2.75 223 251 254
-4.24 -5.11 2.75 223 248 252
-4.24 -5.19 2.75 223 248 252
-4.09 -5.26 2.60 227 251 255
-4.09 -5.35 2.60 229 253 255
-4.09 -5.43 2.60 231 255 255
-4.09 -5.51 2.60 232 255 255
-4.09 -5.60 2.60 233 255 255
-4.09 -5.68 2.60 233 255 255
-3.96 -5.76 2.48 232 255 255
-3.96 -5.84 2.48 231 255 255
-3.96 -5.92 2.48 233 255 255
-3.96 -6.01 2.48 227 251 253
-3.96 -6.09 2.48 219 240 243
-3.96 -6.17 2.48 216 235 239
-3.96 -6.26 2.48 217 237 238
-3.96 -6.34 2.48 117 132 135
-0.17 -6.50 -1.12 153 165 165
-0.17 -6.60 -1.12 154 164 165
-0.17 -6.69 -1.12 160 169 168
-0.17 -6.78 -1.12 160 168 170
-0.17 -6.87 -1.12 158 168 170
-0.17 -6.96 -1.12 160 170 171
-0.17 -7.06 -1.12 160 170 171
-0.17 -7.15 -1.12 160 170 171
-0.17 -7.24 -1.12 160 170 171
-0.17 -7.33 -1.12 160 170 171
-0.17 -7.42 -1.12 161 171 172
-0.17 -7.52 -1.12 161 170 169
-0.17 -7.61 -1.12 165 174 173
-0.36 -7.70 -0.95 163 172 169
-0.36 -7.79 -0.95 162 171 168
-0.36 -7.88 -0.95 169 178 175
-0.17 -7.98 -1.12 175 184 181
-0.17 -8.07 -1.12 175 184 181
-0.17 -8.16 -1.12 176 185 182
-0.17 -8.25 -1.12 173 184 180
-0.36 -8.34 -0.95 172 183 179
-0.36 -8.43 -0.95 172 183 179
-0.36 -8.52 -0.95 173 184 180
-0.36 -8.62 -0.95 174 185 181
-0.36 -8.71 -0.95 175 186 182
-0.36 -8.80 -0.95 176 187 183
-0.17 -8.90 -1.12 176 187 183
-0.17 -8.99 -1.12 179 188 185
-0.17 -9.08 -1.12 180 189 186
-0.17 -9.17 -1.12 181 190 187
-0.17 -9.27 -1.12 183 192 189
-0.17 -9.36 -1.12 183 192 189
-0.17 -9.45 -1.12 183 192 189
-0.17 -9.54 -1.12 183 192 189
-0.17 -9.63 -1.12 180 191 183
-0.17 -9.73 -1.12 181 192 184
-0.17 -9.82 -1.12 182 192 184
-0.17 -9.91 -1.12 181 191 183
-0.17 -10.00 -1.12 182 189 182
-0.36 -10.08 -0.95 182 189 182
-0.36 -10.17 -0.95 184 190 186
-0.36 -10.26 -0.95 186 192 188
-0.36 -10.36 -0.95 184 190 186
-0.36 -10.45 -0.95 186 192 188
-0.36 -10.54 -0.95 184 193 188
-0.36 -10.63 -0.95 183 192 187
-0.36 -10.72 -0.95 183 192 187
-0.36 -10.81 -0.95 185 194 189
-0.36 -10.91 -0.95 185 196 190
-0.36 -11.00 -0.95 185 194 189
-0.36 -11.09 -0.95 186 192 190
-0.36 -11.18 -0.95 188 192 191
-0.36 -11.27 -0.95 188 192 191
-0.36 -11.36 -0.95 187 193 191
-0.17 -11.66 -1.12 189 195 193
-0.17 -11.75 -1.12 186 195 192
-0.17 -11.84 -1.12 186 195 192
-0.36 -11.91 -0.95 187 196 193
-0.36 -12.01 -0.95 187 196 193
-0.36 -12.10 -0.95 186 197 193
-0.36 -12.19 -0.95 186 197 193
-0.36 -12.28 -0.95 186 197 193
-0.36 -12.37 -0.95 186 197 193
-0.36 -12.46 -0.95 185 196 190
-0.36 -12.56 -0.95 184 195 189
-0.36 -12.65 -0.95 185 194 189
-0.36 -12.74 -0.95 185 194 189
-0.36 -12.83 -0.95 188 194 192
-0.36 -12.92 -0.95 189 195 193
-0.36 -13.01 -0.95 190 194 193
-0.51 -13.08 -0.80 190 194 193
-0.51 -13.17 -0.80 190 194 193
-0.51 -13.27 -0.80 191 195 194
-0.51 -13.36 -0.80 193 197 198
-0.51 -13.45 -0.80 194 198 199
-0.36 -13.56 -0.95 194 198 199
-0.36 -13.66 -0.95 193 199 199
-0.36 -13.75 -0.95 192 198 198
-0.36 -13.84 -0.95 194 200 198
-0.36 -13.93 -0.95 194 200 198
-0.36 -14.02 -0.95 192 201 198
-0.36 -14.11 -0.95 193 202 199
-0.36 -14.21 -0.95 193 204 200
-0.36 -14.30 -0.95 194 205 201
-0.36 -14.39 -0.95 194 205 201
-0.36 -14.48 -0.95 194 205 201
-0.36 -14.57 -0.95 194 206 202
-0.36 -14.66 -0.95 193 205 201
-0.36 -14.76 -0.95 194 205 201
-0.36 -14.85 -0.95 194 205 201
-0.36 -14.94 -0.95 194 205 201
-0.36 -15.03 -0.95 195 206 202
-0.36 -15.12 -0.95 196 205 202
-0.36 -15.21 -0.95 196 205 202
-0.36 -15.31 -0.95 198 207 204
-0.36 -15.40 -0.95 198 207 204
-0.51 -15.46 -0.80 199 208 205
-0.51 -15.55 -0.80 200 209 206
-0.51 -15.64 -0.80 204 210 208
-0.36 -15.76 -0.95 204 210 208
-0.36 -15.86 -0.95 205 211 209
-0.36 -15.95 -0.95 207 213 211
-0.51 -16.00 -0.80 206 212 210
-0.51 -16.10 -0.80 207 213 211
-0.51 -16.19 -0.80 209 215 213
-0.51 -16.28 -0.80 211 217 215
-0.51 -16.37 -0.80 211 217 215
-0.51 -16.46 -0.80 210 216 214
-0.51 -16.55 -0.80 209 215 213
-0.51 -16.64 -0.80 211 217 215
-0.51 -16.74 -0.80 212 218 216
-0.51 -16.83 -0.80 213 219 217
-0.51 -16.92 -0.80 214 220 218
-0.51 -17.01 -0.80 215 221 219
-0.51 -17.10 -0.80 217 223 221
-0.51 -17.19 -0.80 220 224 223
-0.51 -17.28 -0.80 221 225 224
-0.51 -17.37 -0.80 222 226 225
-0.51 -17.47 -0.80 224 228 227
-0.51 -17.56 -0.80 227 229 228
-0.51 -17.65 -0.80 227 229 228
-0.51 -17.74 -0.80 225 227 226
-0.36 -17.87 -0.95 227 227 227
-0.36 -17.96 -0.95 228 228 228
-0.36 -18.06 -0.95 231 231 231
-0.51 -18.10 -0.80 230 230 230
-0.51 -18.20 -0.80 230 230 230
-0.51 -18.29 -0.80 231 231 231
-0.51 -18.38 -0.80 232 232 232
-0.51 -18.47 -0.80 233 233 233
-0.51 -18.56 -0.80 234 234 234
-0.51 -18.65 -0.80 235 235 235
-0.51 -18.74 -0.80 234 236 235
-0.51 -18.83 -0.80 235 237 236
-0.51 -18.93 -0.80 235 237 236
-0.51 -19.02 -0.80 235 237 236
-0.51 -19.11 -0.80 236 238 237
-0.51 -19.20 -0.80 238 240 239
-0.51 -19.29 -0.80 236 238 237
-0.51 -19.38 -0.80 234 236 235
-0.51 -19.47 -0.80 241 241 241
-0.51 -19.57 -0.80 240 240 240
-0.51 -19.66 -0.80 241 241 241
-0.51 -19.75 -0.80 242 242 242
-0.36 -19.89 -0.95 242 242 242
-0.36 -19.98 -0.95 240 240 240
-0.36 -20.07 -0.95 242 242 242
-0.51 -20.11 -0.80 243 243 243
-0.51 -20.20 -0.80 242 242 242
-0.51 -20.30 -0.80 242 242 242
-0.51 -20.39 -0.80 242 242 242
-0.51 -20.48 -0.80 243 243 243
-0.51 -20.57 -0.80 243 243 243
-0.51 -20.66 -0.80 243 243 243
-0.51 -20.75 -0.80 242 242 242
-0.51 -20.84 -0.80 243 243 243
-0.51 -20.93 -0.80 245 245 245
-0.51 -21.03 -0.80 247 247 247
-0.51 -21.12 -0.80 247 247 247
-0.51 -21.21 -0.80 246 246 246
-0.51 -21.30 -0.80 245 245 245
-0.51 -21.39 -0.80 246 246 246
-0.51 -21.48 -0.80 247 247 247
-0.51 -21.57 -0.80 249 249 249
-0.51 -21.66 -0.80 250 250 250
-0.70 -21.69 -0.62 250 250 250
-0.70 -21.78 -0.62 250 250 250
-0.51 -21.94 -0.80 250 250 250
-0.51 -22.03 -0.80 250 250 250
-0.51 -22.12 -0.80 251 251 251
-0.51 -22.21 -0.80 253 251 252
-0.51 -22.30 -0.80 252 250 251
-0.51 -22.40 -0.80 251 251 251
-0.51 -22.49 -0.80 252 252 252
-0.51 -22.58 -0.80 253 253 253
-0.51 -22.67 -0.80 254 254 254
-0.51 -22.76 -0.80 253 255 254
-0.51 -22.85 -0.80 252 254 253
-0.51 -22.94 -0.80 251 255 254
-0.51 -23.03 -0.80 251 255 254
-0.51 -23.13 -0.80 250 255 254
-0.51 -23.22 -0.80 250 255 254
-0.51 -23.31 -0.80 250 255 254
-0.51 -23.40 -0.80 250 255 254
-0.51 -23.49 -0.80 248 255 254
-0.51 -23.58 -0.80 248 255 254
-0.51 -23.67 -0.80 250 255 254
-0.36 -23.83 -0.95 250 255 254
-0.36 -23.92 -0.95 250 255 254
-0.36 -24.01 -0.95 250 255 254
-0.51 -24.04 -0.80 250 255 254
-0.51 -24.13 -0.80 250 255 254
-0.51 -24.22 -0.80 251 255 254
-0.51 -24.31 -0.80 251 255 254
-0.51 -24.40 -0.80 253 255 254
-0.51 -24.49 -0.80 253 255 254
-0.51 -24.59 -0.80 253 255 254
-0.51 -24.68 -0.80 254 254 254
-0.51 -24.77 -0.80 253 253 253
-0.51 -24.86 -0.80 253 253 253
-0.51 -24.95 -0.80 253 253 253
-0.51 -25.04 -0.80 251 253 252
-0.51 -25.13 -0.80 251 253 252
-0.51 -25.23 -0.80 251 253 252
-0.70 -25.23 -0.62 251 253 252
-0.70 -25.32 -0.62 252 254 253
-0.70 -25.41 -0.62 252 254 253
-0.70 -25.51 -0.62 250 254 253
-0.70 -25.60 -0.62 250 254 253
-0.70 -25.69 -0.62 251 255 254
-0.51 -25.86 -0.80 250 254 253
-0.70 -25.87 -0.62 250 254 253
-0.70 -25.96 -0.62 250 254 253
-0.70 -26.05 -0.62 250 254 253
-0.70 -26.14 -0.62 250 254 253
-0.70 -26.23 -0.62 249 255 253
-0.70 -26.32 -0.62 251 255 254
-0.70 -26.41 -0.62 251 255 254
-0.70 -26.51 -0.62 252 254 253
-0.70 -26.60 -0.62 252 254 253
-0.70 -26.69 -0.62 252 254 253
-0.70 -26.78 -0.62 252 254 253
-0.70 -26.87 -0.62 252 254 253
-0.70 -26.96 -0.62 252 254 253
-0.70 -27.05 -0.62 254 254 254
-0.51 -27.23 -0.80 255 255 255
-0.51 -27.32 -0.80 255 255 255
-0.70 -27.32 -0.62 255 255 255
-0.70 -27.41 -0.62 255 255 255
-0.70 -27.50 -0.62 254 254 254
-0.70 -27.60 -0.62 253 253 253
-0.70 -27.69 -0.62 253 253 253
-0.51 -27.87 -0.80 252 252 252
-0.51 -27.96 -0.80 252 252 252
-0.70 -27.96 -0.62 252 252 252
-0.70 -28.05 -0.62 251 251 251
-0.70 -28.14 -0.62 251 251 251
-0.70 -28.23 -0.62 251 251 251
-0.51 -28.42 -0.80 251 251 251
-0.51 -28.51 -0.80 252 252 252
-0.51 -28.60 -0.80 251 251 251
-0.51 -28.69 -0.80 251 251 251
-0.51 -28.79 -0.80 252 252 252
-0.51 -28.88 -0.80 252 252 252
-0.51 -28.97 -0.80 251 251 251
-0.51 -29.06 -0.80 249 249 249
-0.51 -29.15 -0.80 248 248 248
-0.70 -29.14 -0.62 250 250 250
-0.70 -29.23 -0.62 249 249 249
-0.70 -29.32 -0.62 248 248 248
-0.70 -29.41 -0.62 248 248 248
-0.70 -29.50 -0.62 249 249 249
-0.70 -29.59 -0.62 249 249 249
-0.70 -29.69 -0.62 248 248 248
-0.70 -29.78 -0.62 247 247 247
-0.70 -29.87 -0.62 248 248 248
-0.70 -29.96 -0.62 247 247 247
-0.70 -30.05 -0.62 247 247 247
-0.70 -30.14 -0.62 247 247 247
-0.70 -30.23 -0.62 247 247 247
-0.70 -30.32 -0.62 248 248 248
-0.70 -30.41 -0.62 247 247 247
-0.51 -30.61 -0.80 247 247 247
-0.51 -30.70 -0.80 246 246 246
-0.51 -30.79 -0.80 245 245 245
-0.51 -30.89 -0.80 245 245 245
-0.51 -30.98 -0.80 246 246 246
-0.51 -31.07 -0.80 246 246 246
-0.51 -31.16 -0.80 246 246 246
-0.51 -31.25 -0.80 246 246 246
-0.51 -31.34 -0.80 245 245 245
-0.51 -31.43 -0.80 245 245 245
-0.51 -31.52 -0.80 245 245 245
-0.51 -31.62 -0.80 244 244 244
-0.51 -31.71 -0.80 243 243 243
-0.51 -31.80 -0.80 242 242 242
-0.70 -31.78 -0.62 242 242 242
-0.70 -31.87 -0.62 243 243 243
-0.70 -31.96 -0.62 241 241 241
-0.70 -32.05 -0.62 241 241 241
-0.70 -32.14 -0.62 241 241 241
-0.70 -32.23 -0.62 241 241 241
-0.70 -32.32 -0.62 241 241 241
-0.70 -32.41 -0.62 241 241 241
-0.51 -32.62 -0.80 241 239 240
-0.51 -32.71 -0.80 241 239 240
-0.51 -32.80 -0.80 240 238 239
-0.51 -32.89 -0.80 240 238 239
-0.70 -32.87 -0.62 242 238 239
-0.70 -32.96 -0.62 244 240 241
-0.70 -33.05 -0.62 245 241 242
-0.70 -33.14 -0.62 244 240 241
-0.85 -33.13 -0.47 243 239 240
-0.85 -33.22 -0.47 239 235 236
-0.85 -33.67 -0.47 246 242 243
-1.03 -33.64 -0.30 242 240 241
-1.03 -33.73 -0.30 239 237 238
-1.03 -33.82 -0.30 239 239 237
-1.03 -33.91 -0.30 239 239 237
-1.03 -34.00 -0.30 240 240 238
-1.03 -34.09 -0.30 239 239 237
-1.03 -34.18 -0.30 238 240 237
-1.03 -34.27 -0.30 239 241 238
-1.03 -34.36 -0.30 241 243 240
-1.03 -34.45 -0.30 243 245 242
-1.03 -34.54 -0.30 0 0 0
-1.03 -34.63 -0.30 0 0 0
-1.03 -34.72 -0.30 0 0 0
-1.03 -34.81 -0.30 0 0 0
-1.03 -34.90 -0.30 0 0 0
-1.03 -34.99 -0.30 0 0 0
-0.85 -35.21 -0.47 0 0 0
-0.85 -35.30 -0.47 0 0 0
-0.85 -35.39 -0.47 0 0 0
-0.85 -35.48 -0.47 0 0 0
-0.85 -35.57 -0.47 0 0 0
-0.85 -35.66 -0.47 0 0 0
-0.85 -35.75 -0.47 0 0 0
-0.85 -35.84 -0.47 0 0 0
-0.85 -35.93 -0.47 0 0 0
-0.22 21.12 -1.20 56 39 23
-0.22 21.03 -1.20 56 39 23
-0.22 20.94 -1.20 57 39 25
-0.22 20.84 -1.20 58 40 28
-0.22 20.75 -1.20 86 72 59
-0.22 20.66 -1.20 129 115 106
-0.22 20.57 -1.20 139 129 119
-0.04 20.60 -1.37 126 115 109
-0.04 20.51 -1.37 126 119 111
-0.04 20.42 -1.37 131 124 118
-0.04 20.33 -1.37 124 121 116
-0.04 20.23 -1.37 126 121 115
-0.04 20.14 -1.37 128 117 111
0.12 20.16 -1.52 134 121 113
0.12 20.06 -1.52 132 119 111
0.12 19.97 -1.52 129 119 109
-0.04 19.77 -1.37 132 122 112
-0.04 19.68 -1.37 133 125 114
-0.04 19.59 -1.37 135 127 116
-0.04 19.49 -1.37 134 127 117
-0.04 19.40 -1.37 132 125 117
-0.04 19.31 -1.37 130 123 115
-0.04 19.22 -1.37 129 122 116
-0.04 19.12 -1.37 127 122 118
-0.04 19.03 -1.37 128 123 119
-0.04 18.94 -1.37 128 123 120
-0.04 18.85 -1.37 128 122 122
-0.04 18.75 -1.37 129 123 125
-0.22 18.54 -1.20 129 123 127
-0.22 18.45 -1.20 130 124 124
-0.22 18.36 -1.20 130 124 124
-0.22 18.27 -1.20 130 125 121
-0.22 18.17 -1.20 130 125 119
-0.22 18.08 -1.20 130 126 117
-0.22 17.99 -1.20 131 127 116
-0.22 17.90 -1.20 131 127 115
-0.22 17.81 -1.20 131 127 115
-0.22 17.71 -1.20 132 128 116
-0.22 17.62 -1.20 132 128 116
-0.22 17.53 -1.20 130 126 115
-0.22 17.44 -1.20 128 126 114
-0.04 17.46 -1.37 128 126 114
-0.04 17.37 -1.37 127 123 111
-0.04 17.27 -1.37 129 125 113
-0.04 17.18 -1.37 130 126 114
-0.04 17.09 -1.37 131 127 115
-0.04 17.00 -1.37 130 126 115
-0.04 16.90 -1.37 130 126 115
-0.04 16.81 -1.37 131 127 116
-0.04 16.72 -1.37 132 128 117
-0.04 16.63 -1.37 133 129 118
-0.04 16.53 -1.37 133 129 118
-0.04 16.44 -1.37 133 129 118
-0.04 16.35 -1.37 133 129 118
-0.22 16.15 -1.20 133 129 120
-0.22 16.06 -1.20 134 130 121
-0.04 16.07 -1.37 134 130 121
-0.22 15.87 -1.20 134 129 123
-0.22 15.78 -1.20 132 126 126
-0.22 15.69 -1.20 132 126 128
-0.22 15.60 -1.20 133 127 129
-0.22 15.50 -1.20 133 127 129
-0.22 15.41 -1.20 134 128 130
-0.22 15.32 -1.20 134 128 130
-0.22 15.23 -1.20 135 129 131
-0.22 15.14 -1.20 133 127 129
-0.04 15.15 -1.37 134 128 130
-0.04 15.05 -1.37 135 130 127
-0.04 14.96 -1.37 134 129 126
-0.04 14.87 -1.37 134 129 125
-0.04 14.78 -1.37 135 130 126
-0.04 14.68 -1.37 137 132 128
-0.04 14.59 -1.37 136 131 127
-0.04 14.50 -1.37 137 134 127
0.12 14.49 -1.52 137 134 127
0.12 14.40 -1.52 136 133 128
-0.04 14.22 -1.37 135 131 128
-0.04 14.13 -1.37 135 131 128
0.12 14.12 -1.52 135 131 132
0.12 14.03 -1.52 135 129 131
-0.04 13.85 -1.37 135 129 133
-0.04 13.76 -1.37 133 127 131
-0.04 13.67 -1.37 133 127 131
-0.04 13.57 -1.37 134 128 130
-0.04 13.48 -1.37 135 129 131
-0.04 13.39 -1.37 138 130 128
-0.04 13.30 -1.37 139 131 129
-0.04 13.20 -1.37 138 133 129
-0.22 13.02 -1.20 133 133 125
-0.22 12.93 -1.20 133 134 126
-0.22 12.83 -1.20 136 136 128
-0.22 12.74 -1.20 136 136 128
-0.22 12.65 -1.20 136 136 128
-0.22 12.56 -1.20 135 135 127
-0.22 12.46 -1.20 136 133 126
-0.22 12.37 -1.20 136 133 126
-0.22 12.28 -1.20 132 129 120
-0.22 12.19 -1.20 133 130 121
-0.22 12.10 -1.20 134 130 121
-0.22 12.00 -1.20 134 130 121
-0.04 12.00 -1.37 135 128 118
-0.04 11.91 -1.37 135 128 118
-0.04 11.82 -1.37 135 128 118
-0.04 11.72 -1.37 135 128 120
-0.04 11.63 -1.37 133 129 120
-0.04 11.54 -1.37 132 127 121
-0.04 11.45 -1.37 132 128 119
-0.04 11.35 -1.37 132 128 119
-0.04 11.26 -1.37 133 129 120
-0.04 11.17 -1.37 133 129 120
-0.04 11.08 -1.37 132 128 119
-0.04 10.98 -1.37 132 128 119
-0.04 10.89 -1.37 132 128 119
-0.22 10.72 -1.20 131 128 121
-0.22 10.62 -1.20 130 127 120
-0.22 10.53 -1.20 127 126 121
-0.22 10.44 -1.20 126 125 120
-0.22 10.35 -1.20 125 126 120
-0.22 10.26 -1.20 127 126 121
-0.22 10.16 -1.20 126 126 116
-0.22 10.07 -1.20 126 123 114
-0.22 9.98 -1.20 123 120 113
-0.04 9.97 -1.37 122 119 112
-0.04 9.87 -1.37 122 119 114
-0.22 9.70 -1.20 121 118 113
-0.04 9.69 -1.37 121 116 110
-3.84 7.80 2.25 124 121 116
-3.84 7.72 2.25 114 115 110
-3.84 7.64 2.25 106 112 110
-3.84 7.55 2.25 114 125 127
-3.84 7.30 2.25 133 160 169
-3.84 7.22 2.25 132 165 174
-3.84 7.13 2.25 129 163 172
-3.84 7.05 2.25 128 162 171
-3.84 6.97 2.25 126 165 172
-3.84 6.88 2.25 127 166 173
-4.00 6.74 2.40 125 168 174
-4.00 6.65 2.40 125 168 174
-4.00 6.57 2.40 123 166 172
-4.00 6.49 2.40 124 167 173
-4.00 6.40 2.40 127 168 174
-4.00 6.32 2.40 127 168 174
-4.00 6.24 2.40 127 166 173
-4.00 6.15 2.40 125 164 171
-4.00 6.07 2.40 125 162 170
-4.00 5.99 2.40 124 163 170
-4.00 5.91 2.40 122 165 171
-4.00 5.82 2.40 122 167 172
-4.00 5.74 2.40 120 165 170
-4.00 5.66 2.40 117 162 167
-4.00 5.57 2.40 119 164 167
-4.00 5.49 2.40 124 169 172
-4.00 5.41 2.40 127 171 174
-4.00 5.32 2.40 124 168 171
-4.13 5.19 2.53 127 168 172
-4.00 5.16 2.40 125 166 172
-4.00 5.07 2.40 125 166 172
-4.00 4.99 2.40 128 166 175
-4.13 4.86 2.53 129 167 176
-4.13 4.78 2.53 128 166 175
-4.00 4.74 2.40 127 165 174
-4.00 4.66 2.40 124 164 174
-4.00 4.57 2.40 123 163 173
-4.00 4.49 2.40 126 169 178
-4.00 4.41 2.40 122 165 174
-4.00 4.32 2.40 121 165 174
-4.00 4.24 2.40 125 169 178
-4.00 4.16 2.40 118 165 173
-4.00 4.07 2.40 118 165 173
-4.00 3.99 2.40 115 162 168
-4.00 3.91 2.40 117 164 170
-4.00 3.82 2.40 120 165 171
-4.00 3.74 2.40 121 166 172
-4.00 3.66 2.40 122 165 172
-4.13 3.53 2.53 123 166 173
-4.13 3.45 2.53 128 169 175
-4.13 3.37 2.53 130 171 177
-4.13 3.28 2.53 127 168 172
-4.13 3.20 2.53 129 170 174
-4.13 3.12 2.53 130 171 175
-4.13 3.04 2.53 132 173 179
-4.13 2.95 2.53 133 174 180
-4.13 2.87 2.53 134 175 181
-4.13 2.79 2.53 135 176 182
-4.13 2.70 2.53 132 172 180
-4.13 2.62 2.53 134 174 182
-4.13 2.54 2.53 136 176 184
-4.13 2.45 2.53 138 178 186
-4.13 2.37 2.53 141 179 188
-4.13 2.29 2.53 142 180 189
-4.13 2.21 2.53 141 179 188
-4.13 2.12 2.53 141 179 188
-4.13 2.04 2.53 138 181 190
-4.13 1.96 2.53 139 182 191
-4.13 1.87 2.53 141 184 193
-4.13 1.79 2.53 142 185 194
-4.13 1.71 2.53 142 185 194
-4.13 1.62 2.53 142 185 194
-4.13 1.54 2.53 143 186 193
-4.13 1.46 2.53 143 186 193
-4.13 1.38 2.53 151 194 200
-4.13 1.29 2.53 151 194 200
-4.13 1.21 2.53 149 193 196
-4.13 1.13 2.53 147 191 194
-4.13 1.04 2.53 145 189 192
-4.13 0.96 2.53 147 191 192
-4.13 0.88 2.53 149 193 196
-4.13 0.79 2.53 148 192 195
-4.13 0.71 2.53 150 193 199
-4.13 0.63 2.53 154 195 201
-4.13 0.55 2.53 155 196 202
-4.13 0.46 2.53 158 197 204
-4.13 0.38 2.53 160 199 206
-4.13 0.30 2.53 159 198 205
-4.13 0.21 2.53 157 196 203
-4.13 0.13 2.53 163 202 209
-4.13 0.05 2.53 164 203 210
-4.13 -0.04 2.53 165 206 212
-4.13 -0.12 2.53 166 207 213
-4.13 -0.20 2.53 165 208 214
-4.13 -0.28 2.53 164 207 213
-4.13 -0.37 2.53 162 207 212
-4.13 -0.45 2.53 161 206 211
-4.13 -0.53 2.53 162 207 212
-4.13 -0.62 2.53 165 210 215
-4.13 -0.70 2.53 164 207 213
-4.13 -0.78 2.53 161 204 210
-4.13 -0.87 2.53 162 205 212
-4.13 -0.95 2.53 160 200 208
-4.13 -1.03 2.53 163 201 210
-4.13 -1.11 2.53 169 206 214
-4.00 -1.17 2.40 173 210 218
-4.00 -1.26 2.40 178 213 219
-4.00 -1.34 2.40 177 212 218
-4.00 -1.42 2.40 175 208 213
-4.00 -1.51 2.40 175 208 213
-4.00 -1.59 2.40 176 210 212
-4.00 -1.67 2.40 176 209 214
-4.00 -1.76 2.40 173 211 214
-4.00 -1.84 2.40 174 211 217
-3.84 -1.90 2.25 175 212 218
-3.84 -1.98 2.25 176 213 219
-3.84 -2.07 2.25 176 213 219
-4.00 -2.17 2.40 176 213 219
-4.00 -2.26 2.40 178 213 217
-4.13 -2.36 2.53 177 212 216
-4.13 -2.44 2.53 180 213 218
-4.13 -2.52 2.53 179 212 217
-4.29 -2.63 2.68 179 212 217
-4.29 -2.71 2.68 181 214 219
-4.29 -2.79 2.68 185 216 219
-4.29 -2.88 2.68 186 217 220
-4.29 -2.96 2.68 183 214 219
-4.29 -3.04 2.68 186 219 226
-4.29 -3.12 2.68 187 220 229
-4.29 -3.21 2.68 188 221 228
-4.29 -3.29 2.68 189 222 229
-4.29 -3.37 2.68 188 221 226
-4.29 -3.46 2.68 186 219 224
-4.29 -3.54 2.68 182 217 219
-4.29 -3.62 2.68 181 216 218
-4.29 -3.70 2.68 181 217 217
-4.29 -3.79 2.68 186 222 222
-4.29 -3.87 2.68 190 226 226
-4.13 -3.94 2.53 192 228 228
-4.29 -4.03 2.68 194 230 230
-4.29 -4.12 2.68 196 232 232
-4.29 -4.20 2.68 195 231 231
-4.42 -4.29 2.80 193 229 229
-4.42 -4.37 2.80 188 222 224
-4.42 -4.46 2.80 187 221 223
-4.42 -4.54 2.80 190 221 224
-4.42 -4.62 2.80 193 224 227
-4.42 -4.70 2.80 195 226 229
-4.42 -4.79 2.80 194 225 228
-4.42 -4.87 2.80 193 222 226
-4.29 -4.94 2.68 198 226 230
-4.29 -5.02 2.68 197 225 229
-4.29 -5.11 2.68 197 225 229
-4.29 -5.19 2.68 198 226 230
-4.13 -5.26 2.53 202 227 232
-4.13 -5.35 2.53 203 228 233
-4.13 -5.43 2.53 203 228 233
-4.13 -5.51 2.53 202 227 232
-4.13 -5.60 2.53 203 229 230
-4.13 -5.68 2.53 204 230 231
-4.13 -5.76 2.53 206 232 233
-4.13 -5.84 2.53 210 236 237
-4.13 -5.93 2.53 210 235 239
-4.13 -6.01 2.53 200 225 229
-4.13 -6.09 2.53 195 219 223
-4.13 -6.18 2.53 202 223 228
-4.13 -6.26 2.53 210 231 234
-4.00 -6.34 2.40 114 132 136
-0.40 -6.32 -1.03 147 165 165
-0.40 -6.42 -1.03 154 168 169
-0.40 -6.51 -1.03 154 166 166
-0.40 -6.60 -1.03 154 164 165
-0.40 -6.69 -1.03 158 167 166
-0.40 -6.78 -1.03 158 166 168
-0.40 -6.87 -1.03 159 169 171
-0.40 -6.97 -1.03 161 169 171
-0.40 -7.06 -1.03 161 169 171
-0.40 -7.15 -1.03 160 168 170
-0.22 -7.24 -1.20 160 168 170
-0.22 -7.33 -1.20 160 168 170
-0.40 -7.42 -1.03 160 168 170
-0.40 -7.52 -1.03 161 170 169
-0.40 -7.61 -1.03 165 174 173
-0.40 -7.70 -1.03 165 171 171
-0.40 -7.79 -1.03 164 170 170
-0.40 -7.88 -1.03 171 177 175
-0.40 -7.97 -1.03 178 184 182
-0.40 -8.07 -1.03 178 184 182
-0.40 -8.16 -1.03 178 184 182
-0.40 -8.25 -1.03 178 189 185
-0.40 -8.34 -1.03 177 188 184
-0.40 -8.43 -1.03 176 187 183
-0.40 -8.52 -1.03 176 187 183
-0.40 -8.62 -1.03 176 187 183
-0.40 -8.71 -1.03 177 188 184
-0.40 -8.80 -1.03 177 188 184
-0.40 -8.89 -1.03 177 188 184
-0.40 -8.98 -1.03 176 185 182
-0.40 -9.07 -1.03 179 188 185
-0.40 -9.17 -1.03 180 189 186
-0.40 -9.26 -1.03 181 190 187
-0.22 -9.36 -1.20 182 191 188
-0.22 -9.45 -1.20 182 191 188
-0.22 -9.54 -1.20 183 192 187
-0.40 -9.62 -1.03 182 193 185
-0.40 -9.72 -1.03 183 195 185
-0.40 -9.81 -1.03 184 194 185
-0.40 -9.90 -1.03 183 193 184
-0.40 -9.99 -1.03 183 190 183
-0.40 -10.08 -1.03 182 189 182
-0.40 -10.17 -1.03 184 191 184
-0.40 -10.26 -1.03 186 193 186
-0.40 -10.36 -1.03 182 188 184
-0.40 -10.45 -1.03 185 191 187
-0.56 -10.53 -0.88 184 193 188
-0.56 -10.62 -0.88 184 193 188
-0.40 -10.72 -1.03 184 195 189
-0.40 -10.81 -1.03 186 197 191
-0.40 -10.91 -1.03 185 196 192
-0.40 -11.00 -1.03 184 193 190
-0.40 -11.09 -1.03 185 191 189
-0.40 -11.18 -1.03 187 191 190
-0.40 -11.27 -1.03 188 192 191
-0.40 -11.36 -1.03 187 193 191
-0.40 -11.46 -1.03 187 193 191
-0.40 -11.55 -1.03 188 194 192
-0.40 -11.82 -1.03 186 195 192
-0.40 -11.91 -1.03 186 195 192
-0.40 -12.01 -1.03 186 195 192
-0.40 -12.10 -1.03 185 196 192
-0.40 -12.19 -1.03 185 196 192
-0.40 -12.28 -1.03 185 196 192
-0.40 -12.37 -1.03 185 196 192
-0.40 -12.46 -1.03 187 196 191
-0.40 -12.56 -1.03 186 195 190
-0.40 -12.65 -1.03 185 194 189
-0.40 -12.74 -1.03 185 194 189
-0.40 -12.83 -1.03 188 194 192
-0.40 -12.92 -1.03 188 194 192
-0.40 -13.01 -1.03 189 193 192
-0.56 -13.08 -0.88 189 193 192
-0.56 -13.17 -0.88 190 194 193
-0.56 -13.27 -0.88 191 195 194
-0.56 -13.36 -0.88 192 196 197
-0.56 -13.45 -0.88 193 199 199
-0.56 -13.54 -0.88 193 199 199
-0.40 -13.84 -1.03 191 197 195
-0.56 -13.91 -0.88 192 198 196
-0.56 -14.00 -0.88 191 200 197
-0.40 -14.11 -1.03 193 202 199
-0.40 -14.21 -1.03 193 204 200
-0.40 -14.30 -1.03 194 205 201
-0.40 -14.39 -1.03 192 204 200
-0.40 -14.48 -1.03 191 203 199
-0.40 -14.57 -1.03 194 206 202
-0.40 -14.66 -1.03 193 205 201
-0.40 -14.76 -1.03 192 204 200
-0.56 -14.82 -0.88 192 204 200
-0.56 -14.91 -0.88 195 206 202
-0.56 -15.00 -0.88 197 208 204
-0.56 -15.09 -0.88 198 207 204
-0.56 -15.18 -0.88 197 206 203
-0.56 -15.27 -0.88 198 207 204
-0.56 -15.37 -0.88 199 208 205
-0.56 -15.46 -0.88 202 208 206
-0.56 -15.55 -0.88 203 209 207
-0.56 -15.64 -0.88 204 210 208
-0.56 -15.73 -0.88 205 211 209
-0.56 -15.82 -0.88 206 212 210
-0.56 -15.91 -0.88 207 213 211
-0.56 -16.00 -0.88 207 213 211
-0.56 -16.10 -0.88 208 214 212
-0.56 -16.19 -0.88 209 215 213
-0.56 -16.28 -0.88 211 217 215
-0.56 -16.37 -0.88 211 217 215
-0.56 -16.46 -0.88 210 216 214
-0.56 -16.55 -0.88 209 215 213
-0.56 -16.64 -0.88 210 219 216
-0.56 -16.74 -0.88 211 220 217
-0.56 -16.83 -0.88 214 220 218
-0.56 -16.92 -0.88 215 221 219
-0.56 -17.01 -0.88 215 221 219
-0.56 -17.10 -0.88 216 222 220
-0.56 -17.19 -0.88 219 223 222
-0.56 -17.28 -0.88 220 224 223
-0.56 -17.37 -0.88 219 223 222
-0.56 -17.47 -0.88 221 225 224
-0.56 -17.56 -0.88 226 228 227
-0.56 -17.65 -0.88 226 228 227
-0.74 -17.69 -0.70 226 228 227
-0.56 -17.83 -0.88 229 229 229
-0.56 -17.92 -0.88 231 231 231
-0.56 -18.01 -0.88 228 228 228
-0.74 -18.05 -0.70 229 229 229
-0.74 -18.15 -0.70 230 230 230
-0.74 -18.24 -0.70 230 230 230
-0.74 -18.33 -0.70 229 229 229
-0.74 -18.42 -0.70 230 230 230
-0.74 -18.51 -0.70 232 234 233
-0.74 -18.60 -0.70 234 236 235
-0.74 -18.69 -0.70 232 234 233
