ply
format ascii 1.0
element vertex 1660
property float x
property float y
property float z
property uchar red
property uchar green
property uchar blue
end_header
1.79 -3.69 0.89 171 216 219
1.79 -3.79 0.89 170 215 218
1.79 -3.88 0.89 171 216 219
1.79 -3.97 0.89 163 212 216
1.79 -4.07 0.89 163 212 216
1.79 -4.16 0.89 161 212 216
1.79 -4.25 0.89 158 209 213
1.79 -4.35 0.89 154 209 212
1.79 -4.44 0.89 154 209 212
1.79 -4.53 0.89 149 207 211
1.79 -4.63 0.89 142 201 207
1.79 -4.72 0.89 140 199 205
1.79 -4.81 0.89 132 191 197
1.61 -4.92 1.05 131 190 196
1.61 -5.20 1.05 112 171 179
1.44 -5.30 1.19 103 160 167
1.44 -5.39 1.19 92 150 152
1.25 -5.49 1.35 177 227 228
0.55 -5.61 1.95 230 255 255
0.20 -5.72 2.26 217 241 243
0.04 -5.81 2.40 227 243 243
0.04 -5.90 2.40 236 246 247
0.04 -6.17 2.40 230 246 243
-0.12 -6.27 2.53 234 249 246
-0.12 -6.36 2.53 238 248 249
-0.12 -6.44 2.53 248 255 255
4.15 -6.64 -1.13 158 173 168
4.15 -6.74 -1.13 159 176 170
4.15 -6.83 -1.13 154 169 164
4.15 -6.93 -1.13 156 171 166
4.15 -7.03 -1.13 157 172 167
4.15 -7.13 -1.13 159 174 169
4.15 -7.23 -1.13 160 175 170
4.15 -7.33 -1.13 163 178 173
4.15 -7.43 -1.13 164 179 174
4.15 -7.52 -1.13 168 183 178
4.15 -7.62 -1.13 171 186 181
4.15 -7.72 -1.13 175 190 185
4.15 -7.82 -1.13 177 192 187
4.15 -7.92 -1.13 177 192 187
4.15 -8.02 -1.13 176 191 186
4.15 -8.12 -1.13 176 191 186
4.15 -8.21 -1.13 179 191 187
4.15 -8.31 -1.13 179 191 187
4.15 -8.41 -1.13 180 191 187
4.15 -8.51 -1.13 181 192 188
4.15 -8.61 -1.13 181 192 188
4.15 -8.71 -1.13 182 193 189
4.15 -8.81 -1.13 182 193 189
4.15 -8.90 -1.13 182 193 189
4.15 -9.00 -1.13 182 193 189
4.15 -9.10 -1.13 182 193 187
4.15 -9.20 -1.13 181 192 186
4.15 -9.30 -1.13 182 193 187
4.15 -9.40 -1.13 184 195 189
4.15 -9.50 -1.13 185 196 190
3.93 -9.58 -0.94 185 196 190
3.93 -9.68 -0.94 185 196 190
3.93 -9.78 -0.94 188 197 194
3.93 -9.88 -0.94 187 196 193
3.93 -9.98 -0.94 186 195 192
3.93 -10.07 -0.94 186 195 192
3.93 -10.17 -0.94 187 196 193
3.93 -10.27 -0.94 189 198 195
3.93 -10.37 -0.94 189 198 195
3.93 -10.47 -0.94 189 198 195
3.93 -10.56 -0.94 186 195 192
3.93 -10.66 -0.94 187 196 193
4.15 -10.78 -1.13 188 197 194
4.15 -10.88 -1.13 187 196 193
4.15 -10.97 -1.13 187 196 193
3.93 -11.05 -0.94 187 196 193
3.93 -11.15 -0.94 189 198 195
3.93 -11.25 -0.94 190 199 196
3.93 -11.35 -0.94 189 198 195
3.93 -11.45 -0.94 187 196 193
3.93 -11.55 -0.94 190 199 196
3.93 -11.64 -0.94 190 199 196
3.93 -11.74 -0.94 189 198 195
3.93 -11.84 -0.94 189 198 195
3.93 -11.94 -0.94 190 199 196
3.93 -12.04 -0.94 188 197 194
3.93 -12.13 -0.94 188 197 194
3.93 -12.23 -0.94 188 197 194
3.93 -12.33 -0.94 188 197 194
3.93 -12.43 -0.94 188 197 194
3.93 -12.53 -0.94 189 198 195
3.93 -12.62 -0.94 190 199 196
3.93 -12.72 -0.94 191 200 197
3.93 -12.82 -0.94 190 199 196
3.93 -12.92 -0.94 190 199 196
4.15 -13.04 -1.13 190 199 196
4.15 -13.14 -1.13 189 198 195
4.15 -13.24 -1.13 190 199 196
4.15 -13.34 -1.13 190 199 196
4.15 -13.44 -1.13 191 200 197
4.15 -13.54 -1.13 191 200 197
4.15 -13.64 -1.13 193 202 199
4.15 -13.73 -1.13 193 202 199
4.15 -13.83 -1.13 193 202 199
3.93 -13.90 -0.94 193 202 199
3.93 -14.00 -0.94 194 203 200
3.93 -14.10 -0.94 194 203 200
3.93 -14.19 -0.94 194 203 200
3.93 -14.29 -0.94 196 205 202
3.93 -14.39 -0.94 196 205 202
3.93 -14.49 -0.94 196 205 202
3.93 -14.59 -0.94 196 205 202
3.93 -14.68 -0.94 196 205 202
3.93 -14.78 -0.94 196 205 202
3.93 -14.88 -0.94 196 205 202
3.93 -14.98 -0.94 197 206 203
3.93 -15.08 -0.94 198 207 204
3.93 -15.17 -0.94 198 207 204
3.93 -15.27 -0.94 199 208 205
4.15 -15.41 -1.13 199 208 205
4.15 -15.51 -1.13 199 208 205
4.15 -15.61 -1.13 200 209 206
3.93 -15.66 -0.94 202 211 208
3.93 -15.76 -0.94 203 212 209
3.93 -15.86 -0.94 204 213 210
3.93 -15.96 -0.94 203 212 209
3.93 -16.06 -0.94 205 211 209
3.74 -16.12 -0.78 206 212 210
3.74 -16.21 -0.78 210 216 214
3.74 -16.31 -0.78 211 217 215
3.74 -16.41 -0.78 211 217 215
3.74 -16.51 -0.78 211 217 215
3.74 -16.61 -0.78 211 217 215
3.74 -16.70 -0.78 214 218 217
3.74 -16.80 -0.78 215 219 218
3.74 -16.90 -0.78 215 219 218
3.74 -17.00 -0.78 216 220 219
3.74 -17.09 -0.78 217 221 220
3.74 -17.19 -0.78 218 222 221
3.74 -17.29 -0.78 221 227 225
3.74 -17.39 -0.78 220 226 224
3.74 -17.48 -0.78 221 227 225
3.93 -17.63 -0.94 221 227 225
3.93 -17.72 -0.94 223 229 227
3.93 -17.82 -0.94 225 231 229
3.74 -17.87 -0.78 226 232 230
3.74 -17.97 -0.78 226 232 230
3.93 -18.12 -0.94 229 235 233
3.93 -18.21 -0.94 230 236 234
3.93 -18.31 -0.94 232 238 236
3.93 -18.41 -0.94 232 238 236
3.93 -18.51 -0.94 232 238 236
3.93 -18.61 -0.94 232 238 236
3.93 -18.70 -0.94 233 239 237
3.93 -18.80 -0.94 237 241 240
3.93 -18.90 -0.94 236 240 239
3.93 -19.00 -0.94 235 239 238
3.74 -19.05 -0.78 236 240 239
3.74 -19.14 -0.78 238 242 241
3.74 -19.24 -0.78 239 243 242
3.74 -19.34 -0.78 240 244 243
3.74 -19.44 -0.78 240 244 243
3.74 -19.53 -0.78 239 243 242
3.74 -19.63 -0.78 240 244 243
3.74 -19.73 -0.78 240 244 243
3.93 -19.88 -0.94 238 242 241
3.74 -19.93 -0.78 235 239 238
3.74 -20.02 -0.78 234 238 237
3.74 -20.12 -0.78 234 238 237
3.74 -20.22 -0.78 236 240 239
3.74 -20.32 -0.78 242 246 245
3.53 -20.35 -0.59 241 245 244
3.53 -20.45 -0.59 241 245 244
3.53 -20.54 -0.59 241 245 244
3.53 -20.64 -0.59 242 246 245
3.53 -20.74 -0.59 242 246 245
3.53 -20.83 -0.59 240 244 243
3.53 -20.93 -0.59 240 244 243
3.53 -21.03 -0.59 241 245 244
3.53 -21.13 -0.59 242 246 245
3.53 -21.22 -0.59 243 247 246
3.53 -21.32 -0.59 244 248 247
3.53 -21.42 -0.59 245 249 248
3.74 -21.59 -0.78 245 249 248
3.74 -21.68 -0.78 245 249 248
3.74 -21.78 -0.78 246 251 247
3.74 -21.88 -0.78 243 248 244
3.74 -21.98 -0.78 241 246 242
3.74 -22.07 -0.78 242 247 243
3.74 -22.17 -0.78 246 248 245
3.74 -22.27 -0.78 247 249 246
3.74 -22.37 -0.78 246 248 247
3.74 -22.46 -0.78 244 246 245
3.53 -22.49 -0.59 246 248 247
3.53 -22.58 -0.59 245 247 246
3.53 -22.68 -0.59 242 244 243
3.53 -22.78 -0.59 239 241 240
3.53 -22.88 -0.59 243 243 243
3.53 -22.97 -0.59 248 248 248
3.53 -23.07 -0.59 249 249 249
3.53 -23.17 -0.59 251 251 249
3.53 -23.26 -0.59 249 249 247
3.53 -23.36 -0.59 246 246 244
3.53 -23.46 -0.59 247 247 245
4.10 18.99 -1.21 154 147 139
4.10 18.89 -1.21 147 139 136
4.10 18.79 -1.21 139 132 126
4.31 18.82 -1.40 141 134 128
4.31 18.72 -1.40 139 134 128
4.31 18.62 -1.40 138 133 127
4.31 18.52 -1.40 141 137 128
4.31 18.43 -1.40 140 136 127
4.31 18.33 -1.40 141 137 128
4.31 18.23 -1.40 141 137 128
4.31 18.13 -1.40 142 138 129
4.31 18.03 -1.40 144 140 131
4.31 17.93 -1.40 147 140 132
4.31 17.83 -1.40 147 140 132
4.31 17.73 -1.40 146 139 131
4.31 17.63 -1.40 143 139 130
4.31 17.53 -1.40 143 140 131
4.50 17.54 -1.56 141 141 131
4.50 17.44 -1.56 141 141 131
4.50 17.34 -1.56 142 142 132
4.50 17.04 -1.56 147 143 132
4.50 16.94 -1.56 149 142 134
4.50 16.85 -1.56 149 142 134
4.50 16.75 -1.56 147 142 136
4.31 16.54 -1.40 148 143 139
4.31 16.44 -1.40 149 144 140
4.31 16.35 -1.40 149 144 141
4.31 16.25 -1.40 149 143 143
4.31 16.15 -1.40 149 143 143
4.31 16.05 -1.40 144 142 143
4.31 15.95 -1.40 143 141 142
4.31 15.85 -1.40 143 142 140
4.31 15.75 -1.40 144 143 141
4.31 15.65 -1.40 145 144 139
4.31 15.55 -1.40 147 146 141
4.31 15.45 -1.40 147 147 139
4.31 15.36 -1.40 146 146 138
4.10 15.15 -1.21 147 147 139
4.10 15.05 -1.21 149 149 141
4.10 14.95 -1.21 149 148 143
4.10 14.85 -1.21 146 145 140
4.10 14.75 -1.21 145 144 140
4.10 14.65 -1.21 147 146 142
4.10 14.55 -1.21 149 148 146
4.10 14.46 -1.21 150 147 142
4.10 14.36 -1.21 150 147 142
4.31 14.36 -1.40 151 148 143
4.31 14.27 -1.40 152 149 144
4.31 14.17 -1.40 151 150 145
4.31 14.07 -1.40 151 150 145
4.10 13.86 -1.21 149 148 143
4.10 13.77 -1.21 147 146 141
4.10 13.67 -1.21 146 147 139
4.10 13.57 -1.21 147 148 140
4.10 13.47 -1.21 146 149 140
4.10 13.37 -1.21 147 150 141
4.10 13.27 -1.21 148 151 142
4.10 13.17 -1.21 148 151 142
4.10 13.08 -1.21 148 151 142
4.10 12.98 -1.21 148 151 144
4.10 12.88 -1.21 147 148 142
4.10 12.78 -1.21 148 149 144
4.10 12.68 -1.21 148 149 144
4.10 12.58 -1.21 148 149 144
4.10 12.48 -1.21 150 149 145
4.10 12.39 -1.21 151 150 146
4.10 12.29 -1.21 152 151 147
4.31 12.28 -1.40 152 148 145
4.31 12.19 -1.40 153 149 146
4.31 12.09 -1.40 154 151 146
4.31 11.99 -1.40 154 151 146
4.31 11.89 -1.40 154 149 145
4.31 11.79 -1.40 154 149 145
4.31 11.69 -1.40 155 150 146
4.31 11.59 -1.40 156 151 147
4.31 11.49 -1.40 154 151 146
4.31 11.39 -1.40 154 151 146
4.31 11.29 -1.40 154 151 146
4.10 11.10 -1.21 154 151 146
4.10 11.01 -1.21 154 151 146
4.10 10.91 -1.21 153 150 145
4.10 10.81 -1.21 152 149 144
4.10 10.71 -1.21 152 149 144
4.10 10.61 -1.21 153 150 145
4.10 10.51 -1.21 153 150 145
4.10 10.41 -1.21 154 151 146
4.10 10.32 -1.21 155 152 147
4.10 10.22 -1.21 155 152 147
4.10 10.12 -1.21 155 152 147
4.10 10.02 -1.21 155 152 147
4.10 9.92 -1.21 155 152 147
4.10 9.82 -1.21 152 149 142
-0.01 7.95 2.32 144 146 143
-0.17 7.79 2.46 142 148 148
-0.17 7.70 2.46 139 153 154
-0.17 7.62 2.46 138 156 160
-0.17 7.53 2.46 134 159 164
-0.17 7.44 2.46 131 160 166
-0.17 7.35 2.46 133 163 171
-0.17 7.26 2.46 135 168 175
-0.17 7.17 2.46 139 170 173
-0.17 7.08 2.46 137 168 170
-0.36 6.92 2.62 135 165 165
-0.36 6.84 2.62 134 165 159
-0.17 6.81 2.46 130 162 147
-0.17 6.73 2.46 155 183 160
-0.17 6.64 2.46 171 187 151
-0.17 6.55 2.46 178 185 143
-0.17 6.46 2.46 143 142 96
-0.01 6.43 2.32 134 131 86
0.15 6.39 2.18 134 137 94
0.32 6.36 2.04 158 166 127
0.32 6.27 2.04 107 121 86
0.51 6.24 1.88 114 135 96
0.67 6.21 1.74 112 133 92
0.86 6.18 1.57 114 136 90
1.02 6.14 1.44 82 105 61
1.02 6.05 1.44 78 104 59
1.02 5.96 1.44 102 129 86
1.02 5.87 1.44 103 130 87
1.02 5.77 1.44 119 144 102
1.21 5.74 1.27 129 155 110
1.21 5.65 1.27 107 122 81
1.21 5.56 1.27 89 87 48
1.21 5.47 1.27 80 56 22
1.21 5.37 1.27 104 54 27
1.21 5.28 1.27 126 54 30
1.21 5.19 1.27 139 53 30
1.21 5.10 1.27 153 59 34
1.02 4.95 1.44 151 61 34
0.86 4.81 1.57 144 58 25
0.67 4.66 1.74 143 63 26
0.51 4.52 1.88 150 72 33
0.32 4.38 2.04 148 71 27
0.32 4.29 2.04 141 60 17
0.15 4.15 2.18 147 58 18
0.15 4.06 2.18 153 61 24
0.15 3.97 2.18 148 60 22
-3.84 2.43 5.62 133 53 20
-3.84 2.35 5.62 139 58 29
-3.84 2.27 5.62 153 63 39
-3.84 2.19 5.62 129 36 19
-3.84 2.11 5.62 106 20 5
-3.84 2.03 5.62 116 57 39
-3.84 1.95 5.62 76 62 33
-3.84 1.87 5.62 62 69 35
-3.84 1.78 5.62 66 72 38
-3.84 1.70 5.62 100 104 69
-3.84 1.62 5.62 128 130 93
-3.84 1.54 5.62 130 131 91
-3.84 1.46 5.62 126 127 85
-3.84 1.38 5.62 138 136 95
-3.84 1.30 5.62 149 147 106
-3.84 1.22 5.62 151 148 113
-3.84 1.14 5.62 130 131 99
-3.71 1.09 5.50 126 128 104
-3.71 1.01 5.50 127 131 114
-3.71 0.93 5.50 135 143 130
-3.71 0.85 5.50 139 154 149
-3.71 0.77 5.50 139 155 152
-3.71 0.68 5.50 140 156 153
-3.71 0.60 5.50 139 150 144
-3.71 0.52 5.50 145 147 142
-3.57 0.47 5.38 156 145 141
-3.57 0.39 5.38 165 144 141
-3.57 0.31 5.38 174 145 139
-3.57 0.23 5.38 180 147 138
-3.57 0.14 5.38 182 153 137
-3.41 0.10 5.24 186 155 135
-3.41 0.02 5.24 194 163 142
-3.41 -0.07 5.24 200 165 143
-3.41 -0.15 5.24 202 167 147
-3.41 -0.23 5.24 201 168 149
-3.41 -0.31 5.24 195 174 157
-3.28 -0.37 5.13 180 171 154
-3.28 -0.45 5.13 146 153 135
-3.28 -0.53 5.13 118 131 114
-3.28 -0.61 5.13 125 131 119
-3.28 -0.70 5.13 130 135 128
-3.14 -0.75 5.01 133 146 136
-3.14 -0.84 5.01 140 157 149
-3.14 -0.92 5.01 149 169 160
-3.14 -1.00 5.01 167 183 183
-3.14 -1.08 5.01 171 186 191
-3.14 -1.16 5.01 175 194 198
-3.14 -1.25 5.01 175 200 205
-3.14 -1.33 5.01 174 208 210
-3.14 -1.41 5.01 166 206 208
-3.14 -1.49 5.01 173 214 218
-3.14 -1.58 5.01 178 219 223
-3.14 -1.66 5.01 174 211 217
-3.14 -1.74 5.01 191 226 232
-3.14 -1.82 5.01 178 211 216
-3.14 -1.91 5.01 136 167 172
-3.00 -1.97 4.90 132 163 165
-3.00 -2.05 4.90 146 174 177
1.94 -1.61 0.65 167 195 196
1.94 -1.71 0.65 171 201 203
1.94 -1.80 0.65 172 206 208
1.94 -1.90 0.65 182 217 221
1.94 -1.99 0.65 182 221 226
1.94 -2.08 0.65 178 217 222
1.94 -2.18 0.65 179 219 221
1.94 -2.27 0.65 181 221 223
1.94 -2.36 0.65 182 222 224
1.94 -2.46 0.65 181 222 226
1.94 -2.55 0.65 181 222 228
1.94 -2.64 0.65 182 223 229
1.94 -2.74 0.65 182 223 229
1.75 -2.85 0.81 180 223 229
1.75 -2.95 0.81 180 223 229
1.75 -3.04 0.81 180 223 229
1.75 -3.13 0.81 180 223 229
1.75 -3.23 0.81 178 223 226
1.75 -3.32 0.81 175 220 223
1.75 -3.41 0.81 173 218 221
1.75 -3.51 0.81 172 217 220
1.75 -3.60 0.81 168 216 218
1.75 -3.69 0.81 165 213 215
1.75 -3.79 0.81 163 211 213
1.75 -3.88 0.81 164 212 216
1.75 -3.97 0.81 158 209 212
1.75 -4.07 0.81 160 211 215
1.75 -4.16 0.81 157 210 214
1.75 -4.25 0.81 152 205 209
1.75 -4.35 0.81 148 203 208
1.75 -4.44 0.81 148 203 208
1.75 -4.53 0.81 144 202 206
1.75 -4.63 0.81 136 195 201
1.75 -4.72 0.81 136 195 201
1.75 -4.81 0.81 129 188 196
1.75 -4.91 0.81 129 188 196
1.56 -5.20 0.97 112 171 179
1.56 -5.29 0.97 103 160 167
1.40 -5.39 1.11 100 155 158
1.40 -5.48 1.11 186 234 236
0.32 -5.62 2.04 231 255 255
0.32 -5.71 2.04 215 239 241
-0.01 -5.81 2.32 226 240 241
-0.01 -5.90 2.32 235 245 246
-0.17 -6.18 2.46 227 243 240
-0.17 -6.27 2.46 233 248 245
-0.17 -6.36 2.46 237 249 249
-0.17 -6.44 2.46 244 254 255
4.10 -6.64 -1.21 149 165 162
4.10 -6.74 -1.21 153 169 166
3.88 -6.84 -1.03 156 171 166
3.88 -6.94 -1.03 159 174 169
3.88 -7.03 -1.03 161 176 171
3.88 -7.13 -1.03 160 175 170
3.88 -7.23 -1.03 159 174 169
3.88 -7.33 -1.03 159 174 169
3.88 -7.43 -1.03 159 174 169
3.88 -7.52 -1.03 159 174 169
3.88 -7.62 -1.03 164 179 174
3.88 -7.72 -1.03 171 186 181
3.88 -7.82 -1.03 176 191 186
3.88 -7.92 -1.03 177 192 187
3.88 -8.01 -1.03 177 192 187
3.88 -8.11 -1.03 177 192 187
3.88 -8.21 -1.03 179 191 187
3.88 -8.31 -1.03 178 190 186
4.10 -8.41 -1.21 179 190 186
4.10 -8.51 -1.21 180 191 187
4.10 -8.61 -1.21 181 192 188
4.10 -8.71 -1.21 182 193 189
4.10 -8.81 -1.21 182 193 189
4.10 -8.90 -1.21 182 193 189
4.10 -9.00 -1.21 182 193 189
3.88 -9.09 -1.03 181 192 186
3.88 -9.19 -1.03 179 190 184
3.88 -9.29 -1.03 180 191 185
3.88 -9.39 -1.03 183 194 188
3.88 -9.49 -1.03 184 195 189
3.88 -9.58 -1.03 184 195 189
3.88 -9.68 -1.03 184 195 189
3.88 -9.78 -1.03 186 195 192
3.88 -9.88 -1.03 185 194 191
3.88 -9.98 -1.03 185 194 191
3.88 -10.07 -1.03 186 195 192
3.88 -10.17 -1.03 187 196 193
3.88 -10.27 -1.03 188 197 194
3.88 -10.37 -1.03 187 196 193
3.88 -10.47 -1.03 186 195 192
3.88 -10.56 -1.03 186 195 192
3.88 -10.66 -1.03 187 196 193
3.88 -10.76 -1.03 188 197 194
3.88 -10.86 -1.03 187 196 193
3.88 -10.96 -1.03 186 195 192
3.88 -11.05 -1.03 186 195 192
3.88 -11.15 -1.03 188 197 194
3.88 -11.25 -1.03 189 198 195
3.88 -11.35 -1.03 189 198 195
3.88 -11.45 -1.03 187 196 193
3.88 -11.55 -1.03 190 199 196
3.88 -11.64 -1.03 190 199 196
3.88 -11.74 -1.03 188 197 194
3.88 -11.84 -1.03 188 197 194
3.88 -11.94 -1.03 189 198 195
3.88 -12.04 -1.03 190 199 196
3.88 -12.13 -1.03 190 199 196
3.88 -12.23 -1.03 189 198 195
3.88 -12.33 -1.03 188 197 194
3.88 -12.43 -1.03 187 196 193
3.88 -12.53 -1.03 188 197 194
3.88 -12.62 -1.03 188 197 194
3.88 -12.72 -1.03 189 198 195
3.88 -12.82 -1.03 190 199 196
3.88 -12.92 -1.03 189 198 195
3.88 -13.02 -1.03 189 198 195
3.88 -13.11 -1.03 188 197 194
3.88 -13.21 -1.03 188 197 194
3.88 -13.31 -1.03 189 198 195
3.88 -13.41 -1.03 190 199 196
3.88 -13.51 -1.03 191 200 197
3.88 -13.60 -1.03 188 197 194
3.88 -13.70 -1.03 189 198 195
3.88 -13.80 -1.03 189 198 195
3.88 -13.90 -1.03 192 201 198
3.88 -14.00 -1.03 192 201 198
3.69 -14.07 -0.86 193 202 199
3.88 -14.19 -1.03 194 203 200
3.88 -14.29 -1.03 192 201 198
3.88 -14.39 -1.03 193 202 199
3.88 -14.49 -1.03 194 203 200
3.88 -14.59 -1.03 195 204 201
3.88 -14.68 -1.03 196 205 202
3.69 -14.75 -0.86 197 206 203
3.69 -14.85 -0.86 199 208 205
3.69 -14.95 -0.86 200 209 206
3.69 -15.04 -0.86 197 206 203
3.69 -15.14 -0.86 198 207 204
3.69 -15.24 -0.86 200 209 206
3.88 -15.37 -1.03 200 209 206
3.88 -15.47 -1.03 201 210 207
3.88 -15.57 -1.03 201 210 207
3.69 -15.63 -0.86 202 211 208
3.69 -15.73 -0.86 202 211 208
3.69 -15.82 -0.86 205 211 209
3.69 -15.92 -0.86 205 211 209
3.69 -16.02 -0.86 206 212 210
3.69 -16.12 -0.86 206 212 210
3.69 -16.21 -0.86 209 215 213
3.69 -16.31 -0.86 211 217 215
3.69 -16.41 -0.86 212 218 216
3.69 -16.51 -0.86 211 217 215
3.69 -16.61 -0.86 211 217 215
3.69 -16.70 -0.86 214 218 217
3.69 -16.80 -0.86 215 219 218
3.69 -16.90 -0.86 215 219 218
3.69 -17.00 -0.86 216 220 219
3.69 -17.09 -0.86 217 221 220
3.69 -17.19 -0.86 218 222 221
3.69 -17.29 -0.86 220 226 224
3.69 -17.39 -0.86 220 226 224
3.69 -17.48 -0.86 220 226 224
3.69 -17.58 -0.86 220 226 224
3.69 -17.68 -0.86 222 228 226
3.69 -17.78 -0.86 223 229 227
3.69 -17.87 -0.86 224 230 228
3.69 -17.97 -0.86 225 231 229
3.69 -18.07 -0.86 224 230 228
3.69 -18.17 -0.86 226 232 230
3.69 -18.27 -0.86 229 235 233
3.69 -18.36 -0.86 231 237 235
3.69 -18.46 -0.86 232 238 236
3.69 -18.56 -0.86 235 241 239
3.69 -18.66 -0.86 236 242 240
3.69 -18.75 -0.86 236 240 239
3.69 -18.85 -0.86 235 239 238
3.69 -18.95 -0.86 235 239 238
3.69 -19.05 -0.86 237 241 240
3.69 -19.14 -0.86 239 243 242
3.69 -19.24 -0.86 240 244 243
3.69 -19.34 -0.86 240 244 243
3.48 -19.38 -0.68 239 243 242
3.48 -19.47 -0.68 240 244 243
3.69 -19.63 -0.86 240 244 243
3.69 -19.73 -0.86 240 244 243
3.69 -19.83 -0.86 240 244 243
3.69 -19.93 -0.86 240 244 243
3.69 -20.02 -0.86 240 244 243
3.48 -20.06 -0.68 241 245 244
3.48 -20.15 -0.68 241 245 244
3.48 -20.25 -0.68 240 244 243
3.48 -20.35 -0.68 240 244 243
3.48 -20.45 -0.68 241 245 244
3.48 -20.54 -0.68 243 247 246
3.48 -20.64 -0.68 244 248 247
3.48 -20.74 -0.68 244 248 247
3.48 -20.83 -0.68 241 245 244
3.48 -20.93 -0.68 245 249 248
3.48 -21.03 -0.68 245 249 248
3.48 -21.13 -0.68 245 249 248
3.48 -21.22 -0.68 245 249 248
3.48 -21.32 -0.68 245 249 248
3.48 -21.42 -0.68 246 250 249
3.48 -21.52 -0.68 247 251 250
3.69 -21.68 -0.86 248 252 251
3.69 -21.78 -0.86 247 252 248
3.69 -21.88 -0.86 247 252 248
3.69 -21.98 -0.86 248 253 249
3.69 -22.07 -0.86 247 252 248
3.69 -22.17 -0.86 246 250 249
3.69 -22.27 -0.86 246 250 249
3.48 -22.29 -0.68 248 252 251
3.48 -22.39 -0.68 249 253 252
3.48 -22.49 -0.68 248 250 249
3.48 -22.58 -0.68 248 250 249
3.48 -22.68 -0.68 249 250 252
3.48 -22.78 -0.68 250 251 253
3.48 -22.88 -0.68 247 248 250
3.48 -22.97 -0.68 245 246 248
3.48 -23.07 -0.68 245 245 247
3.48 -23.17 -0.68 246 246 244
3.48 -23.26 -0.68 248 248 246
3.48 -23.36 -0.68 248 248 246
3.48 -23.46 -0.68 248 248 246
3.83 19.06 -1.11 151 150 145
3.83 18.96 -1.11 142 139 134
4.05 18.99 -1.30 137 132 126
4.05 18.89 -1.30 140 133 125
4.05 18.79 -1.30 142 135 127
4.05 18.69 -1.30 142 135 127
4.05 18.59 -1.30 139 136 127
4.26 18.62 -1.48 139 136 127
4.26 18.52 -1.48 137 137 127
4.26 18.43 -1.48 137 137 127
4.26 18.33 -1.48 140 140 132
4.26 18.23 -1.48 139 139 131
4.26 18.13 -1.48 138 137 132
4.26 18.03 -1.48 139 138 133
4.26 17.93 -1.48 141 140 136
4.26 17.83 -1.48 141 140 136
4.26 17.73 -1.48 141 140 138
4.26 17.63 -1.48 140 139 137
4.26 17.53 -1.48 147 146 141
4.26 17.44 -1.48 144 143 138
4.26 17.34 -1.48 142 141 136
4.26 17.24 -1.48 142 141 136
4.26 16.74 -1.48 148 141 135
4.26 16.64 -1.48 146 141 137
4.26 16.54 -1.48 147 142 138
4.26 16.44 -1.48 148 143 140
4.26 16.35 -1.48 149 144 141
4.26 16.25 -1.48 147 141 141
4.26 16.15 -1.48 146 140 140
4.26 16.05 -1.48 144 142 143
4.26 15.95 -1.48 144 142 143
4.26 15.85 -1.48 144 143 141
4.26 15.75 -1.48 145 144 142
4.26 15.65 -1.48 146 145 141
4.26 15.55 -1.48 146 145 141
4.05 15.34 -1.30 145 145 137
4.05 15.24 -1.30 144 144 136
4.05 15.15 -1.30 151 148 141
4.05 15.05 -1.30 151 148 141
4.05 14.95 -1.30 150 147 142
4.05 14.85 -1.30 150 146 143
4.05 14.75 -1.30 150 146 143
4.05 14.65 -1.30 150 146 145
4.05 14.55 -1.30 150 146 147
4.05 14.46 -1.30 151 147 144
4.05 14.36 -1.30 151 147 144
4.05 14.26 -1.30 149 148 146
4.26 14.27 -1.48 150 149 147
4.26 14.17 -1.48 150 149 147
4.05 13.96 -1.30 150 149 147
4.05 13.86 -1.30 147 147 145
4.05 13.77 -1.30 146 146 144
4.05 13.67 -1.30 144 145 140
4.05 13.57 -1.30 146 147 142
4.05 13.47 -1.30 147 149 144
4.05 13.37 -1.30 149 151 146
4.05 13.27 -1.30 148 150 145
4.05 13.17 -1.30 148 150 145
4.05 13.08 -1.30 146 151 144
4.05 12.98 -1.30 147 152 145
4.05 12.88 -1.30 147 150 141
4.05 12.78 -1.30 147 150 141
4.05 12.68 -1.30 149 150 142
4.05 12.58 -1.30 149 150 142
4.05 12.48 -1.30 151 151 143
4.05 12.39 -1.30 152 152 144
4.05 12.29 -1.30 154 151 144
4.05 12.19 -1.30 154 151 142
4.05 12.09 -1.30 154 151 142
4.05 11.99 -1.30 154 151 142
4.05 11.89 -1.30 154 151 142
4.05 11.79 -1.30 152 152 142
4.05 11.70 -1.30 152 152 142
4.05 11.60 -1.30 153 153 143
4.26 11.59 -1.48 153 153 143
4.26 11.49 -1.48 153 153 145
4.26 11.39 -1.48 152 151 146
4.05 11.20 -1.30 150 149 144
4.05 11.10 -1.30 150 149 145
4.05 11.01 -1.30 152 151 149
4.05 10.91 -1.30 153 152 150
4.05 10.81 -1.30 152 151 149
4.05 10.71 -1.30 150 149 147
4.05 10.61 -1.30 149 150 144
4.05 10.51 -1.30 150 151 145
4.05 10.41 -1.30 150 151 143
4.05 10.32 -1.30 151 152 144
4.05 10.22 -1.30 151 152 146
4.05 10.12 -1.30 152 153 148
4.05 10.02 -1.30 152 153 148
4.05 9.92 -1.30 153 152 150
4.05 9.82 -1.30 150 148 149
-0.21 8.06 2.38 149 149 147
-0.21 7.97 2.38 144 149 145
-0.21 7.88 2.38 141 150 147
-0.21 7.79 2.38 142 154 152
-0.21 7.70 2.38 139 158 156
-0.21 7.62 2.38 137 158 159
-0.40 7.46 2.54 135 160 164
-0.40 7.37 2.54 133 161 165
-0.40 7.28 2.54 134 165 170
-0.21 7.26 2.38 136 167 172
-0.40 7.10 2.54 135 166 169
-0.40 7.01 2.54 136 167 170
-0.40 6.92 2.54 136 167 169
-0.40 6.84 2.54 136 161 158
-0.40 6.75 2.54 149 163 150
-0.40 6.66 2.54 174 181 163
-0.40 6.57 2.54 186 196 171
-0.21 6.55 2.38 160 171 141
-0.21 6.46 2.38 102 116 80
-0.21 6.37 2.38 117 132 93
0.11 6.39 2.10 122 137 98
0.27 6.36 1.96 132 146 110
0.46 6.33 1.80 115 129 94
0.46 6.24 1.80 114 131 99
0.62 6.21 1.66 111 130 98
0.81 6.18 1.50 101 127 88
0.81 6.09 1.50 83 114 73
0.97 6.05 1.36 80 116 70
0.97 5.96 1.36 75 114 69
0.97 5.87 1.36 97 139 93
0.97 5.77 1.36 124 156 115
0.97 5.68 1.36 142 158 119
1.16 5.65 1.19 132 132 96
1.16 5.56 1.19 104 96 59
1.16 5.47 1.19 102 73 39
1.16 5.37 1.19 124 71 39
1.16 5.28 1.19 136 62 33
1.16 5.19 1.19 146 61 32
0.97 5.04 1.36 150 59 28
0.81 4.90 1.50 146 60 25
0.62 4.75 1.66 149 59 24
0.27 4.56 1.96 156 56 22
0.27 4.47 1.96 157 57 23
0.27 4.38 1.96 151 62 22
0.11 4.24 2.10 149 64 25
0.11 4.15 2.10 142 58 22
-0.05 4.01 2.24 149 60 28
-0.05 3.92 2.24 154 59 29
-0.05 3.84 2.24 145 44 14
0.11 3.79 2.10 141 42 11
0.27 3.75 1.96 142 47 17
0.27 3.66 1.96 146 52 24
-3.88 2.11 5.55 95 47 25
-3.88 2.03 5.55 106 80 55
-3.88 1.95 5.55 99 95 66
-3.88 1.87 5.55 91 102 70
-3.88 1.78 5.55 77 96 64
-3.88 1.70 5.55 98 115 79
-3.88 1.62 5.55 125 140 99
-3.88 1.54 5.55 103 110 66
-3.75 1.49 5.43 116 120 70
-3.75 1.41 5.43 147 146 98
-3.75 1.33 5.43 145 147 100
-3.75 1.25 5.43 143 148 108
-3.75 1.17 5.43 118 129 99
-3.75 1.09 5.43 112 129 110
-3.75 1.01 5.43 112 138 127
-3.75 0.93 5.43 122 153 148
-3.75 0.85 5.43 123 161 162
-3.75 0.77 5.43 122 163 165
-3.75 0.68 5.43 126 167 169
-3.75 0.60 5.43 131 171 173
-3.75 0.52 5.43 131 166 170
-3.61 0.47 5.31 128 159 164
-3.61 0.39 5.31 132 152 159
-3.61 0.31 5.31 143 154 158
-3.61 0.23 5.31 159 159 161
-3.61 0.14 5.31 169 160 155
-3.45 0.10 5.17 175 157 147
-3.45 0.02 5.17 183 162 143
-3.45 -0.07 5.17 192 167 145
-3.45 -0.15 5.17 186 166 141
-3.45 -0.23 5.17 191 175 152
-3.45 -0.31 5.17 186 174 158
-3.32 -0.37 5.06 182 175 165
-3.32 -0.45 5.06 172 173 168
-3.32 -0.53 5.06 128 133 136
-3.32 -0.61 5.06 118 135 143
-3.18 -0.67 4.94 121 141 148
-3.18 -0.75 4.94 128 153 149
-3.18 -0.84 4.94 136 163 154
-3.18 -0.92 4.94 140 170 158
-3.18 -1.00 4.94 151 181 183
-3.18 -1.08 4.94 157 186 194
-3.18 -1.16 4.94 157 184 195
-3.18 -1.25 4.94 176 204 215
-3.18 -1.33 4.94 162 197 201
-3.18 -1.41 4.94 171 211 211
-3.18 -1.49 4.94 179 221 220
-3.18 -1.58 4.94 168 209 213
-3.18 -1.66 4.94 177 214 223
-3.18 -1.74 4.94 171 209 220
-3.05 -1.80 4.82 172 221 225
-3.05 -1.89 4.82 157 205 207
-3.05 -1.97 4.82 124 164 166
-2.88 -2.03 4.68 137 166 172
1.89 -1.61 0.56 167 191 195
1.89 -1.71 0.56 175 200 204
1.89 -1.80 0.56 169 197 200
1.89 -1.90 0.56 179 213 214
1.89 -1.99 0.56 178 218 218
1.89 -2.08 0.56 171 215 214
1.89 -2.18 0.56 176 224 224
1.89 -2.27 0.56 174 220 220
1.89 -2.36 0.56 176 215 220
1.89 -2.46 0.56 179 220 224
1.89 -2.55 0.56 182 223 227
1.89 -2.64 0.56 185 226 230
1.70 -2.76 0.73 184 225 229
1.70 -2.85 0.73 182 223 227
1.70 -2.95 0.73 180 221 225
1.70 -3.04 0.73 181 222 226
1.70 -3.13 0.73 183 224 228
1.70 -3.23 0.73 178 222 225
1.70 -3.32 0.73 177 221 224
1.70 -3.41 0.73 174 219 222
1.70 -3.51 0.73 170 215 218
1.70 -3.60 0.73 164 214 215
1.70 -3.69 0.73 163 213 214
1.70 -3.79 0.73 161 212 213
1.70 -3.88 0.73 162 213 216
1.70 -3.97 0.73 161 210 214
1.70 -4.07 0.73 159 208 213
1.70 -4.16 0.73 157 208 212
1.70 -4.25 0.73 157 208 212
1.70 -4.35 0.73 153 208 213
1.70 -4.44 0.73 150 205 210
1.70 -4.53 0.73 143 200 207
1.70 -4.63 0.73 133 194 199
1.70 -4.72 0.73 132 193 198
1.70 -4.81 0.73 129 189 197
1.70 -4.91 0.73 125 185 193
1.51 -5.01 0.89 115 178 187
1.51 -5.10 0.89 113 176 185
1.51 -5.20 0.89 111 174 183
1.51 -5.29 0.89 94 154 162
-0.21 -5.82 2.38 233 244 246
-0.21 -5.91 2.38 234 246 246
-0.21 -6.00 2.38 228 245 239
-0.40 -6.09 2.54 232 249 243
-0.21 -6.36 2.38 247 252 255
-0.21 -6.44 2.38 249 255 255
3.83 -6.84 -1.11 157 173 172
3.83 -6.94 -1.11 158 174 173
3.83 -7.03 -1.11 159 175 174
3.83 -7.13 -1.11 160 175 172
3.83 -7.23 -1.11 161 176 173
3.83 -7.33 -1.11 160 175 170
3.83 -7.43 -1.11 159 174 169
3.83 -7.52 -1.11 163 176 169
3.83 -7.62 -1.11 166 179 172
3.83 -7.72 -1.11 165 177 173
3.83 -7.82 -1.11 167 179 175
3.83 -7.92 -1.11 177 187 186
3.83 -8.01 -1.11 181 191 190
3.83 -8.11 -1.11 180 190 189
3.83 -8.21 -1.11 180 190 189
3.83 -8.31 -1.11 178 189 185
3.83 -8.41 -1.11 180 191 187
3.83 -8.50 -1.11 179 191 187
3.83 -8.60 -1.11 178 190 186
3.83 -8.70 -1.11 176 191 184
3.83 -8.80 -1.11 179 194 187
3.83 -8.90 -1.11 179 195 185
3.83 -9.00 -1.11 178 194 184
3.83 -9.09 -1.11 178 194 184
3.83 -9.19 -1.11 182 195 188
3.83 -9.29 -1.11 183 196 189
3.83 -9.39 -1.11 184 195 191
3.64 -9.48 -0.95 184 195 191
3.64 -9.57 -0.95 185 194 191
3.64 -9.67 -0.95 184 193 188
3.64 -9.77 -0.95 184 194 186
3.64 -9.87 -0.95 184 194 185
3.64 -9.96 -0.95 184 194 186
3.64 -10.06 -0.95 185 195 187
3.64 -10.16 -0.95 185 195 187
3.64 -10.26 -0.95 187 197 189
3.64 -10.36 -0.95 188 197 192
3.64 -10.45 -0.95 188 197 192
3.64 -10.55 -0.95 190 199 194
3.64 -10.65 -0.95 190 199 194
3.64 -10.75 -0.95 190 199 196
3.83 -10.86 -1.11 189 198 195
3.83 -10.96 -1.11 188 197 196
3.83 -11.05 -1.11 187 196 195
3.64 -11.14 -0.95 187 196 195
3.64 -11.23 -0.95 188 197 196
3.64 -11.33 -0.95 187 196 191
3.64 -11.43 -0.95 188 197 192
3.64 -11.53 -0.95 188 197 194
3.64 -11.62 -0.95 188 197 196
3.64 -11.72 -0.95 188 197 196
3.64 -11.82 -0.95 188 197 196
3.64 -11.92 -0.95 188 197 196
3.64 -12.02 -0.95 188 197 196
3.64 -12.11 -0.95 188 197 196
3.64 -12.21 -0.95 188 197 196
3.64 -12.31 -0.95 188 197 196
3.64 -12.41 -0.95 189 198 195
3.64 -12.50 -0.95 190 199 196
3.64 -12.60 -0.95 191 200 195
3.64 -12.70 -0.95 192 201 196
3.64 -12.80 -0.95 192 201 198
3.64 -12.89 -0.95 189 198 195
3.64 -12.99 -0.95 188 197 194
3.64 -13.09 -0.95 189 198 195
3.83 -13.21 -1.11 189 198 195
3.83 -13.31 -1.11 188 197 194
3.64 -13.38 -0.95 189 198 195
3.64 -13.48 -0.95 191 200 197
3.64 -13.58 -0.95 190 199 196
3.64 -13.68 -0.95 191 200 197
3.64 -13.77 -0.95 192 201 198
3.64 -13.87 -0.95 192 201 198
3.64 -13.97 -0.95 192 201 198
3.64 -14.07 -0.95 191 200 197
3.64 -14.16 -0.95 191 200 197
3.64 -14.26 -0.95 193 202 199
3.64 -14.36 -0.95 193 202 199
3.64 -14.46 -0.95 194 203 200
3.64 -14.55 -0.95 195 204 201
3.64 -14.65 -0.95 195 204 201
3.64 -14.75 -0.95 194 203 200
3.64 -14.85 -0.95 196 205 202
3.64 -14.95 -0.95 199 208 205
3.64 -15.04 -0.95 200 209 206
3.64 -15.14 -0.95 200 209 206
3.64 -15.24 -0.95 200 209 206
3.64 -15.34 -0.95 201 210 207
3.64 -15.43 -0.95 202 211 208
3.64 -15.53 -0.95 201 210 207
3.64 -15.63 -0.95 200 209 206
3.64 -15.73 -0.95 199 208 205
3.64 -15.82 -0.95 204 215 211
3.64 -15.92 -0.95 202 213 209
3.64 -16.02 -0.95 203 214 210
3.64 -16.12 -0.95 205 216 212
3.64 -16.21 -0.95 206 215 212
3.43 -16.27 -0.76 206 215 212
3.43 -16.37 -0.76 209 218 215
3.43 -16.46 -0.76 209 215 213
3.43 -16.56 -0.76 211 217 215
3.43 -16.66 -0.76 212 218 216
3.43 -16.75 -0.76 212 218 216
3.43 -16.85 -0.76 215 219 218
3.43 -16.95 -0.76 218 222 221
3.43 -17.05 -0.76 219 223 222
3.43 -17.14 -0.76 217 221 220
3.43 -17.24 -0.76 217 223 221
3.43 -17.34 -0.76 220 226 224
3.43 -17.43 -0.76 222 228 226
3.43 -17.53 -0.76 222 228 226
3.64 -17.68 -0.95 223 229 227
3.64 -17.78 -0.95 225 231 229
3.64 -17.87 -0.95 226 232 230
3.64 -17.97 -0.95 226 232 230
3.64 -18.07 -0.95 227 233 231
3.64 -18.17 -0.95 228 234 232
3.64 -18.27 -0.95 229 235 233
3.64 -18.36 -0.95 229 235 233
3.64 -18.46 -0.95 229 235 233
3.64 -18.56 -0.95 229 235 233
3.64 -18.66 -0.95 228 234 232
3.64 -18.75 -0.95 234 240 238
3.64 -18.85 -0.95 235 241 239
3.64 -18.95 -0.95 236 242 240
3.43 -18.99 -0.76 237 243 241
3.43 -19.09 -0.76 239 245 243
3.43 -19.18 -0.76 239 245 243
3.43 -19.28 -0.76 239 245 243
3.43 -19.38 -0.76 239 245 243
3.43 -19.47 -0.76 237 243 241
3.43 -19.57 -0.76 238 244 242
3.43 -19.67 -0.76 239 245 243
3.43 -19.77 -0.76 240 246 244
3.43 -19.86 -0.76 240 246 244
3.43 -19.96 -0.76 240 246 244
3.43 -20.06 -0.76 241 247 245
3.43 -20.15 -0.76 241 247 245
3.43 -20.25 -0.76 239 248 245
3.43 -20.35 -0.76 239 248 245
3.43 -20.45 -0.76 242 248 246
3.43 -20.54 -0.76 242 248 246
3.43 -20.64 -0.76 244 248 247
3.43 -20.74 -0.76 244 248 247
3.43 -20.83 -0.76 246 248 247
3.43 -20.93 -0.76 247 249 248
3.43 -21.03 -0.76 247 249 248
3.43 -21.13 -0.76 247 249 248
3.43 -21.22 -0.76 246 248 247
3.43 -21.32 -0.76 246 248 247
3.43 -21.42 -0.76 246 248 247
3.43 -21.52 -0.76 244 248 247
3.43 -21.61 -0.76 245 249 248
3.43 -21.71 -0.76 245 254 251
3.43 -21.81 -0.76 244 253 250
3.43 -21.90 -0.76 246 252 250
3.64 -22.07 -0.95 246 252 250
3.64 -22.17 -0.95 248 252 251
3.43 -22.20 -0.76 249 253 252
3.43 -22.29 -0.76 250 252 251
3.43 -22.39 -0.76 248 250 249
3.43 -22.49 -0.76 251 251 251
3.43 -22.58 -0.76 251 251 251
3.43 -22.68 -0.76 250 252 251
3.43 -22.78 -0.76 249 251 250
3.43 -22.88 -0.76 249 251 250
3.43 -22.97 -0.76 248 250 249
3.43 -23.07 -0.76 246 250 249
3.43 -23.17 -0.76 249 251 250
3.43 -23.26 -0.76 251 251 251
3.24 -23.29 -0.60 252 252 252
3.24 -23.39 -0.60 251 251 251
3.24 -23.49 -0.60 250 250 250
3.24 -23.58 -0.60 250 250 250
3.24 -23.68 -0.60 251 251 251
3.24 -23.78 -0.60 252 252 252
3.05 -23.80 -0.44 251 251 251
3.05 -23.90 -0.44 251 251 251
3.78 19.06 -1.20 138 135 126
3.78 18.96 -1.20 139 134 128
3.78 18.86 -1.20 136 131 125
4.00 18.89 -1.38 140 133 127
4.00 18.79 -1.38 140 135 129
4.00 18.69 -1.38 142 137 131
4.00 18.59 -1.38 141 138 129
4.00 18.50 -1.38 141 138 129
4.00 18.40 -1.38 139 139 129
4.00 18.30 -1.38 139 139 129
4.00 18.20 -1.38 140 140 132
4.00 18.10 -1.38 139 139 131
4.00 18.00 -1.38 139 138 133
4.00 17.90 -1.38 139 138 133
4.00 17.81 -1.38 140 139 135
4.00 17.71 -1.38 140 139 135
4.00 17.61 -1.38 139 138 136
4.00 17.51 -1.38 138 137 135
4.21 17.53 -1.57 141 140 135
4.21 17.44 -1.57 139 138 133
4.21 17.34 -1.57 139 139 131
4.21 17.24 -1.57 141 141 133
4.21 16.74 -1.57 147 142 136
4.21 16.64 -1.57 147 142 136
4.21 16.54 -1.57 147 142 136
4.21 16.44 -1.57 148 143 139
4.21 16.35 -1.57 148 143 139
4.21 16.25 -1.57 146 141 138
4.21 16.15 -1.57 145 140 137
4.21 16.05 -1.57 142 141 139
4.21 15.95 -1.57 142 141 139
4.21 15.85 -1.57 143 142 138
4.21 15.75 -1.57 143 142 138
4.21 15.65 -1.57 143 142 137
4.21 15.55 -1.57 144 143 138
4.00 15.34 -1.38 147 144 137
4.00 15.24 -1.38 147 144 137
4.00 15.15 -1.38 148 145 138
4.00 15.05 -1.38 149 146 139
4.00 14.95 -1.38 150 147 142
4.00 14.85 -1.38 150 146 143
4.00 14.75 -1.38 151 147 144
4.00 14.65 -1.38 150 146 145
4.00 14.55 -1.38 149 145 146
4.00 14.46 -1.38 149 145 144
4.00 14.36 -1.38 149 145 144
4.00 14.26 -1.38 147 146 144
4.00 14.16 -1.38 148 147 145
4.00 14.06 -1.38 149 148 146
4.00 13.96 -1.38 150 149 147
4.00 13.86 -1.38 148 149 144
3.78 13.66 -1.20 148 149 144
3.78 13.56 -1.20 146 147 142
3.78 13.46 -1.20 148 149 144
3.78 13.37 -1.20 149 151 146
3.78 13.27 -1.20 149 151 146
3.78 13.17 -1.20 149 152 145
3.78 13.07 -1.20 148 151 144
3.78 12.97 -1.20 147 150 143
3.78 12.88 -1.20 148 151 144
4.00 12.88 -1.38 149 152 143
4.00 12.78 -1.38 149 152 143
4.00 12.68 -1.38 149 152 143
4.00 12.58 -1.38 149 152 143
4.00 12.48 -1.38 150 151 143
4.00 12.39 -1.38 150 151 143
4.00 12.29 -1.38 151 151 143
4.00 12.19 -1.38 154 151 142
4.00 12.09 -1.38 154 151 142
4.00 11.99 -1.38 152 152 142
4.00 11.89 -1.38 152 152 142
4.00 11.79 -1.38 152 152 142
4.00 11.70 -1.38 153 153 143
4.00 11.60 -1.38 152 154 143
4.00 11.50 -1.38 152 154 143
4.00 11.40 -1.38 154 154 146
4.00 11.30 -1.38 152 152 144
4.00 11.20 -1.38 151 150 145
4.00 11.10 -1.38 151 150 146
4.00 11.01 -1.38 152 151 147
4.00 10.91 -1.38 153 152 150
4.00 10.81 -1.38 152 151 147
3.78 10.62 -1.20 151 150 146
3.78 10.52 -1.20 150 151 145
3.78 10.42 -1.20 150 151 145
4.00 10.41 -1.38 151 152 144
4.00 10.32 -1.38 152 153 145
3.78 10.13 -1.20 152 153 147
3.78 10.03 -1.20 152 153 148
3.78 9.93 -1.20 151 152 147
3.78 9.84 -1.20 152 151 149
3.78 9.74 -1.20 154 150 151
-0.26 8.06 2.30 151 149 150
-0.26 7.97 2.30 147 149 148
-0.45 7.81 2.47 142 151 150
-0.45 7.72 2.47 143 155 155
-0.45 7.63 2.47 139 159 158
-0.45 7.54 2.47 136 160 162
-0.45 7.46 2.47 134 159 163
-0.45 7.37 2.47 137 164 171
-0.45 7.28 2.47 138 169 174
-0.45 7.19 2.47 138 168 176
-0.45 7.10 2.47 135 169 171
-0.45 7.01 2.47 133 167 169
-0.45 6.92 2.47 134 166 165
-0.45 6.84 2.47 139 164 158
-0.45 6.75 2.47 158 169 153
-0.45 6.66 2.47 187 192 169
-0.45 6.57 2.47 187 196 167
-0.45 6.48 2.47 136 147 113
-0.26 6.46 2.30 106 122 85
-0.26 6.37 2.30 112 128 89
0.07 6.39 2.02 106 124 84
0.23 6.36 1.88 128 146 108
0.42 6.33 1.72 117 133 96
0.42 6.24 1.72 108 128 93
0.58 6.21 1.58 108 130 92
0.77 6.18 1.42 103 128 88
0.77 6.09 1.42 87 114 69
0.93 6.05 1.28 85 117 68
0.93 5.96 1.28 86 118 69
0.93 5.87 1.28 85 121 73
0.93 5.77 1.28 106 131 89
0.93 5.68 1.28 126 134 93
0.93 5.59 1.28 119 109 73
0.93 5.50 1.28 106 77 43
1.12 5.47 1.11 114 68 35
1.12 5.37 1.11 132 67 37
0.93 5.22 1.28 143 64 34
0.93 5.13 1.28 147 57 30
0.58 4.93 1.58 149 55 27
0.42 4.79 1.72 146 56 22
0.23 4.65 1.88 148 55 22
0.23 4.56 1.88 152 53 21
0.23 4.47 1.88 153 53 21
0.07 4.33 2.02 152 55 20
0.07 4.24 2.02 151 57 23
-0.10 4.10 2.16 148 58 24
-0.10 4.01 2.16 147 56 25
-0.10 3.92 2.16 148 55 24
-0.10 3.84 2.16 149 51 22
-0.10 3.75 2.16 148 48 22
0.07 3.70 2.02 146 48 21
0.23 3.66 1.88 142 46 22
-3.92 2.11 5.48 91 55 33
-3.92 2.03 5.48 97 81 56
-3.92 1.95 5.48 89 92 63
-3.92 1.87 5.48 79 94 63
-3.92 1.78 5.48 73 92 60
-3.92 1.70 5.48 88 105 69
-3.79 1.66 5.36 109 124 83
-3.92 1.54 5.48 100 109 64
-3.79 1.49 5.36 135 138 91
-3.79 1.41 5.36 142 144 97
-3.79 1.33 5.36 144 150 106
-3.79 1.25 5.36 142 150 113
-3.79 1.17 5.36 113 127 101
-3.79 1.09 5.36 109 130 113
-3.79 1.01 5.36 114 141 134
-3.79 0.93 5.36 124 156 155
-3.79 0.85 5.36 122 163 167
-3.79 0.77 5.36 121 164 170
-3.79 0.68 5.36 127 168 174
-3.79 0.60 5.36 135 176 178
-3.79 0.52 5.36 136 174 177
-3.65 0.47 5.24 138 168 176
-3.65 0.39 5.24 138 161 169
-3.65 0.31 5.24 136 150 159
-3.65 0.23 5.24 140 143 150
-3.65 0.14 5.24 153 147 147
-3.49 0.10 5.10 168 153 148
-3.49 0.02 5.10 177 157 146
-3.49 -0.07 5.10 185 162 148
-3.49 -0.15 5.10 182 161 142
-3.49 -0.23 5.10 188 171 155
-3.36 -0.29 4.99 183 171 157
-3.36 -0.37 4.99 181 174 166
-3.36 -0.45 4.99 179 178 174
-3.36 -0.53 4.99 145 149 152
-3.22 -0.59 4.87 127 142 149
-3.22 -0.67 4.87 123 143 150
-3.22 -0.75 4.87 126 152 151
-3.22 -0.84 4.87 131 162 157
-3.22 -0.92 4.87 135 167 162
-3.22 -1.00 4.87 136 174 175
-3.22 -1.08 4.87 140 179 184
-3.22 -1.16 4.87 146 189 195
-3.22 -1.25 4.87 138 187 192
-3.22 -1.33 4.87 158 214 215
-3.22 -1.41 4.87 144 204 204
-3.22 -1.49 4.87 139 199 197
-3.22 -1.58 4.87 162 218 219
-3.22 -1.66 4.87 164 212 216
-3.22 -1.74 4.87 169 210 214
-3.09 -1.80 4.75 179 215 215
-3.09 -1.89 4.75 182 214 211
-3.09 -1.97 4.75 163 189 188
-2.93 -2.03 4.61 146 170 170
1.84 -1.61 0.48 163 192 190
1.84 -1.71 0.48 157 189 188
1.84 -1.80 0.48 158 199 195
1.84 -1.90 0.48 173 217 216
1.84 -1.99 0.48 163 212 209
1.84 -2.08 0.48 161 211 212
1.84 -2.18 0.48 177 225 227
1.84 -2.27 0.48 177 222 228
1.84 -2.36 0.48 182 220 229
1.84 -2.46 0.48 176 219 225
1.65 -2.57 0.65 176 220 223
1.84 -2.64 0.48 177 221 224
1.65 -2.76 0.65 177 221 224
1.65 -2.85 0.65 176 220 223
1.65 -2.95 0.65 176 220 223
1.65 -3.04 0.65 177 221 224
1.65 -3.13 0.65 177 221 224
1.65 -3.23 0.65 178 222 225
1.65 -3.32 0.65 176 220 223
1.65 -3.41 0.65 173 218 221
1.65 -3.51 0.65 170 215 218
1.65 -3.60 0.65 164 214 215
1.65 -3.69 0.65 162 212 213
1.65 -3.79 0.65 160 211 212
1.65 -3.88 0.65 160 211 214
1.65 -3.97 0.65 155 206 209
1.65 -4.07 0.65 154 205 209
1.65 -4.16 0.65 154 205 209
1.65 -4.25 0.65 153 204 208
1.65 -4.35 0.65 148 203 208
1.65 -4.44 0.65 145 200 205
1.65 -4.53 0.65 140 198 202
1.65 -4.63 0.65 133 194 199
1.65 -4.72 0.65 132 193 198
1.65 -4.81 0.65 128 188 196
1.65 -4.91 0.65 125 185 193
1.65 -5.00 0.65 117 177 187
1.47 -5.10 0.81 114 174 184
1.47 -5.20 0.81 111 171 181
1.47 -5.29 0.81 91 150 158
-0.26 -5.82 2.30 230 244 245
-0.26 -5.91 2.30 231 245 245
-0.45 -6.01 2.47 226 245 239
-0.45 -6.09 2.47 229 248 242
-0.45 -6.36 2.47 246 254 255
-0.45 -6.45 2.47 245 255 255
3.78 -6.84 -1.20 155 171 170
3.78 -6.94 -1.20 156 172 171
3.78 -7.03 -1.20 158 174 173
3.78 -7.13 -1.20 160 175 172
3.78 -7.23 -1.20 161 176 173
3.78 -7.33 -1.20 161 176 171
3.78 -7.43 -1.20 160 175 170
3.78 -7.52 -1.20 161 173 169
3.78 -7.62 -1.20 164 176 172
3.78 -7.72 -1.20 163 175 171
3.59 -7.82 -1.03 165 177 173
3.59 -7.91 -1.03 175 186 182
3.59 -8.01 -1.03 180 191 187
3.59 -8.11 -1.03 179 189 188
3.59 -8.21 -1.03 180 190 189
3.59 -8.30 -1.03 178 189 185
3.59 -8.40 -1.03 180 191 187
3.78 -8.50 -1.20 179 191 187
3.78 -8.60 -1.20 178 190 186
3.78 -8.70 -1.20 179 192 185
3.78 -8.80 -1.20 181 194 187
3.78 -8.90 -1.20 179 195 185
3.78 -9.00 -1.20 178 194 184
3.78 -9.09 -1.20 180 193 184
3.59 -9.18 -1.03 182 195 188
3.59 -9.28 -1.03 183 196 189
3.59 -9.38 -1.03 184 195 191
3.59 -9.48 -1.03 184 195 191
3.59 -9.57 -1.03 185 194 191
3.59 -9.67 -1.03 184 193 190
3.59 -9.77 -1.03 184 194 186
3.59 -9.87 -1.03 184 194 186
3.59 -9.96 -1.03 184 194 186
3.59 -10.06 -1.03 185 195 187
3.59 -10.16 -1.03 185 195 187
3.59 -10.26 -1.03 186 196 188
3.59 -10.36 -1.03 187 196 191
3.59 -10.45 -1.03 187 196 191
3.59 -10.55 -1.03 184 193 188
3.59 -10.65 -1.03 185 194 189
3.59 -10.75 -1.03 186 195 192
3.59 -10.84 -1.03 186 195 192
3.59 -10.94 -1.03 186 195 192
3.59 -11.04 -1.03 186 195 192
3.59 -11.14 -1.03 187 196 195
3.59 -11.23 -1.03 188 197 196
3.59 -11.33 -1.03 187 196 191
3.59 -11.43 -1.03 187 196 191
3.59 -11.53 -1.03 187 196 193
3.59 -11.62 -1.03 187 196 193
3.59 -11.72 -1.03 188 197 194
3.59 -11.82 -1.03 189 198 197
3.59 -11.92 -1.03 190 199 198
3.59 -12.02 -1.03 189 198 197
3.59 -12.11 -1.03 189 198 197
3.38 -12.19 -0.85 188 197 194
3.38 -12.28 -0.85 188 197 194
3.38 -12.38 -0.85 188 197 194
3.38 -12.48 -0.85 189 198 195
3.38 -12.58 -0.85 190 199 194
3.38 -12.67 -0.85 190 199 194
3.38 -12.77 -0.85 190 199 196
3.38 -12.87 -0.85 188 197 194
3.38 -12.96 -0.85 188 197 194
3.38 -13.06 -0.85 189 198 195
3.59 -13.19 -1.03 190 199 196
3.59 -13.28 -1.03 189 198 195
3.59 -13.38 -1.03 190 199 196
3.59 -13.48 -1.03 192 201 198
3.59 -13.58 -1.03 191 200 197
3.59 -13.68 -1.03 191 200 197
3.59 -13.77 -1.03 192 201 198
3.38 -13.84 -0.85 193 202 199
3.38 -13.94 -0.85 192 201 198
3.38 -14.03 -0.85 192 201 198
3.38 -14.13 -0.85 192 201 198
3.38 -14.23 -0.85 193 202 199
3.38 -14.32 -0.85 192 201 198
3.38 -14.42 -0.85 193 202 199
3.38 -14.52 -0.85 195 204 201
3.38 -14.62 -0.85 195 204 201
3.38 -14.71 -0.85 194 203 200
3.38 -14.81 -0.85 196 205 202
3.38 -14.91 -0.85 199 208 205
3.38 -15.00 -0.85 198 207 204
3.38 -15.10 -0.85 198 207 204
3.38 -15.20 -0.85 199 208 205
3.38 -15.30 -0.85 200 209 206
3.59 -15.43 -1.03 201 210 207
3.59 -15.53 -1.03 201 210 207
3.59 -15.63 -1.03 201 210 207
3.38 -15.68 -0.85 200 209 206
3.38 -15.78 -0.85 204 215 211
3.38 -15.88 -0.85 202 213 209
3.38 -15.98 -0.85 203 214 210
3.38 -16.07 -0.85 205 216 212
3.38 -16.17 -0.85 206 215 212
3.38 -16.27 -0.85 207 216 213
3.38 -16.37 -0.85 209 218 215
3.38 -16.46 -0.85 212 218 216
3.38 -16.56 -0.85 213 219 217
3.38 -16.66 -0.85 213 219 217
3.38 -16.75 -0.85 213 219 217
3.38 -16.85 -0.85 215 219 218
3.38 -16.95 -0.85 218 222 221
3.38 -17.05 -0.85 219 223 222
3.38 -17.14 -0.85 218 222 221
3.38 -17.24 -0.85 218 224 222
3.38 -17.34 -0.85 220 226 224
3.38 -17.43 -0.85 221 227 225
3.38 -17.53 -0.85 221 227 225
3.38 -17.63 -0.85 222 228 226
3.38 -17.73 -0.85 225 231 229
3.38 -17.82 -0.85 227 233 231
3.38 -17.92 -0.85 227 233 231
3.38 -18.02 -0.85 226 232 230
3.38 -18.11 -0.85 228 234 232
3.38 -18.21 -0.85 229 235 233
3.38 -18.31 -0.85 229 235 233
3.38 -18.41 -0.85 231 237 235
3.38 -18.50 -0.85 233 239 237
3.38 -18.60 -0.85 232 238 236
3.38 -18.70 -0.85 233 239 237
3.38 -18.79 -0.85 233 239 237
3.38 -18.89 -0.85 233 239 237
3.38 -18.99 -0.85 234 240 238
3.38 -19.09 -0.85 235 241 239
3.38 -19.18 -0.85 236 242 240
3.38 -19.28 -0.85 237 243 241
3.38 -19.38 -0.85 237 243 241
3.38 -19.47 -0.85 238 244 242
3.38 -19.57 -0.85 239 245 243
3.38 -19.67 -0.85 241 247 245
3.38 -19.77 -0.85 242 248 246
3.38 -19.86 -0.85 242 248 246
3.38 -19.96 -0.85 242 248 246
3.38 -20.06 -0.85 242 248 246
3.38 -20.15 -0.85 242 248 246
3.38 -20.25 -0.85 244 250 248
3.38 -20.35 -0.85 244 250 248
3.38 -20.45 -0.85 244 250 248
3.38 -20.54 -0.85 244 250 248
3.38 -20.64 -0.85 245 249 248
3.38 -20.74 -0.85 244 248 247
3.38 -20.83 -0.85 246 248 247
3.38 -20.93 -0.85 245 247 246
3.38 -21.03 -0.85 245 247 246
3.38 -21.13 -0.85 245 247 246
3.38 -21.22 -0.85 245 247 246
3.38 -21.32 -0.85 246 248 247
3.38 -21.42 -0.85 246 248 247
3.38 -21.52 -0.85 244 248 247
3.38 -21.61 -0.85 244 248 247
3.38 -21.71 -0.85 245 251 249
3.38 -21.81 -0.85 244 250 248
3.38 -21.90 -0.85 245 249 248
3.38 -22.00 -0.85 246 250 249
3.38 -22.10 -0.85 250 252 251
3.38 -22.20 -0.85 251 253 252
3.38 -22.29 -0.85 251 251 251
3.38 -22.39 -0.85 251 251 251
3.38 -22.49 -0.85 250 250 250
3.38 -22.58 -0.85 250 250 250
3.38 -22.68 -0.85 251 251 251
3.19 -22.71 -0.68 251 251 251
3.19 -22.81 -0.68 249 251 250
3.19 -22.90 -0.68 249 251 250
3.19 -23.00 -0.68 249 251 250
3.19 -23.10 -0.68 250 250 250
3.19 -23.19 -0.68 251 251 251
3.19 -23.29 -0.68 252 252 252
3.00 -23.32 -0.52 251 251 251
3.00 -23.41 -0.52 251 251 251
3.00 -23.51 -0.52 250 250 250
3.00 -23.61 -0.52 251 251 251
3.00 -23.70 -0.52 252 252 252
3.00 -23.80 -0.52 250 250 250
3.00 -23.90 -0.52 250 250 250
3.73 19.64 -1.28 56 41 20
3.73 19.55 -1.28 46 35 15
3.73 19.45 -1.28 33 22 4
3.55 19.23 -1.12 63 56 37
3.55 19.14 -1.12 133 126 110
3.73 19.15 -1.28 141 137 125
3.73 19.06 -1.28 138 136 123
3.73 18.96 -1.28 139 135 126
3.73 18.86 -1.28 136 132 123
3.73 18.76 -1.28 139 132 126
3.73 18.66 -1.28 139 134 128
3.95 18.69 -1.47 141 136 130
3.95 18.59 -1.47 140 137 130
3.95 18.50 -1.47 139 136 129
3.95 18.40 -1.47 139 136 129
3.95 18.30 -1.47 139 136 129
3.95 18.20 -1.47 138 138 130
3.95 18.10 -1.47 138 138 130
3.95 18.00 -1.47 139 138 133
3.95 17.90 -1.47 139 138 133
3.95 17.81 -1.47 140 139 135
3.95 17.71 -1.47 140 139 135
3.95 17.61 -1.47 142 138 137
3.95 17.51 -1.47 141 137 136
3.95 17.41 -1.47 139 138 133
3.95 17.31 -1.47 139 138 133
3.95 17.21 -1.47 142 139 132
3.95 17.12 -1.47 144 141 134
3.95 17.02 -1.47 146 141 135
3.95 16.92 -1.47 146 142 133
4.17 16.94 -1.66 147 143 134
4.17 16.84 -1.66 146 142 133
3.95 16.62 -1.47 146 142 133
3.95 16.52 -1.47 146 142 133
3.95 16.43 -1.47 147 143 134
3.95 16.33 -1.47 148 143 137
3.95 16.23 -1.47 147 142 136
3.95 16.13 -1.47 145 142 135
3.95 16.03 -1.47 144 141 136
3.95 15.93 -1.47 146 143 138
3.95 15.84 -1.47 146 142 139
3.95 15.74 -1.47 146 143 138
3.95 15.64 -1.47 145 142 137
3.95 15.54 -1.47 144 141 134
3.95 15.44 -1.47 145 142 135
3.95 15.34 -1.47 148 145 136
3.95 15.24 -1.47 150 147 138
3.95 15.15 -1.47 148 145 138
3.95 15.05 -1.47 148 145 138
3.95 14.95 -1.47 148 145 140
3.73 14.74 -1.28 149 146 141
3.73 14.64 -1.28 149 145 142
3.95 14.65 -1.47 149 145 144
3.95 14.55 -1.47 149 145 146
3.95 14.46 -1.47 148 146 147
3.95 14.36 -1.47 147 145 146
3.95 14.26 -1.47 147 146 144
3.95 14.16 -1.47 148 147 145
3.73 13.76 -1.28 149 150 145
3.73 13.66 -1.28 149 150 145
3.73 13.56 -1.28 148 149 143
3.73 13.46 -1.28 149 150 144
3.73 13.37 -1.28 150 151 145
3.73 13.27 -1.28 151 152 146
3.73 13.17 -1.28 149 152 143
3.73 13.07 -1.28 148 151 142
3.73 12.97 -1.28 147 150 141
3.73 12.88 -1.28 147 150 141
3.73 12.78 -1.28 149 152 145
3.73 12.68 -1.28 149 152 145
3.73 12.58 -1.28 149 152 143
3.73 12.48 -1.28 149 152 143
3.73 12.39 -1.28 150 151 143
3.73 12.29 -1.28 150 151 143
3.73 12.19 -1.28 150 151 143
3.95 12.19 -1.47 152 152 144
3.95 12.09 -1.47 151 151 143
3.95 11.99 -1.47 151 151 141
3.95 11.89 -1.47 151 151 141
3.95 11.79 -1.47 151 153 142
3.95 11.70 -1.47 151 153 142
3.95 11.60 -1.47 152 154 143
3.95 11.50 -1.47 152 154 143
3.95 11.40 -1.47 153 153 143
3.95 11.30 -1.47 152 152 144
3.73 11.11 -1.28 151 151 143
3.73 11.01 -1.28 151 150 145
3.73 10.91 -1.28 152 151 147
3.73 10.82 -1.28 153 152 148
3.73 10.72 -1.28 151 152 147
3.73 10.62 -1.28 150 151 146
3.73 10.52 -1.28 149 150 144
3.73 10.42 -1.28 150 151 145
3.73 10.33 -1.28 151 152 144
3.73 10.23 -1.28 151 152 146
3.73 10.13 -1.28 151 152 146
3.73 10.03 -1.28 150 150 148
3.73 9.93 -1.28 150 150 148
3.73 9.84 -1.28 150 148 149
3.73 9.74 -1.28 152 147 151
-0.65 7.92 2.53 148 146 149
-0.49 7.90 2.39 145 146 148
-0.49 7.81 2.39 141 151 152
-0.49 7.72 2.39 141 155 156
-0.49 7.63 2.39 138 159 160
-0.49 7.54 2.39 135 160 164
-0.49 7.46 2.39 135 163 167
-0.49 7.37 2.39 142 171 177
-0.49 7.28 2.39 140 173 180
-0.49 7.19 2.39 139 172 179
-0.49 7.10 2.39 139 173 175
-0.49 7.01 2.39 133 167 168
-0.49 6.92 2.39 132 164 163
-0.65 6.78 2.53 143 169 158
-0.49 6.75 2.39 167 177 153
-0.49 6.66 2.39 183 188 156
-0.49 6.57 2.39 175 182 148
-0.49 6.48 2.39 108 120 84
-0.30 6.46 2.23 108 124 85
-0.30 6.37 2.23 115 133 93
0.02 6.39 1.95 103 125 86
0.18 6.36 1.81 111 133 94
0.37 6.33 1.64 117 139 101
0.37 6.24 1.64 100 121 80
0.53 6.21 1.50 105 126 83
0.72 6.18 1.34 106 130 82
0.72 6.09 1.34 93 117 65
0.88 6.05 1.20 91 118 63
0.88 5.96 1.20 95 122 67
0.88 5.87 1.20 97 121 69
0.88 5.77 1.20 107 123 76
0.88 5.68 1.20 126 125 81
0.88 5.59 1.20 116 92 54
0.88 5.50 1.20 113 62 31
0.88 5.41 1.20 130 59 31
0.72 5.27 1.34 135 54 27
0.72 5.17 1.34 142 52 26
0.53 5.03 1.50 143 54 24
0.37 4.88 1.64 146 52 24
0.18 4.74 1.81 146 53 20
0.18 4.65 1.81 146 51 19
0.18 4.56 1.81 147 52 20
0.02 4.42 1.95 150 51 20
0.02 4.33 1.95 155 50 21
-0.14 4.19 2.09 158 50 22
-0.14 4.10 2.09 155 56 27
-0.14 4.01 2.09 151 53 24
-0.14 3.92 2.09 146 53 22
-0.14 3.84 2.09 146 51 23
-0.14 3.75 2.09 147 47 24
-0.14 3.66 2.09 146 41 20
0.02 3.61 1.95 143 37 21
-3.83 1.66 5.29 109 121 81
-3.83 1.58 5.29 102 111 68
-3.83 1.49 5.29 144 150 104
-3.83 1.41 5.29 146 152 108
-3.83 1.33 5.29 157 164 123
-3.83 1.25 5.29 114 125 93
-3.83 1.17 5.29 109 127 105
-3.83 1.09 5.29 108 132 119
-3.83 1.01 5.29 113 145 142
-3.83 0.93 5.29 121 159 162
-3.83 0.85 5.29 121 165 174
-3.83 0.77 5.29 118 165 173
-3.83 0.68 5.29 120 169 174
-3.83 0.60 5.29 126 184 185
-3.83 0.52 5.29 126 185 183
-3.69 0.47 5.17 133 184 187
-3.69 0.39 5.17 135 180 185
-3.69 0.31 5.17 128 165 171
-3.69 0.23 5.17 123 150 157
-3.69 0.14 5.17 132 152 153
-3.53 0.10 5.03 149 159 158
-3.53 0.02 5.03 154 159 153
-3.53 -0.07 5.03 160 161 153
-3.53 -0.15 5.03 160 162 149
-3.53 -0.23 5.03 167 170 159
-3.40 -0.29 4.91 162 170 159
-3.40 -0.37 4.91 161 172 164
-3.40 -0.45 4.91 167 184 178
-3.26 -0.51 4.80 149 169 167
-3.26 -0.59 4.80 126 150 152
-3.26 -0.67 4.80 119 147 151
-3.26 -0.75 4.80 115 150 152
-3.26 -0.84 4.80 122 160 163
-3.26 -0.92 4.80 128 165 171
-3.26 -1.00 4.80 135 168 173
-3.26 -1.08 4.80 141 174 181
1.42 -0.55 0.73 138 182 191
1.42 -0.64 0.73 148 188 200
-3.26 -1.49 4.80 168 200 211
-3.26 -1.58 4.80 184 203 217
1.61 -0.89 0.57 201 208 218
1.61 -0.99 0.57 231 241 240
-3.13 -1.80 4.68 226 255 230
-3.13 -1.89 4.68 215 251 215
1.61 -1.27 0.57 206 237 205
1.61 -1.36 0.57 181 201 173
