ply
format ascii 1.0
element vertex 1675
property float x
property float y
property float z
property uchar red
property uchar green
property uchar blue
end_header
4.97 18.46 -1.31 141 137 126
4.97 18.36 -1.31 144 140 128
4.97 18.26 -1.31 146 142 130
4.97 18.16 -1.31 145 141 129
4.97 18.06 -1.31 143 139 128
4.97 17.96 -1.31 143 139 128
5.19 17.99 -1.50 145 141 130
5.19 17.88 -1.50 146 140 128
5.19 17.78 -1.50 146 140 126
5.19 17.68 -1.50 147 141 129
5.19 17.58 -1.50 147 141 129
5.19 17.48 -1.50 146 142 131
5.19 17.38 -1.50 149 145 136
5.19 17.28 -1.50 150 146 137
5.19 17.18 -1.50 148 145 138
5.19 17.08 -1.50 149 146 139
4.97 16.86 -1.31 146 146 138
4.97 16.76 -1.31 146 146 138
4.97 16.66 -1.31 146 147 139
4.97 16.56 -1.31 147 148 140
4.97 16.46 -1.31 146 147 139
4.97 16.36 -1.31 143 144 136
4.97 16.26 -1.31 150 152 141
4.97 16.16 -1.31 148 150 139
4.97 16.06 -1.31 148 148 138
4.97 15.96 -1.31 148 148 138
4.97 15.86 -1.31 150 150 142
4.97 15.76 -1.31 151 151 143
4.97 15.66 -1.31 153 150 143
4.97 15.56 -1.31 151 148 141
4.97 15.46 -1.31 149 148 143
4.97 15.36 -1.31 149 148 143
4.97 15.26 -1.31 149 148 143
4.97 15.16 -1.31 149 148 143
4.97 15.06 -1.31 149 150 145
4.97 14.96 -1.31 150 151 146
4.97 14.86 -1.31 152 153 148
4.97 14.76 -1.31 152 153 147
5.19 14.77 -1.50 154 153 148
5.19 14.67 -1.50 154 153 148
4.97 14.46 -1.31 153 152 147
4.97 14.36 -1.31 152 151 146
4.97 14.26 -1.31 152 151 146
4.97 14.16 -1.31 152 151 146
4.97 14.06 -1.31 152 151 146
4.97 13.96 -1.31 150 150 142
4.97 13.86 -1.31 151 151 143
4.97 13.76 -1.31 152 152 142
4.97 13.66 -1.31 152 152 142
4.97 13.56 -1.31 152 152 140
4.97 13.46 -1.31 152 152 140
4.97 13.36 -1.31 153 154 140
4.97 13.26 -1.31 153 154 140
4.97 13.16 -1.31 155 153 141
4.97 13.06 -1.31 155 153 141
5.19 13.06 -1.50 155 153 141
5.19 12.96 -1.50 154 152 140
5.19 12.86 -1.50 154 151 142
4.97 12.67 -1.31 154 151 142
4.97 12.57 -1.31 154 151 142
5.19 12.56 -1.50 152 152 144
5.19 12.46 -1.50 152 152 144
4.97 12.27 -1.31 152 152 144
4.97 12.17 -1.31 151 151 143
4.97 12.07 -1.31 151 150 145
5.19 12.06 -1.50 151 150 145
5.19 11.96 -1.50 150 149 144
4.97 11.77 -1.31 150 149 144
4.97 11.67 -1.31 152 151 146
4.97 11.57 -1.31 151 150 145
4.97 11.47 -1.31 151 150 145
4.97 11.37 -1.31 151 150 145
4.97 11.27 -1.31 151 151 143
4.97 11.17 -1.31 151 151 143
4.97 11.07 -1.31 152 152 142
4.97 10.97 -1.31 152 152 142
4.97 10.87 -1.31 153 153 141
4.97 10.77 -1.31 153 153 141
4.97 10.67 -1.31 151 153 140
4.97 10.57 -1.31 151 153 140
4.97 10.47 -1.31 151 153 142
4.97 10.37 -1.31 151 153 142
4.97 10.27 -1.31 151 153 142
4.97 10.17 -1.31 151 153 142
4.97 10.07 -1.31 149 151 140
4.97 9.97 -1.31 149 149 137
4.97 9.87 -1.31 149 149 137
0.54 7.89 2.43 144 149 142
0.54 7.80 2.43 137 146 141
0.54 7.71 2.43 149 165 164
0.73 7.69 2.27 162 182 183
0.54 7.53 2.43 153 181 182
0.54 7.44 2.43 146 176 178
0.54 7.35 2.43 160 194 195
0.54 7.26 2.43 175 209 210
0.54 7.17 2.43 171 207 205
0.54 7.08 2.43 168 202 201
0.38 6.93 2.57 174 208 207
0.38 6.84 2.57 172 199 194
0.38 6.75 2.57 170 188 176
0.38 6.66 2.57 194 206 186
0.54 6.63 2.43 243 248 225
0.54 6.54 2.43 225 234 207
0.54 6.45 2.43 184 198 172
0.73 6.42 2.27 185 205 178
0.73 6.33 2.27 174 200 171
1.09 6.36 1.97 179 204 165
1.25 6.32 1.83 188 209 168
1.25 6.23 1.83 160 175 132
1.44 6.20 1.67 183 196 152
1.44 6.11 1.67 198 209 167
1.44 6.02 1.67 195 204 161
1.44 5.93 1.67 173 180 136
1.63 5.90 1.51 178 184 138
1.63 5.80 1.51 184 190 144
1.63 5.71 1.51 186 192 146
1.63 5.62 1.51 187 195 146
1.63 5.53 1.51 190 198 149
1.63 5.43 1.51 189 199 147
1.63 5.34 1.51 188 198 146
1.63 5.25 1.51 190 200 147
1.63 5.16 1.51 198 207 154
1.44 5.01 1.67 206 209 156
1.44 4.91 1.67 207 204 153
1.44 4.82 1.67 197 183 134
1.25 4.67 1.83 203 181 134
1.25 4.58 1.83 203 176 131
1.25 4.49 1.83 199 170 126
1.25 4.40 1.83 179 155 111
1.25 4.31 1.83 164 141 97
1.25 4.22 1.83 157 134 92
1.25 4.12 1.83 186 161 120
1.44 4.09 1.67 204 179 138
1.44 3.99 1.67 206 179 134
1.44 3.90 1.67 193 166 121
1.63 3.86 1.51 214 186 138
1.63 3.77 1.51 244 218 169
1.63 3.68 1.51 255 233 183
1.63 3.58 1.51 231 211 161
1.79 3.53 1.37 229 216 164
1.79 3.44 1.37 226 216 167
1.63 3.31 1.51 204 198 148
1.63 3.21 1.51 187 183 136
1.44 3.07 1.67 187 179 140
1.44 2.98 1.67 188 183 143
1.25 2.84 1.83 170 173 128
0.90 2.66 2.13 159 165 117
0.73 2.53 2.27 163 170 118
0.73 2.44 2.27 150 154 104
0.54 2.31 2.43 191 193 146
0.54 2.22 2.43 238 239 199
0.54 2.12 2.43 234 240 206
0.54 2.03 2.43 208 221 195
0.73 1.99 2.27 191 216 194
0.73 1.90 2.27 184 218 202
0.90 1.84 2.13 177 222 217
1.09 1.80 1.97 167 209 208
1.09 1.71 1.97 164 208 211
1.25 1.65 1.83 159 210 213
1.44 1.60 1.67 159 212 216
1.44 1.51 1.67 161 216 219
1.44 1.42 1.67 162 217 220
1.63 1.36 1.51 166 221 224
1.63 1.27 1.51 170 223 227
1.63 1.18 1.51 172 223 227
1.79 1.12 1.37 173 220 226
1.79 1.03 1.37 183 228 234
1.79 0.93 1.37 189 232 239
1.79 0.84 1.37 195 236 242
1.98 0.79 1.21 195 236 242
1.98 0.69 1.21 190 233 239
1.98 0.60 1.21 188 231 237
1.98 0.51 1.21 182 230 232
1.98 0.41 1.21 180 228 230
1.98 0.32 1.21 186 231 236
1.98 0.23 1.21 184 229 234
1.98 0.13 1.21 182 227 232
1.98 0.04 1.21 181 226 231
1.98 -0.05 1.21 180 225 230
1.98 -0.15 1.21 177 222 227
1.98 -0.24 1.21 178 223 228
1.98 -0.71 1.21 179 224 229
1.98 -0.80 1.21 181 226 231
1.98 -0.89 1.21 182 227 232
1.98 -0.99 1.21 184 229 234
1.98 -1.08 1.21 185 229 230
1.98 -1.17 1.21 184 228 229
1.98 -1.27 1.21 183 227 230
1.98 -1.36 1.21 182 226 229
1.98 -1.45 1.21 182 226 229
1.98 -1.55 1.21 182 226 229
1.98 -1.64 1.21 181 224 230
1.98 -1.73 1.21 180 223 229
1.98 -1.83 1.21 182 225 231
1.98 -1.92 1.21 182 225 231
1.98 -2.01 1.21 182 226 229
1.98 -2.11 1.21 182 226 229
1.98 -2.20 1.21 182 226 229
1.98 -2.29 1.21 182 226 229
1.98 -2.39 1.21 182 226 227
1.98 -2.48 1.21 183 227 230
1.98 -2.57 1.21 182 226 229
1.98 -2.67 1.21 182 226 229
1.98 -2.76 1.21 181 225 228
1.98 -2.85 1.21 180 225 228
1.98 -2.95 1.21 179 224 227
1.98 -3.04 1.21 176 224 228
1.98 -3.13 1.21 174 222 226
1.98 -3.23 1.21 175 223 227
1.98 -3.32 1.21 173 221 225
1.98 -3.41 1.21 171 220 224
1.98 -3.51 1.21 170 219 223
1.98 -3.60 1.21 169 218 223
1.98 -3.69 1.21 168 217 222
1.79 -3.80 1.37 165 216 220
1.79 -3.90 1.37 163 214 218
1.79 -3.99 1.37 161 214 220
1.79 -4.08 1.37 160 213 219
1.79 -4.17 1.37 157 212 217
1.79 -4.27 1.37 155 210 215
1.79 -4.36 1.37 151 209 213
1.79 -4.45 1.37 149 207 211
1.79 -4.55 1.37 146 205 211
1.79 -4.64 1.37 141 201 209
1.79 -4.73 1.37 138 198 208
1.79 -4.82 1.37 129 191 202
1.79 -4.92 1.37 126 188 201
1.79 -5.01 1.37 117 179 192
1.63 -5.11 1.51 116 178 193
1.63 -5.20 1.51 111 174 191
1.44 -5.31 1.67 113 176 193
1.25 -5.41 1.83 91 156 174
1.09 -5.51 1.97 136 193 210
0.90 -5.61 2.13 222 255 255
0.73 -5.70 2.27 219 249 255
0.73 -5.79 2.27 222 243 248
0.73 -5.88 2.27 226 242 242
0.54 -5.98 2.43 230 245 242
0.54 -6.07 2.43 233 248 243
0.54 -6.16 2.43 230 245 242
0.54 -6.25 2.43 235 247 245
0.38 -6.35 2.57 230 240 241
0.38 -6.44 2.57 245 253 255
0.38 -6.53 2.57 194 203 202
0.22 -6.62 2.70 154 164 163
4.75 -6.63 -1.13 175 190 183
4.97 -6.73 -1.31 175 190 183
4.97 -6.83 -1.31 180 191 185
4.75 -6.93 -1.13 179 190 184
4.75 -7.03 -1.13 179 190 184
4.56 -7.13 -0.97 179 192 185
4.56 -7.23 -0.97 179 192 185
4.56 -7.33 -0.97 176 189 182
4.56 -7.43 -0.97 174 187 180
4.56 -7.53 -0.97 181 192 188
4.75 -7.63 -1.13 180 191 187
4.75 -7.72 -1.13 181 192 188
4.75 -7.82 -1.13 182 193 189
4.75 -7.92 -1.13 184 193 190
4.75 -8.02 -1.13 184 193 190
4.75 -8.12 -1.13 183 192 189
4.75 -8.22 -1.13 182 191 188
4.75 -8.32 -1.13 183 192 189
4.75 -8.42 -1.13 185 194 191
4.75 -8.52 -1.13 186 195 192
4.75 -8.62 -1.13 185 194 191
4.75 -8.72 -1.13 185 194 191
4.75 -8.82 -1.13 185 194 191
4.75 -8.92 -1.13 184 195 191
4.75 -9.02 -1.13 183 194 190
4.75 -9.12 -1.13 185 196 192
4.75 -9.22 -1.13 184 195 191
4.75 -9.32 -1.13 183 194 190
4.75 -9.42 -1.13 183 194 190
4.75 -9.52 -1.13 183 194 190
4.75 -9.61 -1.13 183 194 190
4.56 -9.70 -0.97 183 194 190
4.56 -9.80 -0.97 186 195 192
4.56 -9.90 -0.97 186 195 192
4.56 -10.00 -0.97 187 196 193
4.56 -10.10 -0.97 187 196 193
4.56 -10.20 -0.97 187 196 193
4.56 -10.30 -0.97 186 195 192
4.56 -10.40 -0.97 187 196 193
4.56 -10.50 -0.97 187 196 193
4.56 -10.60 -0.97 187 196 193
4.75 -10.71 -1.13 187 196 193
4.75 -10.81 -1.13 186 195 192
4.56 -10.89 -0.97 186 195 192
4.56 -10.99 -0.97 187 196 193
4.56 -11.09 -0.97 187 196 193
4.56 -11.19 -0.97 187 196 193
4.56 -11.29 -0.97 187 196 193
4.56 -11.39 -0.97 186 195 192
4.56 -11.49 -0.97 186 195 192
4.56 -11.59 -0.97 186 195 192
4.56 -11.69 -0.97 187 196 193
4.56 -11.78 -0.97 188 197 194
4.56 -11.88 -0.97 188 197 194
4.56 -11.98 -0.97 189 198 195
4.56 -12.08 -0.97 188 197 194
4.56 -12.18 -0.97 188 197 194
4.56 -12.28 -0.97 189 198 195
4.56 -12.38 -0.97 189 198 195
4.56 -12.48 -0.97 190 199 196
4.56 -12.58 -0.97 190 199 196
4.56 -12.68 -0.97 191 200 197
4.56 -12.77 -0.97 192 201 198
4.56 -12.87 -0.97 192 201 198
4.56 -12.97 -0.97 191 200 197
4.56 -13.07 -0.97 191 200 197
4.75 -13.20 -1.13 190 199 196
4.56 -13.27 -0.97 190 199 196
4.56 -13.37 -0.97 190 199 196
4.56 -13.47 -0.97 190 199 196
4.56 -13.57 -0.97 190 199 196
4.56 -13.67 -0.97 194 203 200
4.75 -13.79 -1.13 194 203 200
4.75 -13.89 -1.13 193 202 199
4.75 -13.99 -1.13 192 201 198
4.56 -14.06 -0.97 192 201 198
4.56 -14.16 -0.97 193 202 199
4.56 -14.26 -0.97 193 202 199
4.56 -14.36 -0.97 194 203 200
4.56 -14.46 -0.97 194 203 200
4.56 -14.56 -0.97 194 203 200
4.56 -14.66 -0.97 195 204 201
4.56 -14.76 -0.97 195 204 201
4.56 -14.85 -0.97 196 205 202
4.56 -14.95 -0.97 197 206 203
4.56 -15.05 -0.97 197 206 203
4.56 -15.15 -0.97 195 204 201
4.56 -15.25 -0.97 196 205 202
4.75 -15.38 -1.13 197 206 203
4.75 -15.48 -1.13 198 207 204
4.75 -15.58 -1.13 200 209 206
4.56 -15.65 -0.97 201 210 207
4.56 -15.75 -0.97 201 210 207
4.56 -15.85 -0.97 202 211 208
4.56 -15.94 -0.97 203 214 210
4.56 -16.04 -0.97 202 213 209
4.56 -16.14 -0.97 201 212 208
4.56 -16.24 -0.97 202 213 209
4.56 -16.34 -0.97 207 216 213
4.56 -16.44 -0.97 206 215 212
4.56 -16.54 -0.97 205 214 211
4.56 -16.64 -0.97 210 216 214
4.56 -16.74 -0.97 211 217 215
4.56 -16.84 -0.97 212 218 216
4.56 -16.93 -0.97 213 219 217
4.34 -16.99 -0.79 216 220 219
4.34 -17.09 -0.79 217 221 220
4.56 -17.23 -0.97 218 222 221
4.56 -17.33 -0.97 218 222 221
4.34 -17.38 -0.79 219 225 223
4.34 -17.48 -0.79 219 225 223
4.56 -17.63 -0.97 220 226 224
4.56 -17.73 -0.97 221 227 225
4.56 -17.83 -0.97 223 229 227
4.34 -17.87 -0.79 225 231 229
4.56 -18.02 -0.97 227 233 231
4.56 -18.12 -0.97 229 235 233
4.56 -18.22 -0.97 227 233 231
4.56 -18.32 -0.97 228 234 232
4.56 -18.42 -0.97 230 236 234
4.34 -18.47 -0.79 232 238 236
4.34 -18.56 -0.79 232 238 236
4.34 -18.66 -0.79 234 240 238
4.34 -18.76 -0.79 234 240 238
4.34 -18.86 -0.79 234 240 238
4.34 -18.96 -0.79 234 240 238
4.34 -19.06 -0.79 234 240 238
4.34 -19.16 -0.79 234 240 238
4.34 -19.25 -0.79 234 240 238
4.34 -19.35 -0.79 235 241 239
4.34 -19.45 -0.79 235 241 239
4.34 -19.55 -0.79 236 242 240
4.34 -19.65 -0.79 237 243 241
4.34 -19.75 -0.79 236 242 240
4.34 -19.84 -0.79 237 243 241
4.34 -19.94 -0.79 239 245 243
4.34 -20.04 -0.79 240 246 244
4.34 -20.14 -0.79 240 246 244
4.13 -20.18 -0.60 241 247 245
3.94 -20.22 -0.44 244 248 247
3.94 -20.32 -0.44 245 249 248
3.94 -20.41 -0.44 247 249 248
3.72 -20.45 -0.26 247 249 248
3.72 -20.54 -0.26 245 247 246
3.94 -20.71 -0.44 244 246 245
3.94 -20.80 -0.44 243 245 244
-8.51 15.25 9.99 0 0 0
-8.51 15.18 9.99 0 0 0
-8.51 15.11 9.99 0 0 0
-8.51 15.04 9.99 0 0 0
-8.51 14.97 9.99 0 0 0
-8.40 14.98 9.90 0 0 0
-8.40 14.91 9.90 0 0 0
-8.40 14.83 9.90 0 0 0
-8.29 14.84 9.81 0 0 0
-8.29 14.77 9.81 122 104 66
-8.29 14.70 9.81 122 104 66
-8.29 14.63 9.81 122 104 68
-8.29 14.56 9.81 111 94 64
-8.18 14.56 9.72 89 72 46
4.92 19.16 -1.40 53 39 28
4.92 19.06 -1.40 125 110 103
4.92 18.96 -1.40 162 152 143
4.92 18.86 -1.40 148 137 131
4.92 18.76 -1.40 146 139 131
4.92 18.66 -1.40 144 137 129
4.70 18.44 -1.22 141 137 126
4.70 18.34 -1.22 142 138 127
4.70 18.24 -1.22 143 139 127
4.70 18.14 -1.22 143 139 127
4.70 18.04 -1.22 142 138 126
4.70 17.94 -1.22 142 138 127
4.70 17.84 -1.22 144 140 129
4.92 17.86 -1.40 146 142 133
4.92 17.76 -1.40 145 141 129
4.92 17.66 -1.40 145 141 129
5.14 17.68 -1.58 146 142 130
5.14 17.58 -1.58 147 143 131
5.14 17.48 -1.58 147 143 132
5.14 17.38 -1.58 149 145 136
5.14 17.28 -1.58 149 145 136
5.14 17.18 -1.58 146 143 134
4.92 16.96 -1.40 147 144 135
4.92 16.86 -1.40 145 145 137
4.92 16.76 -1.40 145 145 137
4.92 16.66 -1.40 146 146 138
4.92 16.56 -1.40 147 147 139
4.92 16.46 -1.40 145 146 138
4.70 16.25 -1.22 142 143 135
4.70 16.15 -1.22 147 148 140
4.70 16.05 -1.22 147 148 140
4.70 15.95 -1.22 147 147 139
4.92 15.96 -1.40 148 148 140
4.92 15.86 -1.40 148 148 140
4.92 15.76 -1.40 149 149 141
4.92 15.66 -1.40 152 149 142
4.70 15.45 -1.22 151 148 141
4.70 15.35 -1.22 153 150 143
4.70 15.25 -1.22 152 149 142
4.70 15.15 -1.22 150 149 144
4.70 15.05 -1.22 149 148 143
4.70 14.96 -1.22 149 150 145
4.70 14.86 -1.22 149 150 145
4.70 14.76 -1.22 151 152 147
4.70 14.66 -1.22 151 150 145
4.70 14.56 -1.22 151 150 145
4.92 14.56 -1.40 152 151 146
4.92 14.46 -1.40 152 151 146
4.70 14.26 -1.22 152 151 147
4.70 14.16 -1.22 152 151 147
4.70 14.06 -1.22 152 151 146
4.70 13.96 -1.22 153 152 147
4.70 13.86 -1.22 151 151 143
4.70 13.76 -1.22 152 152 144
4.70 13.66 -1.22 152 152 142
4.70 13.56 -1.22 152 152 142
4.70 13.46 -1.22 151 151 139
4.70 13.36 -1.22 151 151 139
4.92 13.36 -1.40 151 152 138
4.92 13.26 -1.40 151 151 139
4.92 13.16 -1.40 151 151 139
4.92 13.06 -1.40 151 151 141
4.92 12.96 -1.40 152 152 142
4.92 12.87 -1.40 152 152 142
4.92 12.77 -1.40 152 152 142
4.92 12.67 -1.40 151 151 141
4.92 12.57 -1.40 151 151 141
4.92 12.47 -1.40 153 153 143
4.92 12.37 -1.40 152 152 142
4.92 12.27 -1.40 152 152 144
4.92 12.17 -1.40 152 152 144
4.92 12.07 -1.40 152 152 144
4.92 11.97 -1.40 152 152 144
4.92 11.87 -1.40 152 152 144
4.92 11.77 -1.40 152 152 144
4.70 11.57 -1.22 152 151 146
4.70 11.47 -1.22 152 151 146
4.70 11.37 -1.22 152 152 144
4.70 11.27 -1.22 152 152 144
4.70 11.18 -1.22 152 152 144
4.70 11.08 -1.22 152 152 144
4.70 10.98 -1.22 152 152 144
4.70 10.88 -1.22 152 152 144
4.70 10.78 -1.22 150 152 141
4.92 10.77 -1.40 150 152 141
4.92 10.67 -1.40 150 152 141
4.92 10.57 -1.40 150 152 141
4.92 10.47 -1.40 150 152 141
4.70 10.28 -1.22 149 151 140
4.70 10.18 -1.22 149 151 140
4.70 10.08 -1.22 148 150 139
4.70 9.98 -1.22 148 150 139
4.92 9.97 -1.40 149 149 139
4.92 9.87 -1.40 150 150 140
0.50 7.89 2.35 140 150 142
0.50 7.80 2.35 137 149 145
0.50 7.71 2.35 154 174 173
0.50 7.62 2.35 158 182 184
0.50 7.53 2.35 148 176 177
0.50 7.44 2.35 148 178 180
0.50 7.35 2.35 165 199 200
0.33 7.20 2.49 173 207 208
0.33 7.11 2.49 167 201 200
0.33 7.02 2.49 169 201 200
0.33 6.93 2.49 169 199 197
0.17 6.78 2.63 161 184 178
0.17 6.69 2.63 173 187 174
0.33 6.66 2.49 224 231 213
0.33 6.57 2.49 241 247 221
0.33 6.48 2.49 211 220 193
0.50 6.45 2.35 160 179 151
0.50 6.36 2.35 182 207 178
0.69 6.33 2.19 164 197 168
1.04 6.36 1.89 168 198 162
1.20 6.32 1.75 187 213 174
1.20 6.23 1.75 143 164 123
1.39 6.20 1.59 156 174 134
1.39 6.11 1.59 202 218 179
1.39 6.02 1.59 202 214 176
1.39 5.93 1.59 221 223 186
1.58 5.90 1.43 212 212 174
1.58 5.80 1.43 195 197 157
1.58 5.71 1.43 187 194 152
1.58 5.62 1.43 180 192 146
1.58 5.53 1.43 166 182 135
1.58 5.43 1.43 158 176 124
1.58 5.34 1.43 149 169 116
1.58 5.25 1.43 168 189 133
1.39 5.10 1.59 189 206 152
1.39 5.01 1.59 194 207 153
1.39 4.91 1.59 176 180 129
1.20 4.77 1.75 153 150 99
1.20 4.67 1.75 154 144 95
1.20 4.58 1.75 171 154 108
1.04 4.44 1.89 189 166 122
1.04 4.35 1.89 185 158 115
1.20 4.31 1.75 184 152 111
1.20 4.22 1.75 197 165 126
1.20 4.12 1.75 197 165 126
1.39 4.09 1.59 197 163 125
1.39 3.99 1.59 176 143 100
1.39 3.90 1.59 167 132 90
1.58 3.86 1.43 177 140 95
1.58 3.77 1.43 178 144 98
1.58 3.68 1.43 162 131 84
1.58 3.58 1.43 140 116 68
1.74 3.53 1.29 202 186 137
1.74 3.44 1.29 215 207 160
1.58 3.31 1.43 179 177 128
1.58 3.21 1.43 152 151 107
1.39 3.07 1.59 146 143 108
1.39 2.98 1.59 152 149 116
1.20 2.84 1.75 145 149 112
0.69 2.62 2.19 160 167 126
0.50 2.49 2.35 145 151 107
0.50 2.40 2.35 136 138 98
0.50 2.31 2.35 229 230 190
0.33 2.18 2.49 238 238 204
0.33 2.09 2.49 231 238 207
0.50 2.03 2.35 205 219 196
0.50 1.94 2.35 186 213 194
0.69 1.90 2.19 185 221 209
0.69 1.81 2.19 170 216 213
0.85 1.75 2.05 162 206 207
1.04 1.71 1.89 163 208 213
1.20 1.65 1.75 158 212 214
1.39 1.60 1.59 159 214 217
1.39 1.51 1.59 161 216 219
1.58 1.46 1.43 162 217 220
1.58 1.36 1.43 166 220 222
1.58 1.27 1.43 173 224 227
1.74 1.21 1.29 178 227 231
1.74 1.12 1.29 182 227 232
1.74 1.03 1.29 190 231 237
1.74 0.93 1.29 195 234 241
1.74 0.84 1.29 201 238 244
1.93 0.79 1.13 204 241 247
1.93 0.69 1.13 204 243 248
1.93 0.60 1.13 203 242 247
1.93 0.51 1.13 196 240 241
1.93 0.41 1.13 192 236 237
1.93 0.32 1.13 192 236 239
1.93 0.23 1.13 191 235 238
1.93 0.13 1.13 190 234 237
1.93 0.04 1.13 190 234 237
1.93 -0.05 1.13 189 233 236
1.93 -0.15 1.13 188 232 235
1.93 -0.24 1.13 189 233 236
1.93 -0.71 1.13 188 232 235
1.93 -0.80 1.13 189 233 236
1.93 -0.89 1.13 190 234 237
1.93 -0.99 1.13 193 234 238
1.93 -1.08 1.13 192 234 233
1.93 -1.17 1.13 192 232 232
1.93 -1.27 1.13 191 231 231
1.93 -1.36 1.13 190 230 230
1.93 -1.45 1.13 190 230 232
1.93 -1.55 1.13 189 229 231
1.93 -1.64 1.13 188 227 232
1.93 -1.73 1.13 188 227 232
1.93 -1.83 1.13 187 228 232
1.93 -1.92 1.13 187 228 232
1.93 -2.01 1.13 189 230 232
1.93 -2.11 1.13 190 231 233
1.93 -2.20 1.13 190 232 231
1.93 -2.29 1.13 191 233 232
1.93 -2.39 1.13 191 233 232
1.93 -2.48 1.13 193 233 233
1.93 -2.57 1.13 193 233 233
1.93 -2.67 1.13 193 235 234
1.93 -2.76 1.13 193 235 234
1.93 -2.85 1.13 194 236 235
1.93 -2.95 1.13 193 235 234
1.93 -3.04 1.13 190 234 235
1.93 -3.13 1.13 189 233 234
1.93 -3.23 1.13 185 229 230
1.93 -3.32 1.13 184 228 229
1.93 -3.41 1.13 182 227 230
1.93 -3.51 1.13 181 226 229
1.93 -3.60 1.13 180 225 228
1.93 -3.69 1.13 179 224 227
1.93 -3.79 1.13 178 223 226
1.93 -3.88 1.13 176 221 224
1.74 -3.99 1.29 175 224 228
1.74 -4.08 1.29 173 222 226
1.74 -4.17 1.29 169 220 223
1.74 -4.27 1.29 167 218 221
1.74 -4.36 1.29 163 217 219
1.74 -4.45 1.29 161 215 217
1.74 -4.55 1.29 157 212 215
1.74 -4.64 1.29 150 208 212
1.74 -4.73 1.29 147 204 213
1.74 -4.82 1.29 140 199 207
1.74 -4.92 1.29 134 192 204
1.74 -5.01 1.29 125 185 196
1.58 -5.11 1.43 120 179 193
1.58 -5.20 1.43 116 175 191
1.39 -5.31 1.59 115 174 190
1.20 -5.41 1.75 93 154 172
1.04 -5.51 1.89 146 199 215
0.85 -5.61 2.05 222 255 255
0.69 -5.70 2.19 218 246 255
0.50 -5.80 2.35 224 243 247
0.50 -5.89 2.35 229 243 243
0.50 -5.98 2.35 229 244 241
0.50 -6.07 2.35 233 248 243
0.33 -6.17 2.49 231 246 243
0.33 -6.26 2.49 236 248 246
0.17 -6.35 2.63 231 241 242
0.17 -6.44 2.63 245 253 255
0.17 -6.53 2.63 186 195 194
0.01 -6.62 2.77 158 168 167
4.70 -6.63 -1.22 172 189 181
4.70 -6.73 -1.22 173 190 182
4.92 -6.83 -1.40 177 190 183
4.70 -6.93 -1.22 178 191 184
4.51 -7.03 -1.05 179 192 185
4.51 -7.13 -1.05 182 195 188
4.51 -7.23 -1.05 183 196 189
4.51 -7.33 -1.05 183 195 191
4.51 -7.43 -1.05 182 194 190
4.51 -7.53 -1.05 180 191 187
4.51 -7.62 -1.05 179 190 186
4.51 -7.72 -1.05 179 190 186
4.51 -7.82 -1.05 179 190 186
4.51 -7.92 -1.05 181 192 188
4.51 -8.02 -1.05 181 192 188
4.51 -8.12 -1.05 182 191 188
4.51 -8.22 -1.05 181 190 187
4.51 -8.32 -1.05 183 192 189
4.51 -8.42 -1.05 184 193 190
4.51 -8.52 -1.05 184 193 190
4.51 -8.61 -1.05 182 191 188
4.51 -8.71 -1.05 180 191 187
4.51 -8.81 -1.05 181 192 188
4.51 -8.91 -1.05 183 194 190
4.51 -9.01 -1.05 185 196 192
4.51 -9.11 -1.05 185 196 192
4.51 -9.21 -1.05 184 195 191
4.51 -9.31 -1.05 183 194 190
4.51 -9.41 -1.05 183 194 190
4.51 -9.51 -1.05 183 194 190
4.51 -9.61 -1.05 184 195 191
4.51 -9.70 -1.05 184 195 191
4.51 -9.80 -1.05 186 195 192
4.51 -9.90 -1.05 186 195 192
4.51 -10.00 -1.05 186 195 192
4.51 -10.10 -1.05 186 195 192
4.51 -10.20 -1.05 185 194 191
4.51 -10.30 -1.05 185 194 191
4.51 -10.40 -1.05 186 195 192
4.51 -10.50 -1.05 186 195 192
4.51 -10.60 -1.05 187 196 193
4.51 -10.69 -1.05 186 195 192
4.51 -10.79 -1.05 186 195 192
4.51 -10.89 -1.05 186 195 192
4.29 -10.97 -0.87 187 196 193
4.29 -11.07 -0.87 187 196 193
4.29 -11.17 -0.87 187 196 193
4.29 -11.27 -0.87 187 196 193
4.29 -11.37 -0.87 187 196 193
4.29 -11.47 -0.87 187 196 193
4.29 -11.57 -0.87 186 195 192
4.29 -11.66 -0.87 187 196 193
4.29 -11.76 -0.87 188 197 194
4.29 -11.86 -0.87 188 197 194
4.29 -11.96 -0.87 189 198 195
4.29 -12.06 -0.87 188 197 194
4.29 -12.16 -0.87 188 197 194
4.29 -12.26 -0.87 189 198 195
4.29 -12.35 -0.87 189 198 195
4.51 -12.48 -1.05 190 199 196
4.51 -12.58 -1.05 191 200 197
4.51 -12.68 -1.05 191 200 197
4.51 -12.77 -1.05 192 201 198
4.51 -12.87 -1.05 192 201 198
4.51 -12.97 -1.05 192 201 198
4.51 -13.07 -1.05 191 200 197
4.51 -13.17 -1.05 191 200 197
4.51 -13.27 -1.05 190 199 196
4.51 -13.37 -1.05 190 199 196
4.51 -13.47 -1.05 190 199 196
4.51 -13.57 -1.05 190 199 196
4.51 -13.67 -1.05 194 203 200
4.51 -13.77 -1.05 194 203 200
4.51 -13.86 -1.05 194 203 200
4.51 -13.96 -1.05 194 203 200
4.51 -14.06 -1.05 194 203 200
4.51 -14.16 -1.05 194 203 200
4.51 -14.26 -1.05 194 203 200
4.51 -14.36 -1.05 196 205 202
4.51 -14.46 -1.05 196 205 202
4.51 -14.56 -1.05 195 204 201
4.51 -14.66 -1.05 195 204 201
4.51 -14.76 -1.05 196 205 202
4.51 -14.85 -1.05 196 205 202
4.51 -14.95 -1.05 196 205 202
4.29 -15.02 -0.87 196 205 202
4.29 -15.11 -0.87 197 206 203
4.29 -15.21 -0.87 197 206 203
4.51 -15.35 -1.05 198 207 204
4.51 -15.45 -1.05 199 208 205
4.51 -15.55 -1.05 200 209 206
4.51 -15.65 -1.05 200 209 206
4.51 -15.75 -1.05 201 210 207
4.51 -15.85 -1.05 201 210 207
4.51 -15.94 -1.05 201 212 208
4.51 -16.04 -1.05 201 212 208
4.51 -16.14 -1.05 201 212 208
4.51 -16.24 -1.05 203 214 210
4.51 -16.34 -1.05 207 216 213
4.51 -16.44 -1.05 207 216 213
4.51 -16.54 -1.05 207 216 213
4.29 -16.59 -0.87 209 215 213
4.29 -16.69 -0.87 210 216 214
4.29 -16.79 -0.87 212 218 216
4.29 -16.89 -0.87 214 220 218
4.29 -16.99 -0.87 217 221 220
4.29 -17.09 -0.87 218 222 221
4.29 -17.18 -0.87 219 223 222
4.29 -17.28 -0.87 220 224 223
4.29 -17.38 -0.87 220 226 224
4.29 -17.48 -0.87 219 225 223
4.29 -17.58 -0.87 219 225 223
4.29 -17.68 -0.87 221 227 225
4.29 -17.78 -0.87 224 230 228
4.29 -17.87 -0.87 226 232 230
4.29 -17.97 -0.87 228 234 232
4.29 -18.07 -0.87 228 234 232
4.29 -18.17 -0.87 228 234 232
4.29 -18.27 -0.87 229 235 233
4.29 -18.37 -0.87 230 236 234
4.29 -18.47 -0.87 231 237 235
4.29 -18.56 -0.87 231 237 235
4.29 -18.66 -0.87 232 238 236
4.29 -18.76 -0.87 233 239 237
4.29 -18.86 -0.87 234 240 238
4.29 -18.96 -0.87 233 239 237
4.29 -19.06 -0.87 233 239 237
4.29 -19.16 -0.87 233 239 237
4.08 -19.20 -0.69 233 239 237
4.08 -19.29 -0.69 235 241 239
4.08 -19.39 -0.69 236 242 240
4.08 -19.49 -0.69 237 243 241
4.08 -19.59 -0.69 238 244 242
4.08 -19.69 -0.69 237 243 241
4.08 -19.78 -0.69 238 244 242
4.29 -19.94 -0.87 240 246 244
4.08 -19.98 -0.69 240 246 244
4.08 -20.08 -0.69 240 246 244
3.89 -20.12 -0.53 241 247 245
3.89 -20.22 -0.53 244 248 247
3.89 -20.32 -0.53 247 249 248
3.89 -20.41 -0.53 248 248 248
3.89 -20.51 -0.53 248 248 248
3.67 -20.54 -0.34 246 246 246
3.67 -20.64 -0.34 244 246 245
3.89 -20.80 -0.53 243 245 244
-8.44 15.33 9.84 0 0 0
-8.54 15.18 9.93 0 0 0
-8.54 15.11 9.93 0 0 0
-8.44 15.12 9.84 0 0 0
-8.44 15.05 9.84 0 0 0
-8.44 14.98 9.84 0 0 0
-8.33 14.98 9.75 0 0 0
-8.33 14.91 9.75 0 0 0
4.65 19.03 -1.30 135 125 115
4.65 18.93 -1.30 165 154 148
4.65 18.83 -1.30 146 137 130
4.65 18.74 -1.30 147 138 133
4.65 18.64 -1.30 148 141 135
4.65 18.54 -1.30 149 142 136
4.65 18.44 -1.30 145 141 130
4.65 18.34 -1.30 144 140 129
4.65 18.24 -1.30 141 139 126
4.65 18.14 -1.30 141 139 126
4.65 18.04 -1.30 142 140 128
4.65 17.94 -1.30 144 142 130
4.65 17.84 -1.30 144 141 132
4.65 17.74 -1.30 144 141 132
4.65 17.64 -1.30 143 141 129
4.87 17.66 -1.49 144 142 130
4.87 17.56 -1.49 147 143 132
5.09 17.58 -1.67 148 144 133
5.09 17.48 -1.67 148 144 133
4.87 17.26 -1.49 147 143 134
4.87 17.16 -1.49 147 143 134
4.87 17.06 -1.49 146 142 133
4.87 16.96 -1.49 148 144 135
4.87 16.86 -1.49 148 145 138
4.87 16.76 -1.49 147 144 137
4.65 16.55 -1.30 146 146 138
4.65 16.45 -1.30 147 147 139
4.65 16.35 -1.30 145 146 140
4.65 16.25 -1.30 143 144 138
4.65 16.15 -1.30 144 145 137
4.65 16.05 -1.30 145 146 138
4.65 15.95 -1.30 148 148 140
4.65 15.85 -1.30 148 148 140
4.65 15.75 -1.30 147 147 137
4.65 15.65 -1.30 147 147 137
4.65 15.55 -1.30 151 148 139
4.65 15.45 -1.30 153 150 141
4.46 15.26 -1.14 154 151 144
4.46 15.16 -1.14 153 150 143
4.46 15.06 -1.14 152 149 144
4.46 14.96 -1.14 152 149 144
4.46 14.86 -1.14 150 149 145
4.46 14.76 -1.14 150 149 145
4.46 14.66 -1.14 152 151 149
4.46 14.56 -1.14 150 149 145
4.46 14.46 -1.14 150 149 145
4.65 14.46 -1.30 151 150 146
4.65 14.36 -1.30 151 150 146
4.65 14.26 -1.30 152 151 147
4.65 14.16 -1.30 153 152 148
4.65 14.06 -1.30 153 152 147
4.65 13.96 -1.30 153 152 147
4.65 13.86 -1.30 152 151 146
4.65 13.76 -1.30 153 152 147
4.65 13.66 -1.30 153 153 143
4.65 13.56 -1.30 152 152 142
4.65 13.46 -1.30 151 151 139
4.65 13.36 -1.30 150 150 138
4.65 13.26 -1.30 150 151 137
4.65 13.16 -1.30 150 150 138
4.65 13.07 -1.30 150 152 139
4.65 12.97 -1.30 150 152 141
4.65 12.87 -1.30 151 153 142
4.65 12.77 -1.30 151 153 142
4.65 12.67 -1.30 151 153 142
4.65 12.57 -1.30 150 152 141
4.65 12.47 -1.30 150 152 141
4.65 12.37 -1.30 151 153 142
4.65 12.27 -1.30 151 153 142
4.65 12.17 -1.30 151 153 142
4.65 12.07 -1.30 151 153 142
4.65 11.97 -1.30 152 152 142
4.65 11.87 -1.30 153 153 143
4.65 11.77 -1.30 153 153 143
4.65 11.67 -1.30 153 153 143
4.65 11.57 -1.30 152 152 144
4.65 11.47 -1.30 153 153 145
4.65 11.37 -1.30 153 153 145
4.46 11.20 -1.14 154 154 146
4.46 11.10 -1.14 153 153 145
4.65 11.08 -1.30 153 153 145
4.65 10.98 -1.30 151 152 144
4.65 10.88 -1.30 150 151 143
4.65 10.78 -1.30 149 150 142
4.65 10.68 -1.30 150 151 143
4.65 10.58 -1.30 151 152 144
4.65 10.48 -1.30 151 152 144
4.65 10.38 -1.30 151 153 142
4.65 10.28 -1.30 149 151 140
4.65 10.18 -1.30 147 150 139
4.65 10.08 -1.30 147 149 138
4.65 9.98 -1.30 147 147 139
4.65 9.88 -1.30 147 147 137
4.87 9.87 -1.49 149 149 141
0.29 8.01 2.41 146 149 140
0.29 7.92 2.41 142 147 141
0.29 7.83 2.41 139 150 144
0.29 7.74 2.41 139 154 151
0.29 7.65 2.41 154 175 176
0.45 7.62 2.27 151 176 180
0.45 7.53 2.27 145 175 177
0.29 7.38 2.41 154 185 188
0.29 7.29 2.41 169 205 205
0.29 7.20 2.41 168 204 204
0.29 7.11 2.41 164 198 197
0.13 6.96 2.55 172 204 201
0.13 6.87 2.55 169 198 194
0.13 6.78 2.55 160 181 174
0.13 6.69 2.55 197 211 194
0.13 6.60 2.55 238 246 225
0.29 6.57 2.41 231 237 209
0.29 6.48 2.41 202 211 182
0.29 6.39 2.41 172 188 161
0.45 6.36 2.27 171 195 169
0.64 6.33 2.11 149 179 151
0.80 6.30 1.97 165 196 162
0.99 6.27 1.81 194 222 184
1.16 6.23 1.67 147 172 133
1.35 6.20 1.51 146 168 130
1.35 6.11 1.51 195 217 179
1.35 6.02 1.51 178 195 161
1.35 5.93 1.51 202 216 181
1.54 5.90 1.35 216 226 192
1.54 5.80 1.35 229 239 202
1.54 5.71 1.35 245 255 218
1.54 5.62 1.35 250 255 217
1.54 5.53 1.35 246 253 211
1.54 5.43 1.35 255 255 217
1.54 5.34 1.35 255 255 216
1.54 5.25 1.35 254 239 196
1.35 5.10 1.51 243 215 176
1.35 5.01 1.51 222 179 144
1.35 4.91 1.51 208 153 122
1.16 4.77 1.67 217 152 124
1.16 4.67 1.67 224 148 124
0.99 4.54 1.81 217 137 112
0.99 4.44 1.81 209 127 103
0.99 4.35 1.81 205 128 102
0.99 4.26 1.81 190 114 88
1.16 4.22 1.67 194 122 97
1.16 4.12 1.67 189 115 90
1.35 4.09 1.51 203 127 103
1.35 3.99 1.51 206 129 101
1.35 3.90 1.51 225 145 118
1.54 3.86 1.35 213 132 103
1.54 3.77 1.35 215 136 106
1.54 3.68 1.35 172 101 69
1.54 3.58 1.35 144 81 48
1.70 3.53 1.21 220 170 135
1.70 3.44 1.21 255 248 212
1.54 3.31 1.35 255 250 213
1.54 3.21 1.35 255 249 216
1.35 3.07 1.51 255 255 226
1.35 2.98 1.51 252 251 221
0.45 2.67 2.27 230 234 201
0.45 2.58 2.27 185 191 155
0.45 2.49 2.27 144 151 110
0.45 2.40 2.27 164 168 131
0.29 2.27 2.41 250 252 215
0.13 2.14 2.55 229 230 199
0.13 2.05 2.55 223 229 203
0.29 2.00 2.41 203 216 196
0.45 1.94 2.27 186 214 199
0.45 1.85 2.27 188 226 215
0.64 1.81 2.11 164 213 210
0.80 1.75 1.97 161 206 209
0.99 1.71 1.81 163 211 215
1.16 1.65 1.67 159 212 216
1.35 1.60 1.51 160 215 218
1.35 1.51 1.51 162 217 220
1.54 1.46 1.35 163 216 220
1.54 1.36 1.35 166 220 222
1.54 1.27 1.35 176 225 229
1.70 1.21 1.21 186 234 238
1.70 1.12 1.21 194 237 243
1.70 1.03 1.21 200 239 244
1.89 0.97 1.05 203 238 244
1.89 0.88 1.05 205 240 244
1.89 0.79 1.05 207 240 245
1.89 0.69 1.05 206 244 247
1.89 0.60 1.05 205 243 246
1.89 0.51 1.05 198 239 241
1.89 0.41 1.05 192 233 235
1.89 0.32 1.05 190 231 235
1.89 0.23 1.05 190 231 235
1.89 0.13 1.05 190 231 235
1.89 0.04 1.05 189 230 234
1.89 -0.05 1.05 189 230 234
1.89 -0.15 1.05 190 231 235
1.89 -0.24 1.05 190 231 235
1.89 -0.33 1.05 188 229 233
1.89 -0.43 1.05 189 230 234
1.89 -0.52 1.05 190 231 235
1.89 -0.61 1.05 190 231 235
1.89 -0.71 1.05 191 232 236
1.89 -0.80 1.05 191 232 236
1.89 -0.89 1.05 191 232 236
1.89 -0.99 1.05 190 231 235
1.89 -1.08 1.05 190 230 230
1.89 -1.17 1.05 189 229 229
1.89 -1.27 1.05 189 229 229
1.89 -1.36 1.05 190 230 230
1.89 -1.45 1.05 191 231 233
1.89 -1.55 1.05 192 232 234
1.89 -1.64 1.05 192 232 234
1.89 -1.73 1.05 192 232 234
1.89 -1.83 1.05 188 228 230
1.89 -1.92 1.05 189 229 231
1.89 -2.01 1.05 191 231 233
1.89 -2.11 1.05 193 233 235
1.89 -2.20 1.05 194 234 234
1.89 -2.29 1.05 194 234 234
1.89 -2.39 1.05 193 233 233
1.89 -2.48 1.05 191 231 230
1.89 -2.57 1.05 192 232 231
1.89 -2.67 1.05 193 233 232
1.89 -2.95 1.05 194 234 233
1.89 -3.04 1.05 193 235 234
1.89 -3.13 1.05 192 234 233
1.89 -3.23 1.05 188 229 231
1.89 -3.32 1.05 188 229 231
1.89 -3.41 1.05 187 228 230
1.89 -3.51 1.05 186 227 229
1.89 -3.60 1.05 184 228 231
1.89 -3.69 1.05 182 226 229
1.89 -3.79 1.05 181 225 228
1.89 -3.88 1.05 180 224 227
1.89 -3.97 1.05 176 224 226
1.89 -4.07 1.05 174 222 224
1.89 -4.16 1.05 172 222 223
1.70 -4.27 1.21 169 219 220
1.70 -4.36 1.21 167 218 221
1.70 -4.45 1.21 164 215 218
1.70 -4.55 1.21 160 213 217
1.70 -4.64 1.21 156 211 216
1.70 -4.73 1.21 153 208 215
1.70 -4.82 1.21 147 206 212
1.70 -4.92 1.21 139 197 208
1.70 -5.01 1.21 132 192 202
1.70 -5.10 1.21 124 184 195
1.54 -5.20 1.35 116 178 191
1.54 -5.30 1.35 113 172 186
1.35 -5.40 1.51 93 152 166
0.99 -5.51 1.81 154 206 219
0.64 -5.61 2.11 224 255 255
0.45 -5.71 2.27 217 244 251
0.45 -5.80 2.27 225 243 247
0.45 -5.89 2.27 233 245 245
0.29 -5.99 2.41 229 244 241
0.29 -6.08 2.41 233 248 243
0.29 -6.17 2.41 230 246 243
0.13 -6.26 2.55 233 247 247
0.13 -6.35 2.55 232 244 244
0.13 -6.44 2.55 246 255 255
-0.04 -6.53 2.69 178 188 187
-0.04 -6.62 2.69 166 178 176
4.46 -6.63 -1.14 176 193 185
4.46 -6.73 -1.14 176 193 185
4.65 -6.83 -1.30 176 189 182
4.46 -6.93 -1.14 176 189 182
4.46 -7.03 -1.14 176 189 182
4.46 -7.13 -1.14 175 188 181
4.46 -7.23 -1.14 176 189 182
4.46 -7.33 -1.14 178 189 185
4.46 -7.43 -1.14 179 190 186
4.46 -7.53 -1.14 181 192 188
4.46 -7.62 -1.14 180 191 187
4.46 -7.72 -1.14 179 189 188
4.46 -7.82 -1.14 179 189 188
4.46 -7.92 -1.14 179 189 188
4.46 -8.02 -1.14 180 190 189
4.25 -8.12 -0.96 180 190 189
4.25 -8.21 -0.96 180 190 189
4.25 -8.31 -0.96 182 191 188
4.46 -8.42 -1.14 182 191 188
4.46 -8.52 -1.14 182 191 188
4.46 -8.61 -1.14 182 191 188
4.46 -8.71 -1.14 180 191 187
4.46 -8.81 -1.14 180 191 187
4.46 -8.91 -1.14 183 194 190
4.46 -9.01 -1.14 185 196 192
4.46 -9.11 -1.14 184 195 191
4.46 -9.21 -1.14 182 194 190
4.46 -9.31 -1.14 182 194 190
4.46 -9.41 -1.14 183 195 191
4.25 -9.50 -0.96 184 196 192
4.25 -9.59 -0.96 184 196 192
4.25 -9.69 -0.96 186 197 193
4.25 -9.79 -0.96 185 196 192
4.25 -9.89 -0.96 187 196 193
4.25 -9.99 -0.96 187 196 193
4.25 -10.09 -0.96 186 195 192
4.25 -10.19 -0.96 185 194 191
4.25 -10.28 -0.96 185 194 191
4.25 -10.38 -0.96 186 195 192
4.25 -10.48 -0.96 186 195 192
4.25 -10.58 -0.96 187 196 193
4.25 -10.68 -0.96 187 196 193
4.46 -10.79 -1.14 187 196 193
4.25 -10.88 -0.96 187 196 193
4.25 -10.97 -0.96 186 195 192
4.25 -11.07 -0.96 187 196 193
4.25 -11.17 -0.96 187 196 193
4.25 -11.27 -0.96 188 197 194
4.25 -11.37 -0.96 190 199 196
4.25 -11.47 -0.96 189 198 195
4.25 -11.57 -0.96 188 197 194
4.25 -11.66 -0.96 188 197 194
4.25 -11.76 -0.96 188 197 194
4.25 -11.86 -0.96 189 198 195
4.25 -11.96 -0.96 190 199 196
4.25 -12.06 -0.96 189 198 195
4.25 -12.16 -0.96 189 198 195
4.25 -12.26 -0.96 189 198 195
4.25 -12.35 -0.96 189 198 195
4.25 -12.45 -0.96 190 199 196
4.25 -12.55 -0.96 191 200 197
4.25 -12.65 -0.96 191 200 197
4.25 -12.75 -0.96 192 201 198
4.25 -12.85 -0.96 192 201 198
4.25 -12.95 -0.96 192 201 198
4.46 -13.07 -1.14 191 200 197
4.46 -13.17 -1.14 191 200 197
4.46 -13.27 -1.14 191 200 197
4.25 -13.34 -0.96 191 200 197
4.25 -13.44 -0.96 191 200 197
4.25 -13.54 -0.96 191 200 197
4.25 -13.64 -0.96 190 199 196
4.46 -13.77 -1.14 191 200 197
4.46 -13.86 -1.14 192 201 198
4.46 -13.96 -1.14 193 202 199
4.25 -14.03 -0.96 193 202 199
4.25 -14.13 -0.96 193 202 199
4.25 -14.23 -0.96 193 202 199
4.25 -14.33 -0.96 193 202 199
4.25 -14.42 -0.96 194 203 200
4.25 -14.52 -0.96 194 203 200
4.25 -14.62 -0.96 195 204 201
4.25 -14.72 -0.96 196 205 202
4.25 -14.82 -0.96 198 207 204
4.25 -14.92 -0.96 199 208 205
4.25 -15.02 -0.96 199 208 205
4.25 -15.11 -0.96 198 207 204
4.25 -15.21 -0.96 198 207 204
4.25 -15.31 -0.96 199 208 205
4.25 -15.41 -0.96 199 208 205
4.46 -15.55 -1.14 200 209 206
4.25 -15.61 -0.96 201 210 207
4.25 -15.71 -0.96 202 211 208
4.25 -15.80 -0.96 202 211 208
4.25 -15.90 -0.96 199 210 206
4.25 -16.00 -0.96 201 212 208
4.25 -16.10 -0.96 203 214 210
4.25 -16.20 -0.96 205 216 212
4.25 -16.30 -0.96 206 215 212
4.25 -16.40 -0.96 207 216 213
4.25 -16.49 -0.96 208 217 214
4.25 -16.59 -0.96 211 217 215
4.25 -16.69 -0.96 211 217 215
4.25 -16.79 -0.96 213 219 217
4.25 -16.89 -0.96 214 220 218
4.03 -16.94 -0.77 217 221 220
4.03 -17.04 -0.77 218 222 221
4.03 -17.14 -0.77 218 222 221
4.03 -17.23 -0.77 219 223 222
4.03 -17.33 -0.77 220 226 224
4.03 -17.43 -0.77 219 225 223
4.03 -17.53 -0.77 219 225 223
4.25 -17.68 -0.96 220 226 224
4.25 -17.78 -0.96 224 230 228
4.25 -17.87 -0.96 227 233 231
4.03 -17.92 -0.77 228 234 232
4.25 -18.07 -0.96 227 233 231
4.25 -18.17 -0.96 228 234 232
4.25 -18.27 -0.96 229 235 233
4.25 -18.37 -0.96 230 236 234
4.25 -18.47 -0.96 231 237 235
4.25 -18.56 -0.96 231 237 235
4.25 -18.66 -0.96 233 239 237
4.25 -18.76 -0.96 234 240 238
4.25 -18.86 -0.96 234 240 238
4.25 -18.96 -0.96 234 240 238
4.03 -19.00 -0.77 233 239 237
4.03 -19.10 -0.77 233 239 237
4.03 -19.20 -0.77 233 239 237
4.03 -19.29 -0.77 235 241 239
4.03 -19.39 -0.77 236 242 240
4.03 -19.49 -0.77 237 243 241
4.03 -19.59 -0.77 241 247 245
4.03 -19.69 -0.77 240 246 244
4.03 -19.78 -0.77 240 246 244
4.03 -19.88 -0.77 241 247 245
4.03 -19.98 -0.77 240 246 244
3.84 -20.02 -0.61 239 245 243
3.84 -20.12 -0.61 240 246 244
3.84 -20.22 -0.61 243 247 246
3.84 -20.32 -0.61 242 244 243
3.84 -20.41 -0.61 244 244 244
3.62 -20.45 -0.43 244 244 244
3.62 -20.54 -0.43 245 245 245
3.62 -20.64 -0.43 244 246 245
3.62 -20.74 -0.43 245 247 246
3.84 -20.90 -0.61 247 249 248
3.84 -21.00 -0.61 246 250 249
3.84 -21.10 -0.61 245 249 248
3.84 -21.19 -0.61 243 249 247
3.84 -21.29 -0.61 241 247 245
3.84 -21.39 -0.61 241 247 245
3.84 -21.49 -0.61 241 247 245
3.84 -21.59 -0.61 241 247 245
3.84 -21.68 -0.61 242 248 246
3.84 -21.78 -0.61 242 251 248
3.84 -22.27 -0.61 245 251 247
3.84 -22.37 -0.61 244 249 245
3.62 -22.39 -0.43 242 247 243
3.62 -22.49 -0.43 246 248 243
3.62 -22.58 -0.43 244 246 241
3.62 -22.68 -0.43 246 248 243
-8.47 15.33 9.78 0 0 0
-8.47 15.26 9.78 0 0 0
-8.47 15.19 9.78 0 0 0
-8.47 15.12 9.78 0 0 0
-8.36 15.12 9.69 0 0 0
-8.36 15.05 9.69 0 0 0
-8.36 14.98 9.69 0 0 0
-8.25 14.99 9.59 0 0 0
4.60 19.03 -1.39 157 148 141
4.60 18.93 -1.39 155 146 141
4.60 18.83 -1.39 147 140 134
4.60 18.74 -1.39 140 132 129
4.60 18.64 -1.39 144 139 133
4.60 18.54 -1.39 138 133 127
4.60 18.44 -1.39 144 140 129
4.41 18.23 -1.23 144 140 129
4.41 18.13 -1.23 142 140 127
4.41 18.03 -1.23 143 141 129
4.41 17.93 -1.23 145 143 131
4.41 17.83 -1.23 146 143 134
4.41 17.73 -1.23 145 142 135
4.41 17.63 -1.23 142 139 132
4.60 17.64 -1.39 142 139 130
4.60 17.54 -1.39 144 141 132
4.60 17.44 -1.39 145 142 133
4.82 17.46 -1.57 147 144 135
4.82 17.36 -1.57 148 144 135
4.82 17.26 -1.57 148 141 133
4.82 17.16 -1.57 147 140 132
4.82 17.06 -1.57 147 143 134
4.60 16.85 -1.39 149 145 136
4.60 16.75 -1.39 149 146 139
4.60 16.65 -1.39 148 145 138
4.60 16.55 -1.39 146 146 138
4.60 16.45 -1.39 147 147 139
4.60 16.35 -1.39 146 147 141
4.60 16.25 -1.39 145 146 140
4.60 16.15 -1.39 142 143 137
4.41 15.95 -1.23 145 146 140
4.41 15.85 -1.23 149 149 141
4.41 15.75 -1.23 149 149 141
4.41 15.65 -1.23 147 147 137
4.41 15.55 -1.23 147 147 137
4.41 15.45 -1.23 151 148 139
4.41 15.36 -1.23 154 151 142
4.41 15.26 -1.23 152 149 140
4.41 15.16 -1.23 152 149 142
4.41 15.06 -1.23 152 149 142
4.41 14.96 -1.23 152 149 144
4.41 14.86 -1.23 153 149 146
4.41 14.76 -1.23 153 149 146
4.41 14.66 -1.23 153 152 150
4.41 14.56 -1.23 152 151 147
4.41 14.46 -1.23 152 151 147
4.41 14.36 -1.23 152 151 147
4.60 14.36 -1.39 152 151 147
4.60 14.26 -1.39 152 151 147
4.41 14.07 -1.23 153 152 148
4.41 13.97 -1.23 152 151 147
4.41 13.87 -1.23 152 151 147
4.41 13.77 -1.23 151 150 145
4.41 13.67 -1.23 151 150 145
4.41 13.57 -1.23 151 151 143
4.41 13.47 -1.23 151 151 143
4.41 13.37 -1.23 150 150 138
4.41 13.28 -1.23 150 150 138
4.41 13.18 -1.23 151 151 139
4.41 13.08 -1.23 152 152 140
4.41 12.98 -1.23 149 152 141
4.41 12.88 -1.23 150 153 142
4.41 12.78 -1.23 150 153 142
4.41 12.68 -1.23 151 154 143
4.41 12.58 -1.23 152 154 143
4.41 12.48 -1.23 152 154 143
4.60 12.47 -1.39 151 153 142
4.60 12.37 -1.39 150 151 143
4.60 12.27 -1.39 150 151 143
4.41 12.09 -1.23 150 151 143
4.41 11.99 -1.23 150 151 143
4.41 11.89 -1.23 151 152 144
4.41 11.79 -1.23 151 152 144
4.60 11.77 -1.39 151 152 144
4.60 11.67 -1.39 151 152 144
4.60 11.57 -1.39 152 152 144
4.41 11.39 -1.23 153 153 145
4.41 11.29 -1.23 153 154 146
4.41 11.20 -1.23 153 154 146
4.41 11.10 -1.23 153 154 148
4.41 11.00 -1.23 152 153 147
4.41 10.90 -1.23 150 151 145
4.41 10.80 -1.23 149 150 144
4.41 10.70 -1.23 149 150 144
4.41 10.60 -1.23 150 151 145
4.41 10.50 -1.23 150 153 144
4.41 10.40 -1.23 151 154 145
4.41 10.30 -1.23 150 153 144
4.41 10.20 -1.23 149 152 143
4.41 10.11 -1.23 148 151 140
4.41 10.01 -1.23 147 149 138
4.60 9.98 -1.39 147 147 139
4.60 9.88 -1.39 147 148 140
4.60 9.78 -1.39 148 149 143
0.24 8.01 2.33 143 148 141
0.24 7.92 2.33 140 146 142
0.08 7.77 2.47 141 153 149
0.08 7.68 2.47 146 162 161
0.08 7.59 2.47 150 174 174
0.24 7.56 2.33 143 171 174
0.24 7.47 2.33 147 178 180
0.24 7.38 2.33 161 195 197
0.24 7.29 2.33 170 206 206
0.08 7.14 2.47 166 202 202
0.08 7.05 2.47 165 199 198
-0.08 6.90 2.61 173 205 202
-0.08 6.81 2.61 165 194 189
-0.08 6.73 2.61 163 185 173
-0.08 6.64 2.61 207 220 202
0.08 6.60 2.47 226 231 208
0.08 6.52 2.47 223 226 197
0.24 6.48 2.33 206 211 181
0.24 6.39 2.33 198 211 185
0.41 6.36 2.20 176 196 171
0.60 6.33 2.03 146 172 145
0.76 6.30 1.89 151 180 149
0.95 6.27 1.73 196 223 188
1.11 6.23 1.59 158 184 147
1.11 6.14 1.59 129 153 117
1.30 6.11 1.43 170 197 162
1.30 6.02 1.43 179 203 171
1.30 5.93 1.43 175 190 161
1.30 5.84 1.43 163 173 146
1.49 5.80 1.27 150 161 129
1.49 5.71 1.27 146 156 122
1.49 5.62 1.27 149 156 122
1.49 5.53 1.27 153 155 118
1.49 5.43 1.27 150 146 108
1.49 5.34 1.27 153 139 100
1.30 5.19 1.43 166 144 105
1.30 5.10 1.43 169 135 98
1.30 5.01 1.43 172 129 94
1.11 4.86 1.59 177 127 94
1.11 4.77 1.59 191 135 102
0.95 4.63 1.73 192 131 100
0.76 4.48 1.89 193 130 97
0.76 4.39 1.89 197 128 97
0.76 4.30 1.89 200 126 97
0.76 4.21 1.89 196 119 91
0.95 4.17 1.73 198 124 97
1.11 4.12 1.59 182 106 80
1.11 4.03 1.59 188 111 85
1.30 3.99 1.43 184 104 77
1.30 3.90 1.43 194 110 84
1.49 3.86 1.27 210 126 98
1.49 3.77 1.27 195 114 87
1.49 3.68 1.27 137 63 34
1.49 3.58 1.27 119 58 29
1.65 3.53 1.13 146 101 70
1.65 3.44 1.13 184 153 122
1.49 3.31 1.27 125 109 75
1.49 3.21 1.27 114 105 72
1.30 3.07 1.43 99 96 65
1.30 2.98 1.43 99 100 68
0.95 2.80 1.73 92 98 62
0.41 2.58 2.20 103 111 72
0.41 2.49 2.20 129 137 96
0.24 2.36 2.33 172 178 140
0.08 2.23 2.47 247 248 214
0.08 2.14 2.47 230 230 202
0.08 2.05 2.47 213 218 196
0.08 1.96 2.47 204 217 200
0.24 1.91 2.33 190 218 206
0.41 1.85 2.20 190 227 220
0.41 1.76 2.20 160 210 209
0.60 1.72 2.03 160 209 213
0.76 1.66 1.89 163 212 217
1.11 1.65 1.59 160 213 219
1.30 1.60 1.43 162 215 221
1.30 1.51 1.43 163 216 222
1.49 1.46 1.27 165 215 222
1.49 1.36 1.27 170 221 225
1.65 1.31 1.13 181 228 234
1.65 1.21 1.13 193 238 241
1.65 1.12 1.13 201 242 246
1.84 1.07 0.97 207 244 250
1.84 0.97 0.97 207 242 248
1.84 0.88 0.97 206 239 244
1.84 0.79 0.97 203 236 241
1.84 0.69 0.97 200 238 241
1.84 0.60 0.97 197 237 239
1.84 0.51 0.97 190 231 233
1.84 0.41 0.97 182 226 227
1.84 0.32 0.97 189 230 234
1.84 0.23 0.97 190 231 235
2.03 0.17 0.81 189 230 234
2.03 0.07 0.81 187 228 232
2.03 -0.02 0.81 187 228 232
2.03 -0.11 0.81 188 229 233
1.84 -0.24 0.97 187 228 232
1.84 -0.33 0.97 188 229 233
1.84 -0.43 0.97 188 229 233
1.84 -0.52 0.97 189 230 234
1.84 -0.61 0.97 190 231 235
1.84 -0.71 0.97 190 231 235
1.84 -0.80 0.97 189 230 234
1.84 -0.89 0.97 188 229 233
1.84 -0.99 0.97 187 228 232
1.84 -1.08 0.97 188 230 229
1.84 -1.17 0.97 187 229 228
1.84 -1.27 0.97 187 228 230
1.84 -1.36 0.97 187 228 230
1.84 -1.45 0.97 188 229 233
1.84 -1.55 0.97 189 230 234
2.03 -1.61 0.81 190 229 234
2.03 -1.71 0.81 190 229 234
2.03 -1.80 0.81 189 228 233
2.03 -1.90 0.81 190 229 234
2.03 -1.99 0.81 191 230 235
2.03 -2.08 0.81 192 231 236
2.03 -2.18 0.81 192 232 234
1.84 -2.29 0.97 192 232 234
1.84 -2.39 0.97 190 230 230
1.84 -2.48 0.97 191 231 230
1.84 -2.57 0.97 192 232 231
1.84 -2.67 0.97 193 233 232
1.84 -2.95 0.97 192 232 231
1.84 -3.04 0.97 191 233 232
1.84 -3.13 0.97 191 233 232
1.84 -3.23 0.97 188 229 231
1.84 -3.32 0.97 187 228 230
1.84 -3.41 0.97 187 228 232
1.84 -3.51 0.97 186 227 231
1.84 -3.60 0.97 185 226 230
1.84 -3.69 0.97 183 224 228
1.84 -3.79 0.97 180 224 227
1.84 -3.88 0.97 179 224 227
1.84 -3.97 0.97 173 221 225
1.84 -4.07 0.97 171 220 224
1.84 -4.16 0.97 170 219 223
1.84 -4.25 0.97 169 218 222
1.84 -4.35 0.97 168 217 221
1.84 -4.44 0.97 166 215 219
1.84 -4.53 0.97 163 214 218
1.84 -4.63 0.97 153 208 213
1.84 -4.72 0.97 151 206 211
1.84 -4.81 0.97 147 206 212
1.65 -4.92 1.13 139 198 206
1.65 -5.01 1.13 135 195 203
1.65 -5.10 1.13 125 185 195
1.65 -5.20 1.13 117 179 190
1.49 -5.30 1.27 112 172 183
1.49 -5.39 1.27 94 152 163
1.30 -5.49 1.43 164 212 222
0.60 -5.61 2.03 225 255 255
0.41 -5.71 2.20 217 242 247
0.24 -5.81 2.33 227 243 243
0.24 -5.90 2.33 235 247 245
0.24 -5.99 2.33 229 244 239
0.08 -6.08 2.47 233 248 243
0.08 -6.17 2.47 230 246 243
0.08 -6.26 2.47 231 245 246
-0.08 -6.36 2.61 234 245 247
-0.08 -6.44 2.61 248 255 255
-0.08 -6.53 2.61 162 172 173
-0.08 -6.62 2.61 163 175 175
4.41 -6.63 -1.23 169 188 182
4.41 -6.73 -1.23 168 187 181
4.41 -6.83 -1.23 179 194 187
4.20 -6.93 -1.04 179 194 187
4.20 -7.03 -1.04 177 192 185
4.20 -7.13 -1.04 177 189 185
4.20 -7.23 -1.04 176 188 184
4.20 -7.33 -1.04 179 190 186
4.20 -7.43 -1.04 181 192 188
4.20 -7.52 -1.04 179 189 188
4.20 -7.62 -1.04 180 190 189
4.20 -7.72 -1.04 180 190 189
4.20 -7.82 -1.04 180 190 189
4.20 -7.92 -1.04 179 189 188
4.20 -8.02 -1.04 179 189 188
4.20 -8.12 -1.04 178 190 190
4.20 -8.21 -1.04 179 189 190
4.20 -8.31 -1.04 180 191 187
4.20 -8.41 -1.04 181 190 187
4.20 -8.51 -1.04 183 192 189
4.20 -8.61 -1.04 184 193 190
4.20 -8.71 -1.04 183 194 190
4.20 -8.81 -1.04 182 193 189
4.20 -8.90 -1.04 182 193 189
4.20 -9.00 -1.04 183 194 190
4.20 -9.10 -1.04 182 194 190
4.20 -9.20 -1.04 182 194 190
4.20 -9.30 -1.04 182 194 190
4.20 -9.40 -1.04 183 195 191
4.20 -9.50 -1.04 184 196 192
4.20 -9.59 -1.04 183 198 193
4.20 -9.69 -1.04 185 197 193
4.20 -9.79 -1.04 186 197 193
4.20 -9.89 -1.04 187 196 193
4.20 -9.99 -1.04 188 197 194
4.20 -10.09 -1.04 187 196 193
4.20 -10.19 -1.04 187 196 193
4.20 -10.28 -1.04 186 195 192
4.20 -10.38 -1.04 187 196 193
4.20 -10.48 -1.04 187 196 193
4.20 -10.58 -1.04 186 195 192
4.20 -10.68 -1.04 187 196 193
4.20 -10.78 -1.04 187 196 193
4.20 -10.88 -1.04 187 196 193
4.20 -10.97 -1.04 187 196 193
4.20 -11.07 -1.04 187 196 193
4.20 -11.17 -1.04 188 197 194
4.20 -11.27 -1.04 188 197 194
4.20 -11.37 -1.04 191 200 197
4.20 -11.47 -1.04 191 200 197
4.20 -11.57 -1.04 189 198 195
3.98 -11.64 -0.86 189 198 195
3.98 -11.74 -0.86 189 198 195
3.98 -11.84 -0.86 190 199 196
3.98 -11.94 -0.86 190 199 196
3.98 -12.04 -0.86 189 198 195
3.98 -12.13 -0.86 189 198 195
3.98 -12.23 -0.86 189 198 195
3.98 -12.33 -0.86 189 198 195
4.20 -12.45 -1.04 189 198 195
4.20 -12.55 -1.04 190 199 196
4.20 -12.65 -1.04 191 200 197
4.20 -12.75 -1.04 191 200 197
4.20 -12.85 -1.04 191 200 197
4.20 -12.95 -1.04 191 200 197
4.20 -13.04 -1.04 191 200 197
4.20 -13.14 -1.04 190 199 196
4.20 -13.24 -1.04 191 200 197
4.20 -13.34 -1.04 191 200 197
4.20 -13.44 -1.04 191 200 197
4.20 -13.54 -1.04 191 200 197
4.20 -13.64 -1.04 189 198 195
4.20 -13.73 -1.04 190 199 196
4.20 -13.83 -1.04 192 201 198
4.20 -13.93 -1.04 194 203 200
4.20 -14.03 -1.04 194 203 200
4.20 -14.13 -1.04 193 202 199
4.20 -14.23 -1.04 193 202 199
4.20 -14.33 -1.04 195 204 201
4.20 -14.42 -1.04 195 204 201
4.20 -14.52 -1.04 195 204 201
4.20 -14.62 -1.04 195 204 201
4.20 -14.72 -1.04 196 205 202
4.20 -14.82 -1.04 197 206 203
4.20 -14.92 -1.04 198 207 204
4.20 -15.02 -1.04 198 207 204
4.20 -15.11 -1.04 198 207 204
4.20 -15.21 -1.04 198 207 204
4.20 -15.31 -1.04 199 208 205
4.20 -15.41 -1.04 199 208 205
4.20 -15.51 -1.04 201 210 207
4.20 -15.61 -1.04 202 211 208
4.20 -15.71 -1.04 203 212 209
3.98 -15.76 -0.86 204 213 210
3.98 -15.86 -0.86 199 210 206
3.98 -15.96 -0.86 202 213 209
3.98 -16.06 -0.86 205 216 212
3.98 -16.15 -0.86 206 217 213
3.98 -16.25 -0.86 205 214 211
3.98 -16.35 -0.86 206 215 212
3.98 -16.45 -0.86 207 216 213
3.98 -16.55 -0.86 212 218 216
3.98 -16.65 -0.86 213 219 217
3.98 -16.74 -0.86 213 219 217
3.98 -16.84 -0.86 214 220 218
3.98 -16.94 -0.86 216 220 219
3.98 -17.04 -0.86 216 220 219
3.98 -17.14 -0.86 217 221 220
3.98 -17.23 -0.86 217 221 220
3.98 -17.33 -0.86 219 225 223
3.98 -17.43 -0.86 219 225 223
3.98 -17.53 -0.86 219 225 223
3.98 -17.63 -0.86 221 227 225
3.98 -17.72 -0.86 224 230 228
3.98 -17.82 -0.86 226 232 230
3.98 -17.92 -0.86 226 232 230
3.98 -18.02 -0.86 226 232 230
3.98 -18.12 -0.86 227 233 231
3.98 -18.21 -0.86 228 234 232
3.98 -18.31 -0.86 230 236 234
3.98 -18.41 -0.86 231 237 235
3.98 -18.51 -0.86 232 238 236
3.98 -18.61 -0.86 235 241 239
3.98 -18.70 -0.86 237 243 241
3.98 -18.80 -0.86 236 242 240
3.98 -18.90 -0.86 236 242 240
3.98 -19.00 -0.86 235 241 239
3.98 -19.10 -0.86 234 240 238
3.98 -19.20 -0.86 234 240 238
3.98 -19.29 -0.86 235 241 239
3.98 -19.39 -0.86 236 242 240
3.98 -19.49 -0.86 237 243 241
3.98 -19.59 -0.86 239 245 243
3.98 -19.69 -0.86 238 244 242
3.98 -19.78 -0.86 238 244 242
3.98 -19.88 -0.86 238 244 242
3.98 -19.98 -0.86 237 243 241
3.79 -20.02 -0.69 234 240 238
3.79 -20.12 -0.69 235 241 239
3.79 -20.22 -0.69 238 242 241
3.79 -20.32 -0.69 239 243 242
3.79 -20.41 -0.69 242 244 243
3.57 -20.45 -0.51 243 245 244
3.57 -20.54 -0.51 243 245 244
3.57 -20.64 -0.51 243 245 244
3.57 -20.74 -0.51 244 246 245
3.57 -20.83 -0.51 243 247 246
3.79 -21.00 -0.69 243 247 246
3.79 -21.10 -0.69 244 248 247
3.79 -21.19 -0.69 243 249 247
3.79 -21.29 -0.69 244 250 248
3.79 -21.39 -0.69 243 249 247
3.79 -21.49 -0.69 242 248 246
3.79 -21.59 -0.69 241 247 245
3.79 -21.68 -0.69 241 247 245
3.79 -21.78 -0.69 239 245 243
3.79 -22.27 -0.69 244 249 245
3.79 -22.37 -0.69 244 249 245
3.57 -22.39 -0.51 244 249 245
3.57 -22.49 -0.51 249 251 248
3.57 -22.58 -0.51 246 248 245
3.57 -22.68 -0.51 244 244 242
-8.29 15.48 9.53 0 0 0
-8.40 15.33 9.62 0 0 0
4.15 18.99 -1.13 155 146 137
4.36 19.02 -1.31 145 138 130
4.36 18.92 -1.31 143 136 128
4.36 18.82 -1.31 135 128 122
4.36 18.72 -1.31 137 132 128
4.55 18.74 -1.47 146 141 137
4.55 18.64 -1.47 142 137 131
4.55 18.54 -1.47 147 142 136
4.55 18.44 -1.47 143 139 130
4.36 18.23 -1.31 145 141 132
4.36 18.13 -1.31 145 143 131
4.36 18.03 -1.31 144 141 132
4.36 17.93 -1.31 145 142 133
4.36 17.83 -1.31 146 143 136
4.36 17.73 -1.31 143 142 137
4.36 17.63 -1.31 141 140 135
4.36 17.53 -1.31 141 141 133
4.36 17.44 -1.31 142 142 134
