ply
format ascii 1.0
element vertex 1651
property float x
property float y
property float z
property uchar red
property uchar green
property uchar blue
end_header
13.01 0.76 -1.60 52 121 163
13.01 0.65 -1.60 50 121 163
13.01 0.54 -1.60 52 123 165
12.72 0.39 -1.39 53 124 166
12.72 0.27 -1.39 52 123 165
12.72 0.16 -1.39 52 125 168
12.72 0.05 -1.39 52 125 168
12.72 -0.06 -1.39 52 125 168
12.72 -0.17 -1.39 53 126 169
12.72 -0.28 -1.39 54 125 169
12.72 -0.40 -1.39 55 126 170
12.72 -0.51 -1.39 55 126 170
12.47 -0.65 -1.21 56 127 171
12.47 -0.76 -1.21 55 126 172
12.47 -0.87 -1.21 57 128 174
12.47 -0.99 -1.21 59 129 178
12.47 -1.10 -1.21 58 128 177
12.18 -1.46 -1.00 60 130 182
12.18 -1.57 -1.00 59 133 182
12.18 -1.68 -1.00 58 132 181
11.90 -1.82 -0.80 57 131 180
11.90 -1.93 -0.80 57 131 180
11.90 -2.04 -0.80 56 130 179
11.90 -2.15 -0.80 57 131 180
11.90 -2.26 -0.80 58 131 182
11.90 -2.37 -0.80 59 132 183
11.90 -2.48 -0.80 58 134 184
11.64 -2.62 -0.61 57 133 183
11.64 -2.73 -0.61 56 132 182
11.64 -2.84 -0.61 56 132 182
11.64 -2.95 -0.61 58 134 186
11.38 -3.08 -0.43 59 135 187
11.38 -3.19 -0.43 58 134 186
11.38 -3.29 -0.43 59 132 185
11.38 -3.40 -0.43 58 130 180
11.38 -3.51 -0.43 59 130 182
11.10 -3.64 -0.22 58 131 186
11.10 -3.75 -0.22 57 129 187
11.10 -3.86 -0.22 57 130 185
11.10 -3.97 -0.22 59 128 183
11.10 -4.07 -0.22 61 127 177
10.84 -4.20 -0.03 62 130 177
10.84 -4.31 -0.03 57 129 177
10.84 -4.41 -0.03 54 130 180
10.84 -4.52 -0.03 53 129 179
10.84 -4.63 -0.03 58 128 177
10.84 -4.74 -0.03 73 136 180
10.84 -4.85 -0.03 89 143 181
10.84 -4.95 -0.03 100 141 169
12.13 19.98 -1.10 64 63 59
12.41 20.01 -1.30 89 88 83
12.41 19.90 -1.30 163 162 157
12.41 19.79 -1.30 158 158 148
12.41 19.68 -1.30 156 156 146
12.41 19.57 -1.30 149 149 139
12.41 19.24 -1.30 157 154 149
12.41 19.13 -1.30 152 149 144
12.41 19.01 -1.30 155 151 148
12.41 18.90 -1.30 154 155 147
12.41 18.79 -1.30 152 153 145
12.41 18.68 -1.30 153 154 146
12.67 18.70 -1.49 154 155 147
12.41 18.46 -1.30 154 157 150
12.41 18.35 -1.30 153 156 149
12.41 18.24 -1.30 153 156 149
12.41 18.13 -1.30 153 156 149
12.67 18.14 -1.49 154 157 150
12.67 18.03 -1.49 154 157 150
12.67 17.92 -1.49 156 157 151
12.67 17.80 -1.49 157 158 152
12.67 17.69 -1.49 158 159 153
12.67 17.58 -1.49 159 160 154
12.67 17.47 -1.49 160 159 154
12.67 17.36 -1.49 156 156 148
12.67 17.25 -1.49 157 157 149
12.41 17.01 -1.30 158 157 152
12.41 16.90 -1.30 158 157 152
12.41 16.79 -1.30 157 158 152
12.41 16.68 -1.30 157 158 152
12.41 16.57 -1.30 157 158 152
12.67 16.58 -1.49 158 159 153
12.67 16.46 -1.49 155 156 148
12.67 16.35 -1.49 156 157 149
12.41 16.13 -1.30 157 158 150
12.41 16.01 -1.30 159 160 152
12.41 15.90 -1.30 159 161 150
12.41 15.79 -1.30 159 161 150
12.41 15.68 -1.30 159 161 150
12.67 15.68 -1.49 158 160 149
12.67 15.57 -1.49 161 163 152
12.67 15.46 -1.49 160 162 151
12.41 15.24 -1.30 160 162 151
12.41 15.13 -1.30 159 161 150
12.41 15.01 -1.30 159 161 150
12.41 14.90 -1.30 159 161 150
12.41 14.79 -1.30 159 161 150
12.67 14.79 -1.49 159 160 152
12.67 14.68 -1.49 159 160 152
12.41 14.46 -1.30 160 161 153
12.41 14.35 -1.30 160 161 153
12.41 14.24 -1.30 161 162 154
12.41 14.13 -1.30 161 162 154
12.41 14.01 -1.30 161 162 154
12.41 13.90 -1.30 161 162 156
12.41 13.79 -1.30 162 163 157
12.41 13.68 -1.30 161 162 157
12.41 13.57 -1.30 161 162 154
12.41 13.46 -1.30 162 163 155
12.67 13.45 -1.49 163 165 154
12.67 13.34 -1.49 163 165 154
12.67 13.23 -1.49 161 163 150
12.67 13.11 -1.49 160 162 149
12.67 13.00 -1.49 163 165 151
12.67 12.89 -1.49 162 165 148
12.67 12.78 -1.49 167 172 149
12.67 12.67 -1.49 175 182 151
12.67 12.56 -1.49 176 186 149
-3.15 6.47 9.97 180 191 148
-3.15 6.39 9.97 185 199 148
-3.15 6.31 9.97 184 202 144
-3.15 6.23 9.97 192 213 144
-3.15 6.16 9.97 195 216 151
-3.26 6.04 10.05 201 216 157
-3.26 5.96 10.05 203 218 161
-3.26 5.88 10.05 203 216 163
-3.26 5.80 10.05 197 210 157
-3.26 5.72 10.05 189 203 154
-3.40 5.60 10.16 182 201 156
-3.40 5.52 10.16 162 186 152
-3.40 5.44 10.16 153 182 162
-3.40 5.36 10.16 148 182 184
-3.54 5.24 10.26 121 161 186
-3.54 5.16 10.26 84 126 174
-3.54 5.08 10.26 54 102 168
-3.54 5.00 10.26 38 90 173
-3.54 4.93 10.26 21 84 179
-3.54 4.85 10.26 20 85 187
-3.54 4.77 10.26 23 86 191
-3.54 4.70 10.26 30 87 190
-3.66 4.58 10.34 43 96 188
-3.66 4.50 10.34 64 109 190
-3.66 4.43 10.34 82 122 184
-3.66 4.35 10.34 96 128 175
-3.66 4.27 10.34 105 129 165
-3.66 4.20 10.34 132 147 170
-3.66 4.12 10.34 139 150 170
-3.66 4.04 10.34 144 154 166
-3.66 3.97 10.34 150 161 167
-3.66 3.89 10.34 156 168 168
13.81 8.31 -2.32 165 174 169
13.81 8.20 -2.32 169 178 173
13.81 8.08 -2.32 168 177 172
13.81 7.97 -2.32 166 175 170
13.81 7.86 -2.32 165 174 169
13.81 7.74 -2.32 165 174 169
13.81 7.63 -2.32 166 175 170
13.81 7.51 -2.32 167 176 171
14.12 7.49 -2.54 168 177 172
13.81 7.29 -2.32 165 176 168
13.81 7.17 -2.32 167 178 170
13.81 7.06 -2.32 167 180 171
13.81 6.94 -2.32 167 180 170
13.81 6.83 -2.32 167 180 170
13.81 6.72 -2.32 168 182 167
13.81 6.60 -2.32 168 182 167
13.81 6.49 -2.32 163 176 159
13.81 6.37 -2.32 167 179 165
13.81 6.26 -2.32 170 187 171
13.81 6.14 -2.32 176 192 181
13.81 6.03 -2.32 180 200 189
13.81 5.92 -2.32 186 207 200
13.81 5.80 -2.32 191 214 208
13.81 5.69 -2.32 196 216 214
13.81 5.57 -2.32 191 206 201
13.81 5.46 -2.32 180 191 187
13.81 5.35 -2.32 156 167 163
13.81 5.23 -2.32 132 143 139
13.81 5.12 -2.32 109 122 115
13.81 5.00 -2.32 89 102 95
13.81 4.89 -2.32 72 84 80
13.81 4.78 -2.32 62 74 72
13.81 4.66 -2.32 62 78 77
13.81 4.55 -2.32 62 80 84
13.81 4.43 -2.32 62 85 91
13.81 4.32 -2.32 65 93 105
13.81 4.21 -2.32 70 108 129
13.81 4.09 -2.32 67 112 135
13.81 3.98 -2.32 62 113 142
13.81 3.86 -2.32 47 113 148
13.52 3.69 -2.11 46 115 156
13.52 3.58 -2.11 48 117 156
13.52 3.46 -2.11 47 115 154
13.52 3.35 -2.11 49 114 154
13.52 3.24 -2.11 50 115 155
13.52 3.12 -2.11 50 118 155
13.52 3.01 -2.11 49 119 155
13.52 2.90 -2.11 47 120 155
13.52 2.78 -2.11 44 118 153
13.52 2.67 -2.11 41 115 150
13.52 2.56 -2.11 41 114 149
13.52 2.44 -2.11 45 114 153
13.52 2.33 -2.11 51 116 156
13.24 2.16 -1.90 55 118 159
13.24 2.05 -1.90 56 119 162
13.24 1.94 -1.90 51 120 162
13.24 1.82 -1.90 49 120 164
13.24 1.71 -1.90 48 119 163
13.24 1.60 -1.90 48 119 163
12.95 1.44 -1.70 51 119 164
12.95 1.33 -1.70 53 121 166
12.95 1.21 -1.70 53 121 166
12.95 1.10 -1.70 50 118 163
12.95 0.99 -1.70 51 119 164
12.95 0.88 -1.70 52 120 165
12.95 0.76 -1.70 51 119 164
12.95 0.65 -1.70 50 121 163
12.95 0.54 -1.70 51 122 164
12.67 0.39 -1.49 51 124 165
12.67 0.27 -1.49 49 122 163
12.67 0.16 -1.49 51 124 167
12.67 0.05 -1.49 51 124 167
12.67 -0.06 -1.49 51 124 167
12.67 -0.17 -1.49 51 124 167
12.67 -0.28 -1.49 52 125 168
12.67 -0.40 -1.49 53 126 169
12.41 -0.54 -1.30 54 125 169
12.41 -0.65 -1.30 54 125 169
12.41 -0.76 -1.30 55 126 172
12.41 -0.87 -1.30 56 127 173
12.41 -0.99 -1.30 56 126 175
12.41 -1.10 -1.30 54 124 173
12.13 -1.24 -1.10 54 121 173
12.13 -1.35 -1.10 54 121 173
12.13 -1.46 -1.10 59 126 179
12.13 -1.57 -1.10 57 129 177
12.13 -1.68 -1.10 57 129 177
11.84 -1.82 -0.89 55 129 178
11.84 -1.93 -0.89 54 128 177
11.84 -2.04 -0.89 54 128 177
11.84 -2.15 -0.89 56 130 179
11.84 -2.26 -0.89 57 131 180
11.84 -2.37 -0.89 57 131 180
11.84 -2.48 -0.89 59 132 183
11.58 -2.62 -0.71 58 131 182
11.58 -2.73 -0.71 55 131 181
11.58 -2.84 -0.71 55 131 181
11.58 -2.95 -0.71 57 133 185
11.58 -3.06 -0.71 58 134 186
11.33 -3.19 -0.52 57 133 185
11.33 -3.29 -0.52 58 131 184
11.33 -3.40 -0.52 60 131 183
11.33 -3.51 -0.52 59 130 184
11.33 -3.62 -0.52 57 129 187
11.04 -3.75 -0.31 56 128 187
11.04 -3.86 -0.31 55 128 183
11.04 -3.97 -0.31 57 126 181
11.04 -4.07 -0.31 59 127 176
10.79 -4.20 -0.13 54 125 171
10.79 -4.31 -0.13 54 126 174
10.79 -4.41 -0.13 53 129 178
10.79 -4.52 -0.13 54 128 177
10.79 -4.85 -0.13 92 144 181
10.79 -4.95 -0.13 102 144 169
10.79 -5.06 -0.13 69 101 112
10.79 -5.17 -0.13 92 118 119
12.07 19.98 -1.19 73 72 70
12.07 19.86 -1.19 155 154 149
12.07 19.75 -1.19 162 161 156
12.35 19.79 -1.40 149 149 139
12.35 19.68 -1.40 152 152 142
12.35 19.57 -1.40 153 153 141
12.35 19.24 -1.40 154 151 144
12.35 19.13 -1.40 154 151 144
12.35 19.01 -1.40 158 155 150
12.35 18.90 -1.40 154 155 147
12.35 18.79 -1.40 152 153 145
12.35 18.68 -1.40 153 154 146
12.35 18.57 -1.40 154 155 147
12.35 18.46 -1.40 154 157 150
12.35 18.35 -1.40 153 156 149
12.35 18.24 -1.40 153 156 149
12.61 18.25 -1.59 154 157 150
12.61 18.14 -1.59 155 158 151
12.61 18.03 -1.59 155 158 151
12.61 17.92 -1.59 156 157 151
12.61 17.80 -1.59 157 158 152
12.61 17.69 -1.59 158 157 152
12.61 17.58 -1.59 158 157 152
12.35 17.35 -1.40 158 157 152
12.35 17.24 -1.40 155 156 150
12.35 17.13 -1.40 156 157 151
12.35 17.01 -1.40 156 157 151
12.35 16.90 -1.40 156 157 151
12.35 16.79 -1.40 156 157 151
12.35 16.68 -1.40 156 157 151
12.35 16.57 -1.40 157 158 150
12.35 16.46 -1.40 158 159 151
12.35 16.35 -1.40 157 158 150
12.35 16.24 -1.40 158 159 151
12.35 16.13 -1.40 159 161 150
12.35 16.01 -1.40 159 161 150
12.35 15.90 -1.40 159 161 150
12.35 15.79 -1.40 158 160 149
12.35 15.68 -1.40 158 160 147
12.35 15.57 -1.40 157 159 146
12.35 15.46 -1.40 160 162 151
12.35 15.35 -1.40 160 162 151
12.35 15.24 -1.40 160 162 151
12.35 15.13 -1.40 159 161 150
12.35 15.01 -1.40 160 161 153
12.35 14.90 -1.40 160 161 153
12.35 14.79 -1.40 160 161 153
12.35 14.68 -1.40 160 161 153
12.35 14.57 -1.40 159 160 152
12.35 14.46 -1.40 159 160 154
12.35 14.35 -1.40 160 161 155
12.35 14.24 -1.40 162 163 157
12.35 14.13 -1.40 163 164 158
12.35 14.01 -1.40 162 163 157
12.35 13.90 -1.40 162 163 158
12.35 13.79 -1.40 162 163 158
12.35 13.68 -1.40 162 162 160
12.35 13.57 -1.40 162 163 157
12.35 13.46 -1.40 163 164 158
12.35 13.35 -1.40 164 166 155
12.35 13.24 -1.40 164 166 155
12.35 13.13 -1.40 163 165 151
12.35 13.01 -1.40 162 164 150
12.35 12.90 -1.40 163 166 147
12.35 12.79 -1.40 163 166 145
12.35 12.68 -1.40 170 177 146
12.61 12.67 -1.59 178 186 149
12.61 12.56 -1.59 178 189 146
-3.19 6.47 9.90 182 194 144
-3.19 6.39 9.90 186 201 144
-3.19 6.31 9.90 185 204 140
-3.19 6.23 9.90 196 220 144
-3.19 6.16 9.90 202 224 149
-3.30 6.04 9.99 205 227 155
-3.30 5.96 9.99 206 226 157
-3.30 5.88 9.99 199 220 155
-3.44 5.75 10.09 188 210 146
-3.44 5.67 10.09 177 202 144
-3.44 5.60 10.09 167 199 149
-3.44 5.52 10.09 146 183 142
-3.58 5.39 10.19 127 171 146
-3.58 5.31 10.19 106 155 149
-3.58 5.24 10.19 70 127 138
-3.58 5.16 10.19 37 96 126
-3.58 5.08 10.19 23 87 131
-3.58 5.00 10.19 22 88 146
-3.58 4.93 10.19 10 77 145
-3.58 4.85 10.19 13 79 155
-3.70 4.73 10.28 15 81 157
-3.70 4.66 10.28 19 81 156
-3.70 4.58 10.28 33 90 161
-3.70 4.50 10.28 52 104 164
-3.70 4.43 10.28 66 113 159
-3.70 4.35 10.28 74 112 148
-3.70 4.27 10.28 97 129 154
-3.70 4.20 10.28 125 143 163
-3.70 4.12 10.28 136 149 166
-3.70 4.04 10.28 141 153 169
-3.70 3.97 10.28 147 157 169
-3.70 3.89 10.28 151 165 168
13.75 8.31 -2.42 165 174 169
13.75 8.20 -2.42 162 171 166
13.75 8.08 -2.42 165 174 169
13.75 7.97 -2.42 168 177 172
13.75 7.86 -2.42 171 180 175
13.75 7.74 -2.42 173 179 175
13.75 7.63 -2.42 172 178 174
13.75 7.51 -2.42 169 175 171
13.75 7.40 -2.42 165 174 171
13.75 7.29 -2.42 162 174 174
13.75 7.17 -2.42 163 177 178
13.75 7.06 -2.42 166 178 178
13.75 6.94 -2.42 165 177 173
13.75 6.83 -2.42 167 179 175
13.75 6.72 -2.42 169 182 173
13.75 6.60 -2.42 171 184 175
13.75 6.49 -2.42 168 184 173
13.75 6.37 -2.42 165 181 170
13.75 6.26 -2.42 162 178 167
13.75 6.14 -2.42 162 178 167
13.75 6.03 -2.42 162 179 169
13.75 5.92 -2.42 164 181 171
13.75 5.80 -2.42 161 181 170
13.75 5.69 -2.42 161 181 170
13.75 5.57 -2.42 166 184 172
13.75 5.46 -2.42 167 184 174
13.75 5.35 -2.42 173 189 179
13.75 5.23 -2.42 180 195 188
13.75 5.12 -2.42 189 201 197
13.75 5.00 -2.42 191 203 199
13.75 4.89 -2.42 188 198 197
13.75 4.78 -2.42 183 193 192
13.75 4.66 -2.42 157 169 169
13.75 4.55 -2.42 135 149 150
13.75 4.43 -2.42 102 123 128
13.75 4.32 -2.42 75 102 111
13.75 4.21 -2.42 41 84 100
13.75 4.09 -2.42 28 76 96
13.75 3.98 -2.42 15 71 94
13.75 3.86 -2.42 33 94 125
13.75 3.75 -2.42 36 99 134
13.46 3.58 -2.21 43 106 141
13.46 3.46 -2.21 50 110 146
13.46 3.35 -2.21 54 114 151
13.46 3.24 -2.21 54 116 153
13.46 3.12 -2.21 51 116 154
13.46 3.01 -2.21 46 116 152
13.46 2.90 -2.21 41 119 155
13.46 2.78 -2.21 41 121 158
13.46 2.67 -2.21 39 123 159
13.46 2.56 -2.21 42 124 162
13.46 2.44 -2.21 43 125 165
13.46 2.33 -2.21 45 122 164
13.18 2.16 -2.00 46 119 164
13.18 2.05 -2.00 46 117 163
13.18 1.94 -2.00 49 120 162
13.18 1.82 -2.00 47 118 160
13.18 1.71 -2.00 48 117 159
13.18 1.60 -2.00 47 116 158
12.90 1.44 -1.79 49 118 160
12.90 1.33 -1.79 52 119 162
12.90 1.21 -1.79 52 119 162
12.90 1.10 -1.79 51 119 164
12.90 0.99 -1.79 52 120 165
12.90 0.88 -1.79 52 120 165
12.90 0.76 -1.79 51 119 164
12.90 0.65 -1.79 49 120 164
12.90 0.54 -1.79 50 121 165
12.90 0.43 -1.79 48 121 164
12.61 0.27 -1.59 46 119 162
12.61 0.16 -1.59 50 121 165
12.61 0.05 -1.59 50 121 165
12.61 -0.06 -1.59 50 121 165
12.61 -0.17 -1.59 50 121 165
12.61 -0.28 -1.59 51 124 165
12.61 -0.40 -1.59 52 125 166
12.35 -0.54 -1.40 52 125 168
12.35 -0.65 -1.40 52 125 168
12.35 -0.76 -1.40 54 127 170
12.35 -0.87 -1.40 53 126 169
12.35 -0.99 -1.40 53 124 170
12.35 -1.10 -1.40 52 123 169
12.35 -1.21 -1.40 53 121 170
12.07 -1.35 -1.19 54 122 171
12.07 -1.46 -1.19 58 125 177
12.07 -1.57 -1.19 55 125 174
12.07 -1.68 -1.19 56 126 175
11.79 -1.82 -0.99 56 126 175
11.79 -1.93 -0.99 55 125 174
11.79 -2.04 -0.99 55 127 175
11.79 -2.15 -0.99 58 130 178
11.79 -2.26 -0.99 59 131 181
11.79 -2.37 -0.99 59 131 181
11.79 -2.48 -0.99 58 132 181
11.53 -2.62 -0.80 58 132 181
11.53 -2.73 -0.80 57 131 180
11.53 -2.84 -0.80 57 131 180
11.53 -2.95 -0.80 56 132 182
11.53 -3.06 -0.80 57 133 183
11.53 -3.16 -0.80 57 133 183
11.27 -3.29 -0.61 58 131 182
11.27 -3.40 -0.61 61 133 183
11.27 -3.51 -0.61 59 130 182
11.27 -3.62 -0.61 56 129 184
10.99 -3.75 -0.41 53 128 185
10.99 -3.86 -0.41 54 127 182
10.99 -3.97 -0.41 54 125 179
10.99 -4.07 -0.41 58 126 173
10.99 -4.18 -0.41 52 123 167
10.73 -4.31 -0.22 53 126 171
10.73 -4.41 -0.22 53 129 178
10.73 -4.52 -0.22 53 127 176
10.73 -4.85 -0.22 91 141 178
10.48 -4.97 -0.03 99 139 165
10.48 -5.07 -0.03 74 102 113
10.73 -5.17 -0.22 93 114 115
12.01 20.20 -1.29 57 57 57
12.30 20.24 -1.50 79 79 79
12.01 19.98 -1.29 130 129 127
12.01 19.86 -1.29 164 163 158
12.01 19.75 -1.29 144 144 136
12.01 19.64 -1.29 155 155 145
12.01 19.53 -1.29 153 153 141
12.01 19.42 -1.29 153 154 140
12.01 19.31 -1.29 150 151 137
12.01 19.20 -1.29 150 148 136
12.30 19.24 -1.50 154 151 142
12.30 19.13 -1.50 159 156 147
12.01 18.87 -1.29 158 155 148
12.01 18.76 -1.29 154 155 147
12.01 18.65 -1.29 152 153 145
12.30 18.68 -1.50 151 154 145
12.30 18.57 -1.50 153 156 147
12.30 18.46 -1.50 155 158 151
12.30 18.35 -1.50 154 157 150
12.30 18.24 -1.50 154 157 150
12.30 18.13 -1.50 154 157 150
12.30 18.01 -1.50 154 157 150
12.56 18.03 -1.68 155 158 151
12.56 17.92 -1.68 156 157 152
12.56 17.80 -1.68 156 157 152
12.56 17.69 -1.68 158 157 153
12.30 17.46 -1.50 158 157 153
12.30 17.35 -1.50 159 155 152
12.30 17.24 -1.50 156 157 151
12.30 17.13 -1.50 157 158 152
12.30 17.01 -1.50 157 158 152
12.30 16.90 -1.50 157 158 152
12.30 16.79 -1.50 157 158 150
12.01 16.55 -1.29 157 158 150
12.01 16.44 -1.29 158 159 151
12.01 16.33 -1.29 159 160 152
12.30 16.13 -1.50 160 162 151
12.30 16.01 -1.50 160 162 151
12.30 15.90 -1.50 160 162 149
12.30 15.79 -1.50 159 161 148
12.30 15.68 -1.50 159 161 148
12.30 15.57 -1.50 158 160 149
12.30 15.46 -1.50 159 161 150
12.30 15.35 -1.50 159 160 152
12.30 15.24 -1.50 159 160 152
12.30 15.13 -1.50 160 161 153
12.01 14.89 -1.29 160 161 153
12.01 14.78 -1.29 160 161 153
12.01 14.67 -1.29 161 162 156
12.01 14.56 -1.29 159 160 154
12.01 14.45 -1.29 159 160 154
12.01 14.34 -1.29 160 161 156
12.01 14.23 -1.29 161 162 157
12.01 14.12 -1.29 162 163 158
12.01 14.01 -1.29 162 163 158
12.01 13.90 -1.29 162 162 160
12.01 13.79 -1.29 163 163 161
12.01 13.68 -1.29 161 161 159
12.01 13.57 -1.29 162 162 160
12.01 13.46 -1.29 162 163 157
12.01 13.35 -1.29 162 163 157
12.01 13.23 -1.29 162 164 153
12.30 13.24 -1.50 163 165 154
12.30 13.13 -1.50 164 166 152
12.30 13.01 -1.50 165 168 151
12.30 12.90 -1.50 167 170 151
12.30 12.79 -1.50 166 170 147
12.30 12.68 -1.50 172 179 146
-3.34 6.58 9.92 179 187 148
-3.34 6.50 9.92 179 191 143
-3.34 6.42 9.92 183 196 142
-3.34 6.35 9.92 187 203 140
-3.34 6.27 9.92 189 205 142
-3.34 6.19 9.92 198 216 158
-3.34 6.11 9.92 199 219 160
-3.34 6.04 9.92 197 215 163
-3.34 5.96 9.92 189 211 164
-3.48 5.83 10.02 179 201 163
-3.48 5.75 10.02 164 188 162
-3.62 5.62 10.13 151 179 167
-3.62 5.54 10.13 130 163 168
-3.62 5.47 10.13 109 146 172
-3.62 5.39 10.13 80 125 167
-3.62 5.31 10.13 51 101 164
-3.62 5.24 10.13 25 82 163
-3.62 5.16 10.13 18 78 174
-3.74 5.04 10.21 18 83 187
-3.74 4.97 10.21 17 83 193
-3.74 4.89 10.21 18 85 192
-3.74 4.81 10.21 15 82 189
-3.74 4.73 10.21 13 77 187
-3.74 4.66 10.21 13 76 182
-3.74 4.58 10.21 23 83 181
-3.74 4.50 10.21 40 96 181
-3.74 4.43 10.21 60 111 177
-3.74 4.35 10.21 74 117 168
-3.88 4.23 10.31 89 127 164
-3.88 4.15 10.31 116 138 162
-3.74 4.12 10.21 130 147 165
-3.74 4.04 10.21 139 151 163
-3.74 3.97 10.21 143 154 158
-3.74 3.89 10.21 150 161 157
-3.74 3.81 10.21 157 168 162
-3.62 3.77 10.13 159 168 163
12.01 7.82 -1.29 162 171 168
12.01 7.71 -1.29 167 173 171
12.84 7.84 -1.89 166 172 170
12.84 7.73 -1.89 165 171 169
12.84 7.61 -1.89 164 170 168
12.01 7.27 -1.29 164 170 168
12.30 7.24 -1.50 165 171 169
12.30 7.13 -1.50 166 172 168
12.56 7.09 -1.68 167 173 171
12.56 6.97 -1.68 169 174 177
13.41 7.09 -2.31 170 175 179
13.41 6.98 -2.31 170 174 177
13.41 6.87 -2.31 167 171 172
13.41 6.75 -2.31 170 174 175
13.41 6.64 -2.31 171 177 175
13.41 6.53 -2.31 171 177 175
13.41 6.41 -2.31 167 177 176
13.41 6.30 -2.31 166 176 175
13.41 6.19 -2.31 165 175 174
13.41 6.07 -2.31 167 176 175
13.69 6.03 -2.51 168 177 174
13.69 5.92 -2.51 170 176 174
13.69 5.80 -2.51 169 174 168
13.69 5.69 -2.51 166 173 166
13.69 5.57 -2.51 167 179 167
13.69 5.46 -2.51 165 178 168
13.69 5.35 -2.51 163 176 167
13.69 5.23 -2.51 164 176 172
13.69 5.12 -2.51 167 179 175
13.69 5.00 -2.51 170 182 180
13.69 4.89 -2.51 173 183 182
13.69 4.78 -2.51 173 183 182
13.69 4.66 -2.51 190 201 195
13.69 4.55 -2.51 193 204 198
13.69 4.43 -2.51 195 210 205
13.69 4.32 -2.51 197 213 210
13.69 4.21 -2.51 169 194 198
13.69 4.09 -2.51 142 171 179
13.69 3.98 -2.51 124 153 161
13.69 3.86 -2.51 96 121 126
13.69 3.75 -2.51 83 107 111
13.41 3.58 -2.31 64 84 91
13.41 3.46 -2.31 48 68 77
13.41 3.35 -2.31 45 67 78
13.41 3.24 -2.31 51 77 90
13.41 3.12 -2.31 55 91 105
13.41 3.01 -2.31 54 100 115
13.41 2.90 -2.31 53 109 124
13.41 2.78 -2.31 50 113 130
13.41 2.67 -2.31 46 117 137
13.41 2.56 -2.31 49 121 145
13.41 2.44 -2.31 52 121 150
13.41 2.33 -2.31 54 120 154
13.12 2.16 -2.10 54 117 152
13.12 2.05 -2.10 53 115 154
13.12 1.94 -2.10 51 119 158
13.12 1.82 -2.10 49 118 159
13.12 1.71 -2.10 49 118 159
13.12 1.60 -2.10 48 117 158
13.12 1.49 -2.10 49 116 159
12.84 1.33 -1.89 49 116 159
12.84 1.21 -1.89 50 117 160
12.84 1.10 -1.89 52 119 164
12.84 0.99 -1.89 52 119 164
12.84 0.88 -1.89 51 119 166
12.84 0.76 -1.89 50 118 165
12.84 0.65 -1.89 48 119 165
12.84 0.54 -1.89 49 120 166
12.84 0.43 -1.89 47 119 167
12.84 0.32 -1.89 44 116 164
12.56 0.16 -1.68 50 121 165
12.56 0.05 -1.68 49 120 164
12.56 -0.06 -1.68 48 119 163
12.56 -0.17 -1.68 49 120 164
12.56 -0.28 -1.68 50 123 166
12.56 -0.40 -1.68 51 124 167
12.56 -0.51 -1.68 51 124 167
12.30 -0.65 -1.50 50 123 166
12.30 -0.76 -1.50 53 126 169
12.30 -0.87 -1.50 52 125 168
12.30 -0.99 -1.50 52 123 169
12.30 -1.10 -1.50 52 123 169
12.30 -1.21 -1.50 55 123 172
12.01 -1.35 -1.29 56 124 173
12.01 -1.46 -1.29 57 123 173
12.01 -1.57 -1.29 57 125 174
12.01 -1.68 -1.29 59 127 176
11.73 -1.82 -1.08 59 127 176
11.73 -1.93 -1.08 58 126 175
11.73 -2.04 -1.08 57 127 176
11.73 -2.15 -1.08 59 129 178
11.73 -2.26 -1.08 60 130 179
11.73 -2.37 -1.08 59 129 178
11.73 -2.48 -1.08 57 129 177
11.47 -2.62 -0.89 58 130 178
11.47 -2.73 -0.89 57 131 178
11.47 -2.84 -0.89 57 131 178
11.47 -2.95 -0.89 57 131 178
11.47 -3.06 -0.89 57 131 178
11.47 -3.16 -0.89 57 131 178
11.22 -3.29 -0.71 59 131 179
11.22 -3.40 -0.71 59 131 179
11.22 -3.51 -0.71 57 129 179
11.22 -3.62 -0.71 54 127 180
11.22 -3.73 -0.71 53 128 183
10.93 -3.86 -0.50 54 127 180
10.93 -3.97 -0.50 53 124 176
10.93 -4.07 -0.50 54 125 169
10.93 -4.18 -0.50 52 125 168
10.68 -4.31 -0.31 53 127 172
10.68 -4.41 -0.31 53 129 178
10.68 -4.52 -0.31 54 128 177
10.42 -4.86 -0.13 89 139 176
10.42 -4.97 -0.13 96 133 160
12.24 20.35 -1.59 52 52 52
11.96 20.09 -1.39 114 114 114
11.96 19.98 -1.39 161 159 160
11.96 19.86 -1.39 150 149 145
11.96 19.75 -1.39 153 153 145
11.96 19.64 -1.39 153 153 143
11.96 19.53 -1.39 148 148 136
11.96 19.42 -1.39 152 153 137
11.96 19.31 -1.39 157 158 142
11.96 19.20 -1.39 156 154 141
11.96 19.09 -1.39 157 155 143
11.96 18.98 -1.39 158 156 144
11.96 18.87 -1.39 154 151 142
11.96 18.76 -1.39 153 154 146
11.96 18.65 -1.39 152 153 145
11.96 18.54 -1.39 151 154 145
11.96 18.43 -1.39 153 156 147
11.96 18.32 -1.39 155 158 151
11.96 18.21 -1.39 154 157 150
11.96 18.10 -1.39 154 157 150
12.24 18.13 -1.59 155 158 151
12.24 18.01 -1.59 154 157 150
12.24 17.90 -1.59 154 157 150
12.24 17.79 -1.59 156 157 152
12.24 17.68 -1.59 157 158 153
12.24 17.57 -1.59 158 157 153
12.24 17.46 -1.59 159 158 154
12.24 17.35 -1.59 159 158 154
12.24 17.24 -1.59 159 160 154
12.24 17.13 -1.59 158 161 154
11.96 16.88 -1.39 158 161 154
11.96 16.77 -1.39 157 160 153
11.96 16.66 -1.39 157 160 151
11.96 16.55 -1.39 158 161 152
11.96 16.44 -1.39 161 163 152
11.96 16.33 -1.39 162 164 153
12.24 16.13 -1.59 160 162 149
12.24 16.01 -1.59 160 162 149
12.24 15.90 -1.59 160 162 149
11.96 15.67 -1.39 161 163 150
11.96 15.56 -1.39 161 163 150
11.96 15.44 -1.39 161 163 152
11.96 15.33 -1.39 160 162 151
11.96 15.22 -1.39 160 161 153
11.96 15.11 -1.39 160 161 153
11.96 15.00 -1.39 160 161 153
11.96 14.89 -1.39 160 161 155
11.96 14.78 -1.39 160 161 155
11.96 14.67 -1.39 160 161 155
11.96 14.56 -1.39 157 158 153
11.96 14.45 -1.39 159 160 155
11.96 14.34 -1.39 161 161 159
11.96 14.23 -1.39 161 161 159
11.68 14.00 -1.18 160 160 158
11.68 13.89 -1.18 160 160 158
11.68 13.78 -1.18 161 161 159
11.68 13.67 -1.18 163 163 161
11.96 13.68 -1.39 160 160 160
11.96 13.57 -1.39 161 161 161
11.96 13.46 -1.39 161 162 157
11.96 13.35 -1.39 160 161 155
11.96 13.23 -1.39 160 161 153
11.96 13.12 -1.39 161 163 152
11.96 13.01 -1.39 164 166 152
11.96 12.90 -1.39 166 169 152
11.96 12.79 -1.39 171 174 153
11.96 12.68 -1.39 170 174 149
11.96 12.57 -1.39 174 181 147
-3.38 6.58 9.85 180 188 147
-3.38 6.50 9.85 179 191 141
-3.38 6.42 9.85 182 195 139
-3.38 6.35 9.85 187 203 138
-3.38 6.27 9.85 189 205 140
-3.52 6.14 9.96 192 208 146
-3.52 6.06 9.96 185 205 144
-3.52 5.98 9.96 176 197 140
-3.52 5.91 9.96 163 188 133
-3.52 5.83 9.96 148 175 132
-3.66 5.70 10.06 131 164 133
-3.66 5.62 10.06 118 154 142
-3.66 5.54 10.06 91 132 138
-3.66 5.47 10.06 63 108 137
-3.66 5.39 10.06 41 93 140
-3.66 5.31 10.06 34 92 156
-3.77 5.20 10.14 29 92 169
-3.77 5.12 10.14 24 91 178
-3.77 5.04 10.14 16 89 181
-3.77 4.97 10.14 11 85 180
-3.77 4.89 10.14 8 82 179
-3.77 4.81 10.14 7 81 180
-3.77 4.73 10.14 7 81 180
-3.77 4.66 10.14 9 81 179
-3.77 4.58 10.14 14 83 174
-3.77 4.50 10.14 24 90 168
-3.92 4.38 10.25 44 104 166
-3.92 4.30 10.25 65 117 164
-3.92 4.23 10.25 85 129 164
-3.92 4.15 10.25 109 136 157
-3.92 4.07 10.25 128 145 161
-3.77 4.04 10.14 137 150 159
-3.77 3.97 10.14 142 150 153
-3.77 3.89 10.14 149 159 151
-3.77 3.81 10.14 160 167 159
-3.66 3.77 10.06 159 170 164
11.96 7.82 -1.39 167 176 173
11.96 7.71 -1.39 166 172 170
11.96 7.60 -1.39 166 172 170
11.96 7.49 -1.39 167 173 171
11.96 7.38 -1.39 166 172 170
11.96 7.27 -1.39 166 172 170
12.78 7.39 -1.99 167 173 171
12.24 7.13 -1.59 168 174 172
12.50 7.09 -1.78 168 174 170
12.50 6.97 -1.78 166 177 169
12.50 6.86 -1.78 166 178 168
12.50 6.75 -1.78 167 177 166
12.50 6.64 -1.78 167 177 166
12.50 6.53 -1.78 170 180 171
12.50 6.42 -1.78 168 181 171
12.50 6.30 -1.78 165 178 171
12.78 6.27 -1.99 162 179 173
12.78 6.15 -1.99 164 180 177
12.78 6.04 -1.99 167 182 179
12.78 5.93 -1.99 169 181 179
13.07 5.89 -2.20 167 180 173
13.35 5.85 -2.40 168 178 170
13.35 5.73 -2.40 172 179 171
13.64 5.69 -2.61 175 180 173
13.64 5.57 -2.61 169 176 168
13.64 5.46 -2.61 168 177 172
13.64 5.35 -2.61 169 179 178
13.64 5.23 -2.61 166 180 181
13.64 5.12 -2.61 164 180 180
13.64 5.00 -2.61 161 179 181
13.64 4.89 -2.61 162 181 179
13.64 4.78 -2.61 164 180 177
13.64 4.66 -2.61 160 175 168
13.64 4.55 -2.61 164 175 167
13.64 4.43 -2.61 166 176 165
13.64 4.32 -2.61 169 176 168
13.64 4.21 -2.61 179 184 180
13.64 4.09 -2.61 189 195 195
13.64 3.98 -2.61 197 203 203
13.64 3.86 -2.61 209 218 213
13.35 3.69 -2.40 210 219 214
13.35 3.58 -2.40 211 217 215
13.35 3.46 -2.40 202 210 212
13.35 3.35 -2.40 183 194 198
13.35 3.24 -2.40 145 164 171
13.35 3.12 -2.40 97 127 137
13.07 2.95 -2.20 59 103 116
13.07 2.84 -2.20 32 90 104
13.07 2.73 -2.20 21 89 108
13.07 2.61 -2.20 10 88 111
13.35 2.56 -2.40 7 88 118
13.07 2.39 -2.20 12 95 129
13.35 2.33 -2.40 24 103 144
13.07 2.16 -2.20 35 112 156
13.07 2.05 -2.20 45 118 163
13.07 1.94 -2.20 47 119 159
13.07 1.82 -2.20 51 120 159
13.07 1.71 -2.20 52 121 160
13.07 1.60 -2.20 51 120 159
13.07 1.49 -2.20 49 116 158
13.07 1.37 -2.20 48 115 158
12.78 1.21 -1.99 49 116 159
12.78 1.10 -1.99 49 116 161
12.78 0.99 -1.99 50 117 162
12.78 0.88 -1.99 49 117 164
12.78 0.76 -1.99 49 117 164
12.78 0.65 -1.99 48 118 167
12.78 0.54 -1.99 50 120 169
12.78 0.43 -1.99 47 119 167
12.78 0.32 -1.99 45 117 165
12.78 0.20 -1.99 51 122 168
12.50 0.05 -1.78 50 121 167
12.50 -0.06 -1.78 49 120 164
12.50 -0.17 -1.78 49 120 164
12.50 -0.28 -1.78 49 122 165
12.50 -0.40 -1.78 49 122 165
12.50 -0.51 -1.78 48 121 164
12.24 -0.65 -1.59 47 120 163
12.24 -0.76 -1.59 51 124 167
12.24 -0.87 -1.59 50 123 166
12.24 -0.99 -1.59 50 121 165
12.24 -1.10 -1.59 51 122 166
12.24 -1.21 -1.59 54 122 169
11.96 -1.35 -1.39 55 123 170
11.96 -1.46 -1.39 52 118 168
11.96 -1.57 -1.39 57 123 173
11.96 -1.68 -1.39 59 125 175
11.96 -1.79 -1.39 58 126 175
11.68 -1.93 -1.18 56 124 173
11.68 -2.04 -1.18 56 124 173
11.68 -2.15 -1.18 58 126 175
11.68 -2.26 -1.18 56 126 175
11.68 -2.37 -1.18 54 124 173
11.68 -2.48 -1.18 56 127 173
11.68 -2.59 -1.18 58 129 175
11.42 -2.73 -0.99 58 131 176
11.42 -2.84 -0.99 58 131 176
11.42 -2.95 -0.99 56 129 174
11.42 -3.06 -0.99 56 129 174
11.42 -3.16 -0.99 56 130 175
11.16 -3.29 -0.80 58 131 176
11.16 -3.40 -0.80 57 130 175
11.16 -3.51 -0.80 55 127 175
11.16 -3.62 -0.80 53 126 177
11.16 -3.73 -0.80 52 128 180
10.88 -3.86 -0.59 54 127 178
10.88 -3.97 -0.59 53 125 175
10.88 -4.07 -0.59 53 124 168
10.88 -4.18 -0.59 50 123 166
10.62 -4.31 -0.41 50 124 169
10.62 -4.41 -0.41 51 127 176
10.62 -4.52 -0.41 54 128 177
10.37 -4.86 -0.22 94 142 180
10.37 -4.97 -0.22 99 134 162
11.90 20.42 -1.48 47 46 44
12.19 20.46 -1.69 67 65 66
11.90 20.20 -1.48 143 142 140
11.90 20.09 -1.48 170 169 167
11.62 19.83 -1.27 154 153 149
11.62 19.72 -1.27 149 149 141
11.62 19.61 -1.27 151 151 143
11.62 19.50 -1.27 150 147 138
11.62 19.39 -1.27 153 150 141
11.62 19.28 -1.27 156 153 144
11.62 19.17 -1.27 157 154 145
11.62 19.06 -1.27 156 151 145
11.62 18.95 -1.27 156 151 145
11.62 18.84 -1.27 157 152 146
11.62 18.73 -1.27 157 154 149
11.62 18.62 -1.27 153 152 147
11.62 18.51 -1.27 151 152 147
11.90 18.54 -1.48 152 153 147
11.90 18.43 -1.48 153 154 148
11.90 18.32 -1.48 154 157 150
11.90 18.21 -1.48 155 158 151
11.90 18.10 -1.48 154 157 148
11.90 17.99 -1.48 153 156 147
11.90 17.88 -1.48 152 155 144
11.90 17.77 -1.48 154 157 146
12.19 17.79 -1.69 157 159 148
12.19 17.68 -1.69 159 159 149
12.19 17.57 -1.69 159 159 147
11.90 17.32 -1.48 160 158 146
11.90 17.21 -1.48 161 158 149
11.90 17.10 -1.48 160 157 148
11.90 16.99 -1.48 160 157 150
11.90 16.88 -1.48 159 159 151
11.90 16.77 -1.48 159 159 151
11.90 16.66 -1.48 160 160 150
11.90 16.55 -1.48 161 161 151
11.90 16.44 -1.48 161 161 151
11.90 16.33 -1.48 161 161 151
11.90 16.22 -1.48 159 160 152
11.62 15.98 -1.27 160 161 153
11.90 15.78 -1.48 159 160 155
11.90 15.67 -1.48 158 159 154
11.90 15.56 -1.48 159 159 157
11.90 15.44 -1.48 160 161 156
11.90 15.33 -1.48 160 163 156
11.90 15.22 -1.48 160 163 154
11.90 15.11 -1.48 159 162 153
11.90 15.00 -1.48 159 162 153
11.90 14.89 -1.48 159 160 152
11.90 14.78 -1.48 159 160 152
11.62 14.55 -1.27 159 160 152
11.62 14.44 -1.27 159 160 154
11.62 14.33 -1.27 159 160 154
11.62 14.22 -1.27 159 161 156
11.62 14.11 -1.27 159 161 158
11.62 14.00 -1.27 157 162 158
11.62 13.89 -1.27 157 161 160
11.62 13.78 -1.27 157 161 160
11.62 13.67 -1.27 159 161 160
11.62 13.56 -1.27 161 162 164
11.62 13.45 -1.27 160 160 162
11.62 13.34 -1.27 156 160 161
11.62 13.23 -1.27 157 161 162
11.62 13.12 -1.27 154 163 160
11.62 13.01 -1.27 155 164 159
11.90 13.01 -1.48 158 168 157
11.90 12.90 -1.48 162 173 156
11.90 12.79 -1.48 165 175 151
-3.56 6.68 9.89 168 179 149
-3.42 6.66 9.78 170 182 144
-3.56 6.53 9.89 171 183 143
-3.56 6.45 9.89 174 190 145
-3.56 6.37 9.89 182 198 153
-3.56 6.29 9.89 185 205 156
-3.56 6.22 9.89 187 204 159
-3.56 6.14 9.89 180 193 163
-3.70 6.01 9.99 162 183 166
-3.56 5.98 9.89 149 177 178
-3.70 5.85 9.99 138 177 194
-3.70 5.78 9.99 117 165 201
-3.70 5.70 9.99 82 137 193
-3.81 5.58 10.08 51 111 181
-3.81 5.50 10.08 29 94 174
-3.81 5.43 10.08 27 93 180
-3.81 5.35 10.08 23 90 181
-3.81 5.27 10.08 21 87 181
-3.81 5.20 10.08 22 87 179
-3.81 5.12 10.08 22 87 179
-3.81 5.04 10.08 21 85 175
-3.81 4.97 10.08 16 83 172
-3.81 4.89 10.08 12 86 173
-3.81 4.81 10.08 11 87 175
-3.81 4.73 10.08 4 77 171
-3.81 4.66 10.08 8 77 170
-3.95 4.53 10.18 10 74 161
-3.95 4.46 10.18 23 81 163
-3.95 4.38 10.18 37 90 170
-3.95 4.30 10.18 60 107 175
-3.95 4.23 10.18 82 124 172
-3.95 4.15 10.18 106 137 165
-3.95 4.07 10.18 118 143 163
-3.81 4.04 10.08 130 154 158
-3.81 3.97 10.08 139 157 157
-3.81 3.89 10.08 145 161 161
-3.81 3.81 10.08 156 168 168
-3.70 3.77 9.99 158 169 165
-3.70 3.69 9.99 160 169 164
-3.70 3.62 9.99 161 170 165
11.62 7.74 -1.27 166 175 172
11.62 7.63 -1.27 166 172 170
11.62 7.52 -1.27 166 172 170
11.62 7.41 -1.27 167 173 171
11.62 7.30 -1.27 168 174 172
11.62 7.19 -1.27 168 174 172
11.62 7.08 -1.27 168 174 172
11.90 7.05 -1.48 168 174 170
12.19 7.01 -1.69 168 174 170
11.90 6.83 -1.48 169 178 175
11.90 6.71 -1.48 168 177 174
11.90 6.60 -1.48 166 175 172
11.90 6.49 -1.48 167 178 174
11.90 6.38 -1.48 168 179 175
11.90 6.27 -1.48 168 179 175
11.90 6.16 -1.48 167 178 174
12.19 6.13 -1.69 167 178 174
12.19 6.01 -1.69 168 179 175
12.19 5.90 -1.69 169 180 176
12.19 5.79 -1.69 168 179 175
12.19 5.68 -1.69 166 178 174
12.19 5.57 -1.69 165 177 173
12.19 5.46 -1.69 167 179 175
12.73 5.48 -2.09 169 180 176
12.19 5.24 -1.69 169 178 175
12.19 5.13 -1.69 171 177 175
13.29 5.28 -2.50 169 178 175
12.44 4.96 -1.88 169 178 175
13.58 5.12 -2.71 168 179 175
13.58 5.00 -2.71 168 179 175
13.58 4.89 -2.71 167 179 175
13.58 4.78 -2.71 167 179 175
13.58 4.66 -2.71 163 178 173
13.58 4.55 -2.71 164 179 174
13.58 4.43 -2.71 165 182 176
13.58 4.32 -2.71 164 181 175
13.58 4.21 -2.71 161 178 172
13.58 4.09 -2.71 159 178 172
13.58 3.98 -2.71 161 178 172
13.29 3.80 -2.50 161 178 170
13.29 3.69 -2.50 161 176 169
13.29 3.58 -2.50 164 177 170
13.29 3.46 -2.50 167 180 173
13.29 3.35 -2.50 175 186 180
13.29 3.24 -2.50 186 197 191
13.01 3.07 -2.29 199 208 203
13.01 2.95 -2.29 206 215 210
13.01 2.84 -2.29 206 215 212
13.01 2.73 -2.29 202 211 210
13.01 2.61 -2.29 190 200 199
13.01 2.50 -2.29 170 180 181
13.01 2.39 -2.29 140 151 153
13.01 2.28 -2.29 106 117 119
13.01 2.16 -2.29 75 89 92
13.01 2.05 -2.29 57 72 75
13.01 1.94 -2.29 42 66 68
13.01 1.82 -2.29 37 65 68
13.01 1.71 -2.29 38 67 71
13.01 1.60 -2.29 44 77 86
13.01 1.49 -2.29 55 91 103
13.01 1.37 -2.29 62 108 131
13.01 1.26 -2.29 60 109 139
12.73 1.10 -2.09 64 117 151
12.73 0.99 -2.09 59 114 153
12.73 0.88 -2.09 60 117 162
12.73 0.76 -2.09 58 116 164
12.73 0.65 -2.09 56 118 167
12.73 0.54 -2.09 57 119 170
12.73 0.43 -2.09 51 112 166
12.73 0.32 -2.09 49 112 165
12.73 0.20 -2.09 46 116 168
12.73 0.09 -2.09 52 122 173
12.44 -0.06 -1.88 51 119 168
12.44 -0.17 -1.88 50 117 162
12.44 -0.28 -1.88 55 119 163
12.44 -0.40 -1.88 53 118 160
12.44 -0.51 -1.88 49 118 160
12.44 -0.62 -1.88 54 125 169
12.19 -0.76 -1.69 49 123 168
12.19 -0.87 -1.69 48 124 173
12.19 -0.99 -1.69 48 126 174
12.19 -1.10 -1.69 49 125 174
12.19 -1.21 -1.69 50 124 171
11.90 -1.35 -1.48 52 123 167
11.90 -1.46 -1.48 59 123 167
11.90 -1.57 -1.48 54 122 171
11.90 -1.68 -1.48 54 121 174
11.90 -1.79 -1.48 55 122 177
11.90 -1.90 -1.48 55 122 177
11.62 -2.04 -1.27 56 123 178
11.62 -2.15 -1.27 57 124 179
11.62 -2.26 -1.27 60 127 182
11.62 -2.37 -1.27 62 129 184
11.62 -2.48 -1.27 59 129 181
11.62 -2.59 -1.27 56 126 178
11.37 -2.73 -1.08 52 124 174
11.37 -2.84 -1.08 53 125 175
11.37 -2.95 -1.08 57 130 175
11.37 -3.06 -1.08 59 132 177
11.37 -3.16 -1.08 58 133 175
11.37 -3.27 -1.08 58 129 173
11.11 -3.40 -0.90 62 129 171
11.11 -3.51 -0.90 61 126 168
11.11 -3.62 -0.90 54 126 166
11.11 -3.73 -0.90 52 125 166
10.83 -3.86 -0.69 52 124 172
10.83 -3.97 -0.69 53 123 174
10.83 -4.07 -0.69 53 123 174
10.57 -4.20 -0.50 50 123 164
10.57 -4.31 -0.50 56 131 173
10.57 -4.41 -0.50 50 126 175
10.57 -4.52 -0.50 53 126 179
10.57 -4.63 -0.50 65 127 184
10.32 -4.75 -0.31 83 136 188
10.32 -4.86 -0.31 98 142 181
10.32 -4.97 -0.31 102 134 157
10.32 -5.07 -0.31 104 125 130
10.32 -5.18 -0.31 101 116 111
12.13 20.57 -1.79 92 91 87
11.85 20.31 -1.58 140 139 137
11.57 20.05 -1.37 164 163 159
11.57 19.94 -1.37 154 153 149
11.57 19.83 -1.37 153 152 147
11.31 19.58 -1.18 152 149 142
11.31 19.47 -1.18 156 153 146
11.31 19.36 -1.18 154 151 144
11.31 19.25 -1.18 155 152 145
11.31 19.14 -1.18 155 152 145
11.31 19.03 -1.18 156 153 146
11.31 18.92 -1.18 156 153 146
11.31 18.82 -1.18 156 153 146
11.57 18.84 -1.37 156 153 146
11.57 18.73 -1.37 156 153 146
11.57 18.62 -1.37 153 152 147
11.31 18.38 -1.18 153 152 147
11.57 18.40 -1.37 151 152 146
11.57 18.29 -1.37 152 153 147
11.57 18.18 -1.37 154 155 147
11.57 18.07 -1.37 155 156 148
11.57 17.96 -1.37 153 156 147
11.57 17.85 -1.37 153 156 147
11.85 17.88 -1.58 153 154 146
11.85 17.77 -1.58 154 155 147
11.85 17.65 -1.58 156 156 146
11.85 17.54 -1.58 156 156 146
11.85 17.43 -1.58 158 155 146
11.57 17.19 -1.37 158 155 146
11.57 17.08 -1.37 160 157 148
11.57 16.97 -1.37 159 159 151
11.57 16.86 -1.37 159 159 151
11.57 16.75 -1.37 159 159 151
11.57 16.64 -1.37 159 159 151
11.57 16.53 -1.37 159 159 149
11.57 16.42 -1.37 159 159 149
11.57 16.31 -1.37 159 159 149
11.57 16.20 -1.37 159 159 149
11.57 16.09 -1.37 158 159 151
11.57 15.98 -1.37 159 160 152
11.57 15.65 -1.37 158 159 154
11.57 15.54 -1.37 157 158 153
11.57 15.43 -1.37 158 158 156
11.57 15.32 -1.37 159 160 155
11.57 15.21 -1.37 159 162 153
11.57 15.10 -1.37 159 162 151
11.57 14.99 -1.37 160 162 151
11.57 14.88 -1.37 160 162 151
11.57 14.77 -1.37 160 162 151
11.57 14.66 -1.37 160 162 151
11.57 14.55 -1.37 160 161 153
11.57 14.44 -1.37 161 162 154
11.57 14.33 -1.37 161 162 156
11.57 14.22 -1.37 160 163 156
11.57 14.11 -1.37 160 162 157
11.57 14.00 -1.37 158 163 159
11.57 13.89 -1.37 157 162 158
11.57 13.78 -1.37 157 161 160
11.31 13.57 -1.18 159 161 160
11.31 13.46 -1.18 159 161 160
11.31 13.35 -1.18 160 160 160
11.31 13.24 -1.18 159 163 162
11.31 13.13 -1.18 162 167 163
11.31 13.02 -1.18 162 169 162
11.31 12.91 -1.18 161 169 158
11.57 12.90 -1.37 160 169 152
11.57 12.79 -1.37 162 171 150
11.57 12.68 -1.37 158 169 139
-3.60 6.68 9.82 165 176 142
-3.60 6.60 9.82 172 187 148
-3.60 6.53 9.82 176 193 151
-3.74 6.39 9.93 176 198 152
-3.74 6.32 9.93 173 199 152
-3.74 6.24 9.93 167 194 149
-3.74 6.16 9.93 160 189 141
-3.74 6.08 9.93 139 177 128
-3.74 6.01 9.93 119 163 127
-3.74 5.93 9.93 91 140 119
-3.74 5.85 9.93 60 116 115
-3.74 5.78 9.93 38 99 117
-3.85 5.66 10.01 32 96 134
-3.85 5.58 10.01 32 99 152
-3.85 5.50 10.01 25 92 160
-3.85 5.43 10.01 24 91 169
-3.85 5.35 10.01 23 88 172
-3.85 5.27 10.01 22 86 176
-3.85 5.20 10.01 24 85 178
-3.99 5.07 10.11 25 85 181
-3.99 4.99 10.11 24 84 182
-3.99 4.92 10.11 19 82 179
-3.99 4.84 10.11 11 81 176
-3.99 4.76 10.11 9 82 177
-3.99 4.69 10.11 4 73 174
-3.99 4.61 10.11 7 75 174
-3.99 4.53 10.11 7 72 164
-3.99 4.46 10.11 17 77 165
-3.99 4.38 10.11 28 84 171
-3.99 4.30 10.11 54 103 179
-3.99 4.23 10.11 74 120 172
-3.99 4.15 10.11 98 131 164
-3.99 4.07 10.11 111 137 162
-3.85 4.04 10.01 124 146 157
-3.85 3.97 10.01 134 151 158
-3.85 3.89 10.01 143 156 162
-3.85 3.81 10.01 154 163 168
-3.74 3.77 9.93 158 169 165
-3.74 3.69 9.93 160 169 164
-3.74 3.62 9.93 162 171 166
11.31 7.66 -1.18 164 173 170
11.31 7.55 -1.18 163 172 169
11.31 7.44 -1.18 164 173 170
11.31 7.33 -1.18 166 172 170
11.31 7.22 -1.18 167 173 171
11.31 7.11 -1.18 167 173 171
11.06 6.93 -0.99 168 174 172
11.06 6.82 -0.99 169 175 173
11.57 6.86 -1.37 169 175 173
11.57 6.75 -1.37 167 176 173
11.31 6.57 -1.18 166 175 172
11.31 6.46 -1.18 165 174 171
11.31 6.35 -1.18 166 177 173
11.31 6.24 -1.18 167 178 174
11.57 6.20 -1.37 167 178 174
11.57 6.09 -1.37 167 178 174
11.57 5.98 -1.37 166 177 173
11.85 5.94 -1.58 168 179 175
11.85 5.83 -1.58 169 180 176
11.85 5.72 -1.58 168 179 175
11.85 5.61 -1.58 166 178 174
11.85 5.50 -1.58 165 177 173
11.85 5.39 -1.58 167 179 175
12.13 5.35 -1.79 169 180 176
12.13 5.24 -1.79 168 179 175
12.13 5.13 -1.79 169 178 175
12.39 5.08 -1.97 169 178 175
12.39 4.96 -1.97 169 178 175
12.67 4.92 -2.18 169 178 175
13.52 5.00 -2.81 169 178 175
13.52 4.89 -2.81 169 180 176
13.24 4.71 -2.60 169 180 176
13.24 4.60 -2.60 168 180 176
13.24 4.48 -2.60 169 181 177
13.24 4.37 -2.60 167 182 177
13.24 4.26 -2.60 167 182 177
13.24 4.14 -2.60 165 180 175
13.24 4.03 -2.60 165 180 175
13.24 3.92 -2.60 164 179 174
13.24 3.80 -2.60 166 179 172
13.24 3.69 -2.60 167 180 173
13.24 3.58 -2.60 167 180 173
12.95 3.40 -2.39 167 180 173
12.95 3.29 -2.39 166 177 171
12.95 3.18 -2.39 165 176 170
12.95 3.07 -2.39 166 175 170
12.95 2.95 -2.39 166 175 170
12.95 2.84 -2.39 163 172 169
12.95 2.73 -2.39 168 177 174
12.95 2.61 -2.39 174 184 183
12.95 2.50 -2.39 181 191 192
12.95 2.39 -2.39 185 197 197
12.95 2.28 -2.39 187 198 200
12.95 2.16 -2.39 188 199 201
12.95 2.05 -2.39 183 200 207
12.95 1.94 -2.39 163 196 205
12.95 1.82 -2.39 144 183 198
12.95 1.71 -2.39 120 162 178
12.95 1.60 -2.39 95 140 159
12.95 1.49 -2.39 75 123 146
12.95 1.37 -2.39 40 95 126
12.67 1.21 -2.18 29 88 122
12.67 1.10 -2.18 23 85 124
12.67 0.99 -2.18 21 84 127
12.67 0.88 -2.18 26 93 138
12.67 0.76 -2.18 31 97 147
12.67 0.65 -2.18 39 107 156
12.67 0.54 -2.18 50 117 169
12.67 0.43 -2.18 51 118 171
12.67 0.32 -2.18 52 123 175
12.67 0.20 -2.18 41 122 167
12.67 0.09 -2.18 42 125 169
12.39 -0.06 -1.97 41 124 166
12.39 -0.17 -1.97 43 122 165
12.39 -0.28 -1.97 45 123 162
12.39 -0.40 -1.97 47 120 161
12.39 -0.51 -1.97 46 120 159
12.39 -0.62 -1.97 50 122 162
12.13 -0.76 -1.79 48 119 161
12.13 -0.87 -1.79 48 119 163
12.13 -0.99 -1.79 48 119 165
12.13 -1.10 -1.79 47 117 168
12.13 -1.21 -1.79 46 117 169
11.85 -1.35 -1.58 47 118 174
11.85 -1.46 -1.58 50 123 174
11.85 -1.57 -1.58 45 118 159
11.85 -1.68 -1.58 50 124 159
11.85 -1.79 -1.58 55 129 166
11.85 -1.90 -1.58 55 129 166
11.57 -2.04 -1.37 51 126 165
11.57 -2.15 -1.37 48 123 162
11.57 -2.26 -1.37 46 124 162
11.57 -2.37 -1.37 48 126 164
11.57 -2.48 -1.37 45 123 161
11.57 -2.59 -1.37 48 126 164
11.31 -2.73 -1.18 52 130 168
11.31 -2.84 -1.18 53 131 169
11.31 -2.95 -1.18 54 130 166
11.31 -3.06 -1.18 52 128 164
11.31 -3.16 -1.18 51 127 161
11.31 -3.27 -1.18 52 126 163
11.06 -3.40 -0.99 59 126 168
11.06 -3.51 -0.99 58 125 168
11.06 -3.62 -0.99 53 125 163
11.06 -3.73 -0.99 52 125 166
10.77 -3.86 -0.78 51 125 170
10.77 -3.97 -0.78 52 124 174
10.77 -4.07 -0.78 52 122 171
10.52 -4.20 -0.59 49 122 163
10.52 -4.31 -0.59 54 129 171
10.52 -4.41 -0.59 48 124 173
10.52 -4.52 -0.59 52 125 178
10.52 -4.63 -0.59 62 127 181
10.26 -4.75 -0.41 76 132 181
10.26 -4.86 -0.41 92 136 173
10.26 -4.97 -0.41 95 127 150
10.26 -5.07 -0.41 94 118 122
10.26 -5.18 -0.41 94 110 107
11.00 20.43 -1.09 70 71 63
11.00 20.32 -1.09 69 70 62
11.00 20.21 -1.09 59 59 51
11.00 20.10 -1.09 85 85 77
11.51 20.26 -1.46 147 144 139
11.51 20.16 -1.46 174 171 166
11.51 20.05 -1.46 154 151 146
11.26 19.80 -1.27 148 145 140
11.26 19.69 -1.27 160 157 150
11.26 19.58 -1.27 151 151 143
11.26 19.47 -1.27 153 153 145
11.26 19.36 -1.27 156 156 148
11.26 19.25 -1.27 154 154 146
11.26 19.14 -1.27 153 153 145
11.26 19.03 -1.27 153 153 145
11.26 18.92 -1.27 154 153 148
11.26 18.82 -1.27 154 153 148
11.26 18.71 -1.27 154 153 148
11.26 18.60 -1.27 153 152 147
11.26 18.49 -1.27 154 154 146
11.26 18.38 -1.27 153 153 145
11.26 18.27 -1.27 151 152 144
11.51 18.29 -1.46 151 152 144
11.51 18.18 -1.46 152 153 145
11.51 18.07 -1.46 153 154 146
11.51 17.96 -1.46 153 154 146
11.51 17.85 -1.46 154 155 147
11.51 17.74 -1.46 154 155 147
11.51 17.63 -1.46 154 155 147
11.51 17.52 -1.46 155 155 147
11.51 17.41 -1.46 155 155 147
11.51 17.30 -1.46 155 155 147
11.51 17.19 -1.46 155 155 147
11.51 17.08 -1.46 159 156 149
11.51 16.97 -1.46 158 158 150
11.26 16.74 -1.27 158 158 150
11.26 16.63 -1.27 158 158 150
11.26 16.52 -1.27 158 158 150
11.26 16.41 -1.27 158 158 148
11.26 16.30 -1.27 158 158 148
11.26 16.19 -1.27 157 159 148
11.26 16.08 -1.27 157 159 148
11.26 15.97 -1.27 158 159 151
11.51 15.98 -1.46 158 159 151
11.51 15.87 -1.46 158 159 153
11.51 15.76 -1.46 158 159 153
11.51 15.65 -1.46 158 159 154
11.26 15.43 -1.27 158 159 154
11.26 15.32 -1.27 158 158 156
11.26 15.21 -1.27 159 160 155
11.26 15.10 -1.27 158 161 152
11.26 14.99 -1.27 158 161 150
11.26 14.88 -1.27 159 161 150
11.26 14.77 -1.27 160 162 151
11.26 14.66 -1.27 160 162 151
11.26 14.55 -1.27 161 163 152
11.26 14.44 -1.27 161 163 152
11.26 14.33 -1.27 163 164 156
11.26 14.22 -1.27 162 163 155
11.26 14.11 -1.27 161 164 157
11.26 14.00 -1.27 160 163 156
11.26 13.89 -1.27 160 162 157
11.26 13.79 -1.27 160 162 157
11.26 13.68 -1.27 158 163 159
11.26 13.57 -1.27 158 163 157
11.26 13.46 -1.27 164 167 160
11.26 13.35 -1.27 162 165 156
11.26 13.24 -1.27 159 164 157
11.26 13.13 -1.27 159 164 157
11.26 13.02 -1.27 159 164 157
11.26 12.91 -1.27 159 164 157
11.26 12.80 -1.27 160 166 156
11.51 12.79 -1.46 162 168 158
11.51 12.68 -1.46 165 172 164
-3.78 6.63 9.86 165 175 167
-3.63 6.60 9.75 167 179 175
-3.63 6.53 9.75 165 181 181
-3.78 6.39 9.86 158 182 184
-3.78 6.32 9.86 151 178 187
-3.78 6.24 9.86 139 171 182
-3.78 6.16 9.86 129 164 194
-3.78 6.08 9.86 78 120 196
-3.78 6.01 9.86 50 97 179
-3.89 5.89 9.94 34 83 175
-3.89 5.66 9.94 17 75 185
-3.89 5.58 9.94 19 78 194
-3.89 5.50 9.94 25 82 198
-3.89 5.43 9.94 25 82 198
-4.03 5.30 10.05 24 79 195
-4.03 5.22 10.05 22 78 189
-4.03 5.15 10.05 22 78 187
-4.03 5.07 10.05 22 79 186
-4.03 4.99 10.05 20 77 182
-4.03 4.92 10.05 16 75 179
-4.03 4.84 10.05 11 74 177
-4.03 4.76 10.05 10 75 179
-4.03 4.69 10.05 4 68 178
-4.03 4.61 10.05 9 73 181
-4.03 4.53 10.05 5 69 169
-4.03 4.46 10.05 8 71 166
-4.03 4.38 10.05 18 77 171
-4.03 4.30 10.05 42 97 179
-4.03 4.23 10.05 62 114 172
-4.03 4.15 10.05 89 127 164
-3.89 4.12 9.94 103 133 161
-3.89 4.04 9.94 120 141 158
-3.89 3.97 9.94 130 147 157
-3.89 3.89 9.94 142 152 162
-3.89 3.81 9.94 151 160 167
-3.78 3.77 9.86 155 165 166
-3.78 3.69 9.86 158 169 165
-3.78 3.62 9.86 162 171 168
11.26 7.66 -1.27 164 173 168
11.00 7.48 -1.09 165 174 169
11.00 7.37 -1.09 165 174 169
11.00 7.26 -1.09 166 172 168
11.00 7.15 -1.09 166 172 168
11.00 7.04 -1.09 167 173 169
11.00 6.93 -1.09 168 174 170
11.00 6.82 -1.09 169 175 173
11.00 6.72 -1.09 170 176 174
11.26 6.68 -1.27 165 174 171
11.26 6.57 -1.27 165 174 171
11.00 6.39 -1.09 165 174 171
11.00 6.28 -1.09 165 176 172
11.00 6.17 -1.09 166 177 173
11.26 6.13 -1.27 166 177 173
11.26 6.02 -1.27 166 177 173
11.26 5.91 -1.27 166 177 173
11.26 5.80 -1.27 167 178 174
11.51 5.76 -1.46 169 180 176
11.51 5.65 -1.46 169 180 176
11.51 5.54 -1.46 167 179 175
11.51 5.43 -1.46 166 178 174
11.51 5.32 -1.46 167 179 175
11.51 5.21 -1.46 168 179 175
11.51 5.10 -1.46 168 179 175
11.79 5.06 -1.67 169 178 175
11.79 4.95 -1.67 169 178 175
11.79 4.84 -1.67 169 178 175
11.79 4.73 -1.67 169 178 175
11.79 4.62 -1.67 170 179 176
12.08 4.57 -1.88 169 180 176
11.26 4.27 -1.27 170 181 177
12.61 4.47 -2.28 172 183 179
12.61 4.36 -2.28 171 182 178
12.61 4.25 -2.28 171 182 178
12.61 4.13 -2.28 171 182 178
12.90 4.08 -2.49 171 182 178
12.90 3.97 -2.49 170 181 177
12.90 3.86 -2.49 169 180 176
12.90 3.74 -2.49 168 179 175
12.90 3.63 -2.49 169 180 176
12.90 3.52 -2.49 170 181 177
12.90 3.40 -2.49 169 180 176
12.61 3.23 -2.28 170 179 176
12.61 3.12 -2.28 170 179 176
12.61 3.01 -2.28 170 179 174
12.61 2.90 -2.28 171 180 175
12.61 2.79 -2.28 174 183 180
12.61 2.67 -2.28 173 182 179
12.61 2.56 -2.28 172 181 178
12.90 2.50 -2.49 171 180 177
12.90 2.39 -2.49 169 179 178
12.90 2.28 -2.49 169 179 178
12.90 2.16 -2.49 170 180 181
12.90 2.05 -2.49 174 180 176
12.90 1.94 -2.49 182 180 167
12.90 1.82 -2.49 189 183 167
12.90 1.71 -2.49 193 190 173
12.90 1.60 -2.49 198 196 183
12.90 1.49 -2.49 196 196 184
12.61 1.33 -2.28 172 177 170
12.61 1.21 -2.28 160 169 164
12.61 1.10 -2.28 142 153 149
12.61 0.99 -2.28 124 136 136
12.61 0.88 -2.28 105 119 119
12.61 0.76 -2.28 82 96 97
12.61 0.65 -2.28 67 83 83
12.61 0.54 -2.28 63 79 79
12.61 0.43 -2.28 59 75 75
12.61 0.32 -2.28 62 77 80
12.61 0.20 -2.28 79 93 102
12.61 0.09 -2.28 75 94 108
12.33 -0.06 -2.07 73 101 122
12.33 -0.17 -2.07 69 109 135
12.33 -0.28 -2.07 63 113 146
12.33 -0.40 -2.07 59 119 156
12.33 -0.51 -2.07 55 123 162
12.08 -0.65 -1.88 50 122 162
12.08 -0.76 -1.88 49 123 160
12.08 -0.87 -1.88 50 124 159
12.08 -0.99 -1.88 53 126 159
12.08 -1.10 -1.88 53 126 158
12.08 -1.21 -1.88 52 125 157
11.79 -1.35 -1.67 51 124 156
11.79 -1.46 -1.67 48 122 159
11.79 -1.57 -1.67 52 119 164
11.79 -1.68 -1.67 55 118 169
11.79 -1.79 -1.67 53 119 171
11.79 -1.90 -1.67 52 118 170
11.51 -2.04 -1.46 47 117 169
11.51 -2.15 -1.46 49 119 171
11.51 -2.26 -1.46 52 123 177
11.51 -2.37 -1.46 55 126 180
11.51 -2.48 -1.46 56 127 181
11.51 -2.59 -1.46 57 126 181
11.26 -2.73 -1.27 57 126 181
11.26 -2.84 -1.27 59 124 180
11.26 -2.95 -1.27 57 122 178
11.26 -3.06 -1.27 59 121 178
11.26 -3.16 -1.27 63 124 181
11.26 -3.27 -1.27 65 126 181
11.00 -3.40 -1.09 58 124 172
11.00 -3.51 -1.09 56 125 167
11.00 -3.62 -1.09 52 126 165
11.00 -3.73 -1.09 50 125 164
10.72 -3.86 -0.88 49 124 166
10.72 -3.97 -0.88 49 122 167
10.72 -4.07 -0.88 48 119 165
10.46 -4.20 -0.69 50 123 164
10.46 -4.31 -0.69 52 127 169
10.46 -4.41 -0.69 47 125 173
10.46 -4.52 -0.69 52 125 178
10.46 -4.63 -0.69 65 131 183
10.21 -4.75 -0.50 75 131 178
10.21 -4.86 -0.50 88 134 167
10.21 -4.97 -0.50 89 126 145
10.95 20.43 -1.18 73 74 66
10.95 20.32 -1.18 58 59 51
10.95 20.21 -1.18 93 93 85
10.95 20.10 -1.18 142 142 134
11.20 20.13 -1.37 163 160 153
11.20 20.02 -1.37 155 152 145
11.20 19.91 -1.37 139 136 129
11.20 19.80 -1.37 155 152 145
11.20 19.69 -1.37 158 155 148
11.20 19.58 -1.37 156 156 148
10.95 19.34 -1.18 149 149 141
10.95 19.23 -1.18 155 155 147
11.20 19.25 -1.37 154 154 146
11.20 19.14 -1.37 154 153 148
11.20 19.03 -1.37 154 153 148
10.95 18.79 -1.18 153 154 148
10.95 18.68 -1.18 153 154 148
11.20 18.71 -1.37 153 154 148
11.20 18.60 -1.37 152 153 147
11.20 18.49 -1.37 155 155 145
11.20 18.38 -1.37 154 154 144
11.20 18.27 -1.37 153 153 143
11.20 18.16 -1.37 153 153 143
11.20 18.05 -1.37 153 153 145
11.20 17.94 -1.37 154 154 146
11.20 17.83 -1.37 154 154 146
11.20 17.72 -1.37 154 154 146
11.20 17.61 -1.37 156 156 148
11.20 17.50 -1.37 156 156 148
11.20 17.39 -1.37 156 156 148
11.20 17.28 -1.37 156 156 148
11.20 17.18 -1.37 156 156 148
11.20 17.07 -1.37 156 156 148
11.20 16.96 -1.37 157 157 149
11.20 16.85 -1.37 155 156 148
11.20 16.74 -1.37 156 157 149
11.20 16.63 -1.37 156 157 149
11.20 16.52 -1.37 156 157 149
11.20 16.41 -1.37 157 159 148
11.20 16.30 -1.37 157 159 148
11.20 16.19 -1.37 157 159 148
11.20 16.08 -1.37 158 160 149
11.20 15.97 -1.37 159 160 152
11.20 15.86 -1.37 159 160 152
11.20 15.75 -1.37 159 160 154
11.20 15.64 -1.37 159 160 154
11.20 15.53 -1.37 159 160 155
11.20 15.43 -1.37 159 160 155
11.20 15.32 -1.37 159 159 157
11.20 15.21 -1.37 160 161 156
11.20 15.10 -1.37 158 159 151
11.20 14.99 -1.37 159 161 150
11.20 14.88 -1.37 159 161 150
11.20 14.77 -1.37 160 162 151
